# .PCD v.7 - Point Cloud Data file format
FIELDS x y z rgb imX imY
SIZE 4 4 4 4 4 4
TYPE F F F F F F
COUNT 1 1 1 1 1 1
WIDTH 841
HEIGHT 1
VIEWPOINT 0 0 0 1 0 0 0
POINTS 841
DATA ascii
0.078160092 0.71899998 -0.017649053 9.7468001e-39 382 254
0.07942073 0.71899998 -0.017649053 9.9311914e-39 383 254
0.086767212 0.69700003 -0.017109027 8.1985545e-39 391 254
0.087989278 0.69700003 -0.017109027 7.5535382e-39 392 254
0.089211352 0.69700003 -0.017109027 8.2911047e-39 393 254
0.090563171 0.69800001 -0.017133573 1.0225042e-38 394 254
-0.10985684 0.704 -0.018515198 1.4566184e-38 231 255
-0.10815962 0.70099998 -0.018436298 1.2166931e-38 232 255
-0.106778 0.69999999 -0.018409999 6.2664106e-39 233 255
-0.10555066 0.69999999 -0.018409999 7.7375778e-39 234 255
-0.10432333 0.69999999 -0.018409999 8.1063589e-39 235 255
-0.10309599 0.69999999 -0.018409999 8.0141604e-39 236 255
-0.10376051 0.713 -0.018751899 7.7379337e-39 237 255
-0.10251039 0.713 -0.018751899 8.5622938e-39 238 255
-0.10168632 0.71600002 -0.0188308 7.7328918e-39 239 255
-0.10043094 0.71600002 -0.0188308 9.1053964e-39 240 255
-0.09917555 0.71600002 -0.0188308 8.9210037e-39 241 255
-0.09805692 0.71700001 -0.018857099 8.6444211e-39 242 255
-0.096799776 0.71700001 -0.018857099 8.5522254e-39 243 255
-0.095542639 0.71700001 -0.018857099 8.4589522e-39 244 255
-0.096126497 0.73100001 -0.019225299 8.2745595e-39 245 255
-0.094844811 0.73100001 -0.019225299 8.0890935e-39 246 255
-0.093819112 0.73299998 -0.019277899 7.9968978e-39 247 255
-0.092912637 0.736 -0.019356798 7.7213914e-39 248 255
-0.092244618 0.741 -0.019488299 7.628837e-39 249 255
-0.091313601 0.74400002 -0.019567199 7.8117863e-39 250 255
-0.090009123 0.74400002 -0.019567199 7.7195907e-39 251 255
-0.088943094 0.74599999 -0.019619798 7.9947356e-39 252 255
-0.087752573 0.74699998 -0.019646099 7.8099857e-39 253 255
-0.08667428 0.74900001 -0.0196987 7.6266706e-39 254 255
-0.085474998 0.75 -0.019724999 7.6266706e-39 255 255
-0.084384419 0.75199997 -0.0197776 7.4429968e-39 256 255
-0.083397292 0.755 -0.0198565 7.2589657e-39 257 255
-0.082508355 0.759 -0.0199617 7.2596845e-39 258 255
-0.081177577 0.759 -0.0199617 7.2596845e-39 259 255
-0.080057196 0.76099998 -0.020014299 7.0760163e-39 260 255
-0.078722909 0.76099998 -0.020014299 7.0760163e-39 261 255
-0.077490322 0.76200002 -0.0200406 7.1696539e-39 262 255
-0.076354161 0.764 -0.020093199 7.4465995e-39 263 255
-0.075210981 0.76599997 -0.020145798 6.8991781e-39 264 255
-0.073964365 0.76700002 -0.020172099 7.2683207e-39 265 255
-0.072619557 0.76700002 -0.020172099 6.9031283e-39 266 255
-0.071460605 0.76899999 -0.0202247 6.9031283e-39 267 255
-0.070294641 0.77100003 -0.020277301 7.3594374e-39 268 255
-0.069121659 0.773 -0.0203299 7.2672403e-39 269 255
-0.067766331 0.773 -0.0203299 7.8161051e-39 270 255
-0.066496916 0.77399999 -0.020356199 7.8161051e-39 271 255
-0.065139838 0.77399999 -0.020356199 7.9994146e-39 272 255
-0.063947573 0.77600002 -0.0204088 7.9072189e-39 273 255
-0.062748291 0.778 -0.020461399 7.9065001e-39 274 255
-0.061541997 0.77999997 -0.020513998 7.9065001e-39 275 255
-0.060174398 0.77999997 -0.020513998 7.9068532e-39 276 255
-0.058882192 0.78100002 -0.020540299 8.18308e-39 277 255
-0.057512842 0.78100002 -0.020540299 7.7249759e-39 278 255
-0.056143485 0.78100002 -0.020540299 7.7249759e-39 279 255
-0.054914396 0.78299999 -0.0205929 7.7242598e-39 280 255
-0.053541537 0.78299999 -0.0205929 7.5398686e-39 281 255
-0.052301936 0.78500003 -0.020645501 7.997251e-39 282 255
-0.050925564 0.78500003 -0.020645501 8.0894466e-39 283 255
-0.049675439 0.787 -0.0206981 8.0898025e-39 284 255
-0.048295565 0.787 -0.0206981 8.0898025e-39 285 255
-0.046915691 0.787 -0.0206981 7.9993992e-39 286 255
-0.045535821 0.787 -0.0206981 7.9993992e-39 287 255
-0.044155944 0.787 -0.0206981 7.5402161e-39 288 255
-0.042884778 0.78899997 -0.0207507 7.4480204e-39 289 255
-0.041501399 0.78899997 -0.0207507 6.9888458e-39 290 255
-0.040118016 0.78899997 -0.0207507 6.9888458e-39 291 255
-0.038734637 0.78899997 -0.0207507 7.2643523e-39 292 255
-0.037351258 0.78899997 -0.0207507 7.2643523e-39 293 255
-0.035967879 0.78899997 -0.0207507 7.814289e-39 294 255
-0.034628332 0.79000002 -0.020777 7.6298964e-39 295 255
-0.03332736 0.792 -0.020829599 7.5362728e-39 296 255
-0.031858064 0.79000002 -0.020777 7.1674889e-39 297 255
-0.030472934 0.79000002 -0.020777 6.796561e-39 298 255
-0.029161438 0.792 -0.020829599 7.9947455e-39 299 255
-0.027842935 0.79400003 -0.0208822 8.6523272e-39 300 255
-0.026450787 0.79400003 -0.0208822 1.1694424e-38 301 255
-0.02505864 0.79400003 -0.0208822 1.3075534e-38 302 255
-0.023666494 0.79400003 -0.0208822 1.1784795e-38 303 255
-0.022274347 0.79400003 -0.0208822 1.5470813e-38 304 255
-0.0208822 0.79400003 -0.0208822 1.9435225e-38 305 255
-0.019490054 0.79400003 -0.0208822 2.0813127e-38 306 255
-0.018097907 0.79400003 -0.0208822 1.970678e-38 307 255
-0.016705759 0.79400003 -0.0208822 1.4644649e-38 308 255
-0.015313613 0.79400003 -0.0208822 1.1878779e-38 309 255
-0.013921468 0.79400003 -0.0208822 1.2520558e-38 310 255
-0.01252932 0.79400003 -0.0208822 1.0492254e-38 311 255
-0.011137174 0.79400003 -0.0208822 6.7115498e-39 312 255
-0.0097450269 0.79400003 -0.0208822 6.8959411e-39 313 255
-0.0083528794 0.79400003 -0.0208822 5.9772316e-39 314 255
-0.0069607338 0.79400003 -0.0208822 6.345654e-39 315 255
-0.0055685868 0.79400003 -0.0208822 6.4385531e-39 316 255
-0.0041764397 0.79400003 -0.0208822 6.4385531e-39 317 255
-0.0027842934 0.79400003 -0.0208822 7.3554731e-39 318 255
-0.0013921467 0.79400003 -0.0208822 7.0788876e-39 319 255
0 0.79400003 -0.0208822 7.5344736e-39 320 255
0.0013921467 0.79400003 -0.0208822 7.5344736e-39 321 255
0.0027842934 0.79400003 -0.0208822 8.0858467e-39 322 255
0.0041764397 0.79400003 -0.0208822 8.178401e-39 323 255
0.0055545596 0.792 -0.020829599 8.1783982e-39 324 255
0.0069431998 0.792 -0.020829599 8.1783982e-39 325 255
0.0083318399 0.792 -0.020829599 7.995802e-39 326 255
0.0097204801 0.792 -0.020829599 7.995802e-39 327 255
0.011081067 0.79000002 -0.020777 7.995802e-39 328 255
0.0124662 0.79000002 -0.020777 7.9036064e-39 329 255
0.013851333 0.79000002 -0.020777 7.9028903e-39 330 255
0.015236467 0.79000002 -0.020777 7.9028903e-39 331 255
0.016621601 0.79000002 -0.020777 8.0858467e-39 332 255
0.017983939 0.78899997 -0.0207507 8.0858467e-39 333 255
0.019367319 0.78899997 -0.0207507 8.0851306e-39 334 255
0.0207507 0.78899997 -0.0207507 8.0851306e-39 335 255
0.022077972 0.787 -0.0206981 8.1762458e-39 336 255
0.023457846 0.787 -0.0206981 8.1762458e-39 337 255
0.024837719 0.787 -0.0206981 8.1762458e-39 338 255
0.026217593 0.787 -0.0206981 8.2684429e-39 339 255
0.027527334 0.78500003 -0.020645501 8.2684429e-39 340 255
0.0289037 0.78500003 -0.020645501 8.1762458e-39 341 255
0.03020292 0.78299999 -0.0205929 8.2684457e-39 342 255
0.031575777 0.78299999 -0.0205929 8.2684457e-39 343 255
0.032948639 0.78299999 -0.0205929 8.1758927e-39 344 255
0.034233831 0.78100002 -0.020540299 8.3606441e-39 345 255
0.035603184 0.78100002 -0.020540299 8.7258295e-39 346 255
0.036972538 0.78100002 -0.020540299 8.8180265e-39 347 255
0.038341891 0.78100002 -0.020540299 8.5428704e-39 348 255
0.039660398 0.77999997 -0.020513998 8.6350674e-39 349 255
0.040922798 0.778 -0.020461399 8.4524712e-39 350 255
0.042286891 0.778 -0.020461399 8.4524712e-39 351 255
0.043538772 0.77600002 -0.0204088 8.4531873e-39 352 255
0.044783637 0.77399999 -0.020356199 8.7301329e-39 353 255
0.046140719 0.77399999 -0.020356199 9.0081617e-39 354 255
0.047436431 0.773 -0.0203299 9.7457267e-39 355 255
0.048791755 0.773 -0.0203299 9.1954214e-39 356 255
0.050017338 0.77100003 -0.020277301 8.0890725e-39 357 255
0.051235907 0.76899999 -0.0202247 6.8051678e-39 358 255
0.052584216 0.76899999 -0.0202247 6.6211366e-39 359 255
0.053792264 0.76700002 -0.020172099 7.4516204e-39 360 255
0.055065181 0.76599997 -0.020145798 7.9122384e-39 361 255
0.056260962 0.764 -0.020093199 8.5529289e-39 362 255
0.057449725 0.76200002 -0.0200406 8.4603745e-39 363 255
0.058785759 0.76200002 -0.0200406 8.1830702e-39 364 255
0.059885096 0.759 -0.0199617 7.814289e-39 365 255
0.061054576 0.75700003 -0.019909101 8.4560613e-39 366 255
0.062217031 0.755 -0.0198565 8.5482569e-39 367 255
0.063288316 0.75199997 -0.0197776 9.0059981e-39 368 255
0.064349085 0.74900001 -0.0196987 8.8212467e-39 369 255
0.065486997 0.74699998 -0.019646099 9.0045646e-39 370 255
0.066707321 0.74599999 -0.019619798 9.2811529e-39 371 255
0.067832954 0.74400002 -0.019567199 8.8266389e-39 372 255
0.068858653 0.741 -0.019488299 9.4720069e-39 373 255
0.069968522 0.73900002 -0.0194357 8.0959038e-39 374 255
0.070974931 0.736 -0.019356798 7.5430887e-39 375 255
0.071774453 0.73100001 -0.019225299 7.266869e-39 376 255
0.072956197 0.73000002 -0.019199001 7.266869e-39 377 255
0.074032739 0.72799999 -0.0191464 8.2749127e-39 378 255
0.074998833 0.72500002 -0.0190675 8.3671083e-39 379 255
0.0759544 0.722 -0.0189886 9.3765883e-39 380 255
0.076899439 0.71899998 -0.018909698 9.5609795e-39 381 255
0.077942684 0.71700001 -0.018857099 9.7457295e-39 382 255
0.079199821 0.71700001 -0.018857099 9.8379266e-39 383 255
0.086767212 0.69700003 -0.018331099 7.6435829e-39 391 255
0.087863036 0.69599998 -0.018304799 6.1723974e-39 392 255
0.089083351 0.69599998 -0.018304799 8.8464294e-39 393 255
0.090433426 0.69700003 -0.018331099 1.1238105e-38 394 255
-0.10815962 0.70099998 -0.019665385 1.3364401e-38 232 256
-0.106778 0.69999999 -0.019637333 6.541924e-39 233 256
-0.10555066 0.69999999 -0.019637333 7.2798394e-39 234 256
-0.10432333 0.69999999 -0.019637333 7.8330132e-39 235 256
-0.10294171 0.71600002 -0.020086186 8.4722519e-39 238 256
-0.10168632 0.71600002 -0.020086186 7.9190781e-39 239 256
-0.10043094 0.71600002 -0.020086186 8.7402068e-39 240 256
-0.09917555 0.71600002 -0.020086186 8.2792287e-39 241 256
-0.097920164 0.71600002 -0.020086186 8.6451371e-39 242 256
-0.096664771 0.71600002 -0.020086186 8.2767147e-39 243 256
-0.095409386 0.71600002 -0.020086186 8.366758e-39 244 256
-0.096126497 0.73100001 -0.020506985 8.1823667e-39 245 256
-0.094844811 0.73100001 -0.020506985 8.2724085e-39 246 256
-0.093819112 0.73299998 -0.020563092 8.0880159e-39 247 256
-0.092660166 0.73400003 -0.020591147 7.9047036e-39 248 256
-0.091622181 0.736 -0.020647252 7.812508e-39 249 256
-0.091313601 0.74400002 -0.02087168 7.8117863e-39 250 256
-0.090009123 0.74400002 -0.02087168 7.8117863e-39 251 256
-0.088943094 0.74599999 -0.020927785 7.9032561e-39 252 256
-0.087752573 0.74699998 -0.020955838 7.719225e-39 253 256
-0.08667428 0.74900001 -0.021011947 7.4444331e-39 254 256
-0.085474998 0.75 -0.02104 7.4444331e-39 255 256
-0.084384419 0.75199997 -0.021096105 7.3518788e-39 256 256
-0.083286837 0.75400001 -0.021152213 7.1674861e-39 257 256
-0.082290947 0.75700003 -0.021236373 7.2596845e-39 258 256
-0.081177577 0.759 -0.02129248 7.2596845e-39 259 256
-0.080057196 0.76099998 -0.021348584 7.0760191e-39 260 256
-0.078722909 0.76099998 -0.021348584 7.0760191e-39 261 256
-0.077490322 0.76200002 -0.02137664 6.9863416e-39 262 256
-0.076154284 0.76200002 -0.02137664 7.354764e-39 263 256
-0.075210981 0.76599997 -0.021488851 6.8080615e-39 264 256
-0.073867925 0.76599997 -0.021488851 7.176844e-39 265 256
-0.072619557 0.76700002 -0.021516906 7.0864434e-39 266 256
-0.071460605 0.76899999 -0.021573013 6.8102166e-39 267 256
-0.070294641 0.77100003 -0.021629119 7.7246256e-39 268 256
-0.069121659 0.773 -0.021685226 7.6324299e-39 269 256
-0.067766331 0.773 -0.021685226 7.9072189e-39 270 256
-0.066496916 0.77399999 -0.021713279 7.9072189e-39 271 256
-0.065139838 0.77399999 -0.021713279 7.9990516e-39 272 256
-0.063947573 0.77600002 -0.021769386 7.9990516e-39 273 256
-0.062748291 0.778 -0.021825492 7.9997677e-39 274 256
-0.061384194 0.778 -0.021825492 7.9997677e-39 275 256
-0.060174398 0.77999997 -0.021881599 7.8164526e-39 276 256
-0.058806792 0.77999997 -0.021881599 8.0008425e-39 277 256
-0.057439197 0.77999997 -0.021881599 7.8171715e-39 278 256
-0.056143485 0.78100002 -0.021909652 7.7249759e-39 279 256
-0.054774135 0.78100002 -0.021909652 8.0901655e-39 280 256
-0.053404782 0.78100002 -0.021909652 8.0901655e-39 281 256
-0.052168678 0.78299999 -0.021965759 8.273112e-39 282 256
-0.05079582 0.78299999 -0.021965759 8.5500576e-39 283 256
-0.0495492 0.78500003 -0.022021867 8.5504079e-39 284 256
-0.048172832 0.78500003 -0.022021867 8.6426036e-39 285 256
-0.046796467 0.78500003 -0.022021867 8.7340733e-39 286 256
-0.045535821 0.787 -0.022077972 8.826269e-39 287 256
-0.044155944 0.787 -0.022077972 8.4582095e-39 288 256
-0.042776071 0.787 -0.022077972 8.3660139e-39 289 256
-0.041396201 0.787 -0.022077972 7.8150051e-39 290 256
-0.040118016 0.78899997 -0.022134079 7.6306124e-39 291 256
-0.038734637 0.78899997 -0.022134079 7.9054043e-39 292 256
-0.037351258 0.78899997 -0.022134079 7.8132086e-39 293 256
-0.035967879 0.78899997 -0.022134079 8.2713127e-39 294 256
-0.034584496 0.78899997 -0.022134079 7.995086e-39 295 256
-0.033201117 0.78899997 -0.022134079 8.0858467e-39 296 256
-0.031817738 0.78899997 -0.022134079 8.2705967e-39 297 256
-0.030434359 0.78899997 -0.022134079 9.7407045e-39 298 256
-0.02905098 0.78899997 -0.022134079 1.4442683e-38 299 256
-0.027772799 0.792 -0.022218239 1.3814561e-38 300 256
-0.026450787 0.79400003 -0.022274347 1.4736157e-38 301 256
-0.024995519 0.792 -0.022218239 1.5383668e-38 302 256
-0.02360688 0.792 -0.022218239 1.4738298e-38 303 256
-0.022218239 0.792 -0.022218239 1.5283538e-38 304 256
-0.020829599 0.792 -0.022218239 1.4914755e-38 305 256
-0.01944096 0.792 -0.022218239 1.5281017e-38 306 256
-0.018052319 0.792 -0.022218239 1.7309321e-38 307 256
-0.01666368 0.792 -0.022218239 1.455318e-38 308 256
-0.01527504 0.792 -0.022218239 1.0312179e-38 309 256
-0.0138864 0.792 -0.022218239 9.0113679e-39 310 256
-0.012497759 0.792 -0.022218239 8.6422252e-39 311 256
-0.011109119 0.792 -0.022218239 6.0683286e-39 312 256
-0.0097204801 0.792 -0.022218239 6.4371111e-39 313 256
-0.0083528794 0.79400003 -0.022274347 6.2559639e-39 314 256
-0.0069607338 0.79400003 -0.022274347 6.7165819e-39 315 256
-0.0055685868 0.79400003 -0.022274347 6.9938652e-39 316 256
-0.00416592 0.792 -0.022218239 6.9938652e-39 317 256
-0.0027772798 0.792 -0.022218239 8.0018963e-39 318 256
-0.0013886399 0.792 -0.022218239 8.1862889e-39 319 256
0 0.792 -0.022218239 8.9191877e-39 320 256
0.0013886399 0.792 -0.022218239 8.4582095e-39 321 256
0.0027772798 0.792 -0.022218239 8.7301301e-39 322 256
0.0041554002 0.79000002 -0.022162134 8.7301301e-39 323 256
0.0055405335 0.79000002 -0.022162134 8.1783954e-39 324 256
0.0069256667 0.79000002 -0.022162134 8.1783954e-39 325 256
0.0083108004 0.79000002 -0.022162134 7.9028875e-39 326 256
0.0096959332 0.79000002 -0.022162134 7.9028875e-39 327 256
0.011067039 0.78899997 -0.022134079 7.9021687e-39 328 256
0.012450419 0.78899997 -0.022134079 7.9021687e-39 329 256
0.013833799 0.78899997 -0.022134079 7.9021715e-39 330 256
0.015217179 0.78899997 -0.022134079 7.9021715e-39 331 256
0.016600559 0.78899997 -0.022134079 7.8096185e-39 332 256
0.017983939 0.78899997 -0.022134079 7.8096185e-39 333 256
0.019318225 0.787 -0.022077972 7.9929336e-39 334 256
0.0206981 0.787 -0.022077972 7.9929336e-39 335 256
0.022077972 0.787 -0.022077972 7.7170698e-39 336 256
0.023398234 0.78500003 -0.022021867 7.8092654e-39 337 256
0.0247746 0.78500003 -0.022021867 7.7174257e-39 338 256
0.026150968 0.78500003 -0.022021867 7.8096213e-39 339 256
0.027457198 0.78299999 -0.021965759 7.8096213e-39 340 256
0.028830061 0.78299999 -0.021965759 7.8096213e-39 341 256
0.03020292 0.78299999 -0.021965759 7.9925776e-39 342 256
0.031575777 0.78299999 -0.021965759 7.9925776e-39 343 256
0.032864477 0.78100002 -0.021909652 8.0851334e-39 344 256
0.034233831 0.78100002 -0.021909652 8.0851334e-39 345 256
0.035603184 0.78100002 -0.021909652 8.2684457e-39 346 256
0.036925197 0.77999997 -0.021881599 8.1762486e-39 347 256
0.038292799 0.77999997 -0.021881599 8.2687988e-39 348 256
0.039558705 0.778 -0.021825492 8.2687988e-39 349 256
0.0408176 0.77600002 -0.021769386 8.268796e-39 350 256
0.042178184 0.77600002 -0.021769386 8.268796e-39 351 256
0.043426558 0.77399999 -0.021713279 8.3606385e-39 352 256
0.044783637 0.77399999 -0.021713279 8.3606385e-39 353 256
0.046081103 0.773 -0.021685226 8.2709624e-39 354 256
0.047313701 0.77100003 -0.021629119 9.0085274e-39 355 256
0.04866552 0.77100003 -0.021629119 9.1039447e-39 356 256
0.050017338 0.77100003 -0.021629119 9.2886946e-39 357 256
0.051235907 0.76899999 -0.021573013 7.4526896e-39 358 256
0.052447457 0.76700002 -0.021516906 6.8073202e-39 359 256
0.053722132 0.76599997 -0.021488851 6.9016836e-39 360 256
0.054921411 0.764 -0.021432746 7.1782705e-39 361 256
0.056260962 0.764 -0.021432746 7.9118755e-39 362 256
0.057449725 0.76200002 -0.02137664 7.7271255e-39 363 256
0.058708608 0.76099998 -0.021348584 7.5427356e-39 364 256
0.059885096 0.759 -0.02129248 7.1739545e-39 365 256
0.061054576 0.75700003 -0.021236373 7.8150079e-39 366 256
0.061969809 0.75199997 -0.021096105 7.9993992e-39 367 256
0.06312 0.75 -0.02104 8.4560613e-39 368 256
0.064349085 0.74900001 -0.021011947 8.2713099e-39 369 256
0.065486997 0.74699998 -0.020955838 8.9134479e-39 370 256
0.066528477 0.74400002 -0.02087168 9.3740674e-39 371 256
0.067832954 0.74400002 -0.02087168 9.1039475e-39 372 256
0.068858653 0.741 -0.020787518 9.1961431e-39 373 256
0.069968522 0.73900002 -0.020731414 7.7267653e-39 374 256
0.070974931 0.736 -0.020647252 7.3576227e-39 375 256
0.071774453 0.73100001 -0.020506985 6.9913639e-39 376 256
0.072956197 0.73000002 -0.020478934 6.9913639e-39 377 256
0.073931053 0.727 -0.020394772 8.2749099e-39 378 256
0.074791931 0.72299999 -0.020282559 8.3674642e-39 379 256
0.075638793 0.71899998 -0.020170346 9.3751464e-39 380 256
0.076685533 0.71700001 -0.020114239 9.7439289e-39 381 256
0.077942684 0.71700001 -0.020114239 9.7457267e-39 382 256
0.079199821 0.71700001 -0.020114239 1.0021955e-38 383 256
0.080456957 0.71700001 -0.020114239 9.7489665e-39 384 256
0.087610558 0.69400001 -0.019469013 6.5397408e-39 392 256
0.088827372 0.69400001 -0.019469013 1.0227565e-38 393 256
0.090433426 0.69700003 -0.019553173 1.1791995e-38 394 256
-0.10294171 0.71600002 -0.021341572 8.2907347e-39 238 257
-0.10168632 0.71600002 -0.021341572 7.8293964e-39 239 257
-0.10043094 0.71600002 -0.021341572 8.742355e-39 240 257
-0.09917555 0.71600002 -0.021341572 8.1891826e-39 241 257
-0.097920164 0.71600002 -0.021341572 8.5522198e-39 242 257
-0.096664771 0.71600002 -0.021341572 8.3678286e-39 243 257
-0.095409386 0.71600002 -0.021341572 8.2745595e-39 244 257
-0.094154 0.71600002 -0.021341572 8.1823639e-39 245 257
-0.093819112 0.73299998 -0.021848286 7.6291929e-39 247 257
-0.092533909 0.73299998 -0.021848286 7.628837e-39 248 257
-0.091373213 0.73400003 -0.021878093 7.5366414e-39 249 257
-0.090945393 0.741 -0.02208674 7.4444429e-39 250 257
-0.089767151 0.74199998 -0.022116546 7.4444429e-39 251 257
-0.088704646 0.74400002 -0.022176161 7.5362728e-39 252 257
-0.0876351 0.74599999 -0.022235774 7.4440772e-39 253 257
-0.086442836 0.74699998 -0.022265578 7.3525976e-39 254 257
-0.085361034 0.74900001 -0.022325192 7.3525976e-39 255 257
-0.08416 0.75 -0.022355 7.1685665e-39 256 257
-0.083286837 0.75400001 -0.022474226 7.0763695e-39 257 257
-0.082073532 0.755 -0.022504034 7.2596817e-39 258 257
-0.080963671 0.75700003 -0.022563647 7.1674861e-39 259 257
-0.079846799 0.759 -0.02262326 7.1685693e-39 260 257
-0.078722909 0.76099998 -0.022682872 7.3526004e-39 261 257
-0.077388622 0.76099998 -0.022682872 7.0788904e-39 262 257
-0.076154284 0.76200002 -0.02271268 7.4473142e-39 263 257
-0.075014614 0.764 -0.022772292 7.0832064e-39 264 257
-0.073867925 0.76599997 -0.022831906 7.3594346e-39 265 257
-0.072619557 0.76700002 -0.022861714 7.2690396e-39 266 257
-0.071460605 0.76899999 -0.022921326 6.9928128e-39 267 257
-0.070294641 0.77100003 -0.02298094 7.9075749e-39 268 257
-0.068942823 0.77100003 -0.02298094 7.9075749e-39 269 257
-0.067766331 0.773 -0.023040552 7.9075749e-39 270 257
-0.066411003 0.773 -0.023040552 7.9997705e-39 271 257
-0.065139838 0.77399999 -0.02307036 7.9997677e-39 272 257
-0.063782752 0.77399999 -0.02307036 7.9997677e-39 273 257
-0.062586986 0.77600002 -0.023129974 8.0004866e-39 274 257
-0.061226401 0.77600002 -0.023129974 7.8164554e-39 275 257
-0.0600201 0.778 -0.023189586 7.8164554e-39 276 257
-0.058806792 0.77999997 -0.023249198 7.8164554e-39 277 257
-0.057439197 0.77999997 -0.023249198 7.9075693e-39 278 257
-0.056071598 0.77999997 -0.023249198 7.9075693e-39 279 257
-0.054774135 0.78100002 -0.023279008 8.1819982e-39 280 257
-0.053404782 0.78100002 -0.023279008 8.1819982e-39 281 257
-0.052035429 0.78100002 -0.023279008 8.458578e-39 282 257
-0.05079582 0.78299999 -0.02333862 8.7351663e-39 283 257
-0.049422957 0.78299999 -0.02333862 8.9191877e-39 284 257
-0.048050098 0.78299999 -0.02333862 8.8269906e-39 285 257
-0.046796467 0.78500003 -0.023398234 8.8259186e-39 286 257
-0.045420099 0.78500003 -0.023398234 8.733723e-39 287 257
-0.044043735 0.78500003 -0.023398234 8.6411714e-39 288 257
-0.042776071 0.787 -0.023457846 8.5489758e-39 289 257
-0.041396201 0.787 -0.023457846 8.0897997e-39 290 257
-0.040016327 0.787 -0.023457846 7.8132114e-39 291 257
-0.03863645 0.787 -0.023457846 7.9958048e-39 292 257
-0.03725658 0.787 -0.023457846 7.9036092e-39 293 257
-0.035876706 0.787 -0.023457846 8.178401e-39 294 257
-0.034496833 0.787 -0.023457846 8.178401e-39 295 257
-0.033116959 0.787 -0.023457846 8.0876473e-39 296 257
-0.031737085 0.787 -0.023457846 8.9174094e-39 297 257
-0.03035721 0.787 -0.023457846 1.1405618e-38 298 257
-0.02897734 0.787 -0.023457846 1.6199789e-38 299 257
-0.027702667 0.79000002 -0.023547266 1.538368e-38 300 257
-0.02638416 0.792 -0.02360688 1.4185138e-38 301 257
-0.024932399 0.79000002 -0.023547266 1.418404e-38 302 257
-0.023547266 0.79000002 -0.023547266 1.4091844e-38 303 257
-0.022162134 0.79000002 -0.023547266 1.3161594e-38 304 257
-0.020777 0.79000002 -0.023547266 9.5659626e-39 305 257
-0.019391866 0.79000002 -0.023547266 9.5674115e-39 306 257
-0.018006733 0.79000002 -0.023547266 1.2794259e-38 307 257
-0.016621601 0.79000002 -0.023547266 1.2614571e-38 308 257
-0.015236467 0.79000002 -0.023547266 9.2033331e-39 309 257
-0.013851333 0.79000002 -0.023547266 6.2476836e-39 310 257
-0.0124662 0.79000002 -0.023547266 6.8930474e-39 311 257
-0.011081067 0.79000002 -0.023547266 6.438909e-39 312 257
-0.0096959332 0.79000002 -0.023547266 6.438909e-39 313 257
-0.0083108004 0.79000002 -0.023547266 6.0755187e-39 314 257
-0.0069256667 0.79000002 -0.023547266 6.8130837e-39 315 257
-0.0055405335 0.79000002 -0.023547266 7.4573559e-39 316 257
-0.0041554002 0.79000002 -0.023547266 7.2729632e-39 317 257
-0.0027702667 0.79000002 -0.023547266 8.0065598e-39 318 257
-0.0013851334 0.79000002 -0.023547266 8.6519292e-39 319 257
0 0.79000002 -0.023547266 1.0214224e-38 320 257
0.0013851334 0.79000002 -0.023547266 9.8454403e-39 321 257
0.0027702667 0.79000002 -0.023547266 9.5634584e-39 322 257
0.0041554002 0.79000002 -0.023547266 9.1946773e-39 323 257
0.0055335197 0.78899997 -0.023517458 8.9173702e-39 324 257
0.0069168997 0.78899997 -0.023517458 8.7329817e-39 325 257
0.0083002793 0.78899997 -0.023517458 8.9141458e-39 326 257
0.0096836593 0.78899997 -0.023517458 8.4535292e-39 327 257
0.011038986 0.787 -0.023457846 8.3595455e-39 328 257
0.01241886 0.787 -0.023457846 8.5439381e-39 329 257
0.013798732 0.787 -0.023457846 8.3606259e-39 330 257
0.015178605 0.787 -0.023457846 8.3606259e-39 331 257
0.01655848 0.787 -0.023457846 8.1765962e-39 332 257
0.017938353 0.787 -0.023457846 8.1765962e-39 333 257
0.019269135 0.78500003 -0.023398234 7.9932867e-39 334 257
0.020645501 0.78500003 -0.023398234 7.9932867e-39 335 257
0.022021867 0.78500003 -0.023398234 7.9929336e-39 336 257
0.023398234 0.78500003 -0.023398234 7.9929336e-39 337 257
0.024711479 0.78299999 -0.02333862 7.9929336e-39 338 257
0.026084339 0.78299999 -0.02333862 7.9929336e-39 339 257
0.027457198 0.78299999 -0.02333862 7.9929336e-39 340 257
0.028830061 0.78299999 -0.02333862 7.9929336e-39 341 257
0.03020292 0.78299999 -0.02333862 7.9929336e-39 342 257
0.031495128 0.78100002 -0.023279008 7.9929336e-39 343 257
0.032864477 0.78100002 -0.023279008 8.0851278e-39 344 257
0.034233831 0.78100002 -0.023279008 8.0851278e-39 345 257
0.035557598 0.77999997 -0.023249198 8.0854837e-39 346 257
0.036925197 0.77999997 -0.023249198 8.0854837e-39 347 257
0.038194612 0.778 -0.023189586 8.176599e-39 348 257
0.039457016 0.77600002 -0.023129974 8.176599e-39 349 257
0.0408176 0.77600002 -0.023129974 7.9929308e-39 350 257
0.042178184 0.77600002 -0.023129974 8.0851278e-39 351 257
0.043426558 0.77399999 -0.02307036 8.0851278e-39 352 257
0.044725779 0.773 -0.023040552 7.9929308e-39 353 257
0.046081103 0.773 -0.023040552 8.0858523e-39 354 257
0.047313701 0.77100003 -0.02298094 8.3624392e-39 355 257
0.048539277 0.76899999 -0.022921326 8.3667552e-39 356 257
0.04988759 0.76899999 -0.022921326 9.1043216e-39 357 257
0.051235907 0.76899999 -0.022921326 7.5452509e-39 358 257
0.052447457 0.76700002 -0.022861714 7.0846315e-39 359 257
0.053722132 0.76599997 -0.022831906 6.6283267e-39 360 257
0.054921411 0.764 -0.022772292 6.6283267e-39 361 257
0.056113683 0.76200002 -0.02271268 6.9938792e-39 362 257
0.057449725 0.76200002 -0.02271268 6.9016836e-39 363 257
0.058708608 0.76099998 -0.022682872 6.5336256e-39 364 257
0.059885096 0.759 -0.02262326 6.4414299e-39 365 257
0.060893264 0.755 -0.022504034 7.1746734e-39 366 257
0.061804999 0.75 -0.022355 7.266869e-39 367 257
0.063035838 0.74900001 -0.022325192 8.2734679e-39 368 257
0.06417726 0.74699998 -0.022265578 7.9046854e-39 369 257
0.065486997 0.74699998 -0.022265578 8.547185e-39 370 257
0.066528477 0.74400002 -0.022176161 9.0081617e-39 371 257
0.067650609 0.74199998 -0.022116546 8.7384033e-39 372 257
0.068672806 0.73900002 -0.022027127 8.5543708e-39 373 257
0.069873832 0.73799998 -0.021997318 7.2672249e-39 374 257
0.070782073 0.73400003 -0.021878093 6.8062482e-39 375 257
0.071676269 0.73000002 -0.021758866 7.0817617e-39 376 257
0.072756313 0.72799999 -0.021699252 7.2661529e-39 377 257
0.073524274 0.72299999 -0.021550218 8.7333671e-39 378 257
0.074688487 0.722 -0.021520413 8.8255627e-39 379 257
0.075638793 0.71899998 -0.021430992 9.3762197e-39 380 257
0.076685533 0.71700001 -0.021371379 9.5609697e-39 381 257
0.077942684 0.71700001 -0.021371379 9.7457267e-39 382 257
0.079199821 0.71700001 -0.021371379 1.0021955e-38 383 257
0.087610558 0.69400001 -0.020685827 8.7448731e-39 392 257
0.088827372 0.69400001 -0.020685827 1.2432698e-38 393 257
-0.10294171 0.71600002 -0.022596961 8.475849e-39 238 258
-0.10168632 0.71600002 -0.022596961 8.0145108e-39 239 258
-0.10043094 0.71600002 -0.022596961 8.469731e-39 240 258
-0.09917555 0.71600002 -0.022596961 7.4559392e-39 241 258
-0.097920164 0.71600002 -0.022596961 8.4607459e-39 242 258
-0.096664771 0.71600002 -0.022596961 8.0919633e-39 243 258
-0.093819112 0.73299998 -0.023133477 7.6299118e-39 247 258
-0.092533909 0.73299998 -0.023133477 7.5377162e-39 248 258
-0.091373213 0.73400003 -0.023165042 7.3533263e-39 249 258
-0.090945393 0.741 -0.023385961 7.2614866e-39 250 258
-0.089767151 0.74199998 -0.023417519 7.169291e-39 251 258
-0.088466182 0.74199998 -0.023417519 7.3526004e-39 252 258
-0.0876351 0.74599999 -0.023543758 7.3526004e-39 253 258
-0.086442836 0.74699998 -0.023575317 7.1692882e-39 254 258
-0.085361034 0.74900001 -0.02363844 7.1692882e-39 255 258
-0.08416 0.75 -0.023669999 7.1692854e-39 256 258
-0.08306592 0.75199997 -0.023733119 7.0770897e-39 257 258
-0.081964828 0.75400001 -0.02379624 7.1685665e-39 258 258
-0.080749765 0.755 -0.023827799 7.0763695e-39 259 258
-0.079636402 0.75700003 -0.02389092 7.1685665e-39 260 258
-0.078516021 0.759 -0.023954039 7.445152e-39 261 258
-0.077388622 0.76099998 -0.024017159 7.3554731e-39 262 258
-0.076054335 0.76099998 -0.024017159 7.5398658e-39 263 258
-0.074818239 0.76200002 -0.02404872 7.4491121e-39 264 258
-0.073675066 0.764 -0.024111839 7.6338621e-39 265 258
-0.072524875 0.76599997 -0.024174958 7.4509141e-39 266 258
-0.07127475 0.76700002 -0.024206521 7.4509141e-39 267 258
-0.070112288 0.76899999 -0.024269639 7.8164554e-39 268 258
-0.068942823 0.77100003 -0.02433276 7.7242598e-39 269 258
-0.067766331 0.773 -0.024395877 7.8164526e-39 270 258
-0.066411003 0.773 -0.024395877 8.0008425e-39 271 258
-0.065139838 0.77399999 -0.02442744 8.0930367e-39 272 258
-0.063782752 0.77399999 -0.02442744 8.0930367e-39 273 258
-0.062425677 0.77399999 -0.02442744 7.8164526e-39 274 258
-0.061226401 0.77600002 -0.024490559 7.8164526e-39 275 258
-0.0600201 0.778 -0.024553679 7.9075721e-39 276 258
-0.058656007 0.778 -0.024553679 7.9075721e-39 277 258
-0.057291918 0.778 -0.024553679 8.0905214e-39 278 258
-0.056071598 0.77999997 -0.024616797 8.182717e-39 279 258
-0.054703996 0.77999997 -0.024616797 8.3660265e-39 280 258
-0.053336397 0.77999997 -0.024616797 8.5507765e-39 281 258
-0.052035429 0.78100002 -0.024648361 8.4603745e-39 282 258
-0.050666075 0.78100002 -0.024648361 8.4603745e-39 283 258
-0.049296722 0.78100002 -0.024648361 8.6433224e-39 284 258
-0.047927368 0.78100002 -0.024648361 8.5511268e-39 285 258
-0.046677239 0.78299999 -0.024711479 8.9163164e-39 286 258
-0.045420099 0.78500003 -0.0247746 8.8241208e-39 287 258
-0.044043735 0.78500003 -0.0247746 8.5475381e-39 288 258
-0.042667367 0.78500003 -0.0247746 8.455341e-39 289 258
-0.041291002 0.78500003 -0.0247746 8.4539061e-39 290 258
-0.039914634 0.78500003 -0.0247746 8.1776794e-39 291 258
-0.03853827 0.78500003 -0.0247746 8.1776822e-39 292 258
-0.037161902 0.78500003 -0.0247746 8.1776822e-39 293 258
-0.035785533 0.78500003 -0.0247746 8.0858467e-39 294 258
-0.034409165 0.78500003 -0.0247746 8.0858467e-39 295 258
-0.033032801 0.78500003 -0.0247746 8.2709596e-39 296 258
-0.031656433 0.78500003 -0.0247746 8.5479066e-39 297 258
-0.030280067 0.78500003 -0.0247746 9.3762225e-39 298 258
-0.0289037 0.78500003 -0.0247746 1.0021592e-38 299 258
-0.027667599 0.78899997 -0.024900839 9.2861779e-39 300 258
-0.026284218 0.78899997 -0.024900839 7.7184921e-39 301 258
-0.024900839 0.78899997 -0.024900839 5.6988244e-39 302 258
-0.023517458 0.78899997 -0.024900839 5.8832157e-39 303 258
-0.022134079 0.78899997 -0.024900839 6.1569243e-39 304 258
-0.0207507 0.78899997 -0.024900839 5.6959532e-39 305 258
-0.019367319 0.78899997 -0.024900839 5.8839289e-39 306 258
-0.017983939 0.78899997 -0.024900839 6.5292913e-39 307 258
-0.016600559 0.78899997 -0.024900839 6.806967e-39 308 258
-0.015217179 0.78899997 -0.024900839 7.2679438e-39 309 258
-0.013833799 0.78899997 -0.024900839 6.3488658e-39 310 258
-0.012450419 0.78899997 -0.024900839 6.4410614e-39 311 258
-0.011067039 0.78899997 -0.024900839 6.3495818e-39 312 258
-0.0096836593 0.78899997 -0.024900839 6.3495818e-39 313 258
-0.0083002793 0.78899997 -0.024900839 6.5350451e-39 314 258
-0.0069168997 0.78899997 -0.024900839 7.2726101e-39 315 258
-0.0055335197 0.78899997 -0.024900839 7.7321477e-39 316 258
-0.0041501396 0.78899997 -0.024900839 7.3633638e-39 317 258
-0.0027667598 0.78899997 -0.024900839 7.9136509e-39 318 258
-0.0013833799 0.78899997 -0.024900839 8.1902392e-39 319 258
0 0.78899997 -0.024900839 8.8366806e-39 320 258
0.0013798733 0.787 -0.024837719 8.8366806e-39 321 258
0.0027597465 0.787 -0.024837719 1.0027667e-38 322 258
0.0041396199 0.787 -0.024837719 9.8429166e-39 323 258
0.005519493 0.787 -0.024837719 1.002515e-38 324 258
0.0068818335 0.78500003 -0.0247746 1.0393572e-38 325 258
0.0082582003 0.78500003 -0.0247746 1.0669813e-38 326 258
0.0096345674 0.78500003 -0.0247746 1.094604e-38 327 258
0.011010934 0.78500003 -0.0247746 1.0759507e-38 328 258
0.0123873 0.78500003 -0.0247746 9.9297453e-39 329 258
0.013763667 0.78500003 -0.0247746 9.3722527e-39 330 258
0.015140033 0.78500003 -0.0247746 8.7268833e-39 331 258
0.01647432 0.78299999 -0.024711479 7.9010855e-39 332 258
0.017847179 0.78299999 -0.024711479 7.8088898e-39 333 258
0.019220039 0.78299999 -0.024711479 7.9021715e-39 334 258
0.0205929 0.78299999 -0.024711479 7.9021715e-39 335 258
0.021965759 0.78299999 -0.024711479 7.9021715e-39 336 258
0.02333862 0.78299999 -0.024711479 7.9021715e-39 337 258
0.024648361 0.78100002 -0.024648361 8.0854837e-39 338 258
0.026017714 0.78100002 -0.024648361 8.0854837e-39 339 258
0.027387068 0.78100002 -0.024648361 8.268796e-39 340 258
0.028756421 0.78100002 -0.024648361 8.268796e-39 341 258
0.030125774 0.78100002 -0.024648361 8.0851278e-39 342 258
0.031454798 0.77999997 -0.024616797 8.0851278e-39 343 258
0.032822397 0.77999997 -0.024616797 8.0854837e-39 344 258
0.034189999 0.77999997 -0.024616797 8.0854837e-39 345 258
0.035466425 0.778 -0.024553679 8.0854809e-39 346 258
0.036830518 0.778 -0.024553679 8.0854809e-39 347 258
0.038096428 0.77600002 -0.024490559 8.0854837e-39 348 258
0.039457016 0.77600002 -0.024490559 7.9932867e-39 349 258
0.040712398 0.77399999 -0.02442744 8.0854837e-39 350 258
0.042069476 0.77399999 -0.02442744 8.0854837e-39 351 258
0.043370452 0.773 -0.024395877 7.9932867e-39 352 258
0.044725779 0.773 -0.024395877 7.9932867e-39 353 258
0.045961879 0.77100003 -0.02433276 7.8096213e-39 354 258
0.047190964 0.76899999 -0.024269639 8.0858495e-39 355 258
0.048539277 0.76899999 -0.024269639 7.9050539e-39 356 258
0.04988759 0.76899999 -0.024269639 8.4582277e-39 357 258
0.051102653 0.76700002 -0.024206521 7.8168058e-39 358 258
0.052447457 0.76700002 -0.024206521 8.0930339e-39 359 258
0.053581864 0.764 -0.024111839 6.4453774e-39 360 258
0.054777641 0.76200002 -0.02404872 6.2609861e-39 361 258
0.056040037 0.76099998 -0.024017159 6.3503077e-39 362 258
0.057374325 0.76099998 -0.024017159 6.1659164e-39 363 258
0.058554318 0.759 -0.023954039 5.9829699e-39 364 258
0.059727304 0.75700003 -0.02389092 5.8907743e-39 365 258
0.060651302 0.75199997 -0.023733119 6.8991655e-39 366 258
0.061804999 0.75 -0.023669999 6.9913611e-39 367 258
0.063035838 0.74900001 -0.02363844 7.9072035e-39 368 258
0.06417726 0.74699998 -0.023575317 7.6306152e-39 369 258
0.065399326 0.74599999 -0.023543758 8.4560613e-39 370 258
0.066349633 0.74199998 -0.023417519 8.9166793e-39 371 258
0.067559443 0.741 -0.023385961 8.5536449e-39 372 258
0.068579875 0.73799998 -0.023291279 8.1848624e-39 373 258
0.069684476 0.736 -0.023228159 6.806251e-39 374 258
0.070685625 0.73299998 -0.023133477 6.7140539e-39 375 258
0.071676269 0.73000002 -0.023038799 7.3565535e-39 376 258
0.072756313 0.72799999 -0.022975679 7.6327802e-39 377 258
0.073524274 0.72299999 -0.02281788 8.9159633e-39 378 258
0.074688487 0.722 -0.022786319 9.0081589e-39 379 258
0.075638793 0.71899998 -0.022691639 9.5595348e-39 380 258
0.076685533 0.71700001 -0.02262852 9.7439261e-39 381 258
0.077942684 0.71700001 -0.02262852 9.5634879e-39 382 258
0.079199821 0.71700001 -0.02262852 9.9319103e-39 383 258
-0.10168632 0.71600002 -0.023852346 7.8326503e-39 239 259
-0.10043094 0.71600002 -0.023852346 8.4697338e-39 240 259
-0.09917555 0.71600002 -0.023852346 7.3633876e-39 241 259
-0.097920164 0.71600002 -0.023852346 8.5522198e-39 242 259
-0.096664771 0.71600002 -0.023852346 8.2756315e-39 243 259
-0.092912637 0.736 -0.024518613 7.5369945e-39 248 259
-0.091622181 0.736 -0.024518613 7.5369945e-39 249 259
-0.090699933 0.73900002 -0.024618553 7.3536794e-39 250 259
-0.089646183 0.741 -0.024685178 7.2614838e-39 251 259
-0.088346958 0.741 -0.024685178 7.261481e-39 252 259
-0.087165214 0.74199998 -0.024718491 7.261481e-39 253 259
-0.086327121 0.74599999 -0.024851745 6.9859731e-39 254 259
-0.085361034 0.74900001 -0.024951685 6.9859731e-39 255 259
-0.08416 0.75 -0.024984999 6.8944963e-39 256 259
-0.08306592 0.75199997 -0.025051624 6.8023007e-39 257 259
-0.081964828 0.75400001 -0.025118252 7.0770925e-39 258 259
-0.080749765 0.755 -0.025151566 6.9848955e-39 259 259
-0.079636402 0.75700003 -0.025218192 7.0770925e-39 260 259
-0.078516021 0.759 -0.025284819 7.3536794e-39 261 259
-0.077388622 0.76099998 -0.025351444 7.4465939e-39 262 259
-0.076054335 0.76099998 -0.025351444 7.6313453e-39 263 259
-0.074720047 0.76099998 -0.025351444 7.7239039e-39 264 259
-0.073482201 0.76200002 -0.02538476 8.0004894e-39 265 259
-0.072335519 0.764 -0.025451386 7.9093713e-39 266 259
-0.07127475 0.76700002 -0.025551327 7.9093713e-39 267 259
-0.070112288 0.76899999 -0.025617953 8.0001236e-39 268 259
-0.068763971 0.76899999 -0.025617953 8.0001236e-39 269 259
-0.067591004 0.77100003 -0.02568458 8.0008397e-39 270 259
-0.066411003 0.773 -0.025751207 8.0930367e-39 271 259
-0.065055676 0.773 -0.025751207 8.0930367e-39 272 259
-0.063782752 0.77399999 -0.025784519 8.0008397e-39 273 259
-0.062425677 0.77399999 -0.025784519 8.2756287e-39 274 259
-0.061226401 0.77600002 -0.025851147 8.1834331e-39 275 259
-0.059865814 0.77600002 -0.025851147 8.1834359e-39 276 259
-0.058505226 0.77600002 -0.025851147 7.9994048e-39 277 259
-0.057144642 0.77600002 -0.025851147 8.2752658e-39 278 259
-0.055927824 0.778 -0.025917772 8.3674614e-39 279 259
-0.054563731 0.778 -0.025917772 8.6440427e-39 280 259
-0.053336397 0.77999997 -0.025984399 8.828434e-39 281 259
-0.051968798 0.77999997 -0.025984399 8.6440455e-39 282 259
-0.050601196 0.77999997 -0.025984399 8.4596556e-39 283 259
-0.049296722 0.78100002 -0.026017714 8.3674642e-39 284 259
-0.047927368 0.78100002 -0.026017714 8.1827142e-39 285 259
-0.046558015 0.78100002 -0.026017714 8.3645888e-39 286 259
-0.045188658 0.78100002 -0.026017714 8.2723931e-39 287 259
-0.043819305 0.78100002 -0.026017714 8.4539089e-39 288 259
-0.042558655 0.78299999 -0.026084339 8.2698778e-39 289 259
-0.0411858 0.78299999 -0.026084339 8.0858467e-39 290 259
-0.039812941 0.78299999 -0.026084339 8.0858467e-39 291 259
-0.038440078 0.78299999 -0.026084339 8.0862026e-39 292 259
-0.037067216 0.78299999 -0.026084339 8.0862026e-39 293 259
-0.035694357 0.78299999 -0.026084339 7.995086e-39 294 259
-0.034321502 0.78299999 -0.026084339 7.995086e-39 295 259
-0.032948639 0.78299999 -0.026084339 8.2702407e-39 296 259
-0.031575777 0.78299999 -0.026084339 8.3627951e-39 297 259
-0.030280067 0.78500003 -0.026150968 8.2702407e-39 298 259
-0.0289037 0.78500003 -0.026150968 7.4404801e-39 299 259
-0.027597465 0.787 -0.026217593 7.0713332e-39 300 259
-0.026217593 0.787 -0.026217593 7.1631687e-39 301 259
-0.024900839 0.78899997 -0.026284218 5.5119234e-39 302 259
-0.023517458 0.78899997 -0.026284218 4.9591168e-39 303 259
-0.022077972 0.787 -0.026217593 5.7856531e-39 304 259
-0.0206981 0.787 -0.026217593 6.4306638e-39 305 259
-0.019318225 0.787 -0.026217593 6.1569565e-39 306 259
-0.017938353 0.787 -0.026217593 5.9722065e-39 307 259
-0.01655848 0.787 -0.026217593 6.3459889e-39 308 259
-0.015178605 0.787 -0.026217593 7.0839127e-39 309 259
-0.013798732 0.787 -0.026217593 6.7190706e-39 310 259
-0.01241886 0.787 -0.026217593 6.7190706e-39 311 259
-0.011038986 0.787 -0.026217593 6.8094684e-39 312 259
-0.0096591124 0.787 -0.026217593 6.6250771e-39 313 259
-0.0082792398 0.787 -0.026217593 6.3513825e-39 314 259
-0.0068993662 0.787 -0.026217593 6.3513825e-39 315 259
-0.005519493 0.787 -0.026217593 6.6258212e-39 316 259
-0.0041396199 0.787 -0.026217593 6.4414299e-39 317 259
-0.0027597465 0.787 -0.026217593 6.6229513e-39 318 259
-0.0013798733 0.787 -0.026217593 6.8991781e-39 319 259
0 0.787 -0.026217593 7.4519889e-39 320 259
0.0013763667 0.78500003 -0.026150968 7.5441846e-39 321 259
0.0027527334 0.78500003 -0.026150968 9.1957745e-39 322 259
0.0041291001 0.78500003 -0.026150968 9.2879702e-39 323 259
0.0055054668 0.78500003 -0.026150968 1.011556e-38 324 259
0.0068818335 0.78500003 -0.026150968 1.076093e-38 325 259
0.0082582003 0.78500003 -0.026150968 9.9365668e-39 326 259
0.0096345674 0.78500003 -0.026150968 1.0304989e-38 327 259
0.011010934 0.78500003 -0.026150968 1.0580487e-38 328 259
0.0123873 0.78500003 -0.026150968 1.0303542e-38 329 259
0.013728599 0.78299999 -0.026084339 1.0207013e-38 330 259
0.01510146 0.78299999 -0.026084339 9.746042e-39 331 259
0.01647432 0.78299999 -0.026084339 9.8328553e-39 332 259
0.017847179 0.78299999 -0.026084339 8.81836e-39 333 259
0.019170946 0.78100002 -0.026017714 8.8169279e-39 334 259
0.020540299 0.78100002 -0.026017714 9.0016779e-39 335 259
0.021909652 0.78100002 -0.026017714 8.3606287e-39 336 259
0.023279008 0.78100002 -0.026017714 8.3606287e-39 337 259
0.024648361 0.78100002 -0.026017714 8.1776766e-39 338 259
0.026017714 0.78100002 -0.026017714 8.1776766e-39 339 259
0.027387068 0.78100002 -0.026017714 8.0861998e-39 340 259
0.028756421 0.78100002 -0.026017714 8.0861998e-39 341 259
0.030087199 0.77999997 -0.025984399 8.0862026e-39 342 259
0.031454798 0.77999997 -0.025984399 8.0862026e-39 343 259
0.032822397 0.77999997 -0.025984399 8.0854809e-39 344 259
0.034102332 0.778 -0.025917772 8.0854809e-39 345 259
0.035466425 0.778 -0.025917772 8.1780325e-39 346 259
0.036735836 0.77600002 -0.025851147 8.1780325e-39 347 259
0.038096428 0.77600002 -0.025851147 8.2691491e-39 348 259
0.039355319 0.77399999 -0.025784519 8.1769521e-39 349 259
0.040712398 0.77399999 -0.025784519 8.0854809e-39 350 259
0.042069476 0.77399999 -0.025784519 7.9932839e-39 351 259
0.043370452 0.773 -0.025751207 8.1758801e-39 352 259
0.044610061 0.77100003 -0.02568458 8.1758801e-39 353 259
0.045961879 0.77100003 -0.02568458 7.9929336e-39 354 259
0.047190964 0.76899999 -0.025617953 8.0851306e-39 355 259
0.048539277 0.76899999 -0.025617953 7.4437241e-39 356 259
0.049757849 0.76700002 -0.025551327 7.8125052e-39 357 259
0.051102653 0.76700002 -0.025551327 6.8062664e-39 358 259
0.052379075 0.76599997 -0.025518013 6.9906576e-39 359 259
0.053581864 0.764 -0.025451386 6.2595582e-39 360 259
0.05470575 0.76099998 -0.025351444 6.1673612e-39 361 259
0.056040037 0.76099998 -0.025351444 5.8907715e-39 362 259
0.05722354 0.759 -0.025284819 5.9829671e-39 363 259
0.058400027 0.75700003 -0.025218192 5.7074592e-39 364 259
0.059569497 0.755 -0.025151566 5.6152636e-39 365 259
0.060651302 0.75199997 -0.025051624 6.1666381e-39 366 259
0.061722592 0.74900001 -0.024951685 6.1666381e-39 367 259
0.063035838 0.74900001 -0.024951685 7.2643523e-39 368 259
0.06417726 0.74699998 -0.024885058 7.1721552e-39 369 259
0.065399326 0.74599999 -0.024851745 7.9983202e-39 370 259
0.066349633 0.74199998 -0.024718491 8.0905158e-39 371 259
0.067559443 0.741 -0.024685178 7.2675935e-39 372 259
0.068579875 0.73799998 -0.024585238 6.8988123e-39 373 259
0.069684476 0.736 -0.024518613 6.4385559e-39 374 259
0.070685625 0.73299998 -0.024418673 6.5307529e-39 375 259
0.071676269 0.73000002 -0.024318734 7.3561976e-39 376 259
0.072756313 0.72799999 -0.024252106 7.4483932e-39 377 259
0.073727667 0.72500002 -0.024152167 8.8234145e-39 378 259
0.074688487 0.722 -0.024052227 8.9156101e-39 379 259
0.075638793 0.71899998 -0.023952285 9.1936264e-39 380 259
0.076685533 0.71700001 -0.02388566 9.6546031e-39 381 259
0.077942684 0.71700001 -0.02388566 9.1993675e-39 382 259
0.079199821 0.71700001 -0.02388566 9.7525413e-39 383 259
0.088648535 0.79000002 -0.026317533 8.9288944e-39 384 259
0.090033665 0.79000002 -0.026317533 9.1132857e-39 385 259
0.091418803 0.79000002 -0.026317533 8.3804066e-39 386 259
0.093038872 0.792 -0.02638416 8.4726022e-39 387 259
-0.091995649 0.73900002 -0.025914267 7.5369917e-39 249 260
-0.090699933 0.73900002 -0.025914267 7.2622027e-39 250 260
-0.089404218 0.73900002 -0.025914267 7.170007e-39 251 260
-0.08810851 0.73900002 -0.025914267 7.0788904e-39 252 260
-0.087047733 0.741 -0.025984399 6.9866948e-39 253 260
-0.086095676 0.74400002 -0.026089599 6.9866948e-39 254 260
-0.085019127 0.74599999 -0.026159734 6.9866948e-39 255 260
-0.084047787 0.74900001 -0.026264934 6.8030266e-39 256 260
-0.082844995 0.75 -0.0263 6.710831e-39 257 260
-0.081964828 0.75400001 -0.026440267 7.0767366e-39 258 260
-0.080749765 0.755 -0.026475333 7.0767366e-39 259 260
-0.079636402 0.75700003 -0.026545467 7.3526032e-39 260 260
-0.078516021 0.759 -0.026615599 7.5369945e-39 261 260
-0.077388622 0.76099998 -0.026685731 7.5398686e-39 262 260
-0.076054335 0.76099998 -0.026685731 7.7242598e-39 263 260
-0.074720047 0.76099998 -0.026685731 7.8171743e-39 264 260
-0.073482201 0.76200002 -0.0267208 7.9093713e-39 265 260
-0.072335519 0.764 -0.026790932 7.9097273e-39 266 260
-0.071181826 0.76599997 -0.026861066 7.9097273e-39 267 260
-0.06992995 0.76700002 -0.026896132 7.9997677e-39 268 260
-0.068763971 0.76899999 -0.026966266 7.9075721e-39 269 260
-0.067415662 0.76899999 -0.026966266 7.9075721e-39 270 260
-0.066239186 0.77100003 -0.027036399 7.9075721e-39 271 260
-0.065055676 0.773 -0.027106533 8.2756343e-39 272 260
-0.063700356 0.773 -0.027106533 8.2756343e-39 273 260
-0.062425677 0.77399999 -0.027141599 8.2749127e-39 274 260
-0.061068594 0.77399999 -0.027141599 8.182717e-39 275 260
-0.059865814 0.77600002 -0.027211733 8.2749099e-39 276 260
-0.058505226 0.77600002 -0.027211733 8.3674642e-39 277 260
-0.057144642 0.77600002 -0.027211733 8.4607304e-39 278 260
-0.055784054 0.77600002 -0.027211733 8.5529261e-39 279 260
-0.054423466 0.77600002 -0.027211733 8.4607304e-39 280 260
-0.053062879 0.77600002 -0.027211733 8.275979e-39 281 260
-0.051835544 0.778 -0.027281865 8.5500548e-39 282 260
-0.050601196 0.77999997 -0.027351998 8.3656636e-39 283 260
-0.049233593 0.77999997 -0.027351998 8.2723959e-39 284 260
-0.047865998 0.77999997 -0.027351998 8.0880033e-39 285 260
-0.046498396 0.77999997 -0.027351998 8.0869285e-39 286 260
-0.045188658 0.78100002 -0.027387068 7.9025372e-39 287 260
-0.043819305 0.78100002 -0.027387068 8.1776822e-39 288 260
-0.042449951 0.78100002 -0.027387068 8.1776822e-39 289 260
-0.041080598 0.78100002 -0.027387068 8.0862026e-39 290 260
-0.039711244 0.78100002 -0.027387068 8.0862026e-39 291 260
-0.038341891 0.78100002 -0.027387068 7.9950832e-39 292 260
-0.036972538 0.78100002 -0.027387068 7.9950832e-39 293 260
-0.035603184 0.78100002 -0.027387068 7.9036064e-39 294 260
-0.034233831 0.78100002 -0.027387068 7.9036064e-39 295 260
-0.032864477 0.78100002 -0.027387068 8.1787514e-39 296 260
-0.031495128 0.78100002 -0.027387068 8.1787514e-39 297 260
-0.03020292 0.78299999 -0.027457198 8.2702281e-39 298 260
-0.028830061 0.78299999 -0.027457198 8.2702281e-39 299 260
-0.027527334 0.78500003 -0.027527334 7.9976013e-39 300 260
-0.026150968 0.78500003 -0.027527334 8.0897969e-39 301 260
-0.024837719 0.787 -0.027597465 6.988843e-39 302 260
-0.023457846 0.787 -0.027597465 6.7118973e-39 303 260
-0.022077972 0.787 -0.027597465 6.8937747e-39 304 260
-0.020645501 0.78500003 -0.027527334 6.8937747e-39 305 260
-0.019269135 0.78500003 -0.027527334 6.9859731e-39 306 260
-0.017892767 0.78500003 -0.027527334 7.3547542e-39 307 260
-0.01647432 0.78299999 -0.027457198 7.2654271e-39 308 260
-0.01510146 0.78299999 -0.027457198 7.6342096e-39 309 260
-0.013728599 0.78299999 -0.027457198 6.7201468e-39 310 260
-0.012355739 0.78299999 -0.027457198 6.904538e-39 311 260
-0.010982879 0.78299999 -0.027457198 6.7201468e-39 312 260
-0.0096100196 0.78299999 -0.027457198 6.5353954e-39 313 260
-0.0082582003 0.78500003 -0.027527334 6.257019e-39 314 260
-0.0068818335 0.78500003 -0.027527334 6.0722691e-39 315 260
-0.0055054668 0.78500003 -0.027527334 5.6102217e-39 316 260
-0.0041291001 0.78500003 -0.027527334 5.8868086e-39 317 260
-0.0027527334 0.78500003 -0.027527334 6.4371083e-39 318 260
-0.0013728599 0.78299999 -0.027457198 6.529304e-39 319 260
0 0.78299999 -0.027457198 7.6302593e-39 320 260
0.0013728599 0.78299999 -0.027457198 7.1696413e-39 321 260
0.0027457199 0.78299999 -0.027457198 7.4444275e-39 322 260
0.0041185799 0.78299999 -0.027457198 7.721013e-39 323 260
0.0054914397 0.78299999 -0.027457198 8.455341e-39 324 260
0.0068642995 0.78299999 -0.027457198 8.7315692e-39 325 260
0.0082371598 0.78299999 -0.027457198 9.0985595e-39 326 260
0.0096100196 0.78299999 -0.027457198 9.1907551e-39 327 260
0.010982879 0.78299999 -0.027457198 9.6517304e-39 328 260
0.012355739 0.78299999 -0.027457198 9.8361217e-39 329 260
0.013728599 0.78299999 -0.027457198 1.0482563e-38 330 260
0.015062887 0.78100002 -0.027387068 1.1773302e-38 331 260
0.016432239 0.78100002 -0.027387068 1.3065473e-38 332 260
0.017801592 0.78100002 -0.027387068 1.2143517e-38 333 260
0.019170946 0.78100002 -0.027387068 1.0659026e-38 334 260
0.020513998 0.77999997 -0.027351998 9.5526853e-39 335 260
0.021881599 0.77999997 -0.027351998 8.1791017e-39 336 260
0.023249198 0.77999997 -0.027351998 7.9028749e-39 337 260
