# .PCD v.7 - Point Cloud Data file format
FIELDS x y z rgb imX imY
SIZE 4 4 4 4 4 4
TYPE F F F F F F
COUNT 1 1 1 1 1 1
WIDTH 834
HEIGHT 1
VIEWPOINT 0 0 0 1 0 0 0
POINTS 834
DATA ascii
-0.015439852 0.62900001 -0.05183379 7.9201291e-39 306 287
-0.014337006 0.62900001 -0.05183379 7.9201291e-39 307 287
-0.01323416 0.62900001 -0.05183379 7.9201291e-39 308 287
-0.012131313 0.62900001 -0.05183379 7.8279335e-39 309 287
-0.011028466 0.62900001 -0.05183379 7.9194159e-39 310 287
-0.0099098403 0.62800002 -0.051751386 8.103447e-39 311 287
-0.0088087469 0.62800002 -0.051751386 7.9190655e-39 312 287
-0.0077076531 0.62800002 -0.051751386 7.9190655e-39 313 287
-0.0066065602 0.62800002 -0.051751386 7.9187096e-39 314 287
-0.0055054668 0.62800002 -0.051751386 7.9187096e-39 315 287
-0.0045306133 0.64600003 -0.053234708 7.8268671e-39 316 287
-0.00339796 0.64600003 -0.053234708 7.8268671e-39 317 287
-0.0022653067 0.64600003 -0.053234708 7.7353875e-39 318 287
-0.0011326533 0.64600003 -0.053234708 7.551355e-39 319 287
0 0.64700001 -0.053317111 7.5509991e-39 320 287
0.0010993399 0.62699997 -0.051668976 7.4588034e-39 321 287
0.0021986798 0.62699997 -0.051668976 7.5495697e-39 322 287
0.0032980198 0.62699997 -0.051668976 7.5495697e-39 323 287
0.0044043735 0.62800002 -0.051751386 7.0903965e-39 324 287
0.0055054668 0.62800002 -0.051751386 7.2744276e-39 325 287
0.0066065602 0.62800002 -0.051751386 7.1833082e-39 326 287
0.0077076531 0.62800002 -0.051751386 7.1833082e-39 327 287
0.0088087469 0.62800002 -0.051751386 7.0903937e-39 328 287
0.0099571794 0.63099998 -0.051998604 6.9060024e-39 329 287
0.011063533 0.63099998 -0.051998604 6.0794843e-39 330 287
0.012517046 0.64899999 -0.053481925 5.8950931e-39 331 287
0.013675999 0.64999998 -0.053564329 5.3448004e-39 332 287
0.014815666 0.64999998 -0.053564329 5.3448004e-39 333 287
0.015955333 0.64999998 -0.053564329 5.8043422e-39 334 287
0.017095 0.64999998 -0.053564329 6.4497116e-39 335 287
0.018234665 0.64999998 -0.053564329 8.7473941e-39 336 287
0.019433947 0.65200001 -0.053729147 9.3005678e-39 337 287
0.020513998 0.64999998 -0.053564329 9.1197569e-39 338 287
0.021653665 0.64999998 -0.053564329 9.4881807e-39 339 287
0.022793332 0.64999998 -0.053564329 9.6707727e-39 340 287
0.024006641 0.65200001 -0.053729147 9.3941858e-39 341 287
0.025149813 0.65200001 -0.053729147 8.6551984e-39 342 287
0.026292987 0.65200001 -0.053729147 7.4566552e-39 343 287
0.02743616 0.65200001 -0.053729147 6.0791312e-39 344 287
0.028579334 0.65200001 -0.053729147 6.0791312e-39 345 287
0.029768093 0.653 -0.05381155 5.5291972e-39 346 287
0.03091302 0.653 -0.05381155 5.6213943e-39 347 287
0.032156132 0.65499997 -0.053976361 6.3567943e-39 348 287
0.033406258 0.65700001 -0.054141179 6.7255768e-39 349 287
0.034610797 0.65799999 -0.054223582 7.5531697e-39 350 287
0.035764489 0.65799999 -0.054223582 7.6453653e-39 351 287
0.036974292 0.65899998 -0.054305989 8.1045442e-39 352 287
0.038129739 0.65899998 -0.054305989 8.0119898e-39 353 287
0.039404415 0.66100001 -0.054470807 8.1038253e-39 354 287
0.040563367 0.66100001 -0.054470807 8.1038253e-39 355 287
0.04172232 0.66100001 -0.054470807 8.0119898e-39 356 287
0.042881273 0.66100001 -0.054470807 8.1045442e-39 357 287
0.044040225 0.66100001 -0.054470807 7.6432171e-39 358 287
0.045199182 0.66100001 -0.054470807 7.0900433e-39 359 287
-0.064803198 0.67199999 -0.056555521 7.0932775e-39 265 288
-0.063624956 0.67199999 -0.056555521 8.2893026e-39 266 288
-0.062446721 0.67199999 -0.056555521 8.5662496e-39 267 288
-0.061177302 0.671 -0.056471359 8.4744141e-39 268 288
-0.060000818 0.671 -0.056471359 8.4744141e-39 269 288
-0.058736663 0.67000002 -0.056387197 8.4740498e-39 270 288
-0.057304189 0.667 -0.056134716 8.4740498e-39 271 288
-0.056050558 0.66600001 -0.056050558 8.1059875e-39 272 288
-0.054635618 0.66299999 -0.055798076 8.0137919e-39 273 288
-0.053311851 0.66100001 -0.05562976 7.1858319e-39 274 288
-0.052152898 0.66100001 -0.05562976 7.0932775e-39 275 288
-0.050839648 0.65899998 -0.055461437 6.7245006e-39 276 288
-0.049608808 0.65799999 -0.055377278 6.7245006e-39 277 288
-0.048455119 0.65799999 -0.055377278 7.2801953e-39 278 288
-0.047085766 0.65499997 -0.055124797 8.5709342e-39 279 288
-0.045867197 0.65399998 -0.055040635 1.0685666e-38 280 288
-0.044720516 0.65399998 -0.055040635 1.1054809e-38 281 288
-0.043573838 0.65399998 -0.055040635 1.0315429e-38 282 288
-0.042362284 0.653 -0.054956477 8.7477444e-39 283 288
-0.041217357 0.653 -0.054956477 7.0921845e-39 284 288
-0.04007243 0.653 -0.054956477 6.9081534e-39 285 288
-0.038927507 0.653 -0.054956477 5.9890852e-39 286 288
-0.03778258 0.653 -0.054956477 5.8968895e-39 287 288
-0.036637653 0.653 -0.054956477 6.172403e-39 288 288
-0.035492726 0.653 -0.054956477 6.3567943e-39 289 288
-0.034295198 0.65200001 -0.054872319 7.3680722e-39 290 288
-0.033152029 0.65200001 -0.054872319 7.6450178e-39 291 288
-0.031910665 0.64999998 -0.054703996 7.9208774e-39 292 288
-0.030770998 0.64999998 -0.054703996 7.9208774e-39 293 288
-0.029585747 0.64899999 -0.054619838 7.9208732e-39 294 288
-0.028404001 0.648 -0.05453568 7.8286776e-39 295 288
-0.02718368 0.64600003 -0.05436736 7.8293964e-39 296 288
-0.026051028 0.64600003 -0.05436736 7.6453653e-39 297 288
-0.024841227 0.64399999 -0.054199036 7.9197942e-39 298 288
-0.02371208 0.64399999 -0.054199036 8.1045442e-39 299 288
-0.022582933 0.64399999 -0.054199036 8.1974601e-39 300 288
-0.021520413 0.64600003 -0.05436736 8.1974601e-39 301 288
-0.020387759 0.64600003 -0.05436736 8.1974601e-39 302 288
-0.019255107 0.64600003 -0.05436736 7.9208732e-39 303 288
-0.018122453 0.64600003 -0.05436736 8.0119898e-39 304 288
-0.0170161 0.64700001 -0.054451518 8.0119898e-39 305 288
-0.015439852 0.62900001 -0.05293664 8.0123458e-39 306 288
-0.014337006 0.62900001 -0.05293664 8.0123458e-39 307 288
-0.01329728 0.63200003 -0.053189121 8.0123458e-39 308 288
-0.012169886 0.63099998 -0.053104956 7.9201501e-39 309 288
-0.011046 0.63 -0.053020798 7.9197942e-39 310 288
-0.0099414 0.63 -0.053020798 7.9197942e-39 311 288
-0.0088367993 0.63 -0.053020798 7.919797e-39 312 288
-0.0079776663 0.64999998 -0.054703996 7.7357659e-39 313 288
-0.0068064397 0.64700001 -0.054451518 7.9190781e-39 314 288
-0.0056720334 0.64700001 -0.054451518 7.9190781e-39 315 288
-0.0045376266 0.64700001 -0.054451518 8.0116269e-39 316 288
-0.00339796 0.64600003 -0.05436736 7.9194313e-39 317 288
-0.0022653067 0.64600003 -0.05436736 7.736119e-39 318 288
-0.0011326533 0.64600003 -0.05436736 7.551369e-39 319 288
0 0.64700001 -0.054451518 7.3680596e-39 320 288
0.0011344067 0.64700001 -0.054451518 7.2755052e-39 321 288
0.00227232 0.648 -0.05453568 7.4584559e-39 322 288
0.00340848 0.648 -0.05453568 7.4584559e-39 323 288
0.0045516533 0.64899999 -0.054619838 7.3666232e-39 324 288
0.0056895665 0.64899999 -0.054619838 7.2744276e-39 325 288
0.0068274797 0.64899999 -0.054619838 7.183311e-39 326 288
0.0079653924 0.64899999 -0.054619838 7.275508e-39 327 288
0.0091033066 0.64899999 -0.054619838 6.9063653e-39 328 288
0.01024122 0.64899999 -0.054619838 6.6301386e-39 329 288
0.011379133 0.64899999 -0.054619838 5.8950931e-39 330 288
0.012517046 0.64899999 -0.054619838 5.8950931e-39 331 288
0.013654959 0.64899999 -0.054619838 5.4366331e-39 332 288
0.014815666 0.64999998 -0.054703996 5.4366331e-39 333 288
0.015955333 0.64999998 -0.054703996 6.2631525e-39 334 288
0.017095 0.64999998 -0.054703996 7.0929146e-39 335 288
0.018234665 0.64999998 -0.054703996 9.300565e-39 336 288
0.019433947 0.65200001 -0.054872319 9.5775107e-39 337 288
0.02057712 0.65200001 -0.054872319 9.4871073e-39 338 288
0.021720294 0.65200001 -0.054872319 9.4871073e-39 339 288
0.022863466 0.65200001 -0.054872319 9.3034349e-39 340 288
0.024006641 0.65200001 -0.054872319 9.0272081e-39 341 288
0.025149813 0.65200001 -0.054872319 8.1942203e-39 342 288
0.026292987 0.65200001 -0.054872319 7.3644596e-39 343 288
0.02743616 0.65200001 -0.054872319 6.2620805e-39 344 288
0.028579334 0.65200001 -0.054872319 6.2620805e-39 345 288
0.029813679 0.65399998 -0.055040635 5.5284756e-39 346 288
0.031007698 0.65499997 -0.055124797 5.8050625e-39 347 288
0.03225432 0.65700001 -0.055293117 6.8159732e-39 348 288
0.033457108 0.65799999 -0.055377278 7.1847571e-39 349 288
0.034663398 0.65899998 -0.055461437 7.9197942e-39 350 288
0.035818845 0.65899998 -0.055461437 8.0119898e-39 351 288
0.036974292 0.65899998 -0.055461437 8.1038253e-39 352 288
0.038245458 0.66100001 -0.05562976 8.011271e-39 353 288
0.039404415 0.66100001 -0.05562976 8.1034694e-39 354 288
0.040563367 0.66100001 -0.05562976 8.1034694e-39 355 288
0.04172232 0.66100001 -0.05562976 7.9197998e-39 356 288
0.042881273 0.66100001 -0.05562976 7.7354099e-39 357 288
0.044040225 0.66100001 -0.05562976 7.1826047e-39 358 288
0.045199182 0.66100001 -0.05562976 6.0766173e-39 359 288
-0.063909002 0.67500001 -0.057991501 7.462423e-39 266 289
-0.062725499 0.67500001 -0.057991501 7.8308454e-39 267 289
-0.061450824 0.67400002 -0.057905588 8.1074393e-39 268 289
-0.060000818 0.671 -0.057647847 8.0152422e-39 269 289
-0.058824331 0.671 -0.057647847 8.2903816e-39 270 289
-0.057561934 0.67000002 -0.057561934 8.2903816e-39 271 289
-0.056387197 0.67000002 -0.057561934 8.3818514e-39 272 289
-0.05504765 0.66799998 -0.057390101 8.2896557e-39 273 289
-0.053715117 0.66600001 -0.057218276 7.6453681e-39 274 289
-0.052310698 0.66299999 -0.056960538 7.3684225e-39 275 289
-0.050993945 0.66100001 -0.056788713 6.7248678e-39 276 289
-0.049684204 0.65899998 -0.056616884 6.7248678e-39 277 289
-0.048455119 0.65799999 -0.056530971 6.6351917e-39 278 289
-0.047301427 0.65799999 -0.056530971 7.6497037e-39 279 289
-0.046077598 0.65700001 -0.056445058 1.0320125e-38 280 289
-0.044788897 0.65499997 -0.056273226 1.0965494e-38 281 289
-0.043640465 0.65499997 -0.056273226 1.0685653e-38 282 289
-0.042492028 0.65499997 -0.056273226 9.3027188e-39 283 289
-0.041280478 0.65399998 -0.056187313 7.5524438e-39 284 289
-0.040133797 0.65399998 -0.056187313 6.99927e-39 285 289
-0.038987119 0.65399998 -0.056187313 6.5397436e-39 286 289
-0.037840437 0.65399998 -0.056187313 6.2627966e-39 287 289
-0.036693759 0.65399998 -0.056187313 5.9887377e-39 288 289
-0.035492726 0.653 -0.056101404 6.1727688e-39 289 289
-0.034295198 0.65200001 -0.056015491 6.8167005e-39 290 289
-0.033152029 0.65200001 -0.056015491 7.2776772e-39 291 289
-0.032008853 0.65200001 -0.056015491 8.1041897e-39 292 289
-0.030770998 0.64999998 -0.055843662 8.1963853e-39 293 289
-0.029585747 0.64899999 -0.05575775 8.1045442e-39 294 289
-0.028404001 0.648 -0.055671841 8.1045442e-39 295 289
-0.027225759 0.64700001 -0.055585928 7.9208732e-39 296 289
-0.026091354 0.64700001 -0.055585928 7.8286776e-39 297 289
-0.024956945 0.64700001 -0.055585928 8.0119926e-39 298 289
-0.023822539 0.64700001 -0.055585928 8.0119926e-39 299 289
-0.022688134 0.64700001 -0.055585928 8.1041897e-39 300 289
-0.021553727 0.64700001 -0.055585928 8.1963853e-39 301 289
-0.020450879 0.648 -0.055671841 8.1967412e-39 302 289
-0.019314719 0.648 -0.055671841 8.1967412e-39 303 289
-0.018150507 0.64700001 -0.055585928 8.1045414e-39 304 289
-0.0170161 0.64700001 -0.055585928 8.1045414e-39 305 289
-0.015906241 0.648 -0.055671841 8.2871348e-39 306 289
-0.014770079 0.648 -0.055671841 8.2871348e-39 307 289
-0.013654959 0.64899999 -0.05575775 8.194942e-39 308 289
-0.012169886 0.63099998 -0.054211311 8.194942e-39 309 289
-0.011063533 0.63099998 -0.054211311 7.9197942e-39 310 289
-0.010256999 0.64999998 -0.055843662 7.9197942e-39 311 289
-0.0091173323 0.64999998 -0.055843662 8.011271e-39 312 289
-0.0079776663 0.64999998 -0.055843662 8.011271e-39 313 289
-0.0068379994 0.64999998 -0.055843662 7.9190753e-39 314 289
-0.0056720334 0.64700001 -0.055585928 8.011271e-39 315 289
-0.0045376266 0.64700001 -0.055585928 8.0116269e-39 316 289
-0.0034032199 0.64700001 -0.055585928 7.9194313e-39 317 289
-0.0022653067 0.64600003 -0.055500012 7.9194313e-39 318 289
-0.0011326533 0.64600003 -0.055500012 7.8272356e-39 319 289
0 0.64700001 -0.055585928 7.6435646e-39 320 289
0.0011344067 0.64700001 -0.055585928 7.551369e-39 321 289
0.00227232 0.648 -0.055671841 7.4584531e-39 322 289
0.00340848 0.648 -0.055671841 7.4584531e-39 323 289
0.0045516533 0.64899999 -0.05575775 7.0911125e-39 324 289
0.0056895665 0.64899999 -0.05575775 7.1833082e-39 325 289
0.0068274797 0.64899999 -0.05575775 7.2755052e-39 326 289
0.0079653924 0.64899999 -0.05575775 7.1833082e-39 327 289
0.0091033066 0.64899999 -0.05575775 6.9982008e-39 328 289
0.01024122 0.64899999 -0.05575775 6.6290582e-39 329 289
0.011379133 0.64899999 -0.05575775 5.8947372e-39 330 289
0.012517046 0.64899999 -0.05575775 5.7103459e-39 331 289
0.013654959 0.64899999 -0.05575775 5.2518915e-39 332 289
0.014815666 0.64999998 -0.055843662 5.2518915e-39 333 289
0.015955333 0.64999998 -0.055843662 6.4468389e-39 334 289
0.017095 0.64999998 -0.055843662 7.4609895e-39 335 289
0.018290773 0.65200001 -0.056015491 9.3931264e-39 336 289
0.019433947 0.65200001 -0.056015491 9.670072e-39 337 289
0.02057712 0.65200001 -0.056015491 9.4871101e-39 338 289
0.021753605 0.653 -0.056101404 9.4871101e-39 339 289
0.022898532 0.653 -0.056101404 9.3027188e-39 340 289
0.024043459 0.653 -0.056101404 8.7495451e-39 341 289
0.025188386 0.653 -0.056101404 8.1020275e-39 342 289
0.026333313 0.653 -0.056101404 7.4566581e-39 343 289
0.027520318 0.65399998 -0.056187313 6.1706038e-39 344 289
0.028666999 0.65399998 -0.056187313 6.0780494e-39 345 289
0.02995044 0.65700001 -0.056445058 5.5284756e-39 346 289
0.03110238 0.65700001 -0.056445058 5.8972581e-39 347 289
0.032303412 0.65799999 -0.056530971 6.7248566e-39 348 289
0.033457108 0.65799999 -0.056530971 7.0932803e-39 349 289
0.034663398 0.65899998 -0.056616884 7.919797e-39 350 289
0.035818845 0.65899998 -0.056616884 7.919797e-39 351 289
0.037086505 0.66100001 -0.056788713 8.0112766e-39 352 289
0.038303319 0.662 -0.056874625 7.9190809e-39 353 289
0.039464023 0.662 -0.056874625 7.9194439e-39 354 289
0.04062473 0.662 -0.056874625 7.7354128e-39 355 289
0.04172232 0.66100001 -0.056788713 7.5513844e-39 356 289
0.042881273 0.66100001 -0.056788713 7.2751577e-39 357 289
0.044040225 0.66100001 -0.056788713 6.5372381e-39 358 289
0.04526756 0.662 -0.056874625 6.0762614e-39 359 289
-0.064003684 0.676 -0.059262663 7.6475359e-39 266 290
-0.062818423 0.676 -0.059262663 7.3705903e-39 267 290
-0.061542001 0.67500001 -0.059175 8.2907487e-39 268 290
-0.06026908 0.67400002 -0.059087332 8.2907487e-39 269 290
-0.058911994 0.67199999 -0.058911994 8.1989048e-39 270 290
-0.057647847 0.671 -0.058824331 8.1067092e-39 271 290
-0.056471359 0.671 -0.058824331 8.3811353e-39 272 290
-0.055212468 0.67000002 -0.058736663 8.2889397e-39 273 290
-0.054037735 0.67000002 -0.058736663 7.6457325e-39 274 290
-0.052705199 0.66799998 -0.058561329 7.3691442e-39 275 290
-0.051071092 0.662 -0.058035329 6.8174165e-39 276 290
-0.049910385 0.662 -0.058035329 6.7252209e-39 277 290
-0.04867604 0.66100001 -0.057947662 6.3578817e-39 278 290
-0.047517084 0.66100001 -0.057947662 6.81922e-39 279 290
-0.04614773 0.65799999 -0.057684667 9.6744048e-39 280 290
-0.044994038 0.65799999 -0.057684667 1.0872948e-38 281 290
-0.043773718 0.65700001 -0.057596996 1.1055525e-38 282 290
-0.042492028 0.65499997 -0.057421666 9.9495372e-39 283 290
-0.041343596 0.65499997 -0.057421666 8.472605e-39 284 290
-0.040195163 0.65499997 -0.057421666 7.4584531e-39 285 290
-0.039046731 0.65499997 -0.057421666 6.2649518e-39 286 290
-0.037840437 0.65399998 -0.057333998 6.0802018e-39 287 290
-0.036693759 0.65399998 -0.057333998 5.8965364e-39 288 290
-0.035547078 0.65399998 -0.057333998 6.1731219e-39 289 290
-0.034347799 0.653 -0.057246335 6.632305e-39 290 290
-0.033202872 0.653 -0.057246335 7.0932831e-39 291 290
-0.032057945 0.653 -0.057246335 8.1041925e-39 292 290
-0.030770998 0.64999998 -0.056983333 8.1963881e-39 293 290
-0.029631332 0.64999998 -0.056983333 8.3800507e-39 294 290
-0.028447833 0.64899999 -0.056895666 8.1960182e-39 295 290
-0.02726784 0.648 -0.056808002 8.196021e-39 296 290
-0.026091354 0.64700001 -0.056720335 8.011271e-39 297 290
-0.024956945 0.64700001 -0.056720335 8.0112738e-39 298 290
-0.023822539 0.64700001 -0.056720335 8.0112738e-39 299 290
-0.022688134 0.64700001 -0.056720335 8.1034694e-39 300 290
-0.021553727 0.64700001 -0.056720335 8.1956664e-39 301 290
-0.020450879 0.648 -0.056808002 8.1967412e-39 302 290
-0.019314719 0.648 -0.056808002 8.1967412e-39 303 290
-0.018150507 0.64700001 -0.056720335 8.1038253e-39 304 290
-0.0170161 0.64700001 -0.056720335 8.011271e-39 305 290
-0.015906241 0.648 -0.056808002 8.194942e-39 306 290
-0.014770079 0.648 -0.056808002 8.1027463e-39 307 290
-0.013654959 0.64899999 -0.056895666 8.1023904e-39 308 290
-0.012517046 0.64899999 -0.056895666 8.1023904e-39 309 290
-0.011379133 0.64899999 -0.056895666 7.919797e-39 310 290
-0.010256999 0.64999998 -0.056983333 7.919797e-39 311 290
-0.0091173323 0.64999998 -0.056983333 8.011271e-39 312 290
-0.0079776663 0.64999998 -0.056983333 8.011271e-39 313 290
-0.0068379994 0.64999998 -0.056983333 8.011271e-39 314 290
-0.0056895665 0.64899999 -0.056895666 7.9190753e-39 315 290
-0.0045516533 0.64899999 -0.056895666 7.9190753e-39 316 290
-0.00340848 0.648 -0.056808002 7.9190753e-39 317 290
-0.00227232 0.648 -0.056808002 7.8268797e-39 318 290
-0.00113616 0.648 -0.056808002 7.8268797e-39 319 290
0 0.64899999 -0.056895666 7.8272356e-39 320 290
0.0011379133 0.64899999 -0.056895666 7.5506487e-39 321 290
0.0022758266 0.64899999 -0.056895666 7.4584503e-39 322 290
0.0034137398 0.64899999 -0.056895666 7.3662547e-39 323 290
0.0045516533 0.64899999 -0.056895666 7.0914657e-39 324 290
0.0056895665 0.64899999 -0.056895666 7.1836613e-39 325 290
0.0068274797 0.64899999 -0.056895666 7.1836613e-39 326 290
0.0079653924 0.64899999 -0.056895666 6.99927e-39 327 290
0.0091033066 0.64899999 -0.056895666 6.9060024e-39 328 290
0.010256999 0.64999998 -0.056983333 6.4450243e-39 329 290
0.011396666 0.64999998 -0.056983333 5.6192293e-39 330 290
0.012536332 0.64999998 -0.056983333 5.5270336e-39 331 290
0.013675999 0.64999998 -0.056983333 5.2518915e-39 332 290
0.014815666 0.64999998 -0.056983333 5.3440871e-39 333 290
0.016004426 0.65200001 -0.057158668 6.8149012e-39 334 290
0.017147599 0.65200001 -0.057158668 7.8286944e-39 335 290
0.018318826 0.653 -0.057246335 9.0254257e-39 336 290
0.019463753 0.653 -0.057246335 9.3020126e-39 337 290
0.020608678 0.653 -0.057246335 9.6711426e-39 338 290
0.021786919 0.65399998 -0.057333998 9.4871101e-39 339 290
0.022933599 0.65399998 -0.057333998 9.2101701e-39 340 290
0.024080278 0.65399998 -0.057333998 8.1960182e-39 341 290
0.025226958 0.65399998 -0.057333998 7.0914811e-39 342 290
0.02637364 0.65399998 -0.057333998 6.5383087e-39 343 290
0.027562398 0.65499997 -0.057421666 5.7114249e-39 344 290
0.028798498 0.65700001 -0.057596996 5.895456e-39 345 290
0.029996024 0.65799999 -0.057684667 5.8043422e-39 346 290
0.031197058 0.65899998 -0.057772331 6.172766e-39 347 290
0.032352503 0.65899998 -0.057772331 7.0003658e-39 348 290
0.033609647 0.66100001 -0.057947662 7.1847571e-39 349 290
0.0347686 0.66100001 -0.057947662 7.9190781e-39 350 290
0.035927553 0.66100001 -0.057947662 8.0112738e-39 351 290
0.037142612 0.662 -0.058035329 8.0112738e-39 352 290
0.038361177 0.66299999 -0.058122993 8.0112738e-39 353 290
0.039583251 0.66399997 -0.05821066 7.643936e-39 354 290
0.040870197 0.66600001 -0.058385998 7.5517404e-39 355 290
0.041785441 0.662 -0.058035329 7.2751577e-39 356 290
0.042881273 0.66100001 -0.057947662 6.906015e-39 357 290
0.044040225 0.66100001 -0.057947662 6.1702506e-39 358 290
0.04526756 0.662 -0.058035329 6.3546433e-39 359 290
-0.062818423 0.676 -0.06044792 8.2925522e-39 267 291
-0.061542001 0.67500001 -0.060358498 7.9262836e-39 268 291
-0.06026908 0.67400002 -0.06026908 7.6496981e-39 269 291
-0.059087332 0.67400002 -0.06026908 8.1985517e-39 270 291
-0.057733759 0.67199999 -0.060090236 8.1063561e-39 271 291
-0.056471359 0.671 -0.060000818 8.2893026e-39 272 291
-0.055294871 0.671 -0.060000818 8.2893026e-39 273 291
-0.054037735 0.67000002 -0.0599114 7.7379281e-39 274 291
-0.052863002 0.67000002 -0.0599114 7.4613398e-39 275 291
-0.051688269 0.67000002 -0.0599114 6.6341043e-39 276 291
-0.050362743 0.66799998 -0.05973256 6.4497116e-39 277 291
-0.048896957 0.66399997 -0.059374876 6.3571628e-39 278 291
-0.047588971 0.662 -0.05919604 6.3571628e-39 279 291
-0.046358135 0.66100001 -0.059106622 8.3854639e-39 280 291
-0.045062415 0.65899998 -0.058927774 1.0044985e-38 281 291
-0.043773718 0.65700001 -0.058748938 1.1057324e-38 282 291
-0.04262178 0.65700001 -0.058748938 1.0319759e-38 283 291
-0.041469838 0.65700001 -0.058748938 9.6704252e-39 284 291
-0.040195163 0.65499997 -0.058570094 7.826514e-39 285 291
-0.039046731 0.65499997 -0.058570094 5.8054156e-39 286 291
-0.037840437 0.65399998 -0.05848068 5.8976112e-39 287 291
-0.036693759 0.65399998 -0.05848068 5.6217502e-39 288 291
-0.035547078 0.65399998 -0.05848068 5.6217502e-39 289 291
-0.034347799 0.653 -0.058391262 6.7234216e-39 290 291
-0.033202872 0.653 -0.058391262 7.0925643e-39 291 291
-0.032057945 0.653 -0.058391262 8.1945888e-39 292 291
-0.030865679 0.65200001 -0.058301836 8.4711771e-39 293 291
-0.029631332 0.64999998 -0.058122993 8.1967412e-39 294 291
-0.028491667 0.64999998 -0.058122993 8.1045442e-39 295 291
-0.027309919 0.64899999 -0.058033578 8.1038253e-39 296 291
-0.026172007 0.64899999 -0.058033578 8.011271e-39 297 291
-0.025034092 0.64899999 -0.058033578 8.0112738e-39 298 291
-0.023896178 0.64899999 -0.058033578 8.0112738e-39 299 291
-0.022758266 0.64899999 -0.058033578 7.9190781e-39 300 291
-0.021620352 0.64899999 -0.058033578 8.1034694e-39 301 291
-0.02048244 0.64899999 -0.058033578 8.1045442e-39 302 291
-0.019344525 0.64899999 -0.058033578 8.1045442e-39 303 291
-0.01817856 0.648 -0.05794416 8.1045442e-39 304 291
-0.0170424 0.648 -0.05794416 7.9197942e-39 305 291
-0.015930785 0.64899999 -0.058033578 8.011271e-39 306 291
-0.014792874 0.64899999 -0.058033578 8.011271e-39 307 291
-0.013654959 0.64899999 -0.058033578 8.0112738e-39 308 291
-0.012517046 0.64899999 -0.058033578 7.9190781e-39 309 291
-0.011379133 0.64899999 -0.058033578 7.9190781e-39 310 291
-0.010256999 0.64999998 -0.058122993 7.9190781e-39 311 291
-0.0091173323 0.64999998 -0.058122993 8.011271e-39 312 291
-0.0079776663 0.64999998 -0.058122993 8.011271e-39 313 291
-0.0068379994 0.64999998 -0.058122993 7.9190753e-39 314 291
-0.005698333 0.64999998 -0.058122993 7.9190753e-39 315 291
-0.0045516533 0.64899999 -0.058033578 7.8268797e-39 316 291
-0.0034137398 0.64899999 -0.058033578 7.8268797e-39 317 291
-0.0022758266 0.64899999 -0.058033578 7.7346841e-39 318 291
-0.0011379133 0.64899999 -0.058033578 7.7346841e-39 319 291
0 0.64899999 -0.058033578 7.5506529e-39 320 291
0.0011379133 0.64899999 -0.058033578 7.4584559e-39 321 291
0.0022758266 0.64899999 -0.058033578 7.3669764e-39 322 291
0.0034137398 0.64899999 -0.058033578 7.2747807e-39 323 291
0.0045586661 0.64999998 -0.058122993 6.9989141e-39 324 291
0.005698333 0.64999998 -0.058122993 7.0914685e-39 325 291
0.0068379994 0.64999998 -0.058122993 7.0914685e-39 326 291
0.0079776663 0.64999998 -0.058122993 6.9989141e-39 327 291
0.0091173323 0.64999998 -0.058122993 6.5379416e-39 328 291
0.010256999 0.64999998 -0.058122993 6.3535503e-39 329 291
0.011431733 0.65200001 -0.058301836 5.3437214e-39 330 291
0.012574906 0.65200001 -0.058301836 5.3437214e-39 331 291
0.01371808 0.65200001 -0.058301836 5.3433654e-39 332 291
0.014861252 0.65200001 -0.058301836 5.6195922e-39 333 291
0.016028972 0.653 -0.058391262 6.9982106e-39 334 291
0.017173899 0.653 -0.058391262 7.9205271e-39 335 291
0.018318826 0.653 -0.058391262 9.1168997e-39 336 291
0.019493559 0.65399998 -0.05848068 9.5778764e-39 337 291
0.020640239 0.65399998 -0.05848068 9.4878304e-39 338 291
0.021786919 0.65399998 -0.05848068 9.4878304e-39 339 291
0.022968665 0.65499997 -0.058570094 9.3945641e-39 340 291
0.024117097 0.65499997 -0.058570094 7.4584559e-39 341 291
0.025265532 0.65499997 -0.058570094 5.8050625e-39 342 291
0.026494619 0.65700001 -0.058748938 5.5284756e-39 343 291
0.027688639 0.65799999 -0.058838356 5.4362799e-39 344 291
0.028886165 0.65899998 -0.058927774 5.5284756e-39 345 291
0.030041611 0.65899998 -0.058927774 5.9876545e-39 346 291
0.031291738 0.66100001 -0.059106622 6.3567971e-39 347 291
0.032450691 0.66100001 -0.059106622 7.1836753e-39 348 291
0.033660494 0.662 -0.05919604 7.3684253e-39 349 291
0.034821201 0.662 -0.05919604 7.7357659e-39 350 291
0.035981905 0.662 -0.05919604 7.7357659e-39 351 291
0.037198719 0.66299999 -0.059285458 7.7361288e-39 352 291
0.038592618 0.667 -0.059643134 7.7361288e-39 353 291
0.039762091 0.667 -0.059643134 7.4606237e-39 354 291
0.040992931 0.66799998 -0.05973256 7.2758737e-39 355 291
0.042164158 0.66799998 -0.05973256 6.9056619e-39 356 291
0.043465134 0.67000002 -0.0599114 6.5372381e-39 357 291
0.044639867 0.67000002 -0.0599114 6.1709779e-39 358 291
0.0458146 0.67000002 -0.0599114 7.1851284e-39 359 291
-0.061633173 0.676 -0.061633173 8.386187e-39 268 292
-0.063845873 0.71399999 -0.065097757 7.8330132e-39 269 292
-0.059087332 0.67400002 -0.061450824 8.8424792e-39 270 292
-0.057905588 0.67400002 -0.061450824 8.5658937e-39 271 292
-0.056555521 0.67199999 -0.061268479 8.4740498e-39 272 292
-0.055294871 0.671 -0.061177302 8.2896585e-39 273 292
-0.054118387 0.671 -0.061177302 7.9215991e-39 274 292
-0.052941896 0.671 -0.061177302 7.6450122e-39 275 292
-0.051688269 0.67000002 -0.061086133 7.185476e-39 276 292
-0.050513536 0.67000002 -0.061086133 7.0010847e-39 277 292
-0.049117878 0.667 -0.060812607 6.4493613e-39 278 292
-0.047876518 0.66600001 -0.060721438 6.5415583e-39 279 292
-0.046358135 0.66100001 -0.060265575 7.6475485e-39 280 292
-0.045199182 0.66100001 -0.060265575 9.2148756e-39 281 292
-0.044040225 0.66100001 -0.060265575 1.1148796e-38 282 292
-0.042686652 0.65799999 -0.059992049 1.0780014e-38 283 292
-0.04153296 0.65799999 -0.059992049 1.0500903e-38 284 292
-0.0403179 0.65700001 -0.05990088 8.3804038e-39 285 292
-0.039165959 0.65700001 -0.05990088 6.1724002e-39 286 292
-0.037898298 0.65499997 -0.059718527 6.1724002e-39 287 292
-0.036749862 0.65499997 -0.059718527 5.8965392e-39 288 292
-0.035547078 0.65399998 -0.059627358 5.8043422e-39 289 292
-0.034400396 0.65399998 -0.059627358 5.896905e-39 290 292
-0.033253718 0.65399998 -0.059627358 6.1738506e-39 291 292
-0.03210704 0.65399998 -0.059627358 7.4609895e-39 292 292
-0.03091302 0.653 -0.059536185 7.5531851e-39 293 292
-0.029768093 0.653 -0.059536185 8.1963881e-39 294 292
-0.028579334 0.65200001 -0.059445009 8.1041925e-39 295 292
-0.027351998 0.64999998 -0.059262663 7.9208732e-39 296 292
-0.026212333 0.64999998 -0.059262663 7.8286776e-39 297 292
-0.025072664 0.64999998 -0.059262663 8.0112766e-39 298 292
-0.023932999 0.64999998 -0.059262663 7.9190809e-39 299 292
-0.022793332 0.64999998 -0.059262663 7.7354128e-39 300 292
-0.021653665 0.64999998 -0.059262663 8.0116395e-39 301 292
-0.020513998 0.64999998 -0.059262663 8.1041897e-39 302 292
-0.019374331 0.64999998 -0.059262663 8.1963853e-39 303 292
-0.018206613 0.64899999 -0.059171494 8.1960182e-39 304 292
-0.017068699 0.64899999 -0.059171494 8.1038225e-39 305 292
-0.015930785 0.64899999 -0.059171494 8.011271e-39 306 292
-0.014792874 0.64899999 -0.059171494 8.011271e-39 307 292
-0.013654959 0.64899999 -0.059171494 7.919797e-39 308 292
-0.012517046 0.64899999 -0.059171494 7.7357659e-39 309 292
-0.011396666 0.64999998 -0.059262663 7.9190781e-39 310 292
-0.010256999 0.64999998 -0.059262663 8.0112738e-39 311 292
-0.0091173323 0.64999998 -0.059262663 8.011271e-39 312 292
-0.0079776663 0.64999998 -0.059262663 8.011271e-39 313 292
-0.0068379994 0.64999998 -0.059262663 8.011271e-39 314 292
-0.005698333 0.64999998 -0.059262663 7.8268797e-39 315 292
-0.0045516533 0.64899999 -0.059171494 7.7357631e-39 316 292
-0.0034137398 0.64899999 -0.059171494 7.6435674e-39 317 292
-0.0022758266 0.64899999 -0.059171494 7.5513718e-39 318 292
-0.0011379133 0.64899999 -0.059171494 7.5513718e-39 319 292
0 0.64999998 -0.059262663 7.4591762e-39 320 292
0.0011396665 0.64999998 -0.059262663 7.3666204e-39 321 292
0.0022793331 0.64999998 -0.059262663 7.0911153e-39 322 292
0.0034189997 0.64999998 -0.059262663 6.9989197e-39 323 292
0.0045586661 0.64999998 -0.059262663 6.9989169e-39 324 292
0.005698333 0.64999998 -0.059262663 7.0911125e-39 325 292
0.0068379994 0.64999998 -0.059262663 7.3659016e-39 326 292
0.0079776663 0.64999998 -0.059262663 7.1815103e-39 327 292
0.0091173323 0.64999998 -0.059262663 6.4464648e-39 328 292
0.01028856 0.65200001 -0.059445009 6.0776837e-39 329 292
0.011431733 0.65200001 -0.059445009 5.3437186e-39 330 292
0.012574906 0.65200001 -0.059445009 5.3437186e-39 331 292
0.01371808 0.65200001 -0.059445009 5.3440871e-39 332 292
0.014884046 0.653 -0.059536185 5.7125095e-39 333 292
0.016028972 0.653 -0.059536185 7.183325e-39 334 292
0.017173899 0.653 -0.059536185 8.0134444e-39 335 292
0.01834688 0.65399998 -0.059627358 9.0265047e-39 336 292
0.019493559 0.65399998 -0.059627358 9.3949271e-39 337 292
0.020640239 0.65399998 -0.059627358 9.6714986e-39 338 292
0.021820232 0.65499997 -0.059718527 9.4871073e-39 339 292
0.023038799 0.65700001 -0.05990088 9.3005678e-39 340 292
0.024190739 0.65700001 -0.05990088 7.3644596e-39 341 292
0.025342681 0.65700001 -0.05990088 5.3440843e-39 342 292
0.026534945 0.65799999 -0.059992049 5.4362799e-39 343 292
0.02781488 0.66100001 -0.060265575 5.344806e-39 344 292
0.028973831 0.66100001 -0.060265575 5.4370016e-39 345 292
0.030132787 0.66100001 -0.060265575 6.3553622e-39 346 292
0.031339079 0.662 -0.060356744 6.6323078e-39 347 292
0.032499783 0.662 -0.060356744 7.2758765e-39 348 292
0.033711337 0.66299999 -0.060447913 7.2758765e-39 349 292
0.034873798 0.66299999 -0.060447913 7.643936e-39 350 292
0.036253672 0.667 -0.060812607 7.5517404e-39 351 292
0.037591465 0.67000002 -0.061086133 7.4606237e-39 352 292
0.038650475 0.66799998 -0.060903784 7.3680694e-39 353 292
0.039821707 0.66799998 -0.060903784 7.0925643e-39 354 292
0.041115668 0.67000002 -0.061086133 6.8156173e-39 355 292
0.042290401 0.67000002 -0.061086133 6.6301568e-39 356 292
0.043465134 0.67000002 -0.061086133 6.6301568e-39 357 292
0.044639867 0.67000002 -0.061086133 6.541924e-39 358 292
-0.062243331 0.70999998 -0.065977924 8.3872632e-39 270 293
-0.060998458 0.70999998 -0.065977924 8.1106749e-39 271 293
-0.056723841 0.67400002 -0.062632568 8.200351e-39 272 293
-0.055377278 0.67199999 -0.062446721 8.0159597e-39 273 293
-0.054199036 0.67199999 -0.062446721 7.8308482e-39 274 293
-0.052941896 0.671 -0.06235379 7.6460982e-39 275 293
-0.051765412 0.671 -0.06235379 6.8192144e-39 276 293
-0.050588924 0.671 -0.06235379 6.5426275e-39 277 293
-0.049338799 0.67000002 -0.06226087 6.2667665e-39 278 293
-0.048020288 0.66799998 -0.062075011 6.1745694e-39 279 293
-0.046708796 0.66600001 -0.061889157 6.4511577e-39 280 293
-0.045404319 0.66399997 -0.061703302 8.2028747e-39 281 293
-0.044040225 0.66100001 -0.061424527 1.0504519e-38 282 293
-0.042881273 0.66100001 -0.061424527 1.0596714e-38 283 293
-0.04172232 0.66100001 -0.061424527 1.0871133e-38 284 293
-0.04044063 0.65899998 -0.061238669 8.9350251e-39 285 293
-0.039225571 0.65799999 -0.061145745 6.9074471e-39 286 293
-0.038014017 0.65700001 -0.061052818 6.9074471e-39 287 293
-0.036862079 0.65700001 -0.061052818 5.8050625e-39 288 293
-0.03560143 0.65499997 -0.060866963 5.7128654e-39 289 293
-0.034452997 0.65499997 -0.060866963 5.8972581e-39 290 293
-0.033304565 0.65499997 -0.060866963 6.173845e-39 291 293
-0.032156132 0.65499997 -0.060866963 7.3673533e-39 292 293
-0.030960357 0.65399998 -0.060774036 7.82833e-39 293 293
-0.029813679 0.65399998 -0.060774036 8.1956664e-39 294 293
-0.028666999 0.65399998 -0.060774036 8.1956664e-39 295 293
-0.027478239 0.653 -0.060681112 7.8286776e-39 296 293
-0.026333313 0.653 -0.060681112 7.7364819e-39 297 293
-0.025188386 0.653 -0.060681112 7.7364819e-39 298 293
-0.024006641 0.65200001 -0.060588185 7.6442863e-39 299 293
-0.022863466 0.65200001 -0.060588185 8.1027463e-39 300 293
-0.021720294 0.65200001 -0.060588185 8.194942e-39 301 293
-0.02057712 0.65200001 -0.060588185 8.1045414e-39 302 293
-0.019433947 0.65200001 -0.060588185 8.1967384e-39 303 293
-0.018234665 0.64999998 -0.060402326 8.1045414e-39 304 293
-0.017095 0.64999998 -0.060402326 8.0123458e-39 305 293
-0.015955333 0.64999998 -0.060402326 8.011271e-39 306 293
-0.014815666 0.64999998 -0.060402326 8.011271e-39 307 293
-0.013675999 0.64999998 -0.060402326 7.9197942e-39 308 293
-0.012536332 0.64999998 -0.060402326 7.9197942e-39 309 293
-0.011396666 0.64999998 -0.060402326 8.011271e-39 310 293
-0.010256999 0.64999998 -0.060402326 8.011271e-39 311 293
-0.0091173323 0.64999998 -0.060402326 8.0116269e-39 312 293
-0.0079776663 0.64999998 -0.060402326 8.0116269e-39 313 293
-0.0068379994 0.64999998 -0.060402326 7.7357631e-39 314 293
-0.005698333 0.64999998 -0.060402326 7.7357631e-39 315 293
-0.0045586661 0.64999998 -0.060402326 7.6435674e-39 316 293
-0.0034189997 0.64999998 -0.060402326 7.5513718e-39 317 293
-0.0022793331 0.64999998 -0.060402326 7.7346813e-39 318 293
-0.0011396665 0.64999998 -0.060402326 7.4584531e-39 319 293
0 0.65200001 -0.060588185 7.4584559e-39 320 293
0.0011431733 0.65200001 -0.060588185 7.3659016e-39 321 293
0.0022863466 0.65200001 -0.060588185 7.2744304e-39 322 293
0.0034295199 0.65200001 -0.060588185 7.0900405e-39 323 293
0.0045726933 0.65200001 -0.060588185 6.9982008e-39 324 293
0.0057158666 0.65200001 -0.060588185 7.0903965e-39 325 293
0.0068590399 0.65200001 -0.060588185 6.8152487e-39 326 293
0.0080022132 0.65200001 -0.060588185 6.6308575e-39 327 293
0.0091594132 0.653 -0.060681112 6.170601e-39 328 293
0.010304339 0.653 -0.060681112 6.0784053e-39 329 293
0.011449266 0.653 -0.060681112 5.1611252e-39 330 293
0.012594193 0.653 -0.060681112 5.1611252e-39 331 293
0.013760159 0.65399998 -0.060774036 5.3444402e-39 332 293
0.014906839 0.65399998 -0.060774036 5.8050597e-39 333 293
0.01605352 0.65399998 -0.060774036 7.5502998e-39 334 293
0.017226499 0.65499997 -0.060866963 8.7488416e-39 335 293
0.018374931 0.65499997 -0.060866963 9.4856752e-39 336 293
0.019523365 0.65499997 -0.060866963 9.8548178e-39 337 293
0.020734919 0.65700001 -0.061052818 9.3045181e-39 338 293
0.021886859 0.65700001 -0.061052818 9.2123211e-39 339 293
0.023073865 0.65799999 -0.061145745 8.2896557e-39 340 293
0.024264378 0.65899998 -0.061238669 6.3535475e-39 341 293
0.025419824 0.65899998 -0.061238669 5.8940183e-39 342 293
0.026655925 0.66100001 -0.061424527 6.0780494e-39 343 293
0.027856959 0.662 -0.061517447 5.4362827e-39 344 293
0.029017664 0.662 -0.061517447 5.7125095e-39 345 293
0.030178372 0.662 -0.061517447 6.3557181e-39 346 293
0.031386416 0.66299999 -0.061610378 6.8166977e-39 347 293
0.032548878 0.66299999 -0.061610378 7.2758737e-39 348 293
0.033914726 0.667 -0.06198208 7.3680694e-39 349 293
0.035136797 0.66799998 -0.062075011 7.5517404e-39 350 293
0.036416732 0.67000002 -0.06226087 7.5517404e-39 351 293
0.037591465 0.67000002 -0.06226087 7.3680694e-39 352 293
0.038766202 0.67000002 -0.06226087 7.3680694e-39 353 293
0.039940935 0.67000002 -0.06226087 6.9078157e-39 354 293
0.041115668 0.67000002 -0.06226087 6.7234244e-39 355 293
0.042290401 0.67000002 -0.06226087 6.3550147e-39 356 293
0.043465134 0.67000002 -0.06226087 6.7237972e-39 357 293
-0.054199036 0.67199999 -0.063624956 8.1077854e-39 274 294
-0.053020798 0.67199999 -0.063624956 7.8311985e-39 275 294
-0.051765412 0.671 -0.063530281 7.738284e-39 276 294
-0.050588924 0.671 -0.063530281 7.461337e-39 277 294
-0.049412437 0.671 -0.063530281 6.6341043e-39 278 294
-0.048164066 0.67000002 -0.063435599 6.6341043e-39 279 294
-0.046778932 0.667 -0.063151561 6.5422772e-39 280 294
-0.045541082 0.66600001 -0.063056879 7.2798422e-39 281 294
-0.044240102 0.66399997 -0.062867515 9.6744048e-39 282 294
-0.043011017 0.66299999 -0.062772833 1.059672e-38 283 294
-0.041848559 0.66299999 -0.062772833 1.1148441e-38 284 294
-0.04062473 0.662 -0.062678158 9.4892779e-39 285 294
-0.039404415 0.66100001 -0.062583476 8.1038253e-39 286 294
-0.038129739 0.65899998 -0.062394116 6.9052835e-39 287 294
-0.036918186 0.65799999 -0.062299434 5.6217502e-39 288 294
-0.035710141 0.65700001 -0.06220476 5.6217502e-39 289 294
-0.034558199 0.65700001 -0.06220476 5.6210411e-39 290 294
-0.033304565 0.65499997 -0.062015396 5.7135955e-39 291 294
-0.032156132 0.65499997 -0.062015396 6.4490053e-39 292 294
-0.031007698 0.65499997 -0.062015396 6.8177879e-39 293 294
-0.029859263 0.65499997 -0.062015396 8.1031163e-39 294 294
-0.028666999 0.65399998 -0.061920714 8.1031163e-39 295 294
-0.027520318 0.65399998 -0.061920714 7.7364819e-39 296 294
-0.02637364 0.65399998 -0.061920714 7.6442863e-39 297 294
-0.025226958 0.65399998 -0.061920714 7.8268825e-39 298 294
-0.024043459 0.653 -0.061826039 7.9190781e-39 299 294
-0.022898532 0.653 -0.061826039 7.4606181e-39 300 294
-0.021753605 0.653 -0.061826039 7.5531725e-39 301 294
-0.020608678 0.653 -0.061826039 7.8286776e-39 302 294
-0.019463753 0.653 -0.061826039 7.9208732e-39 303 294
-0.018290773 0.65200001 -0.061731357 8.1045386e-39 304 294
-0.017147599 0.65200001 -0.061731357 8.1045386e-39 305 294
-0.016004426 0.65200001 -0.061731357 8.0116269e-39 306 294
-0.014861252 0.65200001 -0.061731357 8.0116269e-39 307 294
-0.01371808 0.65200001 -0.061731357 7.9197942e-39 308 294
-0.012574906 0.65200001 -0.061731357 7.9197942e-39 309 294
-0.011431733 0.65200001 -0.061731357 8.011271e-39 310 294
-0.01028856 0.65200001 -0.061731357 7.9190753e-39 311 294
-0.0091453865 0.65200001 -0.061731357 7.7357631e-39 312 294
-0.0080022132 0.65200001 -0.061731357 7.7357631e-39 313 294
-0.0068590399 0.65200001 -0.061731357 8.1027463e-39 314 294
-0.0057158666 0.65200001 -0.061731357 7.9183565e-39 315 294
-0.0045726933 0.65200001 -0.061731357 7.5513718e-39 316 294
-0.0034295199 0.65200001 -0.061731357 7.4591762e-39 317 294
-0.0022863466 0.65200001 -0.061731357 7.4584559e-39 318 294
-0.0011431733 0.65200001 -0.061731357 7.4584559e-39 319 294
0 0.65200001 -0.061731357 7.4570238e-39 320 294
0.0011449266 0.653 -0.061826039 7.4570238e-39 321 294
0.0022898533 0.653 -0.061826039 7.0900433e-39 322 294
0.0034347798 0.653 -0.061826039 6.9978477e-39 323 294
0.0045797066 0.653 -0.061826039 6.8152487e-39 324 294
0.0057246331 0.653 -0.061826039 6.9078031e-39 325 294
0.0068695596 0.653 -0.061826039 6.9989169e-39 326 294
0.0080144862 0.653 -0.061826039 6.6301358e-39 327 294
0.0091734398 0.65399998 -0.061920714 6.2620777e-39 328 294
0.01032012 0.65399998 -0.061920714 6.0776865e-39 329 294
0.011466799 0.65399998 -0.061920714 5.3444374e-39 330 294
0.012632766 0.65499997 -0.062015396 5.2522418e-39 331 294
0.013781199 0.65499997 -0.062015396 5.6199481e-39 332 294
0.01497522 0.65700001 -0.06220476 5.8965364e-39 333 294
0.01612716 0.65700001 -0.06220476 8.5626455e-39 334 294
0.0172791 0.65700001 -0.06220476 9.2080149e-39 335 294
0.018459093 0.65799999 -0.062299434 9.3034349e-39 336 294
0.019612785 0.65799999 -0.062299434 9.4878276e-39 337 294
0.02076648 0.65799999 -0.062299434 9.7626222e-39 338 294
0.021953486 0.65899998 -0.062394116 9.1172528e-39 339 294
0.023108931 0.65899998 -0.062394116 8.1041897e-39 340 294
0.02433802 0.66100001 -0.062583476 6.9982008e-39 341 294
0.025496973 0.66100001 -0.062583476 6.2624435e-39 342 294
0.026696252 0.662 -0.062678158 6.0780522e-39 343 294
0.027899038 0.66299999 -0.062772833 5.5284784e-39 344 294
0.029061496 0.66299999 -0.062772833 5.8047065e-39 345 294
0.030223956 0.66299999 -0.062772833 6.5408282e-39 346 294
0.031433757 0.66399997 -0.062867515 6.7252209e-39 347 294
0.032696161 0.66600001 -0.063056879 7.3680694e-39 348 294
0.033965573 0.66799998 -0.063246235 7.3680694e-39 349 294
0.035241999 0.67000002 -0.063435599 7.5517404e-39 350 294
0.036471087 0.671 -0.063530281 7.3673505e-39 351 294
0.037647571 0.671 -0.063530281 7.0922083e-39 352 294
0.038824059 0.671 -0.063530281 6.9078157e-39 353 294
0.039940935 0.67000002 -0.063435599 6.6316015e-39 354 294
0.041115668 0.67000002 -0.063435599 6.4472103e-39 355 294
0.042290401 0.67000002 -0.063435599 6.1738674e-39 356 294
-0.054441001 0.67500001 -0.065092497 8.2936214e-39 274 295
-0.053020798 0.67199999 -0.064803198 7.9248403e-39 275 295
-0.051842555 0.67199999 -0.064803198 7.648252e-39 276 295
-0.050664317 0.67199999 -0.064803198 7.2794709e-39 277 295
-0.049486078 0.67199999 -0.064803198 6.8192144e-39 278 295
-0.048235953 0.671 -0.064706765 6.5426275e-39 279 295
-0.046989333 0.67000002 -0.064610332 6.8177823e-39 280 295
-0.045677837 0.66799998 -0.064417459 7.0947279e-39 281 295
-0.044439986 0.667 -0.064321034 8.5691349e-39 282 295
-0.043205637 0.66600001 -0.064224601 9.9520707e-39 283 295
-0.041911677 0.66399997 -0.064031735 1.0598139e-38 284 295
-0.040686097 0.66299999 -0.063935295 9.6765432e-39 285 295
-0.039523639 0.66299999 -0.063935295 9.3023629e-39 286 295
-0.038361177 0.66299999 -0.063935295 6.9056353e-39 287 295
-0.037142612 0.662 -0.063838862 5.7128598e-39 288 295
-0.035927553 0.66100001 -0.063742429 5.8054156e-39 289 295
-0.0347686 0.66100001 -0.063742429 5.5291972e-39 290 295
-0.033457108 0.65799999 -0.06345313 5.6213943e-39 291 295
-0.032303412 0.65799999 -0.06345313 6.5397534e-39 292 295
-0.03110238 0.65700001 -0.063356705 7.0007316e-39 293 295
-0.02995044 0.65700001 -0.063356705 8.1020373e-39 294 295
-0.028710833 0.65499997 -0.063163824 8.1020373e-39 295 295
-0.027562398 0.65499997 -0.063163824 7.7357659e-39 296 295
-0.026413966 0.65499997 -0.063163824 7.7357659e-39 297 295
-0.025265532 0.65499997 -0.063163824 7.6442891e-39 298 295
-0.024080278 0.65399998 -0.063067392 7.5517348e-39 299 295
-0.022933599 0.65399998 -0.063067392 7.5517348e-39 300 295
-0.021786919 0.65399998 -0.063067392 7.6442891e-39 301 295
-0.020671798 0.65499997 -0.063163824 7.9197942e-39 302 295
-0.019493559 0.65399998 -0.063067392 8.0119898e-39 303 295
-0.01834688 0.65399998 -0.063067392 8.1038253e-39 304 295
-0.017200198 0.65399998 -0.063067392 8.1038253e-39 305 295
-0.016028972 0.653 -0.062970966 8.0119898e-39 306 295
-0.014884046 0.653 -0.062970966 7.9197942e-39 307 295
-0.013760159 0.65399998 -0.063067392 8.011271e-39 308 295
-0.012613479 0.65399998 -0.063067392 7.9190753e-39 309 295
-0.011449266 0.653 -0.062970966 7.7357631e-39 310 295
-0.010304339 0.653 -0.062970966 7.7357631e-39 311 295
-0.0091594132 0.653 -0.062970966 7.9194313e-39 312 295
-0.0080144862 0.653 -0.062970966 7.9194313e-39 313 295
-0.0068695596 0.653 -0.062970966 7.7357631e-39 314 295
-0.0057246331 0.653 -0.062970966 7.6435674e-39 315 295
-0.0045797066 0.653 -0.062970966 7.5513718e-39 316 295
-0.0034347798 0.653 -0.062970966 7.4591762e-39 317 295
-0.0022898533 0.653 -0.062970966 7.4584531e-39 318 295
-0.0011449266 0.653 -0.062970966 7.3662575e-39 319 295
0 0.653 -0.062970966 7.457021e-39 320 295
0.00114668 0.65399998 -0.063067392 7.2729899e-39 321 295
0.00229336 0.65399998 -0.063067392 6.9978449e-39 322 295
0.0034347798 0.653 -0.062970966 6.9978449e-39 323 295
0.0045797066 0.653 -0.062970966 6.998198e-39 324 295
0.0057333997 0.65399998 -0.063067392 6.998198e-39 325 295
0.0068800794 0.65399998 -0.063067392 6.9056465e-39 326 295
0.008039033 0.65499997 -0.063163824 6.7212538e-39 327 295
0.0091874655 0.65499997 -0.063163824 6.0784053e-39 328 295
0.010335899 0.65499997 -0.063163824 5.8943742e-39 329 295
0.011484332 0.65499997 -0.063163824 5.2522418e-39 330 295
0.01267134 0.65700001 -0.063356705 5.3444374e-39 331 295
0.013823279 0.65700001 -0.063356705 5.711778e-39 332 295
0.014998012 0.65799999 -0.06345313 6.1723974e-39 333 295
0.016151706 0.65799999 -0.06345313 9.0232579e-39 334 295
0.017331699 0.65899998 -0.063549563 9.3920418e-39 335 295
0.018487146 0.65899998 -0.063549563 9.5782267e-39 336 295
0.019642593 0.65899998 -0.063549563 9.6704224e-39 337 295
0.02086116 0.66100001 -0.063742429 9.5778736e-39 338 295
0.022020113 0.66100001 -0.063742429 8.8403086e-39 339 295
0.023179067 0.66100001 -0.063742429 7.3662701e-39 340 295
0.024374841 0.662 -0.063838862 6.9056521e-39 341 295
0.025535546 0.662 -0.063838862 5.7114277e-39 342 295
0.026776904 0.66399997 -0.064031735 5.7114277e-39 343 295
0.027941117 0.66399997 -0.064031735 5.7121438e-39 344 295
0.02910533 0.66399997 -0.064031735 5.9890908e-39 345 295
0.030269546 0.66399997 -0.064031735 6.6326581e-39 346 295
0.031528439 0.66600001 -0.064224601 7.0010819e-39 347 295
0.032892533 0.67000002 -0.064610332 7.3684253e-39 348 295
0.034118112 0.671 -0.064706765 7.3684253e-39 349 295
0.0352946 0.671 -0.064706765 7.0925643e-39 350 295
0.036525436 0.67199999 -0.064803198 7.0003686e-39 351 295
0.037703678 0.67199999 -0.064803198 6.8152669e-39 352 295
0.038824059 0.671 -0.064706765 6.7230713e-39 353 295
0.040000543 0.671 -0.064706765 6.1720681e-39 354 295
0.041177034 0.671 -0.064706765 6.2642638e-39 355 295
-0.053178601 0.67400002 -0.066177815 8.1106749e-39 275 296
-0.051842555 0.67199999 -0.06598144 8.0181135e-39 276 296
-0.050664317 0.67199999 -0.06598144 7.5571354e-39 277 296
-0.049486078 0.67199999 -0.06598144 7.2801897e-39 278 296
-0.048235953 0.671 -0.065883249 7.0036014e-39 279 296
-0.047059465 0.671 -0.065883249 6.7266656e-39 280 296
-0.0458146 0.67000002 -0.065785065 6.7266656e-39 281 296
-0.044506609 0.66799998 -0.065588683 7.2798394e-39 282 296
-0.043205637 0.66600001 -0.065392323 8.7553282e-39 283 296
-0.042037919 0.66600001 -0.065392323 1.0504153e-38 284 296
-0.040747464 0.66399997 -0.06519594 1.0319762e-38 285 296
-0.039583251 0.66399997 -0.06519594 1.0132847e-38 286 296
-0.038419038 0.66399997 -0.06519594 7.551369e-39 287 296
-0.037254825 0.66399997 -0.06519594 5.989088e-39 288 296
-0.036036257 0.66299999 -0.065097757 5.989088e-39 289 296
-0.034873798 0.66299999 -0.065097757 5.7125095e-39 290 296
-0.033609647 0.66100001 -0.064901382 5.8047065e-39 291 296
-0.032450691 0.66100001 -0.064901382 6.1727716e-39 292 296
-0.031197058 0.65899998 -0.064705007 6.3571628e-39 293 296
-0.029996024 0.65799999 -0.064606823 7.5506656e-39 294 296
-0.028842334 0.65799999 -0.064606823 7.5506656e-39 295 296
-0.027688639 0.65799999 -0.064606823 7.7354099e-39 296 296
-0.026534945 0.65799999 -0.064606823 7.5510187e-39 297 296
-0.025381252 0.65799999 -0.064606823 7.6439332e-39 298 296
-0.024190739 0.65700001 -0.064508639 7.3677064e-39 299 296
-0.022968665 0.65499997 -0.064312264 7.3684253e-39 300 296
-0.021820232 0.65499997 -0.064312264 7.3684253e-39 301 296
-0.020734919 0.65700001 -0.064508639 7.6439332e-39 302 296
-0.019582979 0.65700001 -0.064508639 7.7361288e-39 303 296
-0.01843104 0.65700001 -0.064508639 8.0119926e-39 304 296
-0.017226499 0.65499997 -0.064312264 7.919797e-39 305 296
-0.016078066 0.65499997 -0.064312264 8.011271e-39 306 296
-0.014929632 0.65499997 -0.064312264 8.011271e-39 307 296
-0.013781199 0.65499997 -0.064312264 7.7357631e-39 308 296
-0.012632766 0.65499997 -0.064312264 7.7357631e-39 309 296
-0.011484332 0.65499997 -0.064312264 7.7357631e-39 310 296
-0.01032012 0.65399998 -0.064214081 7.6435674e-39 311 296
-0.0091734398 0.65399998 -0.064214081 7.7357631e-39 312 296
-0.0080267601 0.65399998 -0.064214081 7.7357631e-39 313 296
-0.0068800794 0.65399998 -0.064214081 7.8268797e-39 314 296
-0.0057333997 0.65399998 -0.064214081 7.7346841e-39 315 296
-0.0045867199 0.65399998 -0.064214081 7.5510159e-39 316 296
-0.0034400397 0.65399998 -0.064214081 7.3666232e-39 317 296
-0.00229336 0.65399998 -0.064214081 7.2744276e-39 318 296
-0.00114668 0.65399998 -0.064214081 7.0903965e-39 319 296
0 0.65499997 -0.064312264 7.2737087e-39 320 296
0.0011484332 0.65499997 -0.064312264 7.2737087e-39 321 296
0.0022968664 0.65499997 -0.064312264 6.722337e-39 322 296
0.0034452998 0.65499997 -0.064312264 6.9063681e-39 323 296
0.0045937328 0.65499997 -0.064312264 6.7223342e-39 324 296
0.0057421662 0.65499997 -0.064312264 6.7223342e-39 325 296
0.0068905996 0.65499997 -0.064312264 6.8134536e-39 326 296
0.0080635799 0.65700001 -0.064508639 6.629061e-39 327 296
0.0092155198 0.65700001 -0.064508639 5.8943742e-39 328 296
0.01036746 0.65700001 -0.064508639 5.8943742e-39 329 296
0.011519399 0.65700001 -0.064508639 5.3444346e-39 330 296
0.01267134 0.65700001 -0.064508639 5.3444346e-39 331 296
0.01384432 0.65799999 -0.064606823 5.8958119e-39 332 296
0.015020805 0.65899998 -0.064705007 6.633377e-39 333 296
0.016176252 0.65899998 -0.064705007 8.932507e-39 334 296
