# .PCD v.7 - Point Cloud Data file format
FIELDS x y z rgb imX imY
SIZE 4 4 4 4 4 4
TYPE F F F F F F
COUNT 1 1 1 1 1 1
WIDTH 846
HEIGHT 1
VIEWPOINT 0 0 0 1 0 0 0
POINTS 846
DATA ascii
0.011193279 0.79799998 -0.0097941197 5.5227148e-39 328 247
0.01256088 0.796 -0.0097695729 5.1539323e-39 329 247
0.013956533 0.796 -0.0097695729 5.1521527e-39 330 247
0.015352187 0.796 -0.0097695729 5.059957e-39 331 247
0.01674784 0.796 -0.0097695729 4.8759357e-39 332 247
0.018143492 0.796 -0.0097695729 4.9684901e-39 333 247
0.019490054 0.79400003 -0.0097450269 5.7020993e-39 334 247
0.0208822 0.79400003 -0.0097450269 5.4258725e-39 335 247
0.022218239 0.792 -0.0097204801 5.7921369e-39 336 247
0.02360688 0.792 -0.0097204801 5.6995811e-39 337 247
0.024995519 0.792 -0.0097204801 5.6995839e-39 338 247
0.026317533 0.79000002 -0.0096959332 5.8839766e-39 339 247
0.027702667 0.79000002 -0.0096959332 6.6200983e-39 340 247
0.029087799 0.79000002 -0.0096959332 7.4498604e-39 341 247
0.030434359 0.78899997 -0.0096836593 9.6553332e-39 342 247
0.031817738 0.78899997 -0.0096836593 9.3783862e-39 343 247
0.033201117 0.78899997 -0.0096836593 9.5620207e-39 344 247
0.034496833 0.787 -0.0096591124 9.3776281e-39 345 247
0.035876706 0.787 -0.0096591124 8.6415064e-39 346 247
0.037161902 0.78500003 -0.0096345674 8.9180918e-39 347 247
0.03853827 0.78500003 -0.0096345674 7.6352844e-39 348 247
0.039812941 0.78299999 -0.0096100196 7.819677e-39 349 247
0.0411858 0.78299999 -0.0096100196 6.9956799e-39 350 247
0.042558655 0.78299999 -0.0096100196 7.2719081e-39 351 247
0.043819305 0.78100002 -0.0095854728 7.1818662e-39 352 247
0.045130797 0.77999997 -0.0095731998 7.5506487e-39 353 247
0.046379171 0.778 -0.0095486529 9.1086166e-39 354 247
0.047620531 0.77600002 -0.009524107 9.016421e-39 355 247
0.048981119 0.77600002 -0.009524107 9.1064628e-39 356 247
0.050211959 0.77399999 -0.0094995592 9.1990171e-39 357 247
0.051569037 0.77399999 -0.0094995592 8.7412788e-39 358 247
0.052857738 0.773 -0.0094872871 8.8334744e-39 359 247
0.054072797 0.77100003 -0.0094627403 8.7405571e-39 360 247
0.055424623 0.77100003 -0.0094627403 8.5561659e-39 361 247
0.056629159 0.76899999 -0.0094381925 9.1957928e-39 362 247
0.057826683 0.76700002 -0.0094136465 9.1957928e-39 363 247
0.059171494 0.76700002 -0.0094136465 1.0021257e-38 364 247
0.0602796 0.764 -0.0093768267 1.0758822e-38 365 247
0.061457843 0.76200002 -0.0093522798 1.2334467e-38 366 247
0.06271147 0.76099998 -0.0093400059 1.7128641e-38 367 247
0.063877434 0.759 -0.00931546 1.5846203e-38 368 247
0.065036394 0.75700003 -0.0092909131 1.4463268e-38 369 247
0.066188328 0.755 -0.0092663663 1.3802019e-38 370 247
0.067243837 0.75199997 -0.0092295464 1.1404934e-38 371 247
0.068379998 0.75 -0.0092049995 1.066733e-38 372 247
0.069602072 0.74900001 -0.0091927266 1.048294e-38 373 247
0.070631281 0.74599999 -0.0091559067 1.0391113e-38 374 247
0.071746401 0.74400002 -0.0091313599 1.0575504e-38 375 247
0.072854504 0.74199998 -0.009106813 1.0760251e-38 376 247
0.074055538 0.741 -0.0090945391 1.0944283e-38 377 247
0.075151369 0.73900002 -0.0090699932 1.1036835e-38 378 247
0.076136746 0.736 -0.0090331733 1.1221227e-38 379 247
0.077216797 0.73400003 -0.0090086265 1.1221227e-38 380 247
0.07839679 0.73299998 -0.0089963535 1.1313422e-38 381 247
0.07946457 0.73100001 -0.0089718066 1.1407057e-38 382 247
0.080635801 0.73000002 -0.0089595336 1.1591807e-38 383 247
0.081579089 0.727 -0.0089227129 1.159216e-38 384 247
0.082625829 0.72500002 -0.0088981669 1.140741e-38 385 247
0.083665557 0.72299999 -0.0088736191 9.8447593e-39 386 247
0.083758481 0.713 -0.0087508867 1.0305737e-38 387 247
0.085008614 0.713 -0.0087508867 8.7517255e-39 388 247
0.086016782 0.71100003 -0.0087263398 8.8439211e-39 389 247
0.087263398 0.71100003 -0.0087263398 8.6606089e-39 390 247
0.08838553 0.70999998 -0.0087140659 8.384022e-39 391 247
0.089630395 0.70999998 -0.0087140659 8.1074421e-39 392 247
0.090875261 0.70999998 -0.0087140659 7.0007344e-39 393 247
-0.11850078 0.71899998 -0.010085173 1.567687e-38 226 248
-0.11691402 0.71700001 -0.01005712 1.567687e-38 227 248
-0.11565688 0.71700001 -0.01005712 1.5584674e-38 228 248
-0.11471885 0.71899998 -0.010085173 1.5769065e-38 229 248
-0.11345819 0.71899998 -0.010085173 1.5861621e-38 230 248
-0.1123536 0.72000003 -0.010099201 1.2173436e-38 231 248
-0.1110912 0.72000003 -0.010099201 9.4028752e-39 232 248
-0.1098288 0.72000003 -0.010099201 8.2043321e-39 233 248
-0.1085664 0.72000003 -0.010099201 8.5691349e-39 234 248
-0.107304 0.72000003 -0.010099201 8.1081581e-39 235 248
-0.10633615 0.722 -0.010127253 7.8304923e-39 236 248
-0.10521577 0.72299999 -0.01014128 7.646101e-39 237 248
-0.10394812 0.72299999 -0.01014128 7.9205271e-39 238 248
-0.10324854 0.727 -0.010197386 7.82833e-39 239 248
-0.10211413 0.72799999 -0.010211413 9.0196804e-39 240 248
-0.10111474 0.73000002 -0.010239467 8.8352891e-39 241 248
-0.10024507 0.73299998 -0.010281546 9.2926771e-39 242 248
-0.09909489 0.73400003 -0.010295574 9.2004815e-39 243 248
-0.098340951 0.73799998 -0.010351679 8.9238946e-39 244 248
-0.097178504 0.73900002 -0.010365707 8.7395034e-39 245 248
-0.096142277 0.741 -0.010393759 8.3707222e-39 246 248
-0.09522704 0.74400002 -0.01043584 8.2785252e-39 247 248
-0.094175033 0.74599999 -0.010463892 8.2774462e-39 248 248
-0.092991538 0.74699998 -0.010477919 8.0934151e-39 249 248
-0.092049994 0.75 -0.01052 8.0012166e-39 250 248
-0.090976954 0.75199997 -0.010548052 7.816824e-39 251 248
-0.089896902 0.75400001 -0.010576107 7.7239067e-39 252 248
-0.08869236 0.755 -0.010590133 7.6317111e-39 253 248
-0.087600037 0.75700003 -0.010618187 7.6309894e-39 254 248
-0.086500697 0.759 -0.01064624 7.6309894e-39 255 248
-0.085394338 0.76099998 -0.010674292 7.9979726e-39 256 248
-0.084060051 0.76099998 -0.010674292 7.8139415e-39 257 248
-0.082834482 0.76200002 -0.01068832 7.8139415e-39 258 248
-0.081498444 0.76200002 -0.01068832 7.9979726e-39 259 248
-0.080372795 0.764 -0.010716373 7.8139415e-39 260 248
-0.079240143 0.76599997 -0.010744425 7.8139415e-39 261 248
-0.077998787 0.76700002 -0.010758453 7.9972538e-39 262 248
-0.076853856 0.76899999 -0.010786506 7.9972538e-39 263 248
-0.075701922 0.77100003 -0.01081456 7.9972538e-39 264 248
-0.074542962 0.773 -0.010842613 8.0894494e-39 265 248
-0.073282316 0.77399999 -0.01085664 7.9979726e-39 266 248
-0.071925238 0.77399999 -0.01085664 7.8139415e-39 267 248
-0.070750505 0.77600002 -0.010884693 7.9979726e-39 268 248
-0.069568761 0.778 -0.010912746 7.8139415e-39 269 248
-0.068379998 0.77999997 -0.010940799 7.722106e-39 270 248
-0.067012392 0.77999997 -0.010940799 7.722106e-39 271 248
-0.065728955 0.78100002 -0.010954826 7.629909e-39 272 248
-0.064359605 0.78100002 -0.010954826 7.629909e-39 273 248
-0.063151553 0.78299999 -0.010982879 7.5387938e-39 274 248
-0.061936498 0.78500003 -0.011010934 7.5387938e-39 275 248
-0.060560133 0.78500003 -0.011010934 7.5387938e-39 276 248
-0.05933455 0.787 -0.011038986 7.4465967e-39 277 248
-0.05795468 0.787 -0.011038986 7.4465967e-39 278 248
-0.056574803 0.787 -0.011038986 7.5387938e-39 279 248
-0.055335198 0.78899997 -0.011067039 7.447317e-39 280 248
-0.053951818 0.78899997 -0.011067039 7.5395126e-39 281 248
-0.052568436 0.78899997 -0.011067039 6.8084146e-39 282 248
-0.051185057 0.78899997 -0.011067039 7.1771971e-39 283 248
-0.049864799 0.79000002 -0.011081067 6.5361437e-39 284 248
-0.048602398 0.792 -0.011109119 6.5361437e-39 285 248
-0.047332987 0.79400003 -0.011137174 7.0839281e-39 286 248
-0.045940842 0.79400003 -0.011137174 7.0839281e-39 287 248
-0.044548694 0.79400003 -0.011137174 7.2654495e-39 288 248
-0.043156546 0.79400003 -0.011137174 7.0810582e-39 289 248
-0.041764401 0.79400003 -0.011137174 7.4469667e-39 290 248
-0.040473945 0.796 -0.011165227 7.4469667e-39 291 248
-0.039078292 0.796 -0.011165227 7.8143073e-39 292 248
-0.037682641 0.796 -0.011165227 7.8143073e-39 293 248
-0.036286984 0.796 -0.011165227 7.7221088e-39 294 248
-0.03489133 0.796 -0.011165227 7.8143045e-39 295 248
-0.033579841 0.79799998 -0.011193279 7.9979726e-39 296 248
-0.032180678 0.79799998 -0.011193279 8.0901683e-39 297 248
-0.030781519 0.79799998 -0.011193279 8.183789e-39 298 248
-0.029382357 0.79799998 -0.011193279 8.3681817e-39 299 248
-0.027983198 0.79799998 -0.011193279 8.3685334e-39 300 248
-0.026584039 0.79799998 -0.011193279 8.275979e-39 301 248
-0.025184877 0.79799998 -0.011193279 7.7246101e-39 302 248
-0.023726106 0.796 -0.011165227 7.3554675e-39 303 248
-0.022330454 0.796 -0.011165227 6.2537989e-39 304 248
-0.020987399 0.79799998 -0.011193279 6.0690489e-39 305 248
-0.019637333 0.80000001 -0.011221333 5.3350824e-39 306 248
-0.018234666 0.80000001 -0.011221333 5.3350824e-39 307 248
-0.016832 0.80000001 -0.011221333 9.201908e-39 308 248
-0.015429333 0.80000001 -0.011221333 1.2889733e-38 309 248
-0.014026666 0.80000001 -0.011221333 1.520542e-38 310 248
-0.012624 0.80000001 -0.011221333 1.0687834e-38 311 248
-0.011249386 0.80199999 -0.011249386 6.2545177e-39 312 248
-0.0098186666 0.80000001 -0.011221333 5.1481702e-39 313 248
-0.0084159998 0.80000001 -0.011221333 5.2410833e-39 314 248
-0.007013333 0.80000001 -0.011221333 5.6102245e-39 315 248
-0.0056106667 0.80000001 -0.011221333 5.1528533e-39 316 248
-0.0042079999 0.80000001 -0.011221333 5.2450489e-39 317 248
-0.0028053334 0.80000001 -0.011221333 4.5082154e-39 318 248
-0.0014026667 0.80000001 -0.011221333 3.4937047e-39 319 248
0 0.79799998 -0.011193279 3.4018874e-39 320 248
0.0013991599 0.79799998 -0.011193279 3.5859186e-39 321 248
0.0027983198 0.79799998 -0.011193279 4.1380175e-39 322 248
0.0041974802 0.79799998 -0.011193279 4.3227675e-39 323 248
0.0055966396 0.79799998 -0.011193279 4.5986258e-39 324 248
0.0069957995 0.79799998 -0.011193279 5.2439952e-39 325 248
0.0083949603 0.79799998 -0.011193279 5.0642576e-39 326 248
0.0097941197 0.79799998 -0.011193279 5.2486489e-39 327 248
0.011193279 0.79799998 -0.011193279 5.613114e-39 328 248
0.01256088 0.796 -0.011165227 5.2443329e-39 329 248
0.013956533 0.796 -0.011165227 5.2418274e-39 330 248
0.015352187 0.796 -0.011165227 5.0574361e-39 331 248
0.01674784 0.796 -0.011165227 4.9648901e-39 332 248
0.018143492 0.796 -0.011165227 5.0570858e-39 333 248
0.019490054 0.79400003 -0.011137174 5.4233544e-39 334 248
0.0208822 0.79400003 -0.011137174 5.4233544e-39 335 248
0.022218239 0.792 -0.011109119 5.7903348e-39 336 248
0.023547266 0.79000002 -0.011081067 5.7903348e-39 337 248
0.024932399 0.79000002 -0.011081067 5.9743603e-39 338 248
0.026317533 0.79000002 -0.011081067 6.1583915e-39 339 248
0.027702667 0.79000002 -0.011081067 7.1685875e-39 340 248
0.02905098 0.78899997 -0.011067039 7.5370099e-39 341 248
0.030434359 0.78899997 -0.011067039 8.9152598e-39 342 248
0.031817738 0.78899997 -0.011067039 9.7450205e-39 343 248
0.033201117 0.78899997 -0.011067039 9.7503931e-39 344 248
0.034496833 0.787 -0.011038986 1.0395762e-38 345 248
0.035785533 0.78500003 -0.011010934 8.9260176e-39 346 248
0.037161902 0.78500003 -0.011010934 8.5575952e-39 347 248
0.038440078 0.78299999 -0.010982879 7.1814949e-39 348 248
0.039812941 0.78299999 -0.010982879 7.0892979e-39 349 248
0.0411858 0.78299999 -0.010982879 6.9063527e-39 350 248
0.042449951 0.78100002 -0.010954826 6.8141557e-39 351 248
0.043819305 0.78100002 -0.010954826 7.4577272e-39 352 248
0.045130797 0.77999997 -0.010940799 8.1952923e-39 353 248
0.046379171 0.778 -0.010912746 8.6537495e-39 354 248
0.047620531 0.77600002 -0.010884693 8.2849684e-39 355 248
0.048981119 0.77600002 -0.010884693 8.8338248e-39 356 248
0.050211959 0.77399999 -0.01085664 8.9260204e-39 357 248
0.051569037 0.77399999 -0.01085664 8.467566e-39 358 248
0.052857738 0.773 -0.010842613 8.3753703e-39 359 248
0.054072797 0.77100003 -0.01081456 8.7402068e-39 360 248
0.055280842 0.76899999 -0.010786506 8.2792287e-39 361 248
0.056629159 0.76899999 -0.010786506 9.3776701e-39 362 248
0.057826683 0.76700002 -0.010758453 9.3776701e-39 363 248
0.059094343 0.76599997 -0.010744425 1.0114532e-38 364 248
0.0602796 0.764 -0.010716373 1.1773694e-38 365 248
0.061457843 0.76200002 -0.01068832 1.1411419e-38 366 248
0.06271147 0.76099998 -0.010674292 1.1964593e-38 367 248
0.063709125 0.75700003 -0.010618187 1.1397415e-38 368 248
0.064864561 0.755 -0.010590133 8.3571114e-39 369 248
0.066188328 0.755 -0.010590133 9.3690731e-39 370 248
0.067243837 0.75199997 -0.010548052 1.0290671e-38 371 248
0.068288825 0.74900001 -0.010505973 9.5588314e-39 372 248
0.069416218 0.74699998 -0.010477919 9.651027e-39 373 248
0.070631281 0.74599999 -0.010463892 1.0386796e-38 374 248
0.071746401 0.74400002 -0.01043584 1.0755579e-38 375 248
0.072854504 0.74199998 -0.010407786 1.0664453e-38 376 248
0.074055538 0.741 -0.010393759 1.1033596e-38 377 248
0.075049676 0.73799998 -0.010351679 1.1126866e-38 378 248
0.076136746 0.736 -0.010323626 1.1126866e-38 379 248
0.077216797 0.73400003 -0.010295574 1.1126513e-38 380 248
0.078182884 0.73100001 -0.010253493 1.1218709e-38 381 248
0.079355866 0.73000002 -0.010239467 1.1404539e-38 382 248
0.080304414 0.727 -0.010197386 1.1681485e-38 383 248
0.08135467 0.72500002 -0.010169334 1.1408492e-38 384 248
0.082397893 0.72299999 -0.01014128 1.1224101e-38 385 248
0.083665557 0.72299999 -0.01014128 1.0211033e-38 386 248
0.083758481 0.713 -0.010001013 1.0856403e-38 387 248
0.084770165 0.71100003 -0.0099729598 8.9336056e-39 388 248
0.086016782 0.71100003 -0.0099729598 9.394225e-39 389 248
0.087140657 0.70999998 -0.0099589331 8.6613291e-39 390 248
0.08838553 0.70999998 -0.0099589331 8.4769365e-39 391 248
0.089630395 0.70999998 -0.0099589331 8.5666126e-39 392 248
0.090875261 0.70999998 -0.0099589331 7.0914811e-39 393 248
-0.11850078 0.71899998 -0.01134582 1.5861617e-38 226 249
-0.11675096 0.71600002 -0.01129848 1.5769421e-38 227 249
-0.11549557 0.71600002 -0.01129848 1.5860538e-38 228 249
-0.11471885 0.71899998 -0.01134582 1.6137126e-38 229 249
-0.11345819 0.71899998 -0.01134582 1.6504832e-38 230 249
-0.1123536 0.72000003 -0.011361601 1.3093594e-38 231 249
-0.1110912 0.72000003 -0.011361601 1.0323039e-38 232 249
-0.1098288 0.72000003 -0.011361601 7.649366e-39 233 249
-0.1085664 0.72000003 -0.011361601 8.1085267e-39 234 249
-0.107304 0.72000003 -0.011361601 7.9244956e-39 235 249
-0.10633615 0.722 -0.01139316 7.9237655e-39 236 249
-0.10507025 0.722 -0.01139316 7.64718e-39 237 249
-0.10380434 0.722 -0.01139316 8.2882306e-39 238 249
-0.1029645 0.72500002 -0.0114405 8.196035e-39 239 249
-0.10211413 0.72799999 -0.01148784 9.1111571e-39 240 249
-0.1008377 0.72799999 -0.01148784 9.0189615e-39 241 249
-0.099971563 0.73100001 -0.01153518 9.1093621e-39 242 249
-0.098959878 0.73299998 -0.011566739 9.0171664e-39 243 249
-0.098074451 0.736 -0.01161408 8.832415e-39 244 249
-0.097046994 0.73799998 -0.011645639 8.5561883e-39 245 249
-0.095882788 0.73900002 -0.01166142 8.7377055e-39 246 249
-0.094971053 0.74199998 -0.01170876 8.368923e-39 247 249
-0.094175033 0.74599999 -0.011771879 8.1845317e-39 248 249
-0.092991538 0.74699998 -0.011787659 8.000139e-39 249 249
-0.091927268 0.74900001 -0.01181922 7.9068658e-39 250 249
-0.090734996 0.75 -0.011835 7.8146702e-39 251 249
-0.089658447 0.75199997 -0.011866559 7.7217557e-39 252 249
-0.088574894 0.75400001 -0.01189812 7.6295587e-39 253 249
-0.087600037 0.75700003 -0.01194546 7.6295559e-39 254 249
-0.086500697 0.759 -0.01197702 7.6295559e-39 255 249
-0.085394338 0.76099998 -0.012008579 7.8125052e-39 256 249
-0.084060051 0.76099998 -0.012008579 7.9047008e-39 257 249
-0.082725771 0.76099998 -0.012008579 7.7221088e-39 258 249
-0.081498444 0.76200002 -0.01202436 7.6299118e-39 259 249
-0.080372795 0.764 -0.01205592 7.8135856e-39 260 249
-0.079240143 0.76599997 -0.012087479 7.8135856e-39 261 249
-0.077998787 0.76700002 -0.01210326 7.8139415e-39 262 249
-0.076853856 0.76899999 -0.012134819 7.7213858e-39 263 249
-0.07550554 0.76899999 -0.012134819 7.8135856e-39 264 249
-0.074350104 0.77100003 -0.01216638 7.8135856e-39 265 249
-0.073187642 0.773 -0.012197939 7.7221088e-39 266 249
-0.071925238 0.77399999 -0.01221372 7.7221088e-39 267 249
-0.070750505 0.77600002 -0.01224528 7.629909e-39 268 249
-0.069568761 0.778 -0.012276839 7.629909e-39 269 249
-0.068379998 0.77999997 -0.012308398 7.629909e-39 270 249
-0.067012392 0.77999997 -0.012308398 7.629909e-39 271 249
-0.065728955 0.78100002 -0.01232418 7.6299118e-39 272 249
-0.064359605 0.78100002 -0.01232418 7.6299118e-39 273 249
-0.063151553 0.78299999 -0.012355739 7.6299118e-39 274 249
-0.061778698 0.78299999 -0.012355739 7.7221088e-39 275 249
-0.060560133 0.78500003 -0.0123873 7.5387938e-39 276 249
-0.05933455 0.787 -0.01241886 7.5387938e-39 277 249
-0.05795468 0.787 -0.01241886 7.4465967e-39 278 249
-0.056574803 0.787 -0.01241886 7.4465967e-39 279 249
-0.055335198 0.78899997 -0.012450419 7.2640019e-39 280 249
-0.053951818 0.78899997 -0.012450419 7.4483932e-39 281 249
-0.052568436 0.78899997 -0.012450419 6.8084146e-39 282 249
-0.051185057 0.78899997 -0.012450419 6.9928072e-39 283 249
-0.049864799 0.79000002 -0.0124662 7.0832092e-39 284 249
-0.048602398 0.792 -0.012497759 6.9910136e-39 285 249
-0.047332987 0.79400003 -0.01252932 7.4480429e-39 286 249
-0.045940842 0.79400003 -0.01252932 7.3558472e-39 287 249
-0.044548694 0.79400003 -0.01252932 7.4469667e-39 288 249
-0.043156546 0.79400003 -0.01252932 7.4469667e-39 289 249
-0.041764401 0.79400003 -0.01252932 7.7221116e-39 290 249
-0.040473945 0.796 -0.01256088 7.7221116e-39 291 249
-0.039078292 0.796 -0.01256088 7.7213886e-39 292 249
-0.037682641 0.796 -0.01256088 7.8135856e-39 293 249
-0.036286984 0.796 -0.01256088 7.8139415e-39 294 249
-0.03489133 0.796 -0.01256088 7.9979726e-39 295 249
-0.033495679 0.796 -0.01256088 8.0905186e-39 296 249
-0.032100026 0.796 -0.01256088 8.3674642e-39 297 249
-0.030704373 0.796 -0.01256088 8.3678145e-39 298 249
-0.029308718 0.796 -0.01256088 8.4600102e-39 299 249
-0.027913066 0.796 -0.01256088 8.3674586e-39 300 249
-0.026517414 0.796 -0.01256088 8.1830674e-39 301 249
-0.02512176 0.796 -0.01256088 7.998323e-39 302 249
-0.023726106 0.796 -0.01256088 7.6295404e-39 303 249
-0.022330454 0.796 -0.01256088 6.9859703e-39 304 249
-0.0209348 0.796 -0.01256088 6.9859703e-39 305 249
-0.019637333 0.80000001 -0.012624 6.0690517e-39 306 249
-0.018234666 0.80000001 -0.012624 6.7144211e-39 307 249
-0.016832 0.80000001 -0.012624 9.0214796e-39 308 249
-0.015429333 0.80000001 -0.012624 1.2340522e-38 309 249
-0.014026666 0.80000001 -0.012624 1.3637018e-38 310 249
-0.012624 0.80000001 -0.012624 8.843205e-39 311 249
-0.011221333 0.80000001 -0.012624 5.5180415e-39 312 249
-0.0098186666 0.80000001 -0.012624 6.0712153e-39 313 249
-0.0084159998 0.80000001 -0.012624 6.805895e-39 314 249
-0.0069957995 0.79799998 -0.012592439 6.6215024e-39 315 249
-0.0055966396 0.79799998 -0.012592439 6.6243708e-39 316 249
-0.0041974802 0.79799998 -0.012592439 6.9013165e-39 317 249
-0.0027983198 0.79799998 -0.012592439 6.4392789e-39 318 249
-0.0013991599 0.79799998 -0.012592439 5.425127e-39 319 249
0 0.79799998 -0.012592439 5.3365467e-39 320 249
0.0013991599 0.79799998 -0.012592439 5.5209394e-39 321 249
0.0027983198 0.79799998 -0.012592439 5.9776001e-39 322 249
0.0041974802 0.79799998 -0.012592439 6.0697958e-39 323 249
0.0055966396 0.79799998 -0.012592439 5.8882716e-39 324 249
0.0069957995 0.79799998 -0.012592439 6.2570555e-39 325 249
0.0083949603 0.79799998 -0.012592439 5.9826196e-39 326 249
0.0097941197 0.79799998 -0.012592439 5.7978696e-39 327 249
0.011165227 0.796 -0.01256088 5.7953571e-39 328 249
0.01256088 0.796 -0.01256088 5.5187716e-39 329 249
0.013956533 0.796 -0.01256088 5.241833e-39 330 249
0.015352187 0.796 -0.01256088 4.7808562e-39 331 249
0.01674784 0.796 -0.01256088 4.1376532e-39 332 249
0.018143492 0.796 -0.01256088 4.2298502e-39 333 249
0.019490054 0.79400003 -0.01252932 4.412445e-39 334 249
0.020829599 0.792 -0.012497759 4.412445e-39 335 249
0.022218239 0.792 -0.012497759 5.3322307e-39 336 249
0.023547266 0.79000002 -0.0124662 5.516622e-39 337 249
0.024932399 0.79000002 -0.0124662 6.1598222e-39 338 249
0.026317533 0.79000002 -0.0124662 6.2523765e-39 339 249
0.027667599 0.78899997 -0.012450419 7.1685847e-39 340 249
0.02905098 0.78899997 -0.012450419 7.2607803e-39 341 249
0.030434359 0.78899997 -0.012450419 7.5355694e-39 342 249
0.031737085 0.787 -0.01241886 8.0887432e-39 343 249
0.033116959 0.787 -0.01241886 9.1039475e-39 344 249
0.034409165 0.78500003 -0.0123873 9.9337081e-39 345 249
0.035785533 0.78500003 -0.0123873 8.7466458e-39 346 249
0.037067216 0.78299999 -0.012355739 8.3782234e-39 347 249
0.038440078 0.78299999 -0.012355739 7.1847151e-39 348 249
0.039812941 0.78299999 -0.012355739 7.0925194e-39 349 249
0.0411858 0.78299999 -0.012355739 7.2751282e-39 350 249
0.042449951 0.78100002 -0.01232418 7.3673239e-39 351 249
0.043763198 0.77999997 -0.012308398 7.8275804e-39 352 249
0.045130797 0.77999997 -0.012308398 8.0123303e-39 353 249
0.046379171 0.778 -0.012276839 8.2860432e-39 354 249
0.047620531 0.77600002 -0.01224528 8.0094563e-39 355 249
0.048981119 0.77600002 -0.01224528 8.4682806e-39 356 249
0.050211959 0.77399999 -0.01221372 8.6530306e-39 357 249
0.051502414 0.773 -0.012197939 8.559763e-39 358 249
0.052857738 0.773 -0.012197939 8.0065892e-39 359 249
0.054072797 0.77100003 -0.01216638 9.0124805e-39 360 249
0.055280842 0.76899999 -0.012134819 8.8277305e-39 361 249
0.056629159 0.76899999 -0.012134819 9.6513829e-39 362 249
0.057826683 0.76700002 -0.01210326 9.8357742e-39 363 249
0.058940053 0.764 -0.01205592 1.0110935e-38 364 249
0.060121801 0.76200002 -0.01202436 1.0387523e-38 365 249
0.061377186 0.76099998 -0.012008579 1.0297491e-38 366 249
0.062546656 0.759 -0.01197702 9.1915034e-39 367 249
0.063709125 0.75700003 -0.01194546 9.3679661e-39 368 249
0.064864561 0.755 -0.011913899 8.9998996e-39 369 249
0.066100664 0.75400001 -0.01189812 9.8307365e-39 370 249
0.067065001 0.75 -0.011835 1.0660137e-38 371 249
0.068288825 0.74900001 -0.01181922 9.6503109e-39 372 249
0.069416218 0.74699998 -0.011787659 9.6503109e-39 373 249
0.070441924 0.74400002 -0.011740319 9.7432254e-39 374 249
0.071553528 0.74199998 -0.01170876 9.9276167e-39 375 249
0.072756313 0.741 -0.01169298 1.0296028e-38 376 249
0.073855661 0.73900002 -0.01166142 1.0296028e-38 377 249
0.07484629 0.736 -0.01161408 1.0756286e-38 378 249
0.07592985 0.73400003 -0.011582521 1.0756286e-38 379 249
0.077111594 0.73299998 -0.011566739 1.0481144e-38 380 249
0.078075938 0.73000002 -0.011519399 1.0573339e-38 381 249
0.07913845 0.72799999 -0.01148784 1.1033961e-38 382 249
0.080083504 0.72500002 -0.0114405 1.1310907e-38 383 249
0.081130236 0.72299999 -0.01140894 1.1129031e-38 384 249
0.082283929 0.722 -0.01139316 1.1129031e-38 385 249
0.082276918 0.71100003 -0.01121958 1.0486181e-38 386 249
0.083406061 0.70999998 -0.011203799 1.1039355e-38 387 249
0.084650926 0.70999998 -0.011203799 9.1169151e-39 388 249
0.085653841 0.708 -0.01117224 9.3938607e-39 389 249
0.086895198 0.708 -0.01117224 8.6606089e-39 390 249
0.088136561 0.708 -0.01117224 8.4762176e-39 391 249
0.089377917 0.708 -0.01117224 8.658811e-39 392 249
0.090875261 0.70999998 -0.011203799 7.1836809e-39 393 249
-0.11675096 0.71600002 -0.012553867 1.6045649e-38 227 250
-0.11549557 0.71600002 -0.012553867 1.6044929e-38 228 250
-0.11424018 0.71600002 -0.012553867 1.6505907e-38 229 250
-0.1139316 0.722 -0.012659066 1.6690666e-38 230 250
-0.1126657 0.722 -0.012659066 1.2911004e-38 231 250
-0.11016544 0.71399999 -0.012518799 1.0139371e-38 232 250
-0.10891356 0.71399999 -0.012518799 6.6359372e-39 233 250
-0.10811404 0.71700001 -0.0125714 7.5553501e-39 234 250
-0.10715496 0.71899998 -0.012606465 8.1085239e-39 235 250
-0.10589432 0.71899998 -0.012606465 7.9248459e-39 236 250
-0.10463367 0.71899998 -0.012606465 7.7400945e-39 237 250
-0.10337302 0.71899998 -0.012606465 8.380429e-39 238 250
-0.10225441 0.72000003 -0.012624 8.2882334e-39 239 250
-0.10197386 0.727 -0.012746733 9.2040758e-39 240 250
-0.1008377 0.72799999 -0.012764266 8.9274875e-39 241 250
-0.0998348 0.73000002 -0.012799333 9.1100809e-39 242 250
-0.098959878 0.73299998 -0.012851933 8.8338542e-39 243 250
-0.097807944 0.73400003 -0.012869466 8.7402194e-39 244 250
-0.097046994 0.73799998 -0.012939599 8.2796014e-39 245 250
-0.095753036 0.73799998 -0.012939599 8.4603955e-39 246 250
-0.094843052 0.741 -0.0129922 8.18381e-39 247 250
-0.093922555 0.74400002 -0.0130448 8.1827324e-39 248 250
-0.092867047 0.74599999 -0.013079867 7.8139513e-39 249 250
-0.091681793 0.74699998 -0.013097399 7.8132325e-39 250 250
-0.090614013 0.74900001 -0.013132467 7.7210354e-39 251 250
-0.089658447 0.75199997 -0.013185065 7.8121521e-39 252 250
-0.08833994 0.75199997 -0.013185065 7.7199564e-39 253 250
-0.087368593 0.755 -0.013237666 7.5362784e-39 254 250
-0.086272769 0.75700003 -0.013272733 7.5362784e-39 255 250
-0.085169919 0.759 -0.0133078 7.8117835e-39 256 250
-0.084060051 0.76099998 -0.013342866 7.9043379e-39 257 250
-0.082725771 0.76099998 -0.013342866 7.8125052e-39 258 250
-0.081391476 0.76099998 -0.013342866 7.8125052e-39 259 250
-0.080162399 0.76200002 -0.0133604 7.9047008e-39 260 250
-0.079033248 0.764 -0.013395466 7.9968978e-39 261 250
-0.077897087 0.76599997 -0.013430533 7.7221088e-39 262 250
-0.076853856 0.76899999 -0.013483133 7.7221088e-39 263 250
-0.07550554 0.76899999 -0.013483133 7.7221088e-39 264 250
-0.074350104 0.77100003 -0.013518199 7.7221088e-39 265 250
-0.073187642 0.773 -0.013553266 7.6299118e-39 266 250
-0.071925238 0.77399999 -0.013570799 7.6299118e-39 267 250
-0.070568159 0.77399999 -0.013570799 7.5387966e-39 268 250
-0.069389917 0.77600002 -0.013605867 7.5387966e-39 269 250
-0.068204664 0.778 -0.013640933 7.6299118e-39 270 250
-0.067012392 0.77999997 -0.013675999 7.5377162e-39 271 250
-0.065728955 0.78100002 -0.013693534 7.6291929e-39 272 250
-0.064359605 0.78100002 -0.013693534 7.7213886e-39 273 250
-0.062990256 0.78100002 -0.013693534 7.7213886e-39 274 250
-0.061778698 0.78299999 -0.013728599 7.8135856e-39 275 250
-0.060560133 0.78500003 -0.013763667 7.7221088e-39 276 250
-0.059183765 0.78500003 -0.013763667 7.6299118e-39 277 250
-0.05795468 0.787 -0.013798732 7.5387938e-39 278 250
-0.056574803 0.787 -0.013798732 7.4465967e-39 279 250
-0.055194929 0.787 -0.013798732 7.5391497e-39 280 250
-0.053951818 0.78899997 -0.013833799 7.5391497e-39 281 250
-0.052568436 0.78899997 -0.013833799 7.3569192e-39 282 250
-0.051185057 0.78899997 -0.013833799 7.4491149e-39 283 250
-0.049864799 0.79000002 -0.013851333 7.5395154e-39 284 250
-0.048602398 0.792 -0.0138864 7.4473198e-39 285 250
-0.047213759 0.792 -0.0138864 7.4473198e-39 286 250
-0.045940842 0.79400003 -0.013921468 7.354764e-39 287 250
-0.044548694 0.79400003 -0.013921468 7.5387938e-39 288 250
-0.043156546 0.79400003 -0.013921468 7.5387938e-39 289 250
-0.041764401 0.79400003 -0.013921468 7.8139387e-39 290 250
-0.040473945 0.796 -0.013956533 7.8139387e-39 291 250
-0.039078292 0.796 -0.013956533 7.8139359e-39 292 250
-0.037682641 0.796 -0.013956533 7.8139359e-39 293 250
-0.036286984 0.796 -0.013956533 7.8139359e-39 294 250
-0.03489133 0.796 -0.013956533 8.182717e-39 295 250
-0.033495679 0.796 -0.013956533 8.000118e-39 296 250
-0.032100026 0.796 -0.013956533 8.0926724e-39 297 250
-0.030704373 0.796 -0.013956533 8.2759847e-39 298 250
-0.029308718 0.796 -0.013956533 7.9993992e-39 299 250
-0.027913066 0.796 -0.013956533 8.1819982e-39 300 250
-0.026517414 0.796 -0.013956533 8.0898025e-39 301 250
-0.02512176 0.796 -0.013956533 8.0887221e-39 302 250
-0.023726106 0.796 -0.013956533 7.719941e-39 303 250
-0.022330454 0.796 -0.013956533 7.3522347e-39 304 250
-0.0209348 0.796 -0.013956533 7.4444303e-39 305 250
-0.019588239 0.79799998 -0.013991599 6.9863262e-39 306 250
-0.018189078 0.79799998 -0.013991599 7.5395e-39 307 250
-0.016789921 0.79799998 -0.013991599 7.9126097e-39 308 250
-0.015429333 0.80000001 -0.014026666 9.4799369e-39 309 250
-0.013991599 0.79799998 -0.013991599 1.0493e-38 310 250
-0.012592439 0.79799998 -0.013991599 8.0955535e-39 311 250
-0.011193279 0.79799998 -0.013991599 6.0730019e-39 312 250
-0.0097941197 0.79799998 -0.013991599 7.8243588e-39 313 250
-0.0083949603 0.79799998 -0.013991599 9.6657406e-39 314 250
-0.0069957995 0.79799998 -0.013991599 9.1125668e-39 315 250
-0.0055966396 0.79799998 -0.013991599 8.9317433e-39 316 250
-0.0041974802 0.79799998 -0.013991599 8.9317433e-39 317 250
-0.0027983198 0.79799998 -0.013991599 8.2842509e-39 318 250
-0.0013991599 0.79799998 -0.013991599 7.9151097e-39 319 250
0 0.79799998 -0.013991599 7.3684253e-39 320 250
0.0013991599 0.79799998 -0.013991599 7.5528166e-39 321 250
0.0027983198 0.79799998 -0.013991599 8.1027407e-39 322 250
0.0041974802 0.79799998 -0.013991599 7.7343169e-39 323 250
0.0055966396 0.79799998 -0.013991599 7.4573713e-39 324 250
0.0069957995 0.79799998 -0.013991599 7.2733402e-39 325 250
0.0083739199 0.796 -0.013956533 6.9956799e-39 326 250
0.0097695729 0.796 -0.013956533 6.9956799e-39 327 250
0.011165227 0.796 -0.013956533 7.4519861e-39 328 250
0.01256088 0.796 -0.013956533 7.3597905e-39 329 250
0.013956533 0.796 -0.013956533 6.7151498e-39 330 250
0.015352187 0.796 -0.013956533 5.8850304e-39 331 250
0.01674784 0.796 -0.013956533 5.057083e-39 332 250
0.018097907 0.79400003 -0.013921468 4.7808562e-39 333 250
0.019490054 0.79400003 -0.013921468 4.8712554e-39 334 250
0.020829599 0.792 -0.0138864 4.9634524e-39 335 250
0.022218239 0.792 -0.0138864 5.8857548e-39 336 250
0.023547266 0.79000002 -0.013851333 6.2545373e-39 337 250
0.024932399 0.79000002 -0.013851333 7.0806869e-39 338 250
0.026317533 0.79000002 -0.013851333 6.9884898e-39 339 250
0.027667599 0.78899997 -0.013833799 7.7192221e-39 340 250
0.02905098 0.78899997 -0.013833799 7.7192221e-39 341 250
0.030434359 0.78899997 -0.013833799 8.0858523e-39 342 250
0.031737085 0.787 -0.013798732 8.4546348e-39 343 250
0.033116959 0.787 -0.013798732 8.3681789e-39 344 250
0.034409165 0.78500003 -0.013763667 9.7511133e-39 345 250
0.035694357 0.78299999 -0.013728599 8.9306881e-39 346 250
0.037067216 0.78299999 -0.013728599 8.8384911e-39 347 250
0.038440078 0.78299999 -0.013728599 7.9201291e-39 348 250
0.039711244 0.78100002 -0.013693534 7.8279335e-39 349 250
0.041080598 0.78100002 -0.013693534 7.6446212e-39 350 250
0.042449951 0.78100002 -0.013693534 7.920848e-39 351 250
0.043763198 0.77999997 -0.013675999 8.0126933e-39 352 250
0.045015078 0.778 -0.013640933 7.6442709e-39 353 250
0.046379171 0.778 -0.013640933 7.7332421e-39 354 250
0.047620531 0.77600002 -0.013605867 7.5488509e-39 355 250
0.04885488 0.77399999 -0.013570799 8.0998695e-39 356 250
0.050211959 0.77399999 -0.013570799 8.4690121e-39 357 250
0.051502414 0.773 -0.013553266 9.0178643e-39 358 250
0.052720979 0.77100003 -0.013518199 8.3724949e-39 359 250
0.053932533 0.76899999 -0.013483133 9.3787365e-39 360 250
0.055137072 0.76700002 -0.013448066 9.1943452e-39 361 250
0.056481879 0.76700002 -0.013448066 9.5584614e-39 362 250
0.057751291 0.76599997 -0.013430533 9.6506584e-39 363 250
0.058940053 0.764 -0.013395466 9.9243699e-39 364 250
0.060121801 0.76200002 -0.0133604 9.2790005e-39 365 250
0.061377186 0.76099998 -0.013342866 9.185723e-39 366 250
0.062546656 0.759 -0.0133078 8.8165804e-39 367 250
0.063709125 0.75700003 -0.013272733 9.186086e-39 368 250
0.064864561 0.755 -0.013237666 9.923651e-39 369 250
0.06592533 0.75199997 -0.013185065 1.0292434e-38 370 250
0.067065001 0.75 -0.01315 1.0292434e-38 371 250
0.068288825 0.74900001 -0.013132467 9.8336064e-39 372 250
0.069323286 0.74599999 -0.013079867 9.8336064e-39 373 250
0.07025256 0.74199998 -0.013009733 9.5584614e-39 374 250
0.071457103 0.741 -0.0129922 9.5584614e-39 375 250
0.072559945 0.73900002 -0.012957133 9.8343294e-39 376 250
0.073555835 0.736 -0.012904533 9.8343294e-39 377 250
0.074642912 0.73400003 -0.012869466 1.0110914e-38 378 250
0.075826399 0.73299998 -0.012851933 1.0203468e-38 379 250
0.076796003 0.73000002 -0.012799333 1.0478973e-38 380 250
0.077862024 0.72799999 -0.012764266 1.0478973e-38 381 250
0.078812331 0.72500002 -0.012711667 1.0938879e-38 382 250
0.07986258 0.72299999 -0.012676599 1.112291e-38 383 250
0.081018023 0.722 -0.012659066 1.0941403e-38 384 250
0.08125823 0.713 -0.012501267 1.121763e-38 385 250
0.082276918 0.71100003 -0.0124662 1.0300715e-38 386 250
0.083406061 0.70999998 -0.012448666 1.0946085e-38 387 250
0.084412478 0.708 -0.0124136 9.2995113e-39 388 250
0.085532859 0.70700002 -0.012396066 9.6686525e-39 389 250
0.086772464 0.70700002 -0.012396066 8.6606089e-39 390 250
0.087887585 0.70599997 -0.012378532 8.4762176e-39 391 250
0.089125432 0.70599997 -0.012378532 8.5666154e-39 392 250
-0.11140679 0.70599997 -0.013616386 1.6231492e-38 230 251
-0.11016893 0.70599997 -0.013616386 1.0791949e-38 231 251
-0.1086225 0.704 -0.013577812 7.1023131e-39 232 251
-0.10738816 0.704 -0.013577812 5.350236e-39 233 251
-0.10751089 0.713 -0.013751393 8.1074421e-39 234 251
-0.10670786 0.71600002 -0.013809253 8.4758645e-39 235 251
-0.10545248 0.71600002 -0.013809253 8.2010726e-39 236 251
-0.10419709 0.71600002 -0.013809253 7.6478989e-39 237 251
-0.10308547 0.71700001 -0.013828539 8.5630252e-39 238 251
-0.10225441 0.72000003 -0.0138864 8.4708296e-39 239 251
-0.10169333 0.72500002 -0.013982833 9.2948281e-39 240 251
-0.10069919 0.727 -0.014021406 9.1100781e-39 241 251
-0.099561274 0.72799999 -0.014040692 8.924968e-39 242 251
-0.098689869 0.73100001 -0.014098554 8.5561855e-39 243 251
-0.09767469 0.73299998 -0.014137126 8.6447896e-39 244 251
-0.096783996 0.736 -0.014194986 8.2760085e-39 245 251
-0.095493548 0.736 -0.014194986 8.1827324e-39 246 251
-0.094587073 0.73900002 -0.014252847 7.906147e-39 247 251
-0.093670078 0.74199998 -0.014310705 7.9976223e-39 248 251
-0.092618078 0.74400002 -0.01434928 7.7210354e-39 249 251
-0.091681793 0.74699998 -0.014407139 7.628837e-39 250 251
-0.090372056 0.74699998 -0.014407139 7.5366414e-39 251 251
-0.089300767 0.74900001 -0.014445714 7.7195907e-39 252 251
-0.088105001 0.75 -0.014465 7.7195907e-39 253 251
-0.087252878 0.75400001 -0.014542146 7.6273951e-39 254 251
-0.086044833 0.755 -0.014561433 7.6273951e-39 255 251
-0.085169919 0.759 -0.014638579 7.7195879e-39 256 251
-0.084060051 0.76099998 -0.014677152 7.7195879e-39 257 251
-0.082725771 0.76099998 -0.014677152 7.5362728e-39 258 251
-0.081391476 0.76099998 -0.014677152 7.7206627e-39 259 251
-0.080162399 0.76200002 -0.01469644 7.6295461e-39 260 251
-0.079033248 0.764 -0.014735013 7.7217417e-39 261 251
-0.077897087 0.76599997 -0.014773586 7.4465967e-39 262 251
-0.07665398 0.76700002 -0.014792874 7.5387938e-39 263 251
-0.07550554 0.76899999 -0.014831445 7.7221088e-39 264 251
-0.074350104 0.77100003 -0.01487002 7.6299118e-39 265 251
-0.073187642 0.773 -0.014908593 7.629909e-39 266 251
-0.071832314 0.773 -0.014908593 7.722106e-39 267 251
-0.070568159 0.77399999 -0.014927879 7.4465939e-39 268 251
-0.069389917 0.77600002 -0.014966453 7.4465939e-39 269 251
-0.068204664 0.778 -0.015005025 7.4465967e-39 270 251
-0.067012392 0.77999997 -0.0150436 7.4465967e-39 271 251
-0.065644793 0.77999997 -0.0150436 7.629909e-39 272 251
-0.064359605 0.78100002 -0.015062887 7.629909e-39 273 251
-0.062990256 0.78100002 -0.015062887 7.722106e-39 274 251
-0.061778698 0.78299999 -0.01510146 7.8143016e-39 275 251
-0.060405839 0.78299999 -0.01510146 7.722106e-39 276 251
-0.059183765 0.78500003 -0.015140033 7.629909e-39 277 251
-0.057807401 0.78500003 -0.015140033 7.5387938e-39 278 251
-0.056574803 0.787 -0.015178605 7.4465967e-39 279 251
-0.055194929 0.787 -0.015178605 7.629909e-39 280 251
-0.053815059 0.787 -0.015178605 7.722106e-39 281 251
-0.052568436 0.78899997 -0.015217179 7.6313453e-39 282 251
-0.051185057 0.78899997 -0.015217179 7.6313453e-39 283 251
-0.049801677 0.78899997 -0.015217179 7.6313453e-39 284 251
-0.048479669 0.79000002 -0.015236467 7.5391497e-39 285 251
-0.047213759 0.792 -0.01527504 7.4473142e-39 286 251
-0.045825116 0.792 -0.01527504 7.4473142e-39 287 251
-0.044436477 0.792 -0.01527504 7.5398686e-39 288 251
-0.043156546 0.79400003 -0.015313613 7.5398686e-39 289 251
-0.041764401 0.79400003 -0.015313613 7.9072063e-39 290 251
-0.040372252 0.79400003 -0.015313613 7.9072063e-39 291 251
-0.038980108 0.79400003 -0.015313613 7.9075595e-39 292 251
-0.037682641 0.796 -0.015352187 7.9075595e-39 293 251
-0.036286984 0.796 -0.015352187 7.8160799e-39 294 251
-0.03489133 0.796 -0.015352187 8.0004712e-39 295 251
-0.033495679 0.796 -0.015352187 8.0926696e-39 296 251
-0.032100026 0.796 -0.015352187 8.000474e-39 297 251
-0.030704373 0.796 -0.015352187 8.0905186e-39 298 251
-0.029308718 0.796 -0.015352187 7.998323e-39 299 251
-0.027913066 0.796 -0.015352187 8.0883662e-39 300 251
-0.026517414 0.796 -0.015352187 7.9043351e-39 301 251
-0.02512176 0.796 -0.015352187 7.9032561e-39 302 251
-0.023726106 0.796 -0.015352187 7.719225e-39 303 251
-0.022330454 0.796 -0.015352187 7.1631701e-39 304 251
-0.0209348 0.796 -0.015352187 6.2448137e-39 305 251
-0.019588239 0.79799998 -0.015390759 4.1325973e-39 306 251
-0.018189078 0.79799998 -0.015390759 4.4081038e-39 307 251
-0.016789921 0.79799998 -0.015390759 4.8672813e-39 308 251
-0.015390759 0.79799998 -0.015390759 5.4200893e-39 309 251
-0.013991599 0.79799998 -0.015390759 6.7079373e-39 310 251
-0.012592439 0.79799998 -0.015390759 7.4454995e-39 311 251
-0.011193279 0.79799998 -0.015390759 6.9924331e-39 312 251
-0.0097941197 0.79799998 -0.015390759 9.6661064e-39 313 251
-0.0083949603 0.79799998 -0.015390759 1.1139792e-38 314 251
-0.0069957995 0.79799998 -0.015390759 1.0586618e-38 315 251
-0.0055966396 0.79799998 -0.015390759 9.946268e-39 316 251
-0.0041974802 0.79799998 -0.015390759 9.3930942e-39 317 251
-0.0027983198 0.79799998 -0.015390759 8.3739424e-39 318 251
-0.0013991599 0.79799998 -0.015390759 7.728573e-39 319 251
0 0.79799998 -0.015390759 6.0794984e-39 320 251
0.0013991599 0.79799998 -0.015390759 6.7248678e-39 321 251
0.0027983198 0.79799998 -0.015390759 7.9208732e-39 322 251
0.0041869599 0.796 -0.015352187 7.8286776e-39 323 251
0.0055826134 0.796 -0.015352187 8.3771668e-39 324 251
0.0069782664 0.796 -0.015352187 8.3771668e-39 325 251
0.0083739199 0.796 -0.015352187 8.7448731e-39 326 251
0.0097695729 0.796 -0.015352187 9.3902425e-39 327 251
0.011165227 0.796 -0.015352187 1.0489756e-38 328 251
0.01256088 0.796 -0.015352187 1.0489756e-38 329 251
0.013956533 0.796 -0.015352187 1.0397207e-38 330 251
0.015313613 0.79400003 -0.015313613 9.7518378e-39 331 251
0.016705759 0.79400003 -0.015313613 8.4657877e-39 332 251
0.018097907 0.79400003 -0.015313613 8.4657877e-39 333 251
0.01944096 0.792 -0.01527504 8.0984499e-39 334 251
0.020829599 0.792 -0.01527504 8.7438194e-39 335 251
0.022162134 0.79000002 -0.015236467 9.0247166e-39 336 251
0.023547266 0.79000002 -0.015236467 9.117271e-39 337 251
0.024932399 0.79000002 -0.015236467 9.5728387e-39 338 251
0.026317533 0.79000002 -0.015236467 8.3742955e-39 339 251
0.027667599 0.78899997 -0.015217179 8.8269906e-39 340 251
0.02905098 0.78899997 -0.015217179 8.5504051e-39 341 251
0.03035721 0.787 -0.015178605 9.5645571e-39 342 251
0.031737085 0.787 -0.015178605 1.0947492e-38 343 251
0.033032801 0.78500003 -0.015140033 9.5771323e-39 344 251
0.034409165 0.78500003 -0.015140033 1.0038471e-38 345 251
0.035694357 0.78299999 -0.01510146 9.5814357e-39 346 251
0.037067216 0.78299999 -0.01510146 9.3966843e-39 347 251
0.038440078 0.78299999 -0.01510146 8.8435133e-39 348 251
0.039711244 0.78100002 -0.015062887 8.1059483e-39 349 251
0.041080598 0.78100002 -0.015062887 7.6453373e-39 350 251
0.042449951 0.78100002 -0.015062887 7.5531417e-39 351 251
0.043763198 0.77999997 -0.0150436 7.5517221e-39 352 251
0.045015078 0.778 -0.015005025 6.6294057e-39 353 251
0.046259947 0.77600002 -0.014966453 6.5332724e-39 354 251
0.047620531 0.77600002 -0.014966453 6.7176651e-39 355 251
0.04885488 0.77399999 -0.014927879 7.727494e-39 356 251
0.050147086 0.773 -0.014908593 8.3728634e-39 357 251
0.051502414 0.773 -0.014908593 9.2000933e-39 358 251
0.052720979 0.77100003 -0.01487002 9.4763215e-39 359 251
0.053932533 0.76899999 -0.014831445 9.4734404e-39 360 251
0.055137072 0.76700002 -0.014792874 9.1042978e-39 361 251
0.056481879 0.76700002 -0.014792874 9.7435603e-39 362 251
0.057751291 0.76599997 -0.014773586 9.466972e-39 363 251
0.058940053 0.764 -0.014735013 9.6484906e-39 364 251
0.060121801 0.76200002 -0.01469644 9.4640994e-39 365 251
0.061377186 0.76099998 -0.014677152 9.5548517e-39 366 251
0.062546656 0.759 -0.014638579 9.5548517e-39 367 251
0.063540794 0.755 -0.014561433 9.6488466e-39 368 251
0.064864561 0.755 -0.014561433 1.0017269e-38 369 251
0.06592533 0.75199997 -0.014503572 1.0110188e-38 370 251
0.067065001 0.75 -0.014465 9.8339595e-39 371 251
0.068106472 0.74699998 -0.014407139 9.9240013e-39 372 251
0.069137439 0.74400002 -0.01434928 1.0016556e-38 373 251
0.07025256 0.74199998 -0.014310705 9.6499312e-39 374 251
0.071457103 0.741 -0.01429142 9.6499312e-39 375 251
0.072461754 0.73799998 -0.014233559 9.4666161e-39 376 251
0.073555835 0.736 -0.014194986 9.6513675e-39 377 251
0.074541211 0.73299998 -0.014137126 1.0019068e-38 378 251
0.075619511 0.73100001 -0.014098554 1.0203818e-38 379 251
0.076585598 0.72799999 -0.014040692 1.0387849e-38 380 251
0.077755071 0.727 -0.014021406 1.0387849e-38 381 251
0.078594916 0.72299999 -0.01394426 1.0662644e-38 382 251
0.079752117 0.722 -0.013924973 1.0939232e-38 383 251
0.079783678 0.71100003 -0.01371282 1.0848481e-38 384 251
0.081030294 0.71100003 -0.01371282 1.1125068e-38 385 251
0.082161188 0.70999998 -0.013693533 1.0393264e-38 386 251
0.083171122 0.708 -0.013654959 1.0854242e-38 387 251
0.084293254 0.70700002 -0.013635674 9.2991455e-39 388 251
0.085411869 0.70599997 -0.013616386 9.8523179e-39 389 251
0.086404264 0.704 -0.013577812 8.6609648e-39 390 251
0.087638609 0.704 -0.013577812 8.4762148e-39 391 251
0.088746719 0.70300001 -0.013558527 8.2903844e-39 392 251
0.089979313 0.70300001 -0.013558527 7.8290475e-39 393 251
-0.11140679 0.70599997 -0.014854239 1.5586123e-38 230 252
-0.10985684 0.704 -0.014812159 9.1324288e-39 231 252
-0.1086225 0.704 -0.014812159 4.7048638e-39 232 252
-0.10738816 0.704 -0.014812159 5.4424288e-39 233 252
-0.10751089 0.713 -0.015001519 8.1078022e-39 234 252
-0.10670786 0.71600002 -0.01506464 8.2925522e-39 235 252
-0.10545248 0.71600002 -0.01506464 8.2003538e-39 236 252
-0.10419709 0.71600002 -0.01506464 7.9237655e-39 237 252
-0.10294171 0.71600002 -0.01506464 8.5619462e-39 238 252
-0.10225441 0.72000003 -0.0151488 8.2857181e-39 239 252
-0.100992 0.72000003 -0.0151488 9.0175294e-39 240 252
-0.10042217 0.72500002 -0.015254001 8.7413026e-39 241 252
-0.099424519 0.727 -0.015296079 8.2792455e-39 242 252
-0.098284848 0.72799999 -0.01531712 7.9108217e-39 243 252
-0.097408183 0.73100001 -0.01538024 7.9997831e-39 244 252
-0.096521005 0.73400003 -0.01544336 7.7235564e-39 245 252
-0.095234051 0.73400003 -0.01544336 8.1812919e-39 246 252
-0.094203092 0.736 -0.015485439 7.9969006e-39 247 252
-0.093291357 0.73900002 -0.01554856 7.9047008e-39 248 252
-0.092618078 0.74400002 -0.015653761 7.8125052e-39 249 252
-0.091559067 0.74599999 -0.015695838 7.7203096e-39 250 252
-0.090251073 0.74599999 -0.015695838 7.5362784e-39 251 252
-0.089062311 0.74699998 -0.015716879 7.4437241e-39 252 252
-0.087987527 0.74900001 -0.01575896 7.4437241e-39 253 252
-0.086789995 0.75 -0.01578 7.3515284e-39 254 252
-0.085930869 0.75400001 -0.01586416 7.3515284e-39 255 252
-0.084945492 0.75700003 -0.015927281 7.3515284e-39 256 252
-0.083839141 0.759 -0.015969358 7.3515284e-39 257 252
-0.082725771 0.76099998 -0.016011439 7.3526032e-39 258 252
-0.081391476 0.76099998 -0.016011439 7.3526032e-39 259 252
-0.080057196 0.76099998 -0.016011439 7.2614866e-39 260 252
-0.07882636 0.76200002 -0.01603248 7.5377134e-39 261 252
-0.077897087 0.76599997 -0.016116638 7.3544011e-39 262 252
-0.07665398 0.76700002 -0.01613768 7.4465967e-39 263 252
-0.075309172 0.76700002 -0.01613768 7.6299118e-39 264 252
-0.074157231 0.76899999 -0.016179759 7.6299118e-39 265 252
-0.073187642 0.773 -0.016263919 7.4465967e-39 266 252
-0.071832314 0.773 -0.016263919 7.4465967e-39 267 252
-0.070568159 0.77399999 -0.016284959 7.4465939e-39 268 252
-0.069389917 0.77600002 -0.01632704 7.4465939e-39 269 252
-0.068029337 0.77600002 -0.01632704 7.4465967e-39 270 252
-0.066840574 0.778 -0.016369121 7.5387938e-39 271 252
-0.065644793 0.77999997 -0.016411198 7.5387938e-39 272 252
-0.064277194 0.77999997 -0.016411198 7.6309894e-39 273 252
-0.062990256 0.78100002 -0.016432239 7.6309894e-39 274 252
-0.061620899 0.78100002 -0.016432239 7.6309894e-39 275 252
-0.060405839 0.78299999 -0.01647432 7.722106e-39 276 252
-0.059032977 0.78299999 -0.01647432 7.722106e-39 277 252
-0.057807401 0.78500003 -0.016516401 7.7213858e-39 278 252
-0.056574803 0.787 -0.01655848 7.8139415e-39 279 252
-0.055194929 0.787 -0.01655848 7.8139415e-39 280 252
-0.053815059 0.787 -0.01655848 7.8139415e-39 281 252
-0.052568436 0.78899997 -0.016600559 7.8139387e-39 282 252
-0.051185057 0.78899997 -0.016600559 7.9979698e-39 283 252
-0.049801677 0.78899997 -0.016600559 7.8146548e-39 284 252
-0.048479669 0.79000002 -0.016621601 7.7224591e-39 285 252
-0.047094531 0.79000002 -0.016621601 7.5391497e-39 286 252
-0.045709401 0.79000002 -0.016621601 7.5391497e-39 287 252
-0.044436477 0.792 -0.01666368 7.8146548e-39 288 252
-0.043047838 0.792 -0.01666368 7.9068504e-39 289 252
-0.041764401 0.79400003 -0.016705759 8.0905158e-39 290 252
-0.040372252 0.79400003 -0.016705759 8.1830702e-39 291 252
-0.038980108 0.79400003 -0.016705759 8.0908717e-39 292 252
-0.037587963 0.79400003 -0.016705759 8.0908717e-39 293 252
-0.036286984 0.796 -0.01674784 7.9072035e-39 294 252
-0.03489133 0.796 -0.01674784 7.9072035e-39 295 252
-0.033411518 0.79400003 -0.016705759 8.1827142e-39 296 252
-0.032019373 0.79400003 -0.016705759 7.998323e-39 297 252
-0.030627226 0.79400003 -0.016705759 7.9050539e-39 298 252
-0.029235078 0.79400003 -0.016705759 7.8128583e-39 299 252
-0.027842935 0.79400003 -0.016705759 7.8117835e-39 300 252
-0.026450787 0.79400003 -0.016705759 7.6273923e-39 301 252
-0.02505864 0.79400003 -0.016705759 7.9018155e-39 302 252
-0.023666494 0.79400003 -0.016705759 7.2564461e-39 303 252
-0.022274347 0.79400003 -0.016705759 6.8876622e-39 304 252
-0.0209348 0.796 -0.01674784 6.7039912e-39 305 252
-0.019588239 0.79799998 -0.016789921 9.8267568e-39 306 252
-0.018189078 0.79799998 -0.016789921 1.139443e-38 307 252
-0.016789921 0.79799998 -0.016789921 1.0561082e-38 308 252
-0.015390759 0.79799998 -0.016789921 9.4590561e-39 309 252
-0.013991599 0.79799998 -0.016789921 7.2550042e-39 310 252
-0.012592439 0.79799998 -0.016789921 8.4517383e-39 311 252
-0.011193279 0.79799998 -0.016789921 7.2661557e-39 312 252
-0.0097941197 0.79799998 -0.016789921 8.0955563e-39 313 252
-0.0083949603 0.79799998 -0.016789921 9.7493169e-39 314 252
-0.0069957995 0.79799998 -0.016789921 9.7493169e-39 315 252
-0.0055966396 0.79799998 -0.016789921 9.5667207e-39 316 252
-0.0041974802 0.79799998 -0.016789921 9.0135469e-39 317 252
-0.0027913067 0.796 -0.01674784 7.6324271e-39 318 252
-0.0013956534 0.796 -0.01674784 6.4338839e-39 319 252
0 0.796 -0.01674784 5.7017391e-39 320 252
0.0013956534 0.796 -0.01674784 6.3467498e-39 321 252
0.0027913067 0.796 -0.01674784 6.074832e-39 322 252
0.0041869599 0.796 -0.01674784 6.3514189e-39 323 252
0.0055826134 0.796 -0.01674784 6.7176679e-39 324 252
0.0069782664 0.796 -0.01674784 6.9938946e-39 325 252
0.0083739199 0.796 -0.01674784 8.1877547e-39 326 252
0.0097450269 0.79400003 -0.016705759 8.5565386e-39 327 252
0.011137174 0.79400003 -0.016705759 8.9238722e-39 328 252
0.01252932 0.79400003 -0.016705759 8.9238722e-39 329 252
0.013921468 0.79400003 -0.016705759 8.740204e-39 330 252
0.015313613 0.79400003 -0.016705759 8.740204e-39 331 252
0.016705759 0.79400003 -0.016705759 8.6505265e-39 332 252
0.018052319 0.792 -0.01666368 9.1118634e-39 333 252
0.01944096 0.792 -0.01666368 8.746678e-39 334 252
0.020777 0.79000002 -0.016621601 9.3920474e-39 335 252
0.022162134 0.79000002 -0.016621601 9.8555367e-39 336 252
0.023547266 0.79000002 -0.016621601 9.9477323e-39 337 252
0.024900839 0.78899997 -0.016600559 1.0222135e-38 338 252
0.026284218 0.78899997 -0.016600559 9.1157884e-39 339 252
0.027667599 0.78899997 -0.016600559 9.1082452e-39 340 252
0.02905098 0.78899997 -0.016600559 8.2784846e-39 341 252
0.03035721 0.787 -0.01655848 9.1997402e-39 342 252
0.031656433 0.78500003 -0.016516401 1.1135848e-38 343 252
