# .PCD v0.7 - Point Cloud Data file format
VERSION 0.7
FIELDS x y z rgb
SIZE 4 4 4 4
TYPE F F F U
COUNT 1 1 1 1
WIDTH 1386
HEIGHT 1
VIEWPOINT 0 0 0 1 0 0 0
POINTS 1386
DATA ascii
61.472385 40.217525 109.40001 2235904
56.937145 39.169525 106.00001 131586
57.13905 39.169525 106.00001 131586
57.340958 39.169525 106.00001 131586
57.542862 39.169525 106.00001 131586
57.908195 39.280384 106.30001 131586
58.110672 39.280384 106.30001 131586
58.53257 39.428188 106.7 131586
58.900951 39.539051 107.00001 131586
59.270477 39.649906 107.30001 262661
59.696571 39.797714 107.7 394247
60.068573 39.908573 108.00001 1711665
60.497528 40.056385 108.40001 3356490
60.70401 40.056385 108.40001 3489564
61.472385 40.425907 109.40001 726272
56.735241 39.371429 106.00001 131586
56.937145 39.371429 106.00001 131586
57.13905 39.371429 106.00001 131586
57.340958 39.371429 106.00001 131586
57.542862 39.371429 106.00001 131586
57.744759 39.371429 106.00001 131586
58.110672 39.482861 106.30001 131586
58.53257 39.631428 106.7 131586
58.735813 39.631428 106.7 131586
59.270477 39.854286 107.30001 131595
59.696571 40.002857 107.7 197388
60.068573 40.114288 108.00001 3814184
60.274284 40.114288 108.00001 4537907
60.70401 40.262859 108.40001 3289856
60.91048 40.262859 108.40001 460800
56.213333 39.349331 105.4 131586
56.414097 39.349331 105.4 131586
56.776001 39.461334 105.7 131586
56.977337 39.461334 105.7 131586
57.178669 39.461334 105.7 131586
57.380001 39.461334 105.7 131586
57.744759 39.573334 106.00001 131586
58.110672 39.685337 106.30001 65793
58.313145 39.685337 106.30001 131586
58.735813 39.834667 106.7 131586
59.104763 39.946671 107.00001 131588
59.474861 40.05867 107.30001 131588
59.901714 40.208004 107.7 4207672
60.274284 40.32 108.00001 4470844
60.70401 40.469337 108.40001 1116416
60.91048 40.469337 108.40001 458752
53.185146 38.949718 103.80001 66048
53.382862 38.949718 103.80001 131586
56.213333 39.550095 105.4 131586
56.414097 39.550095 105.4 131586
56.776001 39.662666 105.7 131586
56.977337 39.662666 105.7 131586
57.178669 39.662666 105.7 131586
57.380001 39.662666 105.7 131586
57.744759 39.775242 106.00001 131586
58.110672 39.88781 106.30001 131586
58.313145 39.88781 106.30001 131586
58.735813 40.037907 106.7 131586
59.104763 40.150478 107.00001 131588
59.474861 40.26305 107.30001 131588
59.901714 40.413143 107.7 1774085
60.274284 40.525715 108.00001 1971464
60.480003 40.525715 108.00001 656129
60.91048 40.675812 108.40001 327680
52.987434 39.14743 103.80001 65793
53.185146 39.14743 103.80001 65793
53.382862 39.14743 103.80001 131586
53.735428 39.260571 104.1 131586
53.933716 39.260571 104.1 131586
54.444004 39.486858 104.7 131586
54.643433 39.486858 104.7 131586
54.842861 39.486858 104.7 131586
55.04229 39.486858 104.7 65793
56.172001 39.864002 105.7 131586
56.373341 39.864002 105.7 131586
56.574665 39.864002 105.7 131586
56.776001 39.864002 105.7 131586
56.977337 39.864002 105.7 131586
57.178669 39.864002 105.7 131586
57.380001 39.864002 105.7 131586
57.744759 39.977142 106.00001 131586
57.946671 39.977142 106.00001 131586
58.313145 40.090286 106.30001 131586
58.735813 40.241142 106.7 131586
59.104763 40.354286 107.00001 197379
59.474861 40.46743 107.30001 328965
59.901714 40.618286 107.7 1183747
60.106857 40.618286 107.7 986368
60.480003 40.73143 108.00001 0
60.91048 40.88229 108.40001 65793
61.116959 40.88229 108.40001 65793
52.789719 39.34515 103.80001 65793
52.987434 39.34515 103.80001 131586
53.185146 39.34515 103.80001 131586
53.382862 39.34515 103.80001 131586
53.735428 39.458855 104.1 131586
53.933716 39.458855 104.1 131586
54.287998 39.572571 104.4 131586
54.486858 39.572571 104.4 131586
54.685719 39.572571 104.4 65793
55.400002 39.800003 105.00001 65793
55.600006 39.800003 105.00001 131586
55.800003 39.800003 105.00001 131586
56.213333 39.951618 105.4 131586
56.414097 39.951618 105.4 131586
56.614857 39.951618 105.4 131586
56.815617 39.951618 105.4 131586
57.178669 40.065334 105.7 131840
57.380001 40.065334 105.7 131840
57.581337 40.065334 105.7 131586
57.782669 40.065334 105.7 131586
58.148575 40.17905 106.00001 131586
58.735813 40.444382 106.7 197379
59.104763 40.558098 107.00001 197379
59.474861 40.67181 107.30001 394758
59.901714 40.823425 107.7 263681
60.106857 40.823425 107.7 66304
60.480003 40.937145 108.00001 0
60.91048 41.088764 108.40001 0
61.116959 41.088764 108.40001 65793
52.389336 39.390476 103.4 131586
52.789719 39.542858 103.80001 131586
52.987434 39.542858 103.80001 131586
53.185146 39.542858 103.80001 131586
53.537144 39.657143 104.1 131586
53.735428 39.657143 104.1 131586
53.933716 39.657143 104.1 131586
54.131996 39.657143 104.1 131586
54.486858 39.771427 104.4 65793
54.685719 39.771427 104.4 65793
54.884571 39.771427 104.4 65793
55.083431 39.771427 104.4 65793
55.441139 39.885715 104.7 131586
55.800003 40.000004 105.00001 131586
56.000008 40.000004 105.00001 131586
56.200005 40.000004 105.00001 131586
56.400002 40.000004 105.00001 131586
56.600006 40.000004 105.00001 131586
57.01638 40.152378 105.4 131840
57.217144 40.152378 105.4 131840
57.417904 40.152378 105.4 131586
57.782669 40.26667 105.7 131586
57.984001 40.26667 105.7 131586
58.735813 40.647621 106.7 197379
59.491432 41.028576 107.7 197379
59.862858 41.14286 108.00001 197379
60.068573 41.14286 108.00001 262912
60.274284 41.14286 108.00001 197120
60.480003 41.14286 108.00001 65793
60.91048 41.295242 108.40001 65793
61.116959 41.295242 108.40001 513
51.798481 39.587433 103.4 131840
51.995434 39.587433 103.4 131586
52.192383 39.587433 103.4 131586
52.389336 39.587433 103.4 131586
52.586288 39.587433 103.4 131586
52.987434 39.740574 103.80001 131586
53.185146 39.740574 103.80001 131586
53.382862 39.740574 103.80001 131586
53.580578 39.740574 103.80001 131586
53.933716 39.855427 104.1 131586
54.131996 39.855427 104.1 65793
54.486858 39.970287 104.4 65793
54.685719 39.970287 104.4 65793
54.884571 39.970287 104.4 65793
55.083431 39.970287 104.4 65793
55.441139 40.085144 104.7 131586
55.800003 40.200005 105.00001 131586
56.000008 40.200005 105.00001 131586
56.200005 40.200005 105.00001 131586
56.400002 40.200005 105.00001 131586
56.600006 40.200005 105.00001 65793
57.01638 40.353142 105.4 131840
57.000004 40.200005 105.00001 131840
57.200005 40.200005 105.00001 131586
57.618671 40.353142 105.4 131586
57.819427 40.353142 105.4 131840
58.735813 40.850861 106.7 131840
59.657143 41.348572 108.00001 131840
59.862858 41.348572 108.00001 131840
60.068573 41.348572 108.00001 65793
60.274284 41.348572 108.00001 65793
60.480003 41.348572 108.00001 65795
60.91048 41.501717 108.40001 65795
61.116959 41.501717 108.40001 770
50.714672 39.553524 102.8 131586
50.910473 39.553524 102.8 65793
51.255428 39.668953 103.1 65793
51.451809 39.668953 103.1 65793
51.798481 39.784386 103.4 65793
51.995434 39.784386 103.4 131586
52.192383 39.784386 103.4 131586
52.389336 39.784386 103.4 131586
52.586288 39.784386 103.4 131586
52.783237 39.784386 103.4 131586
52.98019 39.784386 103.4 131586
53.382862 39.93829 103.80001 131586
53.580578 39.93829 103.80001 131586
53.77829 39.93829 103.80001 131586
54.131996 40.053715 104.1 65793
54.330288 40.053715 104.1 65793
54.685719 40.169144 104.4 65793
54.884571 40.169144 104.4 65793
55.083431 40.169144 104.4 65793
55.441139 40.284573 104.7 131586
55.640572 40.284573 104.7 131586
56.000008 40.400005 105.00001 131586
56.200005 40.400005 105.00001 131586
56.400002 40.400005 105.00001 131586
56.600006 40.400005 105.00001 65793
57.01638 40.553905 105.4 65793
57.000004 40.400005 105.00001 131586
57.200005 40.400005 105.00001 131586
57.618671 40.553905 105.4 131586
57.819427 40.553905 105.4 131586
59.671623 41.708191 108.40001 131586
59.878105 41.708191 108.40001 131586
59.862858 41.554287 108.00001 65793
60.068573 41.554287 108.00001 65793
60.274284 41.554287 108.00001 65793
60.70401 41.708191 108.40001 65795
60.91048 41.708191 108.40001 131588
50.323051 39.749332 102.8 131586
50.51886 39.749332 102.8 131586
50.714672 39.749332 102.8 65793
50.910473 39.749332 102.8 65793
51.255428 39.865334 103.1 65793
51.451809 39.865334 103.1 65793
51.497906 39.749332 102.8 65793
51.693714 39.749332 102.8 131586
52.192383 39.981335 103.4 131586
52.389336 39.981335 103.4 131586
52.586288 39.981335 103.4 131586
52.783237 39.981335 103.4 131586
52.98019 39.981335 103.4 131586
53.382862 40.136002 103.80001 131586
53.580578 40.136002 103.80001 131586
53.77829 40.136002 103.80001 131586
53.976006 40.136002 103.80001 131586
54.330288 40.251999 104.1 131586
54.528572 40.251999 104.1 131586
54.726856 40.251999 104.1 131586
54.925144 40.251999 104.1 131586
55.123432 40.251999 104.1 131586
55.640572 40.484001 104.7 131586
55.839996 40.484001 104.7 131586
56.200005 40.600002 105.00001 131586
56.400002 40.600002 105.00001 131586
56.600006 40.600002 105.00001 131586
56.800003 40.600002 105.00001 131586
57.000004 40.600002 105.00001 131586
57.200005 40.600002 105.00001 131586
57.400002 40.600002 105.00001 131586
60.291058 41.914669 108.40001 65793
60.497528 41.914669 108.40001 65793
49.395241 39.828575 102.50001 131586
49.590485 39.828575 102.50001 131586
49.785717 39.828575 102.50001 131586
49.980957 39.828575 102.50001 131586
50.323051 39.945145 102.8 131586
50.51886 39.945145 102.8 131586
50.714672 39.945145 102.8 65793
50.910473 39.945145 102.8 65793
51.106285 39.945145 102.8 65793
51.302094 39.945145 102.8 65793
51.497906 39.945145 102.8 65793
51.693714 39.945145 102.8 131586
52.040951 40.061714 103.1 131586
52.237331 40.061714 103.1 131586
52.586288 40.178288 103.4 131586
52.783237 40.178288 103.4 131586
52.98019 40.178288 103.4 131586
53.177147 40.178288 103.4 131586
53.580578 40.333714 103.80001 131586
53.77829 40.333714 103.80001 65793
53.976006 40.333714 103.80001 131586
54.330288 40.450283 104.1 131586
54.371433 40.333714 103.80001 131586
54.569149 40.333714 103.80001 131586
54.766865 40.333714 103.80001 131586
55.123432 40.450283 104.1 131586
55.48114 40.56686 104.4 131586
55.839996 40.68343 104.7 131586
56.039429 40.68343 104.7 131586
56.238861 40.68343 104.7 131586
56.43829 40.68343 104.7 131586
56.637718 40.68343 104.7 131586
57.000004 40.800003 105.00001 131586
57.036572 40.68343 104.7 131586
57.236004 40.68343 104.7 131586
48.329716 39.789524 101.90001 65793
48.666668 39.90667 102.2 65793
49.004765 40.023811 102.50001 65793
49.200005 40.023811 102.50001 131586
49.395241 40.023811 102.50001 131586
49.590485 40.023811 102.50001 131586
49.785717 40.023811 102.50001 131586
49.980957 40.023811 102.50001 131586
50.176193 40.023811 102.50001 131586
50.371433 40.023811 102.50001 131586
50.566673 40.023811 102.50001 65793
50.910473 40.140953 102.8 65793
51.106285 40.140953 102.8 65793
51.302094 40.140953 102.8 65793
51.497906 40.140953 102.8 65793
51.693714 40.140953 102.8 131586
51.889526 40.140953 102.8 131586
52.085335 40.140953 102.8 131586
52.433716 40.258099 103.1 131586
52.630096 40.258099 103.1 131586
52.826481 40.258099 103.1 131586
53.177147 40.37524 103.4 131586
53.580578 40.531433 103.80001 65793
53.77829 40.531433 103.80001 65793
53.976006 40.531433 103.80001 65793
54.173721 40.531433 103.80001 65793
54.371433 40.531433 103.80001 131586
54.569149 40.531433 103.80001 131586
54.766865 40.531433 103.80001 131586
55.123432 40.648571 104.1 131586
55.48114 40.765717 104.4 131586
55.68 40.765717 104.4 131586
55.87886 40.765717 104.4 131586
56.077721 40.765717 104.4 131586
56.43829 40.882858 104.7 131586
56.637718 40.882858 104.7 131586
56.837147 40.882858 104.7 131586
57.036572 40.882858 104.7 131840
57.236004 40.882858 104.7 131840
47.941525 39.98362 101.90001 65793
48.13562 39.98362 101.90001 66048
48.329716 39.98362 101.90001 66048
48.666668 40.101334 102.2 65793
48.86134 40.101334 102.2 65793
49.056 40.101334 102.2 131586
49.395241 40.219051 102.50001 131586
49.590485 40.219051 102.50001 131586
49.785717 40.219051 102.50001 131586
49.980957 40.219051 102.50001 131586
50.176193 40.219051 102.50001 65793
50.371433 40.219051 102.50001 65793
50.566673 40.219051 102.50001 131586
50.761909 40.219051 102.50001 65793
50.95715 40.219051 102.50001 65793
51.152386 40.219051 102.50001 65793
51.497906 40.336765 102.8 65793
51.693714 40.336765 102.8 131586
51.889526 40.336765 102.8 131586
52.085335 40.336765 102.8 131586
52.281147 40.336765 102.8 131586
52.630096 40.454475 103.1 131586
52.67276 40.336765 102.8 131586
52.868568 40.336765 102.8 65793
53.3741 40.572193 103.4 65793
53.571053 40.572193 103.4 65793
53.976006 40.729149 103.80001 65793
54.173721 40.729149 103.80001 65793
54.371433 40.729149 103.80001 131586
54.569149 40.729149 103.80001 131586
54.766865 40.729149 103.80001 131586
54.964577 40.729149 103.80001 131586
55.162285 40.729149 103.80001 131586
55.360001 40.729149 103.80001 131586
55.718285 40.846859 104.1 131586
55.916573 40.846859 104.1 131586
56.276573 40.964573 104.4 131586
56.47543 40.964573 104.4 131586
56.837147 41.082287 104.7 131586
57.036572 41.082287 104.7 131586
57.236004 41.082287 104.7 131586
47.941525 40.177719 101.90001 66048
48.13562 40.177719 101.90001 65793
48.329716 40.177719 101.90001 65793
48.523811 40.177719 101.90001 65793
48.717907 40.177719 101.90001 65793
48.912003 40.177719 101.90001 131586
49.250668 40.296001 102.2 131586
49.590485 40.414288 102.50001 131586
49.785717 40.414288 102.50001 131586
49.980957 40.414288 102.50001 131586
50.029339 40.296001 102.2 65793
50.224007 40.296001 102.2 65793
50.566673 40.414288 102.50001 65793
50.761909 40.414288 102.50001 65793
50.95715 40.414288 102.50001 65793
51.152386 40.414288 102.50001 65793
51.497906 40.53257 102.8 65793
51.693714 40.53257 102.8 131586
51.889526 40.53257 102.8 131586
52.085335 40.53257 102.8 131586
52.281147 40.53257 102.8 131586
52.476948 40.53257 102.8 131586
52.67276 40.53257 102.8 65793
52.868568 40.53257 102.8 65793
53.064381 40.53257 102.8 65793
53.260189 40.53257 102.8 65793
53.456001 40.53257 102.8 65793
53.65181 40.53257 102.8 131586
54.161907 40.769146 103.4 131586
54.358856 40.769146 103.4 131586
54.555809 40.769146 103.4 131586
54.752762 40.769146 103.4 131586
55.162285 40.926861 103.80001 131586
55.360001 40.926861 103.80001 131586
55.55772 40.926861 103.80001 131586
55.916573 41.045143 104.1 131586
56.114857 41.045143 104.1 131586
56.47543 41.163429 104.4 131586
56.67429 41.163429 104.4 131586
56.873142 41.163429 104.4 65793
57.236004 41.281715 104.7 65793
46.308571 40.134094 101.3 65793
47.606857 40.252953 101.60001 65793
47.800385 40.252953 101.60001 65793
47.993904 40.252953 101.60001 65793
48.329716 40.371811 101.90001 65793
48.523811 40.371811 101.90001 65793
48.717907 40.371811 101.90001 131586
48.912003 40.371811 101.90001 131586
49.250668 40.490669 102.2 131586
49.590485 40.609528 102.50001 131586
49.785717 40.609528 102.50001 131586
49.834667 40.490669 102.2 65793
50.029339 40.490669 102.2 65793
50.224007 40.490669 102.2 65793
50.418671 40.490669 102.2 65793
50.613338 40.490669 102.2 65793
50.95715 40.609528 102.50001 65793
51.152386 40.609528 102.50001 65793
51.347618 40.609528 102.50001 131586
51.693714 40.728382 102.8 65793
51.889526 40.728382 102.8 131586
52.085335 40.728382 102.8 65793
52.281147 40.728382 102.8 65793
52.476948 40.728382 102.8 65793
52.67276 40.728382 102.8 65793
52.868568 40.728382 102.8 65793
53.064381 40.728382 102.8 65793
53.260189 40.728382 102.8 65793
53.456001 40.728382 102.8 65793
53.65181 40.728382 102.8 65793
53.847622 40.728382 102.8 131586
54.201145 40.847237 103.1 131586
54.397522 40.847237 103.1 131586
54.59391 40.847237 103.1 131586
54.949718 40.966095 103.4 65793
55.146671 40.966095 103.4 65793
55.34362 40.966095 103.4 65793
55.755436 41.124577 103.80001 65793
55.953144 41.124577 103.80001 65793
56.313145 41.243427 104.1 131586
56.511425 41.243427 104.1 65793
56.873142 41.362286 104.4 65793
57.072002 41.362286 104.4 65793
45.536762 40.327045 101.3 65793
45.729713 40.327045 101.3 65793
45.922668 40.327045 101.3 65793
46.115623 40.327045 101.3 65793
46.308571 40.327045 101.3 65793
46.639236 40.44648 101.60001 65793
46.832764 40.44648 101.60001 65793
46.887428 40.327045 101.3 65793
47.080379 40.327045 101.3 66048
47.273331 40.327045 101.3 66048
47.466286 40.327045 101.3 65793
47.800385 40.44648 101.60001 65793
47.993904 40.44648 101.60001 65793
48.329716 40.565907 101.90001 65793
48.380955 40.44648 101.60001 65793
48.574478 40.44648 101.60001 65793
48.768002 40.44648 101.60001 131586
49.106098 40.565907 101.90001 131586
49.590485 40.804764 102.50001 131586
49.785717 40.804764 102.50001 65793
49.834667 40.685337 102.2 65793
50.029339 40.685337 102.2 65793
50.224007 40.685337 102.2 65793
50.270672 40.565907 101.90001 65793
50.46476 40.565907 101.90001 65793
50.807999 40.685337 102.2 65793
51.152386 40.804764 102.50001 131586
51.347618 40.804764 102.50001 65793
51.542866 40.804764 102.50001 65793
51.738102 40.804764 102.50001 65793
51.933334 40.804764 102.50001 65793
52.128578 40.804764 102.50001 65793
52.476948 40.924191 102.8 65793
52.67276 40.924191 102.8 65793
52.868568 40.924191 102.8 65793
52.909531 40.804764 102.50001 65793
53.104763 40.804764 102.50001 65793
53.299999 40.804764 102.50001 65793
53.495247 40.804764 102.50001 65793
53.690483 40.804764 102.50001 131586
53.885715 40.804764 102.50001 65793
54.239239 40.924191 102.8 65793
54.435043 40.924191 102.8 131586
54.630859 40.924191 102.8 65793
54.986668 41.043617 103.1 65793
55.34362 41.163048 103.4 65793
55.755436 41.322289 103.80001 65793
55.953144 41.322289 103.80001 65793
56.313145 41.441715 104.1 65793
56.511425 41.441715 104.1 65793
56.709717 41.441715 104.1 65793
56.908001 41.441715 104.1 0
45.729713 40.519997 101.3 65793
45.922668 40.519997 101.3 65793
46.115623 40.519997 101.3 65793
46.308571 40.519997 101.3 65793
46.501522 40.519997 101.3 65793
46.832764 40.639999 101.60001 65793
46.887428 40.519997 101.3 65793
47.080379 40.519997 101.3 66048
47.273331 40.519997 101.3 66048
47.466286 40.519997 101.3 65793
47.800385 40.639999 101.60001 65793
47.993904 40.639999 101.60001 65793
48.187428 40.639999 101.60001 65793
48.380955 40.639999 101.60001 65793
48.574478 40.639999 101.60001 65793
48.768002 40.639999 101.60001 65793
48.961525 40.639999 101.60001 131586
49.155048 40.639999 101.60001 131586
49.348576 40.639999 101.60001 65793
49.542095 40.639999 101.60001 65793
49.735619 40.639999 101.60001 65793
49.929146 40.639999 101.60001 65793
50.122665 40.639999 101.60001 65793
50.316193 40.639999 101.60001 65793
50.658859 40.760002 101.90001 131586
50.852955 40.760002 101.90001 65793
51.19733 40.880001 102.2 131586
51.392002 40.880001 102.2 65793
51.58667 40.880001 102.2 65793
51.781338 40.880001 102.2 65793
51.976002 40.880001 102.2 65793
52.323811 41.000004 102.50001 66048
52.519054 41.000004 102.50001 66048
52.714287 41.000004 102.50001 65793
52.909531 41.000004 102.50001 65793
53.104763 41.000004 102.50001 65793
53.299999 41.000004 102.50001 65793
53.495247 41.000004 102.50001 65793
53.690483 41.000004 102.50001 131586
53.885715 41.000004 102.50001 65793
54.080956 41.000004 102.50001 65793
54.435043 41.120003 102.8 131586
54.630859 41.120003 102.8 65793
54.986668 41.240002 103.1 65793
55.183048 41.240002 103.1 65793
55.540573 41.360004 103.4 65793
55.737526 41.360004 103.4 65793
56.15086 41.520004 103.80001 65793
56.348576 41.520004 103.80001 65793
56.709717 41.639999 104.1 0
56.908001 41.639999 104.1 0
44.88343 40.471813 100.70001 65793
45.075241 40.471813 100.70001 65793
45.401905 40.592381 101 66048
45.729713 40.712952 101.3 66048
45.922668 40.712952 101.3 66048
46.115623 40.712952 101.3 66048
46.308571 40.712952 101.3 66048
46.501522 40.712952 101.3 66048
46.832764 40.833523 101.60001 65793
46.887428 40.712952 101.3 65793
46.940952 40.592381 101 66048
47.133331 40.592381 101 66048
47.466286 40.712952 101.3 65793
47.518097 40.592381 101 65793
47.710476 40.592381 101 65795
47.760574 40.471813 100.70001 65795
47.952385 40.471813 100.70001 65793
48.144196 40.471813 100.70001 65793
48.336006 40.471813 100.70001 131586
48.672382 40.592381 101 131586
49.009903 40.712952 101.3 131586
49.202858 40.712952 101.3 65793
49.395809 40.712952 101.3 65793
49.58876 40.712952 101.3 65793
49.929146 40.833523 101.60001 65793
50.122665 40.833523 101.60001 65793
50.316193 40.833523 101.60001 65793
50.509716 40.833523 101.60001 65793
50.703239 40.833523 101.60001 65793
51.04705 40.954098 101.90001 65793
51.241146 40.954098 101.90001 65793
51.435238 40.954098 101.90001 65793
51.629333 40.954098 101.90001 65793
51.823433 40.954098 101.90001 65793
52.17067 41.074669 102.2 66048
52.519054 41.195244 102.50001 66048
52.714287 41.195244 102.50001 65793
52.909531 41.195244 102.50001 65793
53.104763 41.195244 102.50001 65793
53.299999 41.195244 102.50001 65793
53.495247 41.195244 102.50001 65793
53.690483 41.195244 102.50001 65793
53.885715 41.195244 102.50001 131586
54.080956 41.195244 102.50001 131586
54.435043 41.315807 102.8 131586
54.630859 41.315807 102.8 131586
54.826664 41.315807 102.8 131586
55.183048 41.436378 103.1 65793
55.379425 41.436378 103.1 65793
55.737526 41.556953 103.4 65793
55.934479 41.556953 103.4 65793
56.131428 41.556953 103.4 65793
56.546295 41.717716 103.80001 65793
56.908001 41.838284 104.1 65793
43.411053 40.542477 100.40001 65793
43.602287 40.542477 100.40001 65793
43.793526 40.542477 100.40001 65793
43.984764 40.542477 100.40001 65793
44.175999 40.542477 100.40001 65793
44.367237 40.542477 100.40001 65793
44.691624 40.663624 100.70001 65793
44.88343 40.663624 100.70001 65793
45.075241 40.663624 100.70001 65793
45.401905 40.78476 101 65793
45.594284 40.78476 101 65793
45.786667 40.78476 101 65793
45.979046 40.78476 101 65793
46.308571 40.905907 101.3 65793
46.501522 40.905907 101.3 65793
46.694477 40.905907 101.3 65793
46.887428 40.905907 101.3 65793
46.940952 40.78476 101 65793
47.133331 40.78476 101 65793
47.325714 40.78476 101 65793
47.376953 40.663624 100.70001 65793
47.568764 40.663624 100.70001 65795
47.760574 40.663624 100.70001 65795
47.952385 40.663624 100.70001 65793
48.144196 40.663624 100.70001 65793
48.336006 40.663624 100.70001 65793
48.527813 40.663624 100.70001 65793
48.864765 40.78476 101 131073
49.202858 40.905907 101.3 131073
49.395809 40.905907 101.3 65793
49.58876 40.905907 101.3 65793
49.781715 40.905907 101.3 65793
50.122665 41.02705 101.60001 65793
50.316193 41.02705 101.60001 65793
50.509716 41.02705 101.60001 65793
50.703239 41.02705 101.60001 65793
50.896763 41.02705 101.60001 65793
51.241146 41.148193 101.90001 131073
51.435238 41.148193 101.90001 131073
51.325333 40.905907 101.3 65793
51.518284 40.905907 101.3 65793
51.86438 41.02705 101.60001 65793
52.057911 41.02705 101.60001 65793
52.251427 41.02705 101.60001 131073
52.444954 41.02705 101.60001 131073
52.949333 41.269337 102.2 65793
53.144001 41.269337 102.2 65793
53.338669 41.269337 102.2 65793
53.533333 41.269337 102.2 65793
53.885715 41.39048 102.50001 65793
54.080956 41.39048 102.50001 65793
54.276192 41.39048 102.50001 196866
54.630859 41.51162 102.8 196866
54.826664 41.51162 102.8 131586
55.022476 41.51162 102.8 65793
55.218285 41.51162 102.8 65793
55.575813 41.632763 103.1 65793
55.77219 41.632763 103.1 65793
55.968571 41.632763 103.1 65793
56.164951 41.632763 103.1 65793
43.602287 40.733719 100.40001 65793
43.793526 40.733719 100.40001 65793
43.984764 40.733719 100.40001 65793
44.175999 40.733719 100.40001 65793
44.367237 40.733719 100.40001 65793
44.691624 40.855431 100.70001 65793
44.88343 40.855431 100.70001 65793
45.075241 40.855431 100.70001 65793
45.401905 40.977142 101 65793
45.594284 40.977142 101 65793
45.786667 40.977142 101 65793
45.979046 40.977142 101 65793
46.171425 40.977142 101 65793
46.363811 40.977142 101 65793
46.694477 41.098858 101.3 65793
46.748569 40.977142 101 65793
46.801529 40.855431 100.70001 65793
46.99334 40.855431 100.70001 65793
47.185143 40.855431 100.70001 65793
47.235813 40.733719 100.40001 65793
47.427052 40.733719 100.40001 65793
47.618286 40.733719 100.40001 65793
47.809525 40.733719 100.40001 65793
48.144196 40.855431 100.70001 65793
48.336006 40.855431 100.70001 65793
48.527813 40.855431 100.70001 65793
48.71962 40.855431 100.70001 65793
49.05714 40.977142 101 65793
49.249523 40.977142 101 65793
49.58876 41.098858 101.3 65793
49.781715 41.098858 101.3 65793
49.974667 41.098858 101.3 65793
50.316193 41.220573 101.60001 65793
50.509716 41.220573 101.60001 65793
50.703239 41.220573 101.60001 65793
50.896763 41.220573 101.60001 65793
51.090282 41.220573 101.60001 65793
51.283813 41.220573 101.60001 65793
51.325333 41.098858 101.3 65793
51.518284 41.098858 101.3 65793
51.711239 41.098858 101.3 65793
51.90419 41.098858 101.3 65793
52.251427 41.220573 101.60001 65793
52.444954 41.220573 101.60001 65793
52.638477 41.220573 101.60001 65793
52.832001 41.220573 101.60001 65793
53.182102 41.342289 101.90001 131586
53.37619 41.342289 101.90001 131586
53.728001 41.464005 102.2 65793
53.922672 41.464005 102.2 65793
54.276192 41.58572 102.50001 131586
54.630859 41.707428 102.8 131586
54.826664 41.707428 102.8 131588
55.022476 41.707428 102.8 131588
55.218285 41.707428 102.8 131586
55.575813 41.829144 103.1 65793
55.77219 41.829144 103.1 65793
55.968571 41.829144 103.1 0
56.164951 41.829144 103.1 65793
43.602287 40.924953 100.40001 65793
43.793526 40.924953 100.40001 65793
43.984764 40.924953 100.40001 513
44.175999 40.924953 100.40001 513
44.367237 40.924953 100.40001 65793
44.558479 40.924953 100.40001 65793
44.88343 41.047241 100.70001 65793
45.075241 41.047241 100.70001 65793
45.267052 41.047241 100.70001 65793
45.458862 41.047241 100.70001 65793
45.514668 40.924953 100.40001 66048
45.705906 40.924953 100.40001 66048
46.034286 41.047241 100.70001 65793
46.226101 41.047241 100.70001 65793
46.417908 41.047241 100.70001 65793
46.47086 40.924953 100.40001 65793
46.662098 40.924953 100.40001 65793
46.853333 40.924953 100.40001 65793
47.044575 40.924953 100.40001 65793
47.235813 40.924953 100.40001 65793
47.427052 40.924953 100.40001 65793
47.618286 40.924953 100.40001 65793
47.809525 40.924953 100.40001 65793
48.000763 40.924953 100.40001 65793
48.192001 40.924953 100.40001 65793
48.383244 40.924953 100.40001 65793
48.574482 40.924953 100.40001 65793
48.76572 40.924953 100.40001 65793
49.103241 41.047241 100.70001 65793
49.58876 41.291809 101.3 65793
49.634285 41.169525 101 65793
49.826668 41.169525 101 65793
50.167622 41.291809 101.3 66048
50.360573 41.291809 101.3 66048
50.703239 41.414097 101.60001 65793
50.896763 41.414097 101.60001 65793
51.090282 41.414097 101.60001 65793
51.283813 41.414097 101.60001 65793
51.325333 41.291809 101.3 65793
51.518284 41.291809 101.3 65793
51.711239 41.291809 101.3 65793
51.90419 41.291809 101.3 65793
52.251427 41.414097 101.60001 65793
52.444954 41.414097 101.60001 65793
52.638477 41.414097 101.60001 65793
52.832001 41.414097 101.60001 65793
53.025524 41.414097 101.60001 65793
53.37619 41.536381 101.90001 65793
53.728001 41.658669 102.2 65793
53.922672 41.658669 102.2 65793
54.276192 41.780956 102.50001 131586
54.630859 41.90324 102.8 131586
54.826664 41.90324 102.8 131586
55.022476 41.90324 102.8 131586
55.218285 41.90324 102.8 65793
55.414097 41.90324 102.8 65793
55.609905 41.90324 102.8 0
55.805714 41.90324 102.8 0
56.164951 42.025524 103.1 65793
43.732574 41.239052 100.70001 65793
43.924385 41.239052 100.70001 65793
43.984764 41.116192 100.40001 65793
44.175999 41.116192 100.40001 65793
44.367237 41.116192 100.40001 65793
44.558479 41.116192 100.40001 65793
44.749718 41.116192 100.40001 65793
44.940956 41.116192 100.40001 65793
45.132195 41.116192 100.40001 65793
45.323433 41.116192 100.40001 65793
45.514668 41.116192 100.40001 66048
45.705906 41.116192 100.40001 66048
45.897148 41.116192 100.40001 65793
46.088387 41.116192 100.40001 65793
46.279621 41.116192 100.40001 65793
46.332001 40.993336 100.10001 65793
46.522671 40.993336 100.10001 65793
46.713333 40.993336 100.10001 65793
46.904003 40.993336 100.10001 65793
47.094666 40.993336 100.10001 65793
47.285336 40.993336 100.10001 65793
47.475998 40.993336 100.10001 65793
47.666668 40.993336 100.10001 65793
48.000763 41.116192 100.40001 65793
48.192001 41.116192 100.40001 65793
48.383244 41.116192 100.40001 65793
48.574482 41.116192 100.40001 65793
48.76572 41.116192 100.40001 65793
48.956955 41.116192 100.40001 65793
49.295052 41.239052 100.70001 65793
49.486862 41.239052 100.70001 65793
49.678669 41.239052 100.70001 65793
50.019051 41.361904 101 65793
50.211422 41.361904 101 65793
50.553524 41.48476 101.3 65793
50.746475 41.48476 101.3 65793
50.93943 41.48476 101.3 65793
51.132381 41.48476 101.3 65793
51.325333 41.48476 101.3 65793
51.365707 41.361904 101 65793
51.558094 41.361904 101 65793
51.90419 41.48476 101.3 65793
52.097141 41.48476 101.3 65793
52.290092 41.48476 101.3 65793
52.483051 41.48476 101.3 65793
52.676003 41.48476 101.3 131586
53.025524 41.60762 101.60001 131586
53.37619 41.73048 101.90001 131586
53.728001 41.853336 102.2 131586
53.922672 41.853336 102.2 131586
54.276192 41.976192 102.50001 131586
54.630859 42.099045 102.8 131586
54.826664 42.099045 102.8 131586
55.022476 42.099045 102.8 65793
55.218285 42.099045 102.8 65793
55.414097 42.099045 102.8 65793
55.609905 42.099045 102.8 0
55.805714 42.099045 102.8 0
56.164951 42.221909 103.1 131586
43.793526 41.30743 100.40001 65793
43.984764 41.30743 100.40001 65793
44.044003 41.183998 100.10001 65793
44.234669 41.183998 100.10001 65793
44.425335 41.183998 100.10001 65793
44.749718 41.30743 100.40001 65793
44.940956 41.30743 100.40001 65793
44.997334 41.183998 100.10001 65793
45.188004 41.183998 100.10001 65793
45.378666 41.183998 100.10001 65793
45.569336 41.183998 100.10001 65793
45.759998 41.183998 100.10001 65793
45.950668 41.183998 100.10001 65793
46.141331 41.183998 100.10001 513
46.193142 41.060574 99.800003 513
46.243813 40.937145 99.500008 65793
46.433334 40.937145 99.500008 65793
46.62286 40.937145 99.500008 65793
46.953526 41.060574 99.800003 65793
47.14362 41.060574 99.800003 66048
47.475998 41.183998 100.10001 66048
47.666668 41.183998 100.10001 65793
47.857334 41.183998 100.10001 65793
48.048 41.183998 100.10001 65793
48.383244 41.30743 100.40001 65793
48.574482 41.30743 100.40001 65793
48.76572 41.30743 100.40001 65793
48.956955 41.30743 100.40001 65795
49.148193 41.30743 100.40001 65795
49.339432 41.30743 100.40001 65793
49.530666 41.30743 100.40001 65793
49.870483 41.430862 100.70001 65793
50.062294 41.430862 100.70001 65793
50.254093 41.430862 100.70001 65793
50.445908 41.430862 100.70001 65793
50.637714 41.430862 100.70001 65793
50.980949 41.554287 101 65793
51.021339 41.430862 100.70001 65793
51.213146 41.430862 100.70001 65793
51.558094 41.554287 101 65793
51.750477 41.554287 101 65793
52.097141 41.677711 101.3 65793
52.290092 41.677711 101.3 65793
52.483051 41.677711 101.3 65793
52.676003 41.677711 101.3 65793
53.025524 41.801144 101.60001 65793
53.37619 41.924572 101.90001 65793
53.57029 41.924572 101.90001 65793
53.922672 42.048 102.2 131586
54.11734 42.048 102.2 131586
54.471432 42.171432 102.50001 131586
54.826664 42.294857 102.8 65793
55.022476 42.294857 102.8 65793
55.218285 42.294857 102.8 65793
55.414097 42.294857 102.8 0
55.609905 42.294857 102.8 0
55.968571 42.418285 103.1 0
43.281334 41.374668 100.10001 131073
43.472 41.374668 100.10001 65793
43.662666 41.374668 100.10001 65793
43.853333 41.374668 100.10001 65793
44.044003 41.374668 100.10001 65793
44.234669 41.374668 100.10001 65793
44.425335 41.374668 100.10001 65793
44.616001 41.374668 100.10001 65793
44.806667 41.374668 100.10001 65793
44.997334 41.374668 100.10001 65793
45.188004 41.374668 100.10001 65793
45.378666 41.374668 100.10001 65793
45.569336 41.374668 100.10001 65793
45.62286 41.250668 99.800003 65793
45.812954 41.250668 99.800003 65793
45.864765 41.126667 99.500008 65793
46.054287 41.126667 99.500008 65793
46.243813 41.126667 99.500008 65793
46.433334 41.126667 99.500008 65793
46.62286 41.126667 99.500008 65793
46.812382 41.126667 99.500008 65793
47.14362 41.250668 99.800003 65793
47.475998 41.374668 100.10001 65793
47.666668 41.374668 100.10001 65793
47.857334 41.374668 100.10001 65793
48.048 41.374668 100.10001 65793
48.238667 41.374668 100.10001 65793
48.574482 41.498669 100.40001 65793
48.76572 41.498669 100.40001 65793
48.956955 41.498669 100.40001 65793
49.148193 41.498669 100.40001 65793
49.339432 41.498669 100.40001 65793
49.530666 41.498669 100.40001 65793
49.870483 41.622669 100.70001 66048
50.062294 41.622669 100.70001 66048
50.104378 41.498669 100.40001 65793
50.295628 41.498669 100.40001 65793
50.637714 41.622669 100.70001 65795
50.678097 41.498669 100.40001 65795
50.869339 41.498669 100.40001 65793
51.213146 41.622669 100.70001 65793
51.558094 41.746666 101 65793
51.750477 41.746666 101 65793
52.097141 41.870667 101.3 65793
52.290092 41.870667 101.3 65793
52.483051 41.870667 101.3 65793
52.676003 41.870667 101.3 65793
53.025524 41.994667 101.60001 131586
53.219044 41.994667 101.60001 65793
53.412575 41.994667 101.60001 65793
53.922672 42.242668 102.2 131586
54.11734 42.242668 102.2 131586
54.471432 42.366669 102.50001 131586
54.666676 42.366669 102.50001 66048
55.022476 42.490665 102.8 66048
55.218285 42.490665 102.8 65793
55.414097 42.490665 102.8 0
55.77219 42.61467 103.1 65793
55.968571 42.61467 103.1 65793
43.281334 41.565334 100.10001 131073
43.472 41.565334 100.10001 65793
43.662666 41.565334 100.10001 65793
43.853333 41.565334 100.10001 65793
44.044003 41.565334 100.10001 65793
44.234669 41.565334 100.10001 65793
44.425335 41.565334 100.10001 65793
44.616001 41.565334 100.10001 65793
44.806667 41.565334 100.10001 65793
44.862476 41.440765 99.800003 65792
45.05257 41.440765 99.800003 65792
45.242668 41.440765 99.800003 65793
45.432762 41.440765 99.800003 65793
45.485718 41.316193 99.500008 65793
45.67524 41.316193 99.500008 65793
45.864765 41.316193 99.500008 65793
46.054287 41.316193 99.500008 65793
46.243813 41.316193 99.500008 65793
46.293335 41.19162 99.200005 65793
46.482288 41.19162 99.200005 65793
46.671242 41.19162 99.200005 65793
47.001907 41.316193 99.500008 65793
47.333714 41.440765 99.800003 65793
47.666668 41.565334 100.10001 65793
47.857334 41.565334 100.10001 65793
48.048 41.565334 100.10001 513
48.238667 41.565334 100.10001 513
48.429333 41.565334 100.10001 65793
48.619999 41.565334 100.10001 65793
48.956955 41.689907 100.40001 65793
49.148193 41.689907 100.40001 65793
49.339432 41.689907 100.40001 65793
49.530666 41.689907 100.40001 65793
49.721905 41.689907 100.40001 65793
50.062294 41.81448 100.70001 65793
50.104378 41.689907 100.40001 65793
50.295628 41.689907 100.40001 65793
50.486862 41.689907 100.40001 65793
50.678097 41.689907 100.40001 131586
50.869339 41.689907 100.40001 65793
51.213146 41.81448 100.70001 65793
51.558094 41.939049 101 65793
51.750477 41.939049 101 65793
52.097141 42.063618 101.3 65793
52.290092 42.063618 101.3 65793
52.483051 42.063618 101.3 65793
52.676003 42.063618 101.3 65793
52.868958 42.063618 101.3 65793
53.219044 42.18819 101.60001 65793
53.412575 42.18819 101.60001 65793
53.764378 42.312767 101.90001 65793
53.958477 42.312767 101.90001 131586
54.152576 42.312767 101.90001 65793
54.666676 42.561909 102.50001 66048
55.022476 42.686478 102.8 66048
55.218285 42.686478 102.8 65793
55.414097 42.686478 102.8 65793
55.77219 42.811047 103.1 65793
56.131428 42.935619 103.4 131586
43.472 41.756001 100.10001 65793
43.662666 41.756001 100.10001 65793
43.721905 41.630859 99.800003 65793
43.912003 41.630859 99.800003 65793
44.102097 41.630859 99.800003 65793
44.292194 41.630859 99.800003 65793
44.482288 41.630859 99.800003 65793
44.672379 41.630859 99.800003 65793
44.727623 41.505714 99.500008 65792
44.917145 41.505714 99.500008 65792
45.106667 41.505714 99.500008 65793
45.296192 41.505714 99.500008 65793
45.348572 41.380577 99.200005 65793
45.537525 41.380577 99.200005 65793
45.726479 41.380577 99.200005 65793
45.915432 41.380577 99.200005 65793
46.104382 41.380577 99.200005 65793
46.293335 41.380577 99.200005 65793
46.482288 41.380577 99.200005 65793
46.671242 41.380577 99.200005 65793
46.860191 41.380577 99.200005 65793
47.191433 41.505714 99.500008 65793
47.523808 41.630859 99.800003 65793
47.713905 41.630859 99.800003 65793
47.903999 41.630859 99.800003 65793
48.094097 41.630859 99.800003 65793
48.429333 41.756001 100.10001 65793
48.619999 41.756001 100.10001 65793
48.956955 41.881145 100.40001 65793
49.148193 41.881145 100.40001 65793
49.339432 41.881145 100.40001 65793
49.530666 41.881145 100.40001 65793
49.721905 41.881145 100.40001 66048
49.913143 41.881145 100.40001 66048
50.104378 41.881145 100.40001 66048
50.295628 41.881145 100.40001 66048
50.486862 41.881145 100.40001 66048
50.678097 41.881145 100.40001 66048
50.869339 41.881145 100.40001 66048
51.213146 42.00629 100.70001 66048
51.404961 42.00629 100.70001 66048
51.750477 42.131432 101 66048
51.94286 42.131432 101 66048
52.135235 42.131432 101 66048
52.327621 42.131432 101 65793
52.52 42.131432 101 65793
52.868958 42.256569 101.3 65793
53.061909 42.256569 101.3 131586
53.412575 42.381714 101.60001 65793
53.764378 42.506859 101.90001 65793
53.958477 42.506859 101.90001 65793
54.152576 42.506859 101.90001 65793
54.346668 42.506859 101.90001 65793
54.540764 42.506859 101.90001 65793
55.218285 42.882286 102.8 0
55.414097 42.882286 102.8 0
43.21143 41.69524 99.500008 65793
43.400955 41.69524 99.500008 65793
43.590481 41.69524 99.500008 65793
43.780003 41.69524 99.500008 65793
44.102097 41.820953 99.800003 65793
44.292194 41.820953 99.800003 65793
44.482288 41.820953 99.800003 65793
44.672379 41.820953 99.800003 65793
44.727623 41.69524 99.500008 65792
44.917145 41.69524 99.500008 65792
44.970669 41.569527 99.200005 65793
45.159618 41.569527 99.200005 65793
45.348572 41.569527 99.200005 65792
45.537525 41.569527 99.200005 65792
45.726479 41.569527 99.200005 65793
45.915432 41.569527 99.200005 65793
46.104382 41.569527 99.200005 65793
46.293335 41.569527 99.200005 65793
46.482288 41.569527 99.200005 65793
46.671242 41.569527 99.200005 65793
46.860191 41.569527 99.200005 65793
47.049145 41.569527 99.200005 65793
47.380955 41.69524 99.500008 65793
47.57048 41.69524 99.500008 65793
47.760002 41.69524 99.500008 65793
47.949524 41.69524 99.500008 65793
48.284191 41.820953 99.800003 65793
48.474285 41.820953 99.800003 65793
48.810669 41.946671 100.10001 65793
49.001335 41.946671 100.10001 65793
49.192005 41.946671 100.10001 65793
49.382668 41.946671 100.10001 65793
49.573334 41.946671 100.10001 65793
49.764 41.946671 100.10001 65793
49.95467 41.946671 100.10001 65793
50.145332 41.946671 100.10001 65793
50.336002 41.946671 100.10001 65793
50.526665 41.946671 100.10001 65793
50.869339 42.072384 100.40001 66048
51.060574 42.072384 100.40001 66048
51.404961 42.198101 100.70001 65792
51.750477 42.323811 101 65792
51.788574 42.198101 100.70001 65793
51.980389 42.198101 100.70001 131586
52.327621 42.323811 101 65793
52.52 42.323811 101 131586
52.712379 42.323811 101 131586
52.904762 42.323811 101 65793
53.097145 42.323811 101 65793
53.447811 42.449524 101.3 65793
53.799618 42.575237 101.60001 66048
54.152576 42.700951 101.90001 66048
54.346668 42.700951 101.90001 65793
54.540764 42.700951 101.90001 0
43.400955 41.884766 99.500008 65793
43.590481 41.884766 99.500008 65793
43.780003 41.884766 99.500008 65793
43.969528 41.884766 99.500008 65793
44.15905 41.884766 99.500008 65793
44.348572 41.884766 99.500008 65793
44.538097 41.884766 99.500008 65793
44.727623 41.884766 99.500008 65792
44.917145 41.884766 99.500008 65792
44.970669 41.758476 99.200005 65793
45.159618 41.758476 99.200005 65793
45.348572 41.758476 99.200005 65793
45.537525 41.758476 99.200005 65793
45.726479 41.758476 99.200005 65793
45.915432 41.758476 99.200005 65793
45.964954 41.632191 98.900002 65793
46.153336 41.632191 98.900002 65793
46.341713 41.632191 98.900002 65793
46.671242 41.758476 99.200005 65793
46.860191 41.758476 99.200005 65793
47.049145 41.758476 99.200005 65793
47.380955 41.884766 99.500008 65793
47.57048 41.884766 99.500008 65793
47.760002 41.884766 99.500008 65793
47.949524 41.884766 99.500008 65793
48.284191 42.011047 99.800003 65793
48.474285 42.011047 99.800003 65793
48.664383 42.011047 99.800003 66048
48.854473 42.011047 99.800003 66048
49.044575 42.011047 99.800003 66048
49.234665 42.011047 99.800003 66048
49.424763 42.011047 99.800003 65793
49.764 42.137333 100.10001 65793
49.95467 42.137333 100.10001 65793
49.995049 42.011047 99.800003 65793
50.185143 42.011047 99.800003 65793
50.526665 42.137333 100.10001 65793
50.717335 42.137333 100.10001 66048
51.060574 42.263622 100.40001 66048
51.251812 42.263622 100.40001 65792
51.596767 42.389904 100.70001 65792
51.788574 42.389904 100.70001 65793
51.980389 42.389904 100.70001 65793
52.172195 42.389904 100.70001 131586
52.364002 42.389904 100.70001 131586
52.712379 42.51619 101 131586
52.74762 42.389904 100.70001 65793
52.939434 42.389904 100.70001 65793
53.131241 42.389904 100.70001 65793
53.481907 42.51619 101 66048
53.993149 42.768764 101.60001 66048
54.186665 42.768764 101.60001 65793
43.400955 42.074287 99.500008 65793
43.327618 41.820572 98.900002 65793
43.515999 41.820572 98.900002 65793
43.836956 41.94743 99.200005 65793
44.025906 41.94743 99.200005 65793
44.348572 42.074287 99.500008 65793
44.538097 42.074287 99.500008 65793
44.727623 42.074287 99.500008 65792
44.781715 41.94743 99.200005 65792
44.970669 41.94743 99.200005 65793
45.159618 41.94743 99.200005 65793
45.21143 41.820572 98.900002 65793
45.399811 41.820572 98.900002 65793
45.588192 41.820572 98.900002 65793
45.776573 41.820572 98.900002 65793
45.964954 41.820572 98.900002 65793
46.153336 41.820572 98.900002 65793
46.341713 41.820572 98.900002 65793
46.671242 41.94743 99.200005 65793
46.860191 41.94743 99.200005 65793
47.049145 41.94743 99.200005 65793
47.380955 42.074287 99.500008 65793
47.57048 42.074287 99.500008 65793
47.760002 42.074287 99.500008 65793
47.949524 42.074287 99.500008 65793
48.13905 42.074287 99.500008 65793
48.328575 42.074287 99.500008 65793
48.664383 42.201145 99.800003 66048
48.707619 42.074287 99.500008 66048
48.897148 42.074287 99.500008 66048
49.08667 42.074287 99.500008 66048
49.276192 42.074287 99.500008 65793
49.614857 42.201145 99.800003 65793
49.804955 42.201145 99.800003 65793
49.995049 42.201145 99.800003 65793
50.185143 42.201145 99.800003 65793
50.526665 42.328003 100.10001 65793
50.717335 42.328003 100.10001 66048
50.908001 42.328003 100.10001 66048
51.251812 42.454861 100.40001 65793
51.443054 42.454861 100.40001 65793
51.634289 42.454861 100.40001 65793
51.825523 42.454861 100.40001 65793
52.172195 42.581715 100.70001 65793
52.364002 42.581715 100.70001 131586
52.555817 42.581715 100.70001 131586
52.74762 42.581715 100.70001 65793
52.939434 42.581715 100.70001 65793
53.131241 42.581715 100.70001 65793
53.323048 42.581715 100.70001 65792
53.833717 42.83543 101.3 65792
54.026669 42.83543 101.3 0
43.327618 42.008953 98.900002 65793
43.515999 42.008953 98.900002 65793
43.70438 42.008953 98.900002 65793
43.892765 42.008953 98.900002 65793
44.214855 42.136379 99.200005 65793
44.403812 42.136379 99.200005 65793
44.592766 42.136379 99.200005 65793
44.781715 42.136379 99.200005 65793
44.834667 42.008953 98.900002 65793
45.023048 42.008953 98.900002 65793
45.21143 42.008953 98.900002 65793
45.399811 42.008953 98.900002 65793
45.588192 42.008953 98.900002 65793
45.776573 42.008953 98.900002 65793
45.964954 42.008953 98.900002 65793
46.153336 42.008953 98.900002 65793
46.341713 42.008953 98.900002 65793
46.530094 42.008953 98.900002 65793
46.860191 42.136379 99.200005 65793
47.049145 42.136379 99.200005 65793
47.238098 42.136379 99.200005 65793
47.427048 42.136379 99.200005 65793
47.616001 42.136379 99.200005 65793
47.804955 42.136379 99.200005 65793
48.13905 42.263813 99.500008 65793
48.328575 42.263813 99.500008 65793
48.518097 42.263813 99.500008 66048
48.707619 42.263813 99.500008 66048
48.897148 42.263813 99.500008 65793
49.08667 42.263813 99.500008 65793
49.276192 42.263813 99.500008 65793
49.614857 42.391239 99.800003 65793
49.655239 42.263813 99.500008 65793
49.844765 42.263813 99.500008 65793
50.03429 42.263813 99.500008 65793
50.375237 42.391239 99.800003 65793
50.565338 42.391239 99.800003 65793
50.908001 42.518665 100.10001 65793
51.098667 42.518665 100.10001 65793
51.443054 42.646099 100.40001 65793
51.634289 42.646099 100.40001 131586
51.825523 42.646099 100.40001 131586
52.016766 42.646099 100.40001 131586
52.364002 42.773525 100.70001 131586
52.555817 42.773525 100.70001 131586
52.74762 42.773525 100.70001 65793
52.939434 42.773525 100.70001 65793
53.131241 42.773525 100.70001 65793
53.323048 42.773525 100.70001 65792
53.833717 43.028381 101.3 65792
54.026669 43.028381 101.3 0
43.327618 42.197334 98.900002 65793
43.515999 42.197334 98.900002 65793
43.70438 42.197334 98.900002 65793
43.892765 42.197334 98.900002 65793
44.081146 42.197334 98.900002 65793
44.269527 42.197334 98.900002 65793
44.457905 42.197334 98.900002 65793
44.646286 42.197334 98.900002 65793
44.834667 42.197334 98.900002 65792
45.023048 42.197334 98.900002 65792
45.21143 42.197334 98.900002 65792
45.307999 42.112003 98.700005 65792
45.496002 42.112003 98.700005 65793
45.776573 42.197334 98.900002 65793
45.964954 42.197334 98.900002 65793
46.153336 42.197334 98.900002 65793
46.341713 42.197334 98.900002 65793
46.530094 42.197334 98.900002 65793
46.860191 42.325336 99.200005 65793
47.049145 42.325336 99.200005 65793
47.238098 42.325336 99.200005 65793
47.427048 42.325336 99.200005 65793
47.616001 42.325336 99.200005 65793
47.804955 42.325336 99.200005 65793
47.993908 42.325336 99.200005 65793
48.182858 42.325336 99.200005 65793
48.518097 42.453339 99.500008 65793
48.560764 42.325336 99.200005 65793
48.749714 42.325336 99.200005 65793
49.08667 42.453339 99.500008 65793
49.276192 42.453339 99.500008 65793
49.465717 42.453339 99.500008 65793
49.655239 42.453339 99.500008 65793
49.844765 42.453339 99.500008 65793
50.03429 42.453339 99.500008 65793
50.375237 42.581333 99.800003 65793
50.565338 42.581333 99.800003 65793
50.908001 42.709335 100.10001 65793
51.098667 42.709335 100.10001 65793
51.443054 42.837334 100.40001 65793
51.634289 42.837334 100.40001 65793
51.825523 42.837334 100.40001 131586
52.016766 42.837334 100.40001 131586
52.364002 42.965336 100.70001 131586
52.555817 42.965336 100.70001 131586
52.74762 42.965336 100.70001 131586
52.939434 42.965336 100.70001 66048
53.131241 42.965336 100.70001 66048
53.481907 43.09333 101 512
53.674286 43.09333 101 256
54.026669 43.221333 101.3 0
43.350857 42.042862 98.100006 65793
43.537716 42.042862 98.100006 65793
43.992001 42.299999 98.700005 65793
44.18 42.299999 98.700005 65793
44.368 42.299999 98.700005 65793
44.556 42.299999 98.700005 65793
44.743999 42.299999 98.700005 65792
44.932003 42.299999 98.700005 65792
45.120003 42.299999 98.700005 65792
45.307999 42.299999 98.700005 65792
45.496002 42.299999 98.700005 65793
45.684006 42.299999 98.700005 65793
45.872002 42.299999 98.700005 65793
46.060001 42.299999 98.700005 65793
46.248005 42.299999 98.700005 65793
46.530094 42.385715 98.900002 65793
46.718475 42.385715 98.900002 65793
46.906857 42.385715 98.900002 65793
47.238098 42.51429 99.200005 65793
47.427048 42.51429 99.200005 65793
47.616001 42.51429 99.200005 65793
47.804955 42.51429 99.200005 65793
47.993908 42.51429 99.200005 65793
48.182858 42.51429 99.200005 65793
48.371811 42.51429 99.200005 65793
48.560764 42.51429 99.200005 65793
48.749714 42.51429 99.200005 65793
48.938667 42.51429 99.200005 65793
49.127621 42.51429 99.200005 65793
49.465717 42.64286 99.500008 65793
49.655239 42.64286 99.500008 65795
49.844765 42.64286 99.500008 65795
50.03429 42.64286 99.500008 65793
50.223816 42.64286 99.500008 131586
50.565338 42.771427 99.800003 65793
50.908001 42.900002 100.10001 65793
51.098667 42.900002 100.10001 65793
51.289337 42.900002 100.10001 65793
51.634289 43.028572 100.40001 65795
51.825523 43.028572 100.40001 65795
52.016766 43.028572 100.40001 131586
52.208 43.028572 100.40001 65793
52.399242 43.028572 100.40001 131586
52.590477 43.028572 100.40001 65793
52.939434 43.15715 100.70001 66048
53.131241 43.15715 100.70001 66048
53.323048 43.15715 100.70001 512
