# .PCD v0.7 - Point Cloud Data file format
VERSION 0.7
FIELDS x y z rgb
SIZE 4 4 4 4
TYPE F F F U
COUNT 1 1 1 1
WIDTH 1234
HEIGHT 1
VIEWPOINT 0 0 0 1 0 0 0
POINTS 1234
DATA ascii
-105.72134 -72.657906 214.30002 1117503
-105.95201 -73.098671 215.60001 656202
-105.54134 -73.098671 215.60001 787788
-105.81334 -73.573334 217 265810
-105.4 -73.573334 217 2042221
-104.98666 -73.573334 217 5198454
-104.57333 -73.573334 217 7369623
-104.16 -73.573334 217 9538470
-104.416 -74.048004 218.39999 11249088
-104 -74.048004 218.39999 14075105
-103.58399 -74.048004 218.39999 15654137
-103.168 -74.048004 218.39999 16313071
-102.75199 -74.048004 218.39999 16378864
-102.33599 -74.048004 218.39999 16576756
-100.14857 -77.506279 228.60001 2960163
-99.71315 -77.506279 228.60001 2499612
-99.929153 -78.014862 230.10001 3023405
-99.49086 -78.014862 230.10001 3483956
-99.052574 -78.014862 230.10001 3551550
-98.614296 -78.014862 230.10001 3748929
-98.176003 -78.014862 230.10001 4012351
-97.737724 -78.014862 230.10001 4143937
-97.976006 -78.557335 231.70001 4536905
-97.534668 -78.557335 231.70001 4536905
-97.093338 -78.557335 231.70001 4536905
-96.652008 -78.557335 231.70001 4471112
-96.21067 -78.557335 231.70001 4668741
-96.430679 -79.099815 233.30002 4734534
-95.986298 -79.099815 233.30002 4472902
-95.541916 -79.099815 233.30002 4472902
-95.749718 -79.642288 234.90002 4472652
-95.302292 -79.642288 234.90002 4472652
-95.500954 -80.184761 236.5 4538695
-95.050476 -80.184761 236.5 4670281
-95.240005 -80.727234 238.10001 4538695
-94.786476 -80.727234 238.10001 4538695
-94.332954 -80.727234 238.10001 4931915
-93.879425 -80.727234 238.10001 4931915
-94.092957 -81.303612 239.8 5129805
-94.300011 -81.880005 241.50002 5590356
-93.840004 -81.880005 241.50002 5855064
-93.380005 -81.880005 241.50002 6249822
-92.920006 -81.880005 241.50002 6578537
-92.460007 -81.880005 241.50002 6710123
-92.000008 -81.880005 241.50002 7039088
-92.18438 -82.456383 243.20001 7170674
-91.721146 -82.456383 243.20001 7368312
-91.257912 -82.456383 243.20001 7368312
-90.79467 -82.456383 243.20001 7630455
-114.24001 -68.777153 204.00002 11840636
-113.85143 -68.777153 204.00002 12630152
-113.46287 -68.777153 204.00002 13089243
-113.0743 -68.777153 204.00002 12694485
-115.76514 -70.901146 210.30002 2037837
-113.99314 -70.058289 207.8 513
-113.59734 -70.058289 207.8 198149
-114.56344 -70.901146 210.30002 196868
-114.16286 -70.901146 210.30002 196868
-113.7623 -70.901146 210.30002 196866
-112.66096 -70.46286 209.00002 328452
-112.26287 -70.46286 209.00002 460033
-111.86477 -70.46286 209.00002 657412
-111.46668 -70.46286 209.00002 1116162
-111.75944 -70.901146 210.30002 1313541
-110.67049 -70.46286 209.00002 2035204
-109.63924 -70.058289 207.8 2035204
-109.24343 -70.058289 207.8 1906714
-109.4762 -70.46286 209.00002 1446163
-109.75658 -70.901146 210.30002 1314858
-109.356 -70.901146 210.30002 2104374
-108.28191 -70.46286 209.00002 2894122
-107.88381 -70.46286 209.00002 3025708
-108.1543 -70.901146 210.30002 3090747
-108.41982 -71.339432 211.60002 2827575
-108.01678 -71.339432 211.60002 2630187
-108.27486 -71.777718 212.90002 2301222
-107.86934 -71.777718 212.90002 1709614
-107.46382 -71.777718 212.90002 1249063
-106.40458 -71.339432 211.60002 328759
-106.00153 -71.339432 211.60002 328759
-105.59849 -71.339432 211.60002 72
-105.4362 -71.777718 212.90002 1181318
-105.72134 -72.249725 214.30002 5326277
-105.95201 -72.688004 215.60001 7629220
-105.54134 -72.688004 215.60001 9734596
-105.13068 -72.688004 215.60001 13156020
-104.72001 -72.688004 215.60001 13813950
-104.98666 -73.160004 217 14997222
-104.57333 -73.160004 217 15984117
-104.16 -73.160004 217 15985137
-104.416 -73.631996 218.39999 16314102
-104 -73.631996 218.39999 15392491
-103.58399 -73.631996 218.39999 14997733
-103.168 -73.631996 218.39999 14076093
-102.75199 -73.631996 218.39999 12497061
-99.884575 -75.553719 224.10002 3288378
-100.14857 -77.070854 228.60001 3355191
-99.71315 -77.070854 228.60001 3552570
-99.929153 -77.576569 230.10001 3946056
-99.49086 -77.576569 230.10001 4143435
-99.052574 -77.576569 230.10001 4077894
-98.614296 -77.576569 230.10001 4143687
-98.176003 -77.576569 230.10001 4143937
-97.737724 -77.576569 230.10001 4143937
-97.976006 -78.116005 231.70001 4471362
-97.534668 -78.116005 231.70001 4471362
-97.093338 -78.116005 231.70001 4536905
-96.652008 -78.116005 231.70001 4536905
-96.21067 -78.116005 231.70001 4407109
-96.430679 -78.655434 233.30002 4407109
-95.986298 -78.655434 233.30002 4407109
-96.197144 -79.194862 234.90002 4407109
-95.749718 -79.194862 234.90002 4472652
-95.302292 -79.194862 234.90002 4538445
-95.500954 -79.734291 236.5 4670281
-95.050476 -79.734291 236.5 4736074
-95.240005 -80.27372 238.10001 4999498
-94.786476 -80.27372 238.10001 4999498
-94.332954 -80.27372 238.10001 5327950
-94.549713 -80.846855 239.8 5393743
-94.092957 -80.846855 239.8 5657937
-94.300011 -81.420013 241.50002 5921109
-93.840004 -81.420013 241.50002 6119253
-93.380005 -81.420013 241.50002 6250839
-92.920006 -81.420013 241.50002 6512996
-92.460007 -81.420013 241.50002 6512996
-92.000008 -81.420013 241.50002 6512226
-91.540009 -81.420013 241.50002 6578019
-91.080009 -81.420013 241.50002 6051693
-91.257912 -81.993141 243.20001 5920107
-90.79467 -81.993141 243.20001 5920609
-114.96802 -68.824387 205.30002 10062456
-113.85143 -68.388573 204.00002 12365211
-113.46287 -68.388573 204.00002 13288170
-113.0743 -68.388573 204.00002 12696033
-116.16572 -70.50058 210.30002 5661072
-115.76514 -70.50058 210.30002 3095145
-115.36459 -70.50058 210.30002 515
-114.964 -70.50058 210.30002 515
-114.56344 -70.50058 210.30002 196866
-114.16286 -70.50058 210.30002 196866
-113.7623 -70.50058 210.30002 197120
-112.66096 -70.064766 209.00002 197120
-112.26287 -70.064766 209.00002 394240
-111.86477 -70.064766 209.00002 591619
-111.46668 -70.064766 209.00002 1116162
-111.06858 -70.064766 209.00002 1247748
-110.67049 -70.064766 209.00002 1640966
-110.27239 -70.064766 209.00002 1706759
-109.87428 -70.064766 209.00002 2168593
-110.15716 -70.50058 210.30002 2168593
-109.75658 -70.50058 210.30002 1773081
-109.356 -70.50058 210.30002 1838874
-108.95544 -70.50058 210.30002 3023405
-108.55486 -70.50058 210.30002 3418163
-108.82287 -70.936378 211.60002 2631218
-109.08591 -71.3722 212.90002 2236460
-108.68038 -71.3722 212.90002 1774656
-108.27486 -71.3722 212.90002 1511484
-107.86934 -71.3722 212.90002 1051712
-107.46382 -71.3722 212.90002 788540
-106.40458 -70.936378 211.60002 131927
-106.00153 -70.936378 211.60002 395099
-105.54134 -72.277336 215.60001 14271975
-105.13068 -72.277336 215.60001 15457514
-104.72001 -72.277336 215.60001 15786479
-104.98666 -72.746674 217 16575984
-104.57333 -72.746674 217 16378605
-104.16 -72.746674 217 16378607
-101.592 -75.126854 224.10002 3881787
-101.16515 -75.126854 224.10002 2171169
-100.73829 -75.126854 224.10002 2630187
-100.31145 -75.126854 224.10002 2630187
-99.884575 -75.126854 224.10002 2827827
-99.457718 -75.126854 224.10002 3090999
-100.14857 -76.635429 228.60001 3880765
-99.71315 -76.635429 228.60001 4012351
-99.929153 -77.13829 230.10001 4077894
-99.49086 -77.13829 230.10001 4077894
-99.052574 -77.13829 230.10001 4012101
-98.614296 -77.13829 230.10001 3946308
-98.176003 -77.13829 230.10001 4143937
-97.737724 -77.13829 230.10001 4275523
-97.976006 -77.674667 231.70001 4275273
-97.534668 -77.674667 231.70001 4275273
-97.093338 -77.674667 231.70001 4275523
-96.652008 -77.674667 231.70001 4275523
-96.21067 -77.674667 231.70001 4668741
-96.430679 -78.211052 233.30002 4668741
-95.986298 -78.211052 233.30002 4734534
-96.197144 -78.747437 234.90002 4866120
-95.749718 -78.747437 234.90002 4670281
-95.951424 -79.283813 236.5 4736074
-95.500954 -79.283813 236.5 4998471
-95.693527 -79.82019 238.10001 5195850
-95.240005 -79.82019 238.10001 5065548
-94.786476 -79.82019 238.10001 5197134
-95.00647 -80.390099 239.8 5393743
-94.549713 -80.390099 239.8 5459536
-94.092957 -80.390099 239.8 5855064
-94.300011 -80.960007 241.50002 5920857
-93.840004 -80.960007 241.50002 5922140
-93.380005 -80.960007 241.50002 5987933
-92.920006 -80.960007 241.50002 6315878
-92.460007 -80.960007 241.50002 6118499
-92.000008 -80.960007 241.50002 5855064
-91.540009 -80.960007 241.50002 5855064
-91.257912 -81.529907 243.20001 5722458
-114.24001 -68.000008 204.00002 8748324
-113.85143 -68.000008 204.00002 9998391
-113.46287 -68.000008 204.00002 13155011
-113.0743 -68.000008 204.00002 13418183
-116.16572 -70.100006 210.30002 7365562
-115.76514 -70.100006 210.30002 6247081
-115.36459 -70.100006 210.30002 536
-115.67467 -70.533333 211.60002 21
-115.27163 -70.533333 211.60002 131328
-114.86858 -70.533333 211.60002 197120
-114.46552 -70.533333 211.60002 197120
-112.0141 -69.26667 207.8 197120
-111.61829 -69.26667 207.8 460033
-111.22248 -69.26667 207.8 460033
-110.82667 -69.26667 207.8 1050369
-111.06858 -69.666672 209.00002 1181955
-110.03505 -69.26667 207.8 1378571
-109.63924 -69.26667 207.8 1707536
-109.87428 -69.666672 209.00002 2234634
-109.4762 -69.666672 209.00002 2234634
-109.75658 -70.100006 210.30002 1576995
-109.356 -70.100006 210.30002 1248030
-108.95544 -70.100006 210.30002 2235933
-109.22591 -70.533333 211.60002 854280
-108.82287 -70.533333 211.60002 45
-108.41982 -70.533333 211.60002 328755
-108.01678 -70.533333 211.60002 262245
-108.27486 -70.966675 212.90002 2827916
-107.86934 -70.966675 212.90002 4011157
-107.46382 -70.966675 212.90002 7432393
-107.05829 -70.966675 212.90002 10656683
-106.65277 -70.966675 212.90002 11709371
-102.44572 -74.700005 224.10002 2827314
-102.01887 -74.700005 224.10002 2695728
-101.592 -74.700005 224.10002 2697261
-101.16515 -74.700005 224.10002 3026226
-100.73829 -74.700005 224.10002 3420482
-100.31145 -74.700005 224.10002 3552068
-99.884575 -74.700005 224.10002 3748929
-99.457718 -74.700005 224.10002 3748929
-99.693718 -75.200005 225.60001 3683386
-100.14857 -76.199997 228.60001 3880765
-99.71315 -76.199997 228.60001 3946558
-99.929153 -76.700005 230.10001 4339776
-99.49086 -76.700005 230.10001 4339776
-99.052574 -76.700005 230.10001 4078144
-98.614296 -76.700005 230.10001 3946558
-98.176003 -76.700005 230.10001 4012101
-97.737724 -76.700005 230.10001 4143687
-97.976006 -77.233337 231.70001 4405319
-97.534668 -77.233337 231.70001 4536905
-97.093338 -77.233337 231.70001 4275273
-96.652008 -77.233337 231.70001 4406859
-96.21067 -77.233337 231.70001 4668491
-96.430679 -77.76667 233.30002 4800077
-95.986298 -77.76667 233.30002 4865870
-96.197144 -78.300003 234.90002 5063249
-95.749718 -78.300003 234.90002 4998219
-95.951424 -78.833328 236.5 5195598
-95.500954 -78.833328 236.5 5130571
-95.050476 -78.833328 236.5 5196364
-95.240005 -79.366669 238.10001 5262409
-94.786476 -79.366669 238.10001 5328202
-94.332954 -79.366669 238.10001 5327950
-94.549713 -79.933334 239.8 5327950
-94.092957 -79.933334 239.8 5262927
-94.300011 -80.500008 241.50002 5328720
-93.840004 -80.500008 241.50002 5131856
-93.380005 -80.500008 241.50002 5066063
-92.460007 -80.500008 241.50002 5196884
-92.000008 -80.500008 241.50002 4670281
-114.24001 -67.611435 204.00002 6705709
-113.85143 -67.611435 204.00002 7758397
-113.46287 -67.611435 204.00002 13219005
-113.0743 -67.611435 204.00002 13219005
-116.16572 -69.699432 210.30002 9604280
-115.76514 -69.699432 210.30002 8485799
-115.36459 -69.699432 210.30002 134206
-115.67467 -70.130287 211.60002 48
-115.27163 -70.130287 211.60002 131328
-114.86858 -70.130287 211.60002 262913
-114.46552 -70.130287 211.60002 262912
-112.0141 -68.870857 207.8 197120
-111.61829 -68.870857 207.8 394240
-111.22248 -68.870857 207.8 394240
-110.82667 -68.870857 207.8 984578
-111.06858 -69.268578 209.00002 1181957
-110.03505 -68.870857 207.8 1378571
-109.63924 -68.870857 207.8 1575950
-109.87428 -69.268578 209.00002 2563351
-109.4762 -69.268578 209.00002 2300179
-109.75658 -69.699432 210.30002 1510157
-110.03201 -70.130287 211.60002 1312778
-109.62897 -70.130287 211.60002 1314632
-109.22591 -70.130287 211.60002 919874
-108.82287 -70.130287 211.60002 397409
-108.41982 -70.130287 211.60002 2502785
-108.01678 -70.130287 211.60002 5329776
-107.61372 -70.130287 211.60002 5987706
-107.21067 -70.130287 211.60002 9865118
-107.46382 -70.56115 212.90002 11773115
-106.24725 -70.56115 212.90002 15984619
-105.03068 -70.56115 212.90002 16313586
-103.22666 -73.312004 221.20001 3289137
-102.80534 -73.312004 221.20001 3419176
-103.03201 -73.776001 222.60001 2366488
-102.608 -73.776001 222.60001 2628140
-102.87259 -74.273148 224.10002 2957105
-102.44572 -74.273148 224.10002 2959413
-102.01887 -74.273148 224.10002 3090999
-101.592 -74.273148 224.10002 3354421
-101.16515 -74.273148 224.10002 3617593
-100.73829 -74.273148 224.10002 3814722
-100.31145 -74.273148 224.10002 3748929
-99.884575 -74.273148 224.10002 3749179
-99.457718 -74.273148 224.10002 3749179
-99.693718 -74.770287 225.60001 3814972
-100.14857 -75.764572 228.60001 3946558
-100.36742 -76.261719 230.10001 4012351
-99.929153 -76.261719 230.10001 4077894
-99.49086 -76.261719 230.10001 4077894
-99.052574 -76.261719 230.10001 4077894
-98.614296 -76.261719 230.10001 4077894
-98.176003 -76.261719 230.10001 4339526
-97.737724 -76.261719 230.10001 4471112
-97.299431 -76.261719 230.10001 4275021
-97.534668 -76.792 231.70001 4340814
-97.093338 -76.792 231.70001 4997710
-96.652008 -76.792 231.70001 4997710
-96.21067 -76.792 231.70001 4931913
-96.430679 -77.322289 233.30002 5063499
-95.986298 -77.322289 233.30002 5129805
-96.197144 -77.852577 234.90002 5195598
-95.749718 -77.852577 234.90002 4999757
-95.951424 -78.382858 236.5 5065550
-95.500954 -78.382858 236.5 5130571
-95.050476 -78.382858 236.5 5064778
-95.240005 -78.913139 238.10001 5195850
-94.786476 -78.913139 238.10001 5195850
-94.332954 -78.913139 238.10001 5195850
-114.24001 -67.222862 204.00002 5059596
-113.85143 -67.222862 204.00002 6901800
-113.46287 -67.222862 204.00002 12102807
-114.46001 -68.046661 206.5 12629151
-116.07774 -69.727242 211.60002 1514332
-115.67467 -69.727242 211.60002 579
-115.27163 -69.727242 211.60002 256
-114.86858 -69.727242 211.60002 66304
-114.46552 -69.727242 211.60002 196866
-113.36172 -69.298866 210.30002 196866
-112.26287 -68.870483 209.00002 328704
-111.22248 -68.475052 207.8 394497
-110.82667 -68.475052 207.8 1050368
-111.06858 -68.870483 209.00002 1116160
-110.67049 -68.870483 209.00002 1575173
-110.27239 -68.870483 209.00002 1640966
-110.55772 -69.298866 210.30002 2298376
-110.15716 -69.298866 210.30002 2298376
-109.75658 -69.298866 210.30002 656129
-110.03201 -69.727242 211.60002 853508
-109.62897 -69.727242 211.60002 8483655
-109.89696 -70.155624 212.90002 9996894
-109.49144 -70.155624 212.90002 14141611
-108.41982 -69.727242 211.60002 14470576
-108.01678 -69.727242 211.60002 14865886
-107.61372 -69.727242 211.60002 15655402
-107.21067 -69.727242 211.60002 15459306
-105.03068 -70.155624 212.90002 11177394
-103.22666 -72.890671 221.20001 2434091
-102.80534 -72.890671 221.20001 2827827
-103.03201 -73.352005 222.60001 3090999
-102.608 -73.352005 222.60001 3353919
-102.87259 -73.846283 224.10002 3485505
-102.44572 -73.846283 224.10002 3617343
-102.01887 -73.846283 224.10002 3551550
-101.592 -73.846283 224.10002 3551800
-101.16515 -73.846283 224.10002 3617593
-100.73829 -73.846283 224.10002 3617343
-100.31145 -73.846283 224.10002 3683136
-99.884575 -73.846283 224.10002 3814972
-100.12343 -74.340569 225.60001 3749179
-99.693718 -74.340569 225.60001 3881017
-100.58399 -75.32914 228.60001 3881017
-100.80573 -75.823433 230.10001 3946558
-100.36742 -75.823433 230.10001 3946558
-99.929153 -75.823433 230.10001 4207940
-99.49086 -75.823433 230.10001 4405319
-99.052574 -75.823433 230.10001 4143435
-98.614296 -75.823433 230.10001 4209228
-98.176003 -75.823433 230.10001 4536403
-97.737724 -75.823433 230.10001 4865368
-97.299431 -75.823433 230.10001 4997208
-96.861145 -75.823433 230.10001 5194587
-96.422867 -75.823433 230.10001 4999505
-96.652008 -76.35067 231.70001 4999505
-96.21067 -76.35067 231.70001 5130830
-96.430679 -76.877907 233.30002 5262416
-96.644577 -77.405151 234.90002 5459538
-96.197144 -77.405151 234.90002 5262159
-95.749718 -77.405151 234.90002 5129805
-95.951424 -77.932373 236.5 5064012
-95.500954 -77.932373 236.5 4998219
-114.24001 -66.83429 204.00002 3414016
-113.85143 -66.83429 204.00002 5190421
-113.46287 -66.83429 204.00002 10654353
-113.79486 -67.260193 205.30002 12036006
-114.06667 -67.653336 206.5 11643853
-116.07774 -69.324196 211.60002 2438255
-115.67467 -69.324196 211.60002 1858
-115.5743 -69.750099 212.90002 65793
-115.16878 -69.750099 212.90002 131840
-113.36172 -68.898293 210.30002 66048
-112.96115 -68.898293 210.30002 197632
-112.56059 -68.898293 210.30002 263424
-112.16 -68.898293 210.30002 657410
-111.75944 -68.898293 210.30002 657410
-111.35886 -68.898293 210.30002 1443587
-110.95831 -68.898293 210.30002 1640966
-111.24115 -69.324196 211.60002 1772802
-110.8381 -69.324196 211.60002 1904388
-111.11353 -69.750099 212.90002 131328
-110.70801 -69.750099 212.90002 131328
-110.30248 -69.750099 212.90002 9465472
-109.89696 -69.750099 212.90002 11570848
-109.49144 -69.750099 212.90002 16374773
-108.41982 -69.324196 211.60002 16440566
-108.01678 -69.324196 211.60002 16180974
-107.61372 -69.324196 211.60002 15917802
-107.21067 -69.324196 211.60002 15655141
-106.80762 -69.324196 211.60002 15260383
-105.31315 -70.208763 214.30002 9076345
-104.90496 -70.208763 214.30002 9010552
-105.4 -71.093338 217 7499121
-104.06934 -72.469337 221.20001 2630187
-103.64801 -72.469337 221.20001 2763054
-103.22666 -72.469337 221.20001 2960433
-102.80534 -72.469337 221.20001 3222835
-103.03201 -72.928001 222.60001 3354421
-102.608 -72.928001 222.60001 3485757
-102.87259 -73.419434 224.10002 3485757
-102.44572 -73.419434 224.10002 3551800
-102.01887 -73.419434 224.10002 3551800
-101.592 -73.419434 224.10002 3551800
-101.16515 -73.419434 224.10002 3683386
-100.73829 -73.419434 224.10002 3617593
-100.31145 -73.419434 224.10002 3749179
-99.884575 -73.419434 224.10002 3748929
-100.12343 -73.910858 225.60001 3814722
-100.35657 -74.40229 227.10002 3946558
-100.58399 -74.893723 228.60001 4078144
-100.80573 -75.385147 230.10001 4012101
-100.36742 -75.385147 230.10001 3946308
-99.929153 -75.385147 230.10001 4207940
-99.49086 -75.385147 230.10001 4273733
-99.052574 -75.385147 230.10001 4405319
-98.614296 -75.385147 230.10001 4405319
-98.176003 -75.385147 230.10001 4537155
-97.737724 -75.385147 230.10001 5129292
-97.299431 -75.385147 230.10001 5261141
-96.861145 -75.385147 230.10001 5392727
-96.652008 -75.909332 231.70001 5459536
-96.21067 -75.909332 231.70001 5459536
-96.430679 -76.433525 233.30002 5327950
-115.35905 -66.869148 205.30002 1772552
-114.24001 -66.445717 204.00002 2229760
-113.85143 -66.445717 204.00002 3414031
-113.46287 -66.445717 204.00002 9931601
-113.79486 -66.869148 205.30002 10721117
-114.06667 -67.260002 206.5 12102078
-115.36459 -68.497726 210.30002 5656193
-115.67467 -68.92115 211.60002 3090266
-115.5743 -69.344574 212.90002 513
-115.16878 -69.344574 212.90002 65792
-113.36172 -68.497726 210.30002 131584
-112.96115 -68.497726 210.30002 328704
-112.56059 -68.497726 210.30002 328704
-112.16 -68.497726 210.30002 591617
-111.75944 -68.497726 210.30002 657410
-111.35886 -68.497726 210.30002 1379073
-110.95831 -68.497726 210.30002 1444866
-111.24115 -68.92115 211.60002 1510913
-110.8381 -68.92115 211.60002 1510913
-111.11353 -69.344574 212.90002 0
-110.70801 -69.344574 212.90002 0
-110.30248 -69.344574 212.90002 7825185
-109.89696 -69.344574 212.90002 10259526
-109.49144 -69.344574 212.90002 14073783
-109.08591 -69.344574 212.90002 13942197
-108.68038 -69.344574 212.90002 12362933
-108.27486 -69.344574 212.90002 11770796
-107.86934 -69.344574 212.90002 10917275
-105.31315 -69.800583 214.30002 4998996
-104.90496 -69.800583 214.30002 4867410
-105.13068 -70.224007 215.60001 4339776
-105.4 -70.68 217 3221295
-104.98666 -70.68 217 2759983
-104.49068 -72.048004 221.20001 3288378
-104.06934 -72.048004 221.20001 3354171
-103.64801 -72.048004 221.20001 3223605
-103.22666 -72.048004 221.20001 3223605
-103.45601 -72.504005 222.60001 3354421
-103.03201 -72.504005 222.60001 3486007
-102.608 -72.504005 222.60001 3420214
-102.184 -72.504005 222.60001 3420214
-102.44572 -72.992577 224.10002 3551800
-102.01887 -72.992577 224.10002 3551800
-101.592 -72.992577 224.10002 3486007
-101.84229 -73.48114 225.60001 3617593
-101.41257 -73.48114 225.60001 3683386
-100.98286 -73.48114 225.60001 3683386
-100.55315 -73.48114 225.60001 3683136
-100.12343 -73.48114 225.60001 3683136
-100.35657 -73.969719 227.10002 4076354
-100.58399 -74.458282 228.60001 4207940
-100.80573 -74.946854 230.10001 3813968
-100.36742 -74.946854 230.10001 3945554
-99.929153 -74.946854 230.10001 4076629
-99.49086 -74.946854 230.10001 4668766
-99.052574 -74.946854 230.10001 5131343
-98.614296 -74.946854 230.10001 5328722
-98.858681 -75.468002 231.70001 6117702
-98.417343 -75.468002 231.70001 6380874
-97.976006 -75.468002 231.70001 6446181
-97.534668 -75.468002 231.70001 6380388
-97.093338 -75.468002 231.70001 5854798
-115.35905 -66.478104 205.30002 1575173
-114.96802 -66.478104 205.30002 2493952
-114.57696 -66.478104 205.30002 3151877
-114.18592 -66.478104 205.30002 8088155
-114.46001 -66.866669 206.5 9667187
-114.06667 -66.866669 206.5 11971777
-113.67334 -66.866669 206.5 11774398
-115.36459 -68.097153 210.30002 6579603
-115.67467 -68.518105 211.60002 4934778
-114.86858 -68.518105 211.60002 22
-114.46552 -68.518105 211.60002 131328
-114.06248 -68.518105 211.60002 197120
-113.65943 -68.518105 211.60002 262913
-113.25639 -68.518105 211.60002 262913
-112.16 -68.097153 210.30002 656131
-111.75944 -68.097153 210.30002 853510
-111.35886 -68.097153 210.30002 1181955
-110.95831 -68.097153 210.30002 1379334
-111.24115 -68.518105 211.60002 1444870
-110.8381 -68.518105 211.60002 1444870
-110.43506 -68.518105 211.60002 196868
-110.70801 -68.939056 212.90002 65538
-109.62897 -68.518105 211.60002 3880451
-109.22591 -68.518105 211.60002 7630652
-108.82287 -68.518105 211.60002 11116207
-109.08591 -68.939056 212.90002 10984621
-108.01678 -68.518105 211.60002 9997706
-106.24725 -68.939056 212.90002 7827064
-105.84172 -68.939056 212.90002 6971755
-106.12952 -69.39238 214.30002 5394513
-105.72134 -69.39238 214.30002 3618102
-105.31315 -69.39238 214.30002 3485723
-105.54134 -69.813332 215.60001 2630414
-105.13068 -69.813332 215.60001 2957612
-105.4 -70.26667 217 2168096
-104.98666 -70.26667 217 2431011
-105.248 -70.720001 218.39999 2825769
-104.83199 -70.720001 218.39999 2893620
-104.416 -70.720001 218.39999 3090999
-104 -70.720001 218.39999 3091249
-104.24801 -71.17334 219.80002 3288628
-104.49068 -71.626671 221.20001 3354421
-104.06934 -71.626671 221.20001 3288628
-103.64801 -71.626671 221.20001 3288628
-103.22666 -71.626671 221.20001 3354421
-103.45601 -72.080002 222.60001 3354421
-103.03201 -72.080002 222.60001 3486007
-102.608 -72.080002 222.60001 3486007
-102.184 -72.080002 222.60001 3486007
-102.44572 -72.56572 224.10002 3486007
-102.01887 -72.56572 224.10002 3486007
-101.592 -72.56572 224.10002 3486007
-101.84229 -73.05143 225.60001 3551800
-101.41257 -73.05143 225.60001 3683136
-100.98286 -73.05143 225.60001 3748929
-101.22173 -73.537148 227.10002 3814470
-100.78914 -73.537148 227.10002 3682884
-101.01943 -74.02285 228.60001 3944516
-101.244 -74.508575 230.10001 4273481
-100.80573 -74.508575 230.10001 4208190
-100.36742 -74.508575 230.10001 4208190
-99.929153 -74.508575 230.10001 4998219
-99.49086 -74.508575 230.10001 5524563
-99.052574 -74.508575 230.10001 5789271
-99.300003 -75.026665 231.70001 5986650
-98.858681 -75.026665 231.70001 6183763
-98.417343 -75.026665 231.70001 6315349
-97.976006 -75.026665 231.70001 6314847
-115.35905 -66.087051 205.30002 1377801
-114.96802 -66.087051 205.30002 2953984
-114.57696 -66.087051 205.30002 3217152
-114.18592 -66.087051 205.30002 6706479
-114.46001 -66.473335 206.5 7824960
-114.06667 -66.473335 206.5 11444643
-113.67334 -66.473335 206.5 11970987
-113.99314 -66.891808 207.8 7826608
-115.67467 -68.115059 211.60002 6839713
-115.27163 -68.115059 211.60002 562
-114.86858 -68.115059 211.60002 46
-114.46552 -68.115059 211.60002 0
-114.06248 -68.115059 211.60002 65793
-113.65943 -68.115059 211.60002 196866
-113.25639 -68.115059 211.60002 262659
-112.85333 -68.115059 211.60002 525824
-111.75944 -67.696571 210.30002 657410
-111.35886 -67.696571 210.30002 1181955
-111.6442 -68.115059 211.60002 1313541
-111.24115 -68.115059 211.60002 1444870
-110.8381 -68.115059 211.60002 1444870
-110.43506 -68.115059 211.60002 656404
-110.03201 -68.115059 211.60002 131084
-109.62897 -68.115059 211.60002 2693376
-109.22591 -68.115059 211.60002 4009229
-109.49144 -68.533531 212.90002 8682332
-109.08591 -68.533531 212.90002 8682332
-108.01678 -68.115059 211.60002 8024161
-107.61372 -68.115059 211.60002 7958368
-107.21067 -68.115059 211.60002 6182775
-106.65277 -68.533531 212.90002 3944018
-106.24725 -68.533531 212.90002 3353133
-105.84172 -68.533531 212.90002 2892582
-106.12952 -68.984192 214.30002 2564394
-105.72134 -68.984192 214.30002 2367015
-105.31315 -68.984192 214.30002 2630187
-105.54134 -69.402672 215.60001 2827566
-105.81334 -69.853333 217 2828077
-105.4 -69.853333 217 2893870
-104.98666 -69.853333 217 2959413
-105.248 -70.304001 218.39999 3025206
-104.83199 -70.304001 218.39999 3090999
-104.416 -70.304001 218.39999 3090999
-104 -70.304001 218.39999 3157294
-104.24801 -70.754669 219.80002 3223087
-104.49068 -71.205345 221.20001 3222835
-104.06934 -71.205345 221.20001 3222835
-103.64801 -71.205345 221.20001 3288880
-103.88 -71.655998 222.60001 3354673
-103.45601 -71.655998 222.60001 3354421
-103.03201 -71.655998 222.60001 3420214
-102.608 -71.655998 222.60001 3486007
-102.87259 -72.138863 224.10002 3486007
-102.44572 -72.138863 224.10002 3486007
-102.01887 -72.138863 224.10002 3486007
-101.592 -72.138863 224.10002 3354673
-101.84229 -72.621712 225.60001 3486259
-101.41257 -72.621712 225.60001 3683136
-101.65429 -73.104568 227.10002 3814722
-101.22173 -73.104568 227.10002 3813716
-100.78914 -73.104568 227.10002 3813716
-101.01943 -73.587433 228.60001 4603477
-100.80573 -74.07029 230.10001 5854282
-100.36742 -74.07029 230.10001 5985868
-99.929153 -74.07029 230.10001 5986382
-99.49086 -74.07029 230.10001 6183761
-99.052574 -74.07029 230.10001 5921361
-115.35905 -65.695999 205.30002 1116162
-114.96802 -65.695999 205.30002 3676928
-114.57696 -65.695999 205.30002 3676928
-114.18592 -65.695999 205.30002 5322761
-114.46001 -66.080002 206.5 5914898
-114.06667 -66.080002 206.5 11507613
-113.67334 -66.080002 206.5 11836578
-113.99314 -66.496002 207.8 9209512
-114.964 -67.296005 210.30002 7762066
-115.27163 -67.712006 211.60002 68676
-114.86858 -67.712006 211.60002 56
-114.46552 -67.712006 211.60002 0
-114.06248 -67.712006 211.60002 131584
-113.65943 -67.712006 211.60002 196866
-113.25639 -67.712006 211.60002 196866
-112.85333 -67.712006 211.60002 394240
-112.4503 -67.712006 211.60002 591619
-112.04724 -67.712006 211.60002 1116162
-111.6442 -67.712006 211.60002 1313541
-111.24115 -67.712006 211.60002 1444870
-110.8381 -67.712006 211.60002 1510663
-110.43506 -67.712006 211.60002 1051155
-110.03201 -67.712006 211.60002 459018
-109.62897 -67.712006 211.60002 2494208
-109.22591 -67.712006 211.60002 4007443
-108.82287 -67.712006 211.60002 7956578
-108.41982 -67.712006 211.60002 7759199
-108.01678 -67.712006 211.60002 6708308
-107.61372 -67.712006 211.60002 5984585
-107.21067 -67.712006 211.60002 4276293
-106.80762 -67.712006 211.60002 2105124
-106.40458 -67.712006 211.60002 2367769
-106.65277 -68.127998 212.90002 1644046
-106.24725 -68.127998 212.90002 1906464
-106.53772 -68.576004 214.30002 2103843
-106.77334 -68.992004 215.60001 2432808
-106.36268 -68.992004 215.60001 2630187
-105.95201 -68.992004 215.60001 2959915
-106.22667 -69.440002 217 2959915
-105.81334 -69.440002 217 3221295
-106.07999 -69.887993 218.39999 3221295
-105.664 -69.887993 218.39999 3025206
-105.248 -69.887993 218.39999 2959413
-104.83199 -69.887993 218.39999 3025206
-104.416 -69.887993 218.39999 3222585
-104 -69.887993 218.39999 3157042
-104.24801 -70.336006 219.80002 3222835
-103.82935 -70.336006 219.80002 3222835
-103.41068 -70.336006 219.80002 3354421
-103.64801 -70.784004 221.20001 3354421
-103.22666 -70.784004 221.20001 3354421
-103.45601 -71.232002 222.60001 3354421
-103.03201 -71.232002 222.60001 3420214
-102.608 -71.232002 222.60001 3485757
-102.87259 -71.712006 224.10002 3617343
-102.44572 -71.712006 224.10002 3551550
-102.01887 -71.712006 224.10002 3551550
-102.27201 -72.192001 225.60001 3551800
-101.84229 -72.192001 225.60001 3551800
-101.41257 -72.192001 225.60001 3748929
-101.65429 -72.672005 227.10002 3814722
-115.35905 -65.304962 205.30002 1312521
-114.96802 -65.304962 205.30002 3940608
-114.57696 -65.304962 205.30002 3874816
-114.85333 -65.686668 206.5 3676160
-114.46001 -65.686668 206.5 5649943
-114.06667 -65.686668 206.5 10260860
-113.67334 -65.686668 206.5 10655618
-113.99314 -66.100189 207.8 10195857
-114.964 -66.895432 210.30002 9208962
-114.56344 -66.895432 210.30002 1974104
-114.16286 -66.895432 210.30002 395072
-114.46552 -67.30896 211.60002 0
-114.06248 -67.30896 211.60002 65793
-113.65943 -67.30896 211.60002 196866
-113.25639 -67.30896 211.60002 262659
-112.85333 -67.30896 211.60002 460033
-112.4503 -67.30896 211.60002 591619
-112.04724 -67.30896 211.60002 1182208
-111.6442 -67.30896 211.60002 1313793
-111.92458 -67.722481 212.90002 1510913
-111.51905 -67.722481 212.90002 1576706
-111.11353 -67.722481 212.90002 1575702
-110.70801 -67.722481 212.90002 1575702
-110.30248 -67.722481 212.90002 2430482
-109.89696 -67.722481 212.90002 2035724
-108.82287 -67.30896 211.60002 3415317
-108.41982 -67.30896 211.60002 3875868
-108.01678 -67.30896 211.60002 2562847
-107.61372 -67.30896 211.60002 2233882
-107.21067 -67.30896 211.60002 1906464
-106.80762 -67.30896 211.60002 2103843
-106.40458 -67.30896 211.60002 2236712
-106.65277 -67.722481 212.90002 2499884
-106.24725 -67.722481 212.90002 2893620
-106.53772 -68.167809 214.30002 2959413
-106.77334 -68.581337 215.60001 2893870
-106.36268 -68.581337 215.60001 3025456
-105.95201 -68.581337 215.60001 3091249
-106.22667 -69.026665 217 3091249
-105.81334 -69.026665 217 3025456
-106.07999 -69.472 218.39999 3025456
-105.664 -69.472 218.39999 3025206
-105.248 -69.472 218.39999 3025206
-104.83199 -69.472 218.39999 3025206
-104.416 -69.472 218.39999 3090999
-104 -69.472 218.39999 3090999
-104.24801 -69.917336 219.80002 3156792
-103.82935 -69.917336 219.80002 3157042
-103.41068 -69.917336 219.80002 3222835
-102.99201 -69.917336 219.80002 3222835
-102.57335 -69.917336 219.80002 3288628
-103.45601 -70.807999 222.60001 3354421
-103.03201 -70.807999 222.60001 3354421
-102.608 -70.807999 222.60001 3486007
-102.87259 -71.285156 224.10002 3486007
-102.44572 -71.285156 224.10002 3485505
-102.01887 -71.285156 224.10002 3682884
-102.27201 -71.762291 225.60001 3682884
-101.84229 -71.762291 225.60001 3880263
-101.41257 -71.762291 225.60001 4340814
-115.35905 -64.91391 205.30002 983808
-114.96802 -64.91391 205.30002 3676672
-115.24667 -65.293335 206.5 4334601
-114.85333 -65.293335 206.5 3216128
-114.46001 -65.293335 206.5 4137225
-114.06667 -65.293335 206.5 8682618
-113.67334 -65.293335 206.5 9998478
-113.99314 -65.704384 207.8 9999782
-113.59734 -65.704384 207.8 9276059
-113.85524 -66.083817 209.00002 3092574
-114.16286 -66.494858 210.30002 658233
-113.7623 -66.494858 210.30002 65538
-113.36172 -66.494858 210.30002 65538
-113.65943 -66.905907 211.60002 197120
-113.25639 -66.905907 211.60002 197120
-112.85333 -66.905907 211.60002 394240
-112.4503 -66.905907 211.60002 460033
-112.04724 -66.905907 211.60002 1050369
-111.6442 -66.905907 211.60002 1247748
-111.92458 -67.316956 212.90002 1444870
-111.51905 -67.316956 212.90002 1510663
-111.11353 -67.316956 212.90002 1773331
-110.70801 -67.316956 212.90002 1773331
-110.30248 -67.316956 212.90002 1773331
-109.89696 -67.316956 212.90002 1510159
-108.82287 -66.905907 211.60002 1773835
-108.41982 -66.905907 211.60002 1773835
-108.01678 -66.905907 211.60002 1972507
-107.61372 -66.905907 211.60002 2038300
-107.21067 -66.905907 211.60002 2432808
-106.80762 -66.905907 211.60002 2630187
-106.40458 -66.905907 211.60002 2761773
-106.65277 -67.316956 212.90002 2761773
-106.24725 -67.316956 212.90002 2828077
-106.53772 -67.759621 214.30002 2828077
-106.77334 -68.17067 215.60001 2828077
-106.36268 -68.17067 215.60001 2828077
-106.64001 -68.613335 217 2893870
-106.22667 -68.613335 217 2959663
-105.81334 -68.613335 217 2959663
-106.07999 -69.056 218.39999 2959663
-105.664 -69.056 218.39999 3025456
-105.248 -69.056 218.39999 3025456
-104.83199 -69.056 218.39999 2959663
-104.416 -69.056 218.39999 3091249
-104 -69.056 218.39999 3091249
-104.24801 -69.498672 219.80002 3091249
-103.82935 -69.498672 219.80002 3157042
-103.41068 -69.498672 219.80002 3222835
-102.99201 -69.498672 219.80002 3288628
-102.57335 -69.498672 219.80002 3354421
-103.45601 -70.384003 222.60001 3486007
-103.03201 -70.384003 222.60001 3354421
-102.608 -70.384003 222.60001 3615803
-102.87259 -70.858292 224.10002 3747389
-102.44572 -70.858292 224.10002 4075834
-102.01887 -70.858292 224.10002 4273213
-102.27201 -71.332573 225.60001 4142649
-101.84229 -71.332573 225.60001 4734786
-101.41257 -71.332573 225.60001 4933453
-115.35905 -64.522865 205.30002 1049347
-114.96802 -64.522865 205.30002 3545344
-115.24667 -64.900002 206.5 3676928
-114.85333 -64.900002 206.5 2426625
-114.46001 -64.900002 206.5 2689797
-114.06667 -64.900002 206.5 8353616
-113.67334 -64.900002 206.5 8879960
-113.99314 -65.308578 207.8 10129303
-113.59734 -65.308578 207.8 10063510
-113.85524 -65.685722 209.00002 4800873
-114.16286 -66.094292 210.30002 2629704
-113.7623 -66.094292 210.30002 2
-113.36172 -66.094292 210.30002 259
-113.65943 -66.502853 211.60002 197120
-113.25639 -66.502853 211.60002 197120
-112.85333 -66.502853 211.60002 394240
-112.4503 -66.502853 211.60002 525826
-112.04724 -66.502853 211.60002 1050369
-111.6442 -66.502853 211.60002 1181955
-111.92458 -66.911438 212.90002 1445120
-111.51905 -66.911438 212.90002 1576706
-111.11353 -66.911438 212.90002 2232583
-110.70801 -66.911438 212.90002 2232583
-110.30248 -66.911438 212.90002 1969947
-109.89696 -66.911438 212.90002 2364705
-109.49144 -66.911438 212.90002 2630941
-109.08591 -66.911438 212.90002 2696734
-108.68038 -66.911438 212.90002 2695980
-108.27486 -66.911438 212.90002 2695980
-107.86934 -66.911438 212.90002 2761773
-107.46382 -66.911438 212.90002 2761773
-107.05829 -66.911438 212.90002 2761773
-106.65277 -66.911438 212.90002 2761773
-106.24725 -66.911438 212.90002 2761773
-106.53772 -67.35144 214.30002 2761773
-106.77334 -67.760002 215.60001 2827566
-106.36268 -67.760002 215.60001 2827566
-106.64001 -68.200005 217 2828077
-106.22667 -68.200005 217 2893870
-105.81334 -68.200005 217 2893870
-106.07999 -68.639999 218.39999 2893870
-105.664 -68.639999 218.39999 3025708
-105.248 -68.639999 218.39999 3025708
-104.83199 -68.639999 218.39999 3091249
-104.416 -68.639999 218.39999 3091249
-104 -68.639999 218.39999 3091249
-104.24801 -69.080009 219.80002 3222835
-103.82935 -69.080009 219.80002 3222585
-103.41068 -69.080009 219.80002 3222585
-103.64801 -69.520004 221.20001 3222585
-103.22666 -69.520004 221.20001 3485757
-103.45601 -69.959999 222.60001 3485505
-103.03201 -69.959999 222.60001 3485505
-102.608 -69.959999 222.60001 3946308
-102.87259 -70.431427 224.10002 4341066
-102.44572 -70.431427 224.10002 5064766
-102.01887 -70.431427 224.10002 5130559
-116.03333 -64.506668 206.5 1704960
-115.64001 -64.506668 206.5 3019012
-115.24667 -64.506668 206.5 3347977
-114.85333 -64.506668 206.5 2690304
-114.46001 -64.506668 206.5 2690304
-114.06667 -64.506668 206.5 6969933
-113.67334 -64.506668 206.5 8614758
-113.99314 -64.912766 207.8 9604513
-114.25333 -65.287621 209.00002 9341341
-113.85524 -65.287621 209.00002 5132658
-114.16286 -65.693718 210.30002 3487833
-114.46552 -66.099808 211.60002 513
-114.06248 -66.099808 211.60002 256
-113.65943 -66.099808 211.60002 196866
-113.25639 -66.099808 211.60002 196866
-112.85333 -66.099808 211.60002 328704
-113.14114 -66.505905 212.90002 328704
-112.73563 -66.505905 212.90002 918785
-112.3301 -66.505905 212.90002 1116164
-111.92458 -66.505905 212.90002 1575173
-111.51905 -66.505905 212.90002 1772552
-111.11353 -66.505905 212.90002 1773835
-110.70801 -66.505905 212.90002 2168593
-111.02782 -66.943237 214.30002 1970710
-109.89696 -66.505905 212.90002 1904917
-109.49144 -66.505905 212.90002 2301472
-109.08591 -66.505905 212.90002 2696230
-108.68038 -66.505905 212.90002 2695980
-108.27486 -66.505905 212.90002 2695980
-107.86934 -66.505905 212.90002 2630187
-107.46382 -66.505905 212.90002 2761773
-107.05829 -66.505905 212.90002 2761773
-106.65277 -66.505905 212.90002 2761773
-106.24725 -66.505905 212.90002 2761773
-106.53772 -66.943237 214.30002 2761773
-106.77334 -67.349335 215.60001 2828077
-107.05334 -67.786667 217 2828077
-106.64001 -67.786667 217 2893870
-106.22667 -67.786667 217 2893870
-105.81334 -67.786667 217 2893870
-106.07999 -68.223999 218.39999 2959663
-105.664 -68.223999 218.39999 3091249
-105.248 -68.223999 218.39999 3222835
-104.83199 -68.223999 218.39999 3222585
-105.08535 -68.661346 219.80002 3288378
-104.66667 -68.661346 219.80002 3288378
-104.24801 -68.661346 219.80002 3288378
-103.82935 -68.661346 219.80002 3484467
-103.41068 -68.661346 219.80002 3550260
-103.64801 -69.098679 221.20001 3484719
-103.22666 -69.098679 221.20001 3747891
-103.45601 -69.536003 222.60001 4076856
-103.03201 -69.536003 222.60001 4471614
-102.608 -69.536003 222.60001 4605006
-116.03333 -64.113327 206.5 1639168
-115.64001 -64.113327 206.5 2821888
-115.24667 -64.113327 206.5 2887680
-114.85333 -64.113327 206.5 2690048
-114.46001 -64.113327 206.5 2492672
-114.78477 -64.516953 207.8 6181393
-114.38895 -64.516953 207.8 7168288
-113.99314 -64.516953 207.8 9602437
-114.25333 -64.889526 209.00002 9668230
-113.85524 -64.889526 209.00002 5788549
-114.16286 -65.293152 210.30002 4933240
-114.46552 -65.696762 211.60002 520
-114.06248 -65.696762 211.60002 6
-113.65943 -65.696762 211.60002 131588
-113.25639 -65.696762 211.60002 131588
-112.85333 -65.696762 211.60002 328706
-112.4503 -65.696762 211.60002 394499
-112.73563 -66.100388 212.90002 1116160
-112.3301 -66.100388 212.90002 1116160
-111.92458 -66.100388 212.90002 1313541
-111.51905 -66.100388 212.90002 1510920
-111.11353 -66.100388 212.90002 2100997
-110.70801 -66.100388 212.90002 2364169
-111.02782 -66.535049 214.30002 1971214
-110.61963 -66.535049 214.30002 1905421
-109.49144 -66.100388 212.90002 2695194
-109.08591 -66.100388 212.90002 2892573
-109.39505 -66.535049 214.30002 2696230
-108.98687 -66.535049 214.30002 2630437
-107.86934 -66.100388 212.90002 2695980
-107.46382 -66.100388 212.90002 2695980
-107.05829 -66.100388 212.90002 2695980
-106.65277 -66.100388 212.90002 2761773
-106.24725 -66.100388 212.90002 2827566
-106.53772 -66.535049 214.30002 2827566
-106.77334 -66.938667 215.60001 2828077
-107.05334 -67.373337 217 2762284
-106.64001 -67.373337 217 2828077
-106.22667 -67.373337 217 2893870
-106.496 -67.807999 218.39999 2893870
-106.07999 -67.807999 218.39999 2959663
-105.664 -67.807999 218.39999 3025206
-105.248 -67.807999 218.39999 3156792
-104.83199 -67.807999 218.39999 3288378
-105.08535 -68.242668 219.80002 3354171
-104.66667 -68.242668 219.80002 3354171
-104.24801 -68.242668 219.80002 3485757
-103.82935 -68.242668 219.80002 4012853
-103.41068 -68.242668 219.80002 4276025
-103.64801 -68.677338 221.20001 4407611
-103.22666 -68.677338 221.20001 4604990
-115.35905 -63.349716 205.30002 1572864
-114.96802 -63.349716 205.30002 2033152
-115.24667 -63.720001 206.5 2230530
-114.85333 -63.720001 206.5 2821633
-114.46001 -63.720001 206.5 2624256
-114.78477 -64.121147 207.8 4796935
-114.38895 -64.121147 207.8 5454865
-113.99314 -64.121147 207.8 9075071
-113.59734 -64.121147 207.8 9206657
-113.20154 -64.121147 207.8 7038845
-114.16286 -64.892578 210.30002 5657192
-114.46552 -65.293716 211.60002 1045
-114.06248 -65.293716 211.60002 17
-113.65943 -65.293716 211.60002 65795
-113.25639 -65.293716 211.60002 65795
-112.85333 -65.293716 211.60002 328706
-112.4503 -65.293716 211.60002 394499
-112.73563 -65.694862 212.90002 984578
-113.06876 -66.126862 214.30002 1116164
-112.66058 -66.126862 214.30002 1247748
-111.51905 -65.694862 212.90002 1510920
-111.11353 -65.694862 212.90002 2100997
-111.43601 -66.126862 214.30002 2429962
-111.02782 -66.126862 214.30002 2232333
-110.61963 -66.126862 214.30002 2232333
-110.21143 -66.126862 214.30002 2958366
-109.80325 -66.126862 214.30002 2958366
-109.39505 -66.126862 214.30002 2564644
-108.27486 -65.694862 212.90002 2630437
-107.86934 -65.694862 212.90002 2630187
-107.46382 -65.694862 212.90002 2630187
-107.05829 -65.694862 212.90002 2630187
-106.65277 -65.694862 212.90002 2827566
-106.24725 -65.694862 212.90002 2827566
-106.53772 -66.126862 214.30002 2959152
-106.77334 -66.528008 215.60001 2893620
-107.05334 -66.959999 217 2893620
-106.64001 -66.959999 217 2959663
-106.22667 -66.959999 217 3025456
-106.496 -67.392006 218.39999 3091249
-106.07999 -67.392006 218.39999 3025456
-105.664 -67.392006 218.39999 3025456
-105.248 -67.392006 218.39999 3157042
-104.83199 -67.392006 218.39999 3682098
-105.08535 -67.823997 219.80002 3616305
-104.66667 -67.823997 219.80002 3550512
-104.24801 -67.823997 219.80002 3945270
-103.82935 -67.823997 219.80002 4144189
-103.41068 -67.823997 219.80002 4341568
-115.35905 -62.958672 205.30002 1572864
-114.96802 -62.958672 205.30002 1115142
-115.24667 -63.326664 206.5 1378314
-114.85333 -63.326664 206.5 2888966
-114.46001 -63.326664 206.5 2625794
-114.06667 -63.326664 206.5 2756096
-114.38895 -63.725334 207.8 4729882
-113.99314 -63.725334 207.8 8155504
-113.59734 -63.725334 207.8 8813434
-113.20154 -63.725334 207.8 7631477
-114.16286 -64.492004 210.30002 6381410
-114.46552 -64.890671 211.60002 396085
-114.06248 -64.890671 211.60002 556
-113.65943 -64.890671 211.60002 65795
-113.25639 -64.890671 211.60002 65795
-112.85333 -64.890671 211.60002 262913
-113.14114 -65.289345 212.90002 328706
-112.73563 -65.289345 212.90002 657410
-113.06876 -65.718666 214.30002 788996
-112.66058 -65.718666 214.30002 1313541
-112.25238 -65.718666 214.30002 1445127
-111.84419 -65.718666 214.30002 2035204
-111.43601 -65.718666 214.30002 2232583
-111.02782 -65.718666 214.30002 2037007
-110.61963 -65.718666 214.30002 1905421
-110.21143 -65.718666 214.30002 2368017
-109.80325 -65.718666 214.30002 2499603
-109.39505 -65.718666 214.30002 2630437
-108.27486 -65.289345 212.90002 2630437
-107.86934 -65.289345 212.90002 2629935
-107.46382 -65.289345 212.90002 2695728
-107.05829 -65.289345 212.90002 2695728
-106.65277 -65.289345 212.90002 2761521
-106.24725 -65.289345 212.90002 2893870
-106.53772 -65.718666 214.30002 2828077
-106.77334 -66.11734 215.60001 3025206
-107.05334 -66.546669 217 3025206
-106.64001 -66.546669 217 3025206
-106.22667 -66.546669 217 3090999
-106.496 -66.975998 218.39999 3222585
-106.07999 -66.975998 218.39999 3354171
-105.664 -66.975998 218.39999 3551800
-105.248 -66.975998 218.39999 3683386
-104.83199 -66.975998 218.39999 4340528
-115.64001 -62.933338 206.5 1573632
-115.24667 -62.933338 206.5 1705217
-114.85333 -62.933338 206.5 3150598
-114.46001 -62.933338 206.5 3150598
-114.06667 -62.933338 206.5 1771008
-113.67334 -62.933338 206.5 3086865
-113.99314 -63.329525 207.8 7563867
-113.59734 -63.329525 207.8 8221797
-113.20154 -63.329525 207.8 7828354
-114.16286 -64.091438 210.30002 6841459
-114.46552 -64.487625 211.60002 988733
-114.06248 -64.487625 211.60002 553
-113.65943 -64.487625 211.60002 0
-113.25639 -64.487625 211.60002 131586
-112.85333 -64.487625 211.60002 196866
-113.14114 -64.883812 212.90002 262659
-112.04724 -64.487625 211.60002 525824
-111.6442 -64.487625 211.60002 723203
-111.92458 -64.883812 212.90002 1181955
-112.25238 -65.310478 214.30002 1379334
-111.84419 -65.310478 214.30002 1706759
-111.43601 -65.310478 214.30002 1838345
-111.02782 -65.310478 214.30002 1905421
-110.61963 -65.310478 214.30002 1773835
-110.21143 -65.310478 214.30002 1972507
-109.80325 -65.310478 214.30002 2301472
-109.39505 -65.310478 214.30002 2564644
-108.27486 -64.883812 212.90002 2696230
-107.86934 -64.883812 212.90002 2761773
-107.46382 -64.883812 212.90002 2761773
-107.05829 -64.883812 212.90002 2761773
-107.3541 -65.310478 214.30002 2761773
-106.94591 -65.310478 214.30002 2893870
-107.18401 -65.706673 215.60001 3025456
-107.05334 -66.133331 217 3025456
-106.64001 -66.133331 217 3287088
-106.22667 -66.133331 217 3550260
-115.64001 -62.540001 206.5 918272
-115.24667 -62.540001 206.5 1115651
-114.85333 -62.540001 206.5 2691840
-115.18056 -62.933712 207.8 2757632
-114.06667 -62.540001 206.5 1246465
-113.67334 -62.540001 206.5 1772809
-113.28001 -62.540001 206.5 7038249
-112.88667 -62.540001 206.5 7696179
-112.49334 -62.540001 206.5 7762039
-114.86858 -64.084579 211.60002 7433074
-114.46552 -64.084579 211.60002 2565704
-114.06248 -64.084579 211.60002 591914
-113.65943 -64.084579 211.60002 2
-113.95219 -64.478287 212.90002 131588
-113.54668 -64.478287 212.90002 262913
-113.14114 -64.478287 212.90002 328706
-112.04724 -64.084579 211.60002 525824
-111.6442 -64.084579 211.60002 657410
-111.92458 -64.478287 212.90002 1379073
-111.51905 -64.478287 212.90002 1444866
-111.11353 -64.478287 212.90002 1510663
-111.43601 -64.90229 214.30002 1708042
-111.02782 -64.90229 214.30002 2103048
-110.61963 -64.90229 214.30002 2037255
-110.21143 -64.90229 214.30002 2038300
-109.80325 -64.90229 214.30002 2301472
-109.39505 -64.90229 214.30002 2564644
-108.98687 -64.90229 214.30002 2696230
-108.57867 -64.90229 214.30002 2695980
-108.17047 -64.90229 214.30002 2827566
-107.76229 -64.90229 214.30002 2828329
-107.3541 -64.90229 214.30002 2696743
-106.94591 -64.90229 214.30002 2959663
-115.64001 -62.146671 206.5 918272
-115.24667 -62.146671 206.5 1049858
-115.57638 -62.537903 207.8 2559488
-115.18056 -62.537903 207.8 2691074
-114.78477 -62.537903 207.8 1704960
-114.38895 -62.537903 207.8 1968130
-113.28001 -62.146671 206.5 6116412
-112.88667 -62.146671 206.5 7432272
-112.49334 -62.146671 206.5 7303041
-114.86858 -63.68153 211.60002 7039869
-114.46552 -63.68153 211.60002 2962000
-114.06248 -63.68153 211.60002 922417
-113.65943 -63.68153 211.60002 0
-113.95219 -64.072762 212.90002 131586
-113.54668 -64.072762 212.90002 197120
-113.14114 -64.072762 212.90002 197120
-112.73563 -64.072762 212.90002 459779
-112.3301 -64.072762 212.90002 657158
-111.92458 -64.072762 212.90002 1116162
-111.51905 -64.072762 212.90002 1379334
-111.11353 -64.072762 212.90002 1510663
-111.43601 -64.494095 214.30002 1642249
-111.02782 -64.494095 214.30002 1905421
-110.61963 -64.494095 214.30002 2102800
-110.21143 -64.494095 214.30002 2233882
-109.80325 -64.494095 214.30002 2562847
-109.39505 -64.494095 214.30002 2433312
-108.27486 -64.072762 212.90002 2696484
-107.86934 -64.072762 212.90002 2696230
-108.17047 -64.494095 214.30002 2696230
-107.76229 -64.494095 214.30002 2762536
-106.65277 -64.072762 212.90002 2762536
-106.53772 -64.494095 214.30002 3091249
-115.64001 -61.753338 206.5 918272
-115.24667 -61.753338 206.5 1115651
-115.57638 -62.142097 207.8 2494208
-115.18056 -62.142097 207.8 2494208
-114.78477 -62.142097 207.8 1836288
-114.38895 -62.142097 207.8 1638912
-113.99314 -62.142097 207.8 5853725
-113.59734 -62.142097 207.8 6445862
-113.20154 -62.142097 207.8 7563117
-114.86858 -63.278484 211.60002 7563117
-114.46552 -63.278484 211.60002 4012371
-114.06248 -63.278484 211.60002 2828097
-114.35772 -63.667244 212.90002 513
-113.95219 -63.667244 212.90002 513
-113.54668 -63.667244 212.90002 197120
-113.14114 -63.667244 212.90002 197120
-112.73563 -63.667244 212.90002 460033
-112.3301 -63.667244 212.90002 591619
-111.92458 -63.667244 212.90002 1116162
-116.368 -61.746288 207.8 1049601
-115.97218 -61.746288 207.8 983808
-115.57638 -61.746288 207.8 1967360
-114.78477 -61.746288 207.8 1443587
-114.38895 -61.746288 207.8 1377794
-113.28001 -61.360001 206.5 4731929
-112.88667 -61.360001 206.5 6442547
-113.20154 -61.746288 207.8 7234927
