# .PCD v0.7 - Point Cloud Data file format
VERSION 0.7
FIELDS x y z rgb
SIZE 4 4 4 4
TYPE F F F U
COUNT 1 1 1 1
WIDTH 1359
HEIGHT 1
VIEWPOINT 0 0 0 1 0 0 0
POINTS 1359
DATA ascii
18.444954 2.3592381 112.60001 8937559
18.65943 2.3592381 112.60001 8871766
18.873905 2.3592381 112.60001 8937563
19.088381 2.3592381 112.60001 8871770
19.251429 2.3529525 112.3 9069149
13.641145 2.5577145 111.90001 9265504
13.854287 2.5577145 111.90001 9265504
14.06743 2.5577145 111.90001 9199709
14.280573 2.5577145 111.90001 9199709
14.493714 2.5577145 111.90001 9199961
14.706858 2.5577145 111.90001 9265754
14.920001 2.5577145 111.90001 9265754
15.133144 2.5577145 111.90001 9199961
15.346287 2.5577145 111.90001 9134429
15.559429 2.5577145 111.90001 9068636
15.772573 2.5577145 111.90001 9068888
15.985716 2.5577145 111.90001 9003095
16.198858 2.5577145 111.90001 8937559
16.470667 2.5668571 112.3 8937559
16.68457 2.5668571 112.3 8937302
16.898478 2.5668571 112.3 8937302
17.112381 2.5668571 112.3 8937554
17.326286 2.5668571 112.3 8937554
17.54019 2.5668571 112.3 8937554
17.801523 2.5737145 112.60001 9003347
17.968 2.5668571 112.3 9003095
18.181906 2.5668571 112.3 9068888
18.395809 2.5668571 112.3 9003095
18.609715 2.5668571 112.3 9003095
18.756573 2.5577145 111.90001 8937561
18.969715 2.5577145 111.90001 8937561
13.38 2.7609522 111.5 9265502
13.592381 2.7609522 111.5 9199711
13.804762 2.7609522 111.5 9133918
14.017144 2.7609522 111.5 9068636
14.229525 2.7609522 111.5 9068636
14.441904 2.7609522 111.5 9200215
14.654284 2.7609522 111.5 9266008
14.866667 2.7609522 111.5 9265502
15.079048 2.7609522 111.5 9199709
15.291429 2.7609522 111.5 9199961
15.559429 2.7708573 111.90001 9199961
15.772573 2.7708573 111.90001 9134681
15.985716 2.7708573 111.90001 9068888
16.198858 2.7708573 111.90001 9068888
16.412003 2.7708573 111.90001 9003095
16.625143 2.7708573 111.90001 9003095
16.838287 2.7708573 111.90001 9003095
17.051428 2.7708573 111.90001 8937302
17.264574 2.7708573 111.90001 8937302
17.477715 2.7708573 111.90001 8871766
17.690859 2.7708573 111.90001 8805973
17.904001 2.7708573 111.90001 8937554
18.117144 2.7708573 111.90001 9003347
18.330288 2.7708573 111.90001 8937302
18.477142 2.7609522 111.5 9003095
18.572191 2.7436192 110.8 9069145
18.783239 2.7436192 110.8 9134938
19.062859 2.7535241 111.20001 9266267
19.274668 2.7535241 111.20001 9397853
19.486479 2.7535241 111.20001 9463903
19.62743 2.7436192 110.8 9595489
13.344002 2.9653337 111.20001 9133916
13.555811 2.9653337 111.20001 9068636
13.767619 2.9653337 111.20001 9002843
13.979429 2.9653337 111.20001 9002841
14.191238 2.9653337 111.20001 9002841
14.403049 2.9653337 111.20001 9068636
14.614858 2.9653337 111.20001 9068636
14.826668 2.9653337 111.20001 9068636
15.038479 2.9653337 111.20001 9068636
15.250288 2.9653337 111.20001 9134168
15.462097 2.9653337 111.20001 9199961
15.71619 2.9733334 111.5 9199961
15.928571 2.9733334 111.5 9199961
16.140951 2.9733334 111.5 9068636
16.309334 2.9653337 111.20001 9002843
16.521145 2.9653337 111.20001 8937559
16.732954 2.9653337 111.20001 8937559
16.88381 2.9546669 110.8 8871766
17.094856 2.9546669 110.8 8871766
17.305904 2.9546669 110.8 8871766
17.516953 2.9546669 110.8 8805973
17.728001 2.9546669 110.8 8805973
17.939047 2.9546669 110.8 8871766
18.150095 2.9546669 110.8 8871766
18.361143 2.9546669 110.8 8871766
18.572191 2.9546669 110.8 9003352
18.783239 2.9546669 110.8 9069145
18.994286 2.9546669 110.8 9266524
19.205334 2.9546669 110.8 9463903
19.416382 2.9546669 110.8 9529950
19.62743 2.9546669 110.8 9661536
19.838476 2.9546669 110.8 9596257
13.084952 3.1657145 110.8 9068636
13.296 3.1657145 110.8 9002843
13.507048 3.1657145 110.8 8937309
13.718096 3.1657145 110.8 8805723
13.929144 3.1657145 110.8 8871516
14.14019 3.1657145 110.8 8871516
14.351238 3.1657145 110.8 9002843
14.562286 3.1657145 110.8 9002843
14.773335 3.1657145 110.8 9003095
14.984381 3.1657145 110.8 9003095
15.195429 3.1657145 110.8 9199961
15.406476 3.1657145 110.8 9134168
15.617524 3.1657145 110.8 9134681
15.828572 3.1657145 110.8 9134681
16.039619 3.1657145 110.8 9200224
16.250668 3.1657145 110.8 9134431
16.461716 3.1657145 110.8 9068888
16.672764 3.1657145 110.8 9068888
16.88381 3.1657145 110.8 9003352
17.094856 3.1657145 110.8 8937559
17.305904 3.1657145 110.8 8937559
17.516953 3.1657145 110.8 8805973
17.728001 3.1657145 110.8 8805973
17.939047 3.1657145 110.8 8871766
18.150095 3.1657145 110.8 8937559
18.361143 3.1657145 110.8 8937559
18.521904 3.1571429 110.5 9003352
18.73238 3.1571429 110.5 9003352
18.942858 3.1571429 110.5 9201499
19.153332 3.1571429 110.5 9333085
19.36381 3.1571429 110.5 9399391
19.574286 3.1571429 110.5 9465184
19.784761 3.1571429 110.5 9596770
13.259999 3.3676193 110.5 8872286
13.470477 3.3676193 110.5 8806493
13.680953 3.3676193 110.5 8806493
13.891429 3.3676193 110.5 8740700
14.101905 3.3676193 110.5 8674907
14.351238 3.3767619 110.8 8805975
14.562286 3.3767619 110.8 8805975
14.773335 3.3767619 110.8 8871255
14.94381 3.3676193 110.5 8937048
15.154285 3.3676193 110.5 9002843
15.364761 3.3676193 110.5 9002843
15.575239 3.3676193 110.5 9134429
15.785713 3.3676193 110.5 9068636
15.996191 3.3676193 110.5 9068636
16.206667 3.3676193 110.5 9200222
16.417143 3.3676193 110.5 9134681
16.627619 3.3676193 110.5 9068888
16.838097 3.3676193 110.5 9003352
17.048573 3.3676193 110.5 8937559
17.259048 3.3676193 110.5 8937559
17.469524 3.3676193 110.5 8871766
17.68 3.3676193 110.5 8937302
17.890476 3.3676193 110.5 8937302
18.100952 3.3676193 110.5 8871766
18.311428 3.3676193 110.5 8937559
18.521904 3.3676193 110.5 8873049
18.73238 3.3676193 110.5 9004635
18.942858 3.3676193 110.5 9332835
19.153332 3.3676193 110.5 9398628
19.36381 3.3676193 110.5 9464675
19.574286 3.3676193 110.5 9464675
19.784761 3.3676193 110.5 9530725
13.002285 3.5651431 110.10001 8937059
13.212002 3.5651431 110.10001 8937059
13.421715 3.5651431 110.10001 8806745
13.631429 3.5651431 110.10001 8740952
13.891429 3.5780952 110.5 8674907
14.101905 3.5780952 110.5 8609114
14.312381 3.5780952 110.5 8739669
14.522858 3.5780952 110.5 8805462
14.733333 3.5780952 110.5 8870998
14.889715 3.5651431 110.10001 8870998
15.099428 3.5651431 110.10001 8870998
15.309145 3.5651431 110.10001 8936791
15.518858 3.5651431 110.10001 8937561
15.728572 3.5651431 110.10001 8937561
15.938287 3.5651431 110.10001 8937561
16.206667 3.5780952 110.5 9003354
16.357716 3.5651431 110.10001 9068888
16.567429 3.5651431 110.10001 9068888
16.777143 3.5651431 110.10001 9003352
16.986858 3.5651431 110.10001 9003352
17.196571 3.5651431 110.10001 8937561
17.406286 3.5651431 110.10001 8937561
17.616001 3.5651431 110.10001 8937559
17.825716 3.5651431 110.10001 8937559
18.035429 3.5651431 110.10001 8806745
18.245142 3.5651431 110.10001 8872538
18.454859 3.5651431 110.10001 9135456
18.664572 3.5651431 110.10001 9332835
18.874287 3.5651431 110.10001 9399141
19.084002 3.5651431 110.10001 9399141
19.293715 3.5651431 110.10001 9464675
19.503429 3.5651431 110.10001 9464675
19.713144 3.5651431 110.10001 9530977
19.922859 3.5651431 110.10001 9530977
12.746096 3.761143 109.7 8937309
12.955048 3.761143 109.7 8806243
13.164001 3.761143 109.7 8740450
13.372952 3.761143 109.7 8674907
13.581904 3.761143 109.7 8674907
13.841145 3.774857 110.10001 8609114
14.050858 3.774857 110.10001 8543321
14.260572 3.774857 110.10001 8674130
14.470285 3.774857 110.10001 8739923
14.680001 3.774857 110.10001 8804953
14.835618 3.761143 109.7 8804953
15.044572 3.761143 109.7 8739669
15.253525 3.761143 109.7 8739669
15.462476 3.761143 109.7 8805723
15.671429 3.761143 109.7 8805723
15.880381 3.761143 109.7 8871768
16.089334 3.761143 109.7 8937561
16.298286 3.761143 109.7 8937559
16.507238 3.761143 109.7 9003352
16.71619 3.761143 109.7 8872536
16.925142 3.761143 109.7 8872536
17.134096 3.761143 109.7 8872536
17.343048 3.761143 109.7 8938329
17.552 3.761143 109.7 9003352
17.760954 3.761143 109.7 9134938
17.969904 3.761143 109.7 9004122
18.178858 3.761143 109.7 9135708
18.38781 3.761143 109.7 9267294
18.596762 3.761143 109.7 9267294
18.805716 3.761143 109.7 9463907
19.014668 3.761143 109.7 9595493
19.223619 3.761143 109.7 9595491
19.432571 3.761143 109.7 9595491
19.641525 3.761143 109.7 9464932
19.850475 3.761143 109.7 9530725
12.502858 3.9592381 109.40001 9003356
12.711241 3.9592381 109.40001 8937563
12.91962 3.9592381 109.40001 8937059
13.128 3.9592381 109.40001 8937059
13.336381 3.9592381 109.40001 8740700
13.544764 3.9592381 109.40001 8674907
13.790857 3.9700952 109.7 8674907
13.999809 3.9700952 109.7 8609114
14.208762 3.9700952 109.7 8674130
14.417714 3.9700952 109.7 8674130
14.586668 3.9592381 109.40001 8673880
14.795049 3.9592381 109.40001 8739673
15.003429 3.9592381 109.40001 8739669
15.21181 3.9592381 109.40001 8739669
15.420193 3.9592381 109.40001 8674137
15.628573 3.9592381 109.40001 8739930
15.836952 3.9592381 109.40001 8805975
16.045336 3.9592381 109.40001 8871768
16.253716 3.9592381 109.40001 8937559
16.462097 3.9592381 109.40001 8937559
16.670477 3.9592381 109.40001 8937559
16.878859 3.9592381 109.40001 8937559
17.087238 3.9592381 109.40001 9003352
17.343048 3.9700952 109.7 9069145
17.504002 3.9592381 109.40001 9004120
17.712381 3.9592381 109.40001 9004120
17.920763 3.9592381 109.40001 9201751
18.129145 3.9592381 109.40001 9201751
18.337526 3.9592381 109.40001 9398878
18.545906 3.9592381 109.40001 9333085
18.754288 3.9592381 109.40001 9463903
18.962667 3.9592381 109.40001 9529696
19.171049 3.9592381 109.40001 9464675
19.379431 3.9592381 109.40001 9464675
19.587811 3.9592381 109.40001 9596770
19.79619 3.9592381 109.40001 9596770
12.457143 4.1523809 109 8937309
12.664762 4.1523809 109 8937309
12.91962 4.1676192 109.40001 8937059
13.128 4.1676192 109.40001 8937059
13.336381 4.1676192 109.40001 8871516
13.544764 4.1676192 109.40001 8871516
13.753144 4.1676192 109.40001 8805723
13.961524 4.1676192 109.40001 8805723
14.169906 4.1676192 109.40001 8674387
14.378287 4.1676192 109.40001 8674387
14.586668 4.1676192 109.40001 8674389
14.740952 4.1523809 109 8674389
14.948572 4.1523809 109 8739669
15.15619 4.1523809 109 8739669
15.36381 4.1523809 109 8673876
15.571429 4.1523809 109 8608083
15.779048 4.1523809 109 8609366
16.045336 4.1676192 109.40001 8609366
16.253716 4.1676192 109.40001 8805973
16.462097 4.1676192 109.40001 8937559
16.670477 4.1676192 109.40001 9003095
16.878859 4.1676192 109.40001 9068888
17.087238 4.1676192 109.40001 9068636
17.295622 4.1676192 109.40001 9068636
17.504002 4.1676192 109.40001 9004122
17.712381 4.1676192 109.40001 9004122
17.920763 4.1676192 109.40001 9069915
18.129145 4.1676192 109.40001 9135708
18.270477 4.1523809 109 9464157
18.478096 4.1523809 109 9529950
18.685715 4.1523809 109 9529696
18.893333 4.1523809 109 9529696
19.100954 4.1523809 109 9595743
19.308571 4.1523809 109 9793122
19.516191 4.1523809 109 9596770
19.72381 4.1523809 109 9662563
12.21581 4.3479996 108.7 8871516
12.422857 4.3479996 108.7 8674907
12.664762 4.3600001 109 8674907
12.872381 4.3600001 109 8871516
13.080001 4.3600001 109 8871516
13.287619 4.3600001 109 8805975
13.495238 4.3600001 109 8805975
13.702858 4.3600001 109 8805975
13.910476 4.3600001 109 8805975
14.118096 4.3600001 109 8805975
14.325714 4.3600001 109 8805975
14.533334 4.3600001 109 8740182
14.740952 4.3600001 109 8740182
14.948572 4.3600001 109 8740182
15.114476 4.3479996 108.7 8740182
15.321525 4.3479996 108.7 8739923
15.528572 4.3479996 108.7 8739923
15.735619 4.3479996 108.7 8740182
15.986666 4.3600001 109 8805975
16.194286 4.3600001 109 8805973
16.401905 4.3600001 109 8937559
16.609524 4.3600001 109 9068888
16.817144 4.3600001 109 9134681
17.024763 4.3600001 109 9200224
17.23238 4.3600001 109 9134431
17.440001 4.3600001 109 9004122
17.647619 4.3600001 109 9004122
17.85524 4.3600001 109 9003870
18.062857 4.3600001 109 9135456
18.270477 4.3600001 109 9201499
18.427238 4.3479996 108.7 9267292
18.634287 4.3479996 108.7 9267294
18.841333 4.3479996 108.7 9398880
19.048382 4.3479996 108.7 9530718
19.25543 4.3479996 108.7 9596511
19.462477 4.3479996 108.7 9662561
19.669523 4.3479996 108.7 9662561
19.821716 4.3360004 108.40001 9663074
12.182096 4.5424767 108.40001 8871516
12.388573 4.5424767 108.40001 8609114
12.595049 4.5424767 108.40001 8609114
12.836951 4.5550475 108.7 8740700
13.044 4.5550475 108.7 8674907
13.251048 4.5550475 108.7 8805975
13.458096 4.5550475 108.7 8805975
13.665144 4.5550475 108.7 8805723
13.872191 4.5550475 108.7 8805723
14.079239 4.5550475 108.7 8805975
14.286285 4.5550475 108.7 8805975
14.493334 4.5550475 108.7 8805975
14.700381 4.5550475 108.7 8805975
14.907429 4.5550475 108.7 8805975
15.114476 4.5550475 108.7 8805975
15.27924 4.5424767 108.40001 8805973
15.485716 4.5424767 108.40001 8805973
15.735619 4.5550475 108.7 8871516
15.986666 4.5676193 109 8871516
16.194286 4.5676193 109 9003095
16.401905 4.5676193 109 9003095
16.609524 4.5676193 109 9068888
16.817144 4.5676193 109 9134681
17.024763 4.5676193 109 8938329
17.23238 4.5676193 109 8938329
17.440001 4.5676193 109 9200474
17.647619 4.5676193 109 9200474
17.806095 4.5550475 108.7 9069913
18.013142 4.5550475 108.7 9135706
18.22019 4.5550475 108.7 9201499
18.427238 4.5550475 108.7 9267292
18.582859 4.5424767 108.40001 9267292
18.789335 4.5424767 108.40001 9333085
18.995811 4.5424767 108.40001 9595743
19.202288 4.5424767 108.40001 9727329
19.408764 4.5424767 108.40001 9596770
19.61524 4.5424767 108.40001 9662563
19.821716 4.5424767 108.40001 9663074
11.931429 4.7314286 108.00001 9003102
12.137143 4.7314286 108.00001 8937309
12.342857 4.7314286 108.00001 8937563
12.548572 4.7314286 108.00001 8937563
12.754286 4.7314286 108.00001 8937309
13.008001 4.7489529 108.40001 8937309
13.214478 4.7489529 108.40001 8937559
13.420953 4.7489529 108.40001 8871766
13.627429 4.7489529 108.40001 9002843
13.833906 4.7489529 108.40001 8937050
14.040382 4.7489529 108.40001 8871509
14.246859 4.7489529 108.40001 8871509
14.453334 4.7489529 108.40001 8937309
14.65981 4.7489529 108.40001 8937309
14.866286 4.7489529 108.40001 8937559
15.072764 4.7489529 108.40001 8937559
15.222857 4.7314286 108.00001 8937559
15.428572 4.7314286 108.00001 8937559
15.634287 4.7314286 108.00001 9068895
15.84 4.7314286 108.00001 9003102
16.045715 4.7314286 108.00001 8937559
16.251429 4.7314286 108.00001 9003352
16.609524 4.7752385 109 9068888
16.817144 4.7752385 109 9134681
16.977905 4.7620955 108.7 9004120
17.184952 4.7620955 108.7 9004120
17.391998 4.7620955 108.7 9004120
17.599049 4.7620955 108.7 9004120
17.806095 4.7620955 108.7 9135958
17.96343 4.7489529 108.40001 9201751
18.169907 4.7489529 108.40001 9201499
18.308573 4.7314286 108.00001 9201499
18.514286 4.7314286 108.00001 9332317
18.720001 4.7314286 108.00001 9463903
18.925714 4.7314286 108.00001 9595741
19.13143 4.7314286 108.00001 9661534
19.337143 4.7314286 108.00001 9596511
19.542858 4.7314286 108.00001 9662304
19.748573 4.7314286 108.00001 9662561
19.954287 4.7314286 108.00001 9728354
11.693142 4.9234285 107.7 9002843
11.898285 4.9234285 107.7 9002843
12.103429 4.9234285 107.7 9002843
12.308572 4.9234285 107.7 8871768
12.513714 4.9234285 107.7 8871768
12.718858 4.9234285 107.7 8871768
12.96 4.9371433 108.00001 8871768
13.165715 4.9371433 108.00001 8871255
13.371428 4.9371433 108.00001 8937048
13.577144 4.9371433 108.00001 8937050
13.782857 4.9371433 108.00001 8937050
13.988572 4.9371433 108.00001 8871509
14.194286 4.9371433 108.00001 8871509
14.400001 4.9371433 108.00001 9002841
14.605715 4.9371433 108.00001 8937048
14.811429 4.9371433 108.00001 8937302
15.017143 4.9371433 108.00001 9003095
15.222857 4.9371433 108.00001 8937563
15.428572 4.9371433 108.00001 8937563
15.634287 4.9371433 108.00001 9003102
15.84 4.9371433 108.00001 8937309
16.045715 4.9371433 108.00001 9003095
16.251429 4.9371433 108.00001 9003095
16.457144 4.9371433 108.00001 9003095
16.662857 4.9371433 108.00001 9003095
16.868572 4.9371433 108.00001 8938581
17.074287 4.9371433 108.00001 8938581
17.280001 4.9371433 108.00001 9004120
17.550478 4.9554291 108.40001 9004120
17.756954 4.9554291 108.40001 9266265
17.897144 4.9371433 108.00001 9332058
18.102858 4.9371433 108.00001 9266778
18.308573 4.9371433 108.00001 9266778
18.514286 4.9371433 108.00001 9266524
18.720001 4.9371433 108.00001 9332317
18.925714 4.9371433 108.00001 9464157
19.13143 4.9371433 108.00001 9529950
19.337143 4.9371433 108.00001 9399391
19.542858 4.9371433 108.00001 9465184
19.748573 4.9371433 108.00001 9530975
19.898857 4.9234285 107.7 9662561
11.649714 5.1095243 107.30001 8937302
11.854095 5.1095243 107.30001 8937302
12.058476 5.1095243 107.30001 8871509
12.262857 5.1095243 107.30001 8871509
12.432382 5.0952382 107.00001 8871509
12.63619 5.0952382 107.00001 8871509
12.923999 5.128572 107.7 8871509
13.129144 5.128572 107.7 8871509
13.334286 5.128572 107.7 8871509
13.539429 5.128572 107.7 8871509
13.744572 5.128572 107.7 8871509
13.949715 5.128572 107.7 8871509
14.154858 5.128572 107.7 8871509
14.360001 5.128572 107.7 8871509
14.565143 5.128572 107.7 8871509
14.770286 5.128572 107.7 8937302
14.975429 5.128572 107.7 8937302
15.180572 5.128572 107.7 9003095
15.385715 5.128572 107.7 9003095
15.590858 5.128572 107.7 8937048
15.796 5.128572 107.7 8937048
16.001144 5.128572 107.7 8937302
16.206285 5.128572 107.7 8937302
16.41143 5.128572 107.7 9003095
16.616571 5.128572 107.7 9003095
16.759239 5.1095243 107.30001 9003606
16.963621 5.1095243 107.30001 9069399
17.168001 5.1095243 107.30001 9004372
17.372383 5.1095243 107.30001 9004372
17.691429 5.1428576 108.00001 9135958
17.847429 5.128572 107.7 9135958
18.052572 5.128572 107.7 9135706
18.257715 5.128572 107.7 9135706
18.462858 5.128572 107.7 9332317
18.668001 5.128572 107.7 9332317
18.873142 5.128572 107.7 9464157
19.078285 5.128572 107.7 9529950
19.283428 5.128572 107.7 9399391
19.488571 5.128572 107.7 9465184
19.693714 5.128572 107.7 9597020
19.898857 5.128572 107.7 9597020
11.413334 5.2990479 107.00001 8870998
11.617143 5.2990479 107.00001 8870998
11.820952 5.2990479 107.00001 8871255
12.024762 5.2990479 107.00001 8871255
12.228573 5.2990479 107.00001 8936532
12.432382 5.2990479 107.00001 8936532
12.63619 5.2990479 107.00001 8936532
12.804 5.2841907 106.7 8870739
13.007238 5.2841907 106.7 8870996
13.210477 5.2841907 106.7 8870996
13.413715 5.2841907 106.7 8805203
13.655238 5.2990479 107.00001 8805203
13.897904 5.3139052 107.30001 8871509
14.102286 5.3139052 107.30001 8805716
14.306667 5.3139052 107.30001 8871509
14.511049 5.3139052 107.30001 8871509
14.715428 5.3139052 107.30001 9002582
14.975429 5.3337145 107.7 9002582
15.180572 5.3337145 107.7 8871509
15.385715 5.3337145 107.7 8871509
15.532952 5.3139052 107.30001 8871509
15.737334 5.3139052 107.30001 8871509
15.941715 5.3139052 107.30001 8936789
16.100954 5.2990479 107.00001 8936789
16.304762 5.2990479 107.00001 8937302
16.508572 5.2990479 107.00001 8937302
16.712383 5.2990479 107.00001 8937300
16.916191 5.2990479 107.00001 9003093
17.120001 5.2990479 107.00001 9068886
17.323811 5.2990479 107.00001 9200472
17.527618 5.2990479 107.00001 9004372
17.847429 5.3337145 107.7 9004372
17.985525 5.3139052 107.30001 9266265
18.189907 5.3139052 107.30001 9266265
18.394287 5.3139052 107.30001 9266778
18.598667 5.3139052 107.30001 9332571
18.803047 5.3139052 107.30001 9267292
19.007429 5.3139052 107.30001 9398878
19.211811 5.3139052 107.30001 9398878
19.416191 5.3139052 107.30001 9464671
19.620573 5.3139052 107.30001 9596768
19.824953 5.3139052 107.30001 9530975
11.820952 5.5028572 107.00001 8805973
12.024762 5.5028572 107.00001 8740180
12.228573 5.5028572 107.00001 8805203
12.397525 5.4874287 106.7 8805203
12.600761 5.4874287 106.7 8805203
12.804 5.4874287 106.7 8739410
13.007238 5.4874287 106.7 8739410
13.210477 5.4874287 106.7 8805203
13.413715 5.4874287 106.7 8805203
13.616952 5.4874287 106.7 8805203
13.82019 5.4874287 106.7 8870996
14.023429 5.4874287 106.7 8870996
14.226667 5.4874287 106.7 8870998
14.470476 5.5028572 107.00001 8870998
14.674285 5.5028572 107.00001 8871509
14.878096 5.5028572 107.00001 8871509
15.081904 5.5028572 107.00001 8871509
15.285715 5.5028572 107.00001 8871509
15.489525 5.5028572 107.00001 8871255
15.693336 5.5028572 107.00001 8871255
15.897144 5.5028572 107.00001 8871509
16.100954 5.5028572 107.00001 8871509
16.259047 5.4874287 106.7 8937302
16.462286 5.4874287 106.7 8937302
16.665524 5.4874287 106.7 8937559
16.868763 5.4874287 106.7 8937559
17.072001 5.4874287 106.7 9003604
17.275238 5.4874287 106.7 9003604
17.478476 5.4874287 106.7 9134931
17.73143 5.5028572 107.00001 9200724
17.935238 5.5028572 107.00001 9266265
18.139048 5.5028572 107.00001 9266265
18.342857 5.5028572 107.00001 9332571
18.546667 5.5028572 107.00001 9332571
18.750477 5.5028572 107.00001 9333337
18.954287 5.5028572 107.00001 9333337
19.158094 5.5028572 107.00001 9399130
19.416191 5.5182862 107.30001 9464923
19.565716 5.5028572 107.00001 9531227
19.769526 5.5028572 107.00001 9465434
11.584571 5.6906672 106.7 8674137
11.787809 5.6906672 106.7 8739669
11.991048 5.6906672 106.7 8805462
12.194286 5.6906672 106.7 8739410
12.397525 5.6906672 106.7 8739410
12.600761 5.6906672 106.7 8739410
12.804 5.6906672 106.7 8739410
13.007238 5.6906672 106.7 8673617
13.210477 5.6906672 106.7 8673617
13.413715 5.6906672 106.7 8739410
13.616952 5.6906672 106.7 8739410
13.82019 5.6906672 106.7 8805203
14.023429 5.6906672 106.7 8805203
14.226667 5.6906672 106.7 8870998
14.429906 5.6906672 106.7 8870998
14.633142 5.6906672 106.7 8870996
14.83638 5.6906672 106.7 8936789
15.039618 5.6906672 106.7 8871509
15.242857 5.6906672 106.7 8805716
15.446095 5.6906672 106.7 8936278
15.649334 5.6906672 106.7 9002071
15.852572 5.6906672 106.7 8871509
16.055809 5.6906672 106.7 8871509
16.259047 5.6906672 106.7 8871509
16.462286 5.6906672 106.7 9003095
16.665524 5.6906672 106.7 8937559
16.868763 5.6906672 106.7 8805973
17.072001 5.6906672 106.7 8937559
17.275238 5.6906672 106.7 8937559
17.478476 5.6906672 106.7 9003604
17.681715 5.6906672 106.7 9003604
17.884953 5.6906672 106.7 9200472
18.088192 5.6906672 106.7 9266265
18.29143 5.6906672 106.7 9135708
18.546667 5.7066669 107.00001 9201501
18.750477 5.7066669 107.00001 9267292
18.954287 5.7066669 107.00001 9333085
19.158094 5.7066669 107.00001 9333085
19.307619 5.6906672 106.7 9398878
19.437716 5.6693339 106.30001 9530202
19.640192 5.6693339 106.30001 9595995
11.338668 5.8718095 106.30001 8739669
11.541143 5.8718095 106.30001 8673876
11.743619 5.8718095 106.30001 8739669
11.946096 5.8718095 106.30001 8739669
12.148573 5.8718095 106.30001 8674130
12.351048 5.8718095 106.30001 8674130
12.553525 5.8718095 106.30001 8674130
12.756001 5.8718095 106.30001 8608337
12.958477 5.8718095 106.30001 8673617
13.160954 5.8718095 106.30001 8673617
13.36343 5.8718095 106.30001 8673617
13.565907 5.8718095 106.30001 8739410
13.768381 5.8718095 106.30001 8739410
13.970858 5.8718095 106.30001 8805203
14.173333 5.8718095 106.30001 8805203
14.375811 5.8718095 106.30001 8870996
14.578286 5.8718095 106.30001 8871509
14.780763 5.8718095 106.30001 8871509
14.983238 5.8718095 106.30001 8871509
15.185716 5.8718095 106.30001 8871509
15.388192 5.8718095 106.30001 8871255
15.590668 5.8718095 106.30001 8871255
15.793144 5.8718095 106.30001 8871509
15.99562 5.8718095 106.30001 8871509
16.198097 5.8718095 106.30001 8871509
16.400572 5.8718095 106.30001 8937302
16.60305 5.8718095 106.30001 8871766
16.805523 5.8718095 106.30001 8937559
17.008001 5.8718095 106.30001 8937559
17.210476 5.8718095 106.30001 8937559
17.412952 5.8718095 106.30001 9003604
17.565716 5.8552384 106.00001 8937811
17.76762 5.8552384 106.00001 9004120
17.969524 5.8552384 106.00001 9069913
18.171429 5.8552384 106.00001 9266778
18.373335 5.8552384 106.00001 9332571
18.575239 5.8552384 106.00001 9267544
18.830288 5.8718095 106.30001 9267544
18.97905 5.8552384 106.00001 9333337
19.180954 5.8552384 106.00001 9333337
19.382858 5.8552384 106.00001 9399130
19.584763 5.8552384 106.00001 9399130
19.786667 5.8552384 106.00001 9399141
11.306667 6.0571427 106.00001 8673876
11.508572 6.0571427 106.00001 8673876
11.710477 6.0571427 106.00001 8673876
11.946096 6.0742865 106.30001 8608083
12.148573 6.0742865 106.30001 8542290
12.351048 6.0742865 106.30001 8608083
12.518096 6.0571427 106.00001 8542544
12.720001 6.0571427 106.00001 8476751
12.958477 6.0742865 106.30001 8542544
13.160954 6.0742865 106.30001 8608337
13.36343 6.0742865 106.30001 8607824
13.565907 6.0742865 106.30001 8607824
13.768381 6.0742865 106.30001 8608337
13.970858 6.0742865 106.30001 8674130
14.133334 6.0571427 106.00001 8673876
14.335239 6.0571427 106.00001 8739669
14.537144 6.0571427 106.00001 8740180
14.739048 6.0571427 106.00001 8740180
14.940953 6.0571427 106.00001 8870996
15.142859 6.0571427 106.00001 8870996
15.344763 6.0571427 106.00001 8871255
15.546667 6.0571427 106.00001 8871255
15.748572 6.0571427 106.00001 8871761
15.950478 6.0571427 106.00001 8871761
16.152382 6.0571427 106.00001 8871509
16.354286 6.0571427 106.00001 8871509
16.55619 6.0571427 106.00001 8871768
16.758097 6.0571427 106.00001 8871768
16.960001 6.0571427 106.00001 8805973
17.113335 6.04 105.7 8937559
17.314667 6.04 105.7 8937811
17.516001 6.04 105.7 8937811
17.717335 6.04 105.7 9134679
17.918667 6.04 105.7 9200472
18.120001 6.04 105.7 9069913
18.321333 6.04 105.7 9135706
18.522667 6.04 105.7 9135706
18.777143 6.0571427 106.00001 9201499
18.925333 6.04 105.7 9201499
19.126667 6.04 105.7 9201499
19.327999 6.04 105.7 9267294
19.529333 6.04 105.7 9267294
19.730667 6.04 105.7 9267807
19.932001 6.04 105.7 9202014
11.274667 6.2413335 105.7 8608083
11.476 6.2413335 105.7 8608083
11.677334 6.2413335 105.7 8542290
11.878667 6.2413335 105.7 8542290
12.08 6.2413335 105.7 8608337
12.281334 6.2413335 105.7 8608337
12.482667 6.2413335 105.7 8542290
12.684001 6.2413335 105.7 8542290
12.921906 6.259048 106.00001 8542544
13.12381 6.259048 106.00001 8608337
13.288 6.2413335 105.7 8673617
13.489333 6.2413335 105.7 8607824
13.690667 6.2413335 105.7 8608337
13.892001 6.2413335 105.7 8608337
14.053333 6.223619 105.4 8674130
14.254095 6.223619 105.4 8674130
14.454857 6.223619 105.4 8674387
14.65562 6.223619 105.4 8674387
14.856381 6.223619 105.4 8740180
15.057143 6.223619 105.4 8740180
15.257905 6.223619 105.4 8740180
15.458668 6.223619 105.4 8674387
15.659428 6.223619 105.4 8740180
15.905334 6.2413335 105.7 8740180
16.106668 6.2413335 105.7 8805973
16.308001 6.2413335 105.7 8805973
16.509333 6.2413335 105.7 8871768
16.710667 6.2413335 105.7 8871768
16.912001 6.2413335 105.7 8937811
17.113335 6.2413335 105.7 8937811
17.314667 6.2413335 105.7 8937813
17.516001 6.2413335 105.7 9003606
17.717335 6.2413335 105.7 9003606
17.867809 6.223619 105.4 9069399
18.068571 6.223619 105.4 9004372
18.269333 6.223619 105.4 9004372
18.470095 6.223619 105.4 9069913
18.670856 6.223619 105.4 9135706
18.925333 6.2413335 105.7 9069915
19.126667 6.2413335 105.7 9069915
19.327999 6.2413335 105.7 9202012
19.529333 6.2413335 105.7 9136219
19.730667 6.2413335 105.7 9136221
19.875427 6.223619 105.4 9136221
11.242667 6.4243808 105.4 8542290
11.443429 6.4243808 105.4 8542290
11.644191 6.4243808 105.4 8542544
11.844953 6.4243808 105.4 8542544
12.08 6.442667 105.7 8542801
12.281334 6.442667 105.7 8477008
12.447238 6.4243808 105.4 8542290
12.648 6.4243808 105.4 8542290
12.8 6.4000001 105.00001 8608337
13.000001 6.4000001 105.00001 8608337
13.2 6.4000001 105.00001 8542290
13.400001 6.4000001 105.00001 8542290
13.651811 6.4243808 105.4 8477010
13.852571 6.4243808 105.4 8477010
14.053333 6.4243808 105.4 8477010
14.254095 6.4243808 105.4 8542803
14.400001 6.4000001 105.00001 8673876
14.599999 6.4000001 105.00001 8673876
14.8 6.4000001 105.00001 8673876
15.057143 6.4243808 105.4 8739669
15.257905 6.4243808 105.4 8739669
15.458668 6.4243808 105.4 8739669
15.659428 6.4243808 105.4 8674387
15.860189 6.4243808 105.4 8740180
16.060953 6.4243808 105.4 8740180
16.261715 6.4243808 105.4 8740180
16.462477 6.4243808 105.4 8740182
16.663239 6.4243808 105.4 8805975
16.800001 6.4000001 105.00001 8740950
17.000002 6.4000001 105.00001 8806743
17.265524 6.4243808 105.4 8937559
17.466286 6.4243808 105.4 8937559
17.600002 6.4000001 105.00001 9003604
17.800001 6.4000001 105.00001 9003604
18 6.4000001 105.00001 9003606
18.200001 6.4000001 105.00001 9003606
18.400002 6.4000001 105.00001 9003604
18.600002 6.4000001 105.00001 9003604
18.800001 6.4000001 105.00001 8938329
19.000002 6.4000001 105.00001 9004122
19.200001 6.4000001 105.00001 9136221
19.400002 6.4000001 105.00001 9070428
19.674665 6.4243808 105.4 8939099
19.875427 6.4243808 105.4 9004892
10.539429 6.5622859 104.4 8543321
10.769143 6.5811434 104.7 8673876
11.000001 6.5999999 105.00001 8542290
11.200001 6.5999999 105.00001 8476497
11.4 6.5999999 105.00001 8476497
11.600001 6.5999999 105.00001 8476751
11.844953 6.6251435 105.4 8476751
12.045714 6.6251435 105.4 8542544
12.246476 6.6251435 105.4 8542544
12.447238 6.6251435 105.4 8542544
12.6 6.5999999 105.00001 8542544
12.8 6.5999999 105.00001 8542796
13.000001 6.5999999 105.00001 8542796
13.2 6.5999999 105.00001 8608087
13.400001 6.5999999 105.00001 8542294
13.6 6.5999999 105.00001 8608337
13.800001 6.5999999 105.00001 8608337
14.000002 6.5999999 105.00001 8542290
14.200001 6.5999999 105.00001 8542290
14.400001 6.5999999 105.00001 8542290
14.599999 6.5999999 105.00001 8608083
14.8 6.5999999 105.00001 8542290
15.000001 6.5999999 105.00001 8608083
15.200001 6.5999999 105.00001 8542803
15.400002 6.5999999 105.00001 8542803
15.600002 6.5999999 105.00001 8608083
15.800001 6.5999999 105.00001 8673876
16.000002 6.5999999 105.00001 8674387
16.200001 6.5999999 105.00001 8674387
16.4 6.5999999 105.00001 8609364
16.6 6.5999999 105.00001 8609364
16.752001 6.5811434 104.7 8740950
16.951427 6.5811434 104.7 8740950
17.200001 6.5999999 105.00001 8806743
17.400002 6.5999999 105.00001 8806743
17.600002 6.5999999 105.00001 8937813
17.800001 6.5999999 105.00001 9003606
18 6.5999999 105.00001 8872788
18.200001 6.5999999 105.00001 8872788
18.400002 6.5999999 105.00001 8807252
18.546858 6.5811434 104.7 8807252
18.746286 6.5811434 104.7 8938838
18.945715 6.5811434 104.7 8938838
19.145145 6.5811434 104.7 9004631
19.344572 6.5811434 104.7 9004631
19.6 6.5999999 105.00001 9005146
19.800001 6.5999999 105.00001 9005146
10.340571 6.7611432 104.4 8609123
10.539429 6.7611432 104.4 8543330
10.738286 6.7611432 104.4 8477528
10.937143 6.7611432 104.4 8345942
11.136 6.7611432 104.4 8476497
11.334857 6.7611432 104.4 8476497
11.600001 6.8000002 105.00001 8476751
11.800001 6.8000002 105.00001 8410958
12 6.8000002 105.00001 8410958
12.2 6.8000002 105.00001 8410958
12.400002 6.8000002 105.00001 8476497
12.6 6.8000002 105.00001 8476497
12.8 6.8000002 105.00001 8476751
12.962857 6.7805724 104.7 8476751
13.162287 6.7805724 104.7 8542290
13.361714 6.7805724 104.7 8542290
13.561145 6.7805724 104.7 8542544
13.800001 6.8000002 105.00001 8542544
14.000002 6.8000002 105.00001 8607826
14.200001 6.8000002 105.00001 8607826
14.400001 6.8000002 105.00001 8542290
14.599999 6.8000002 105.00001 8542290
14.8 6.8000002 105.00001 8477010
15.000001 6.8000002 105.00001 8411217
15.200001 6.8000002 105.00001 8411217
15.400002 6.8000002 105.00001 8542803
15.555428 6.7805724 104.7 8542290
15.709715 6.7611432 104.4 8542290
15.908572 6.7611432 104.4 8477778
16.10743 6.7611432 104.4 8477778
16.306286 6.7611432 104.4 8477778
16.505142 6.7611432 104.4 8477778
16.703999 6.7611432 104.4 8543573
16.902859 6.7611432 104.4 8609366
17.150858 6.7805724 104.7 8675159
17.400002 6.8000002 105.00001 8740952
17.549715 6.7805724 104.7 8740950
17.749144 6.7805724 104.7 8740950
18 6.8000002 105.00001 8741202
18.200001 6.8000002 105.00001 8741202
18.347429 6.7805724 104.7 8740950
18.493715 6.7611432 104.4 8740950
18.692572 6.7611432 104.4 8937559
18.891428 6.7611432 104.4 8937559
19.090286 6.7611432 104.4 8807252
19.289143 6.7611432 104.4 8807252
19.544001 6.7805724 104.7 8938842
19.743429 6.7805724 104.7 8938842
19.942858 6.7805724 104.7 8873558
10.310857 6.9400005 104.1 8675175
10.509143 6.9400005 104.1 8477796
10.707428 6.9400005 104.1 8543573
10.905714 6.9400005 104.1 8411987
11.104 6.9400005 104.1 8608337
11.302285 6.9400005 104.1 8476751
11.500571 6.9400005 104.1 8410704
11.698857 6.9400005 104.1 8410704
11.897142 6.9400005 104.1 8345417
12.130286 6.96 104.4 8411210
12.329144 6.96 104.4 8476501
12.528001 6.96 104.4 8410708
12.726857 6.96 104.4 8410704
12.962857 6.9799995 104.7 8410704
13.162287 6.9799995 104.7 8476751
13.361714 6.9799995 104.7 8476751
13.561145 6.9799995 104.7 8542544
13.760572 6.9799995 104.7 8542544
13.959999 6.9799995 104.7 8542290
14.15943 6.9799995 104.7 8542290
14.317714 6.96 104.4 8542290
14.516573 6.96 104.4 8542290
14.715428 6.96 104.4 8477010
14.957144 6.9799995 104.7 8477010
15.156573 6.9799995 104.7 8477010
15.311999 6.96 104.4 8542803
15.466285 6.9400005 104.1 8477780
15.664572 6.9400005 104.1 8477780
15.862857 6.9400005 104.1 8477778
16.061142 6.9400005 104.1 8477778
16.306286 6.96 104.4 8346703
16.457714 6.9400005 104.1 8346703
16.656 6.9400005 104.1 8478037
16.854286 6.9400005 104.1 8478037
17.101715 6.96 104.4 8543571
17.300571 6.96 104.4 8543571
17.49943 6.96 104.4 8675409
17.698284 6.96 104.4 8609616
17.897142 6.96 104.4 8609364
18.096001 6.96 104.4 8675157
18.294857 6.96 104.4 8675159
18.493715 6.96 104.4 8740952
18.692572 6.96 104.4 8806743
18.891428 6.96 104.4 8806743
19.090286 6.96 104.4 8741972
19.289143 6.96 104.4 8741972
19.488001 6.96 104.4 8807765
19.686857 6.96 104.4 8807765
19.885714 6.96 104.4 8807765
10.509143 7.1382856 104.1 8477537
10.707428 7.1382856 104.1 8477528
10.905714 7.1382856 104.1 8477528
11.104 7.1382856 104.1 8542290
11.302285 7.1382856 104.1 8410704
11.500571 7.1382856 104.1 8410704
11.698857 7.1382856 104.1 8410704
11.897142 7.1382856 104.1 8410956
12.095428 7.1382856 104.1 8410956
12.293715 7.1382856 104.1 8410704
12.492 7.1382856 104.1 8410704
12.690287 7.1382856 104.1 8344911
12.888572 7.1382856 104.1 8410704
13.124572 7.1588569 104.4 8410958
13.323429 7.1588569 104.4 8410958
13.522286 7.1588569 104.4 8410958
13.721143 7.1588569 104.4 8476751
13.959999 7.1794286 104.7 8476497
14.118857 7.1588569 104.4 8476497
14.276571 7.1382856 104.1 8476497
14.474858 7.1382856 104.1 8542290
14.673143 7.1382856 104.1 8542290
14.871428 7.1382856 104.1 8542290
15.069715 7.1382856 104.1 8477010
15.268 7.1382856 104.1 8542803
15.466285 7.1382856 104.1 8411735
15.664572 7.1382856 104.1 8411735
15.862857 7.1382856 104.1 8346451
16.061142 7.1382856 104.1 8346451
16.259428 7.1382856 104.1 8215378
16.457714 7.1382856 104.1 8215378
16.656 7.1382856 104.1 8412244
16.854286 7.1382856 104.1 8346451
17.052572 7.1382856 104.1 8477778
17.250856 7.1382856 104.1 8477778
17.449144 7.1382856 104.1 8543571
17.647429 7.1382856 104.1 8543571
17.845715 7.1382856 104.1 8543571
18.044001 7.1382856 104.1 8543571
18.294857 7.1588569 104.4 8543571
18.440571 7.1382856 104.1 8609364
18.638859 7.1382856 104.1 8544341
18.837143 7.1382856 104.1 8675927
19.035429 7.1382856 104.1 8873558
19.233713 7.1382856 104.1 8741972
19.431999 7.1382856 104.1 8741720
19.630285 7.1382856 104.1 8741720
19.828571 7.1382856 104.1 8741972
10.478859 7.3154292 103.80001 8412255
10.676573 7.3154292 103.80001 8411992
10.874287 7.3154292 103.80001 8280406
11.072001 7.3154292 103.80001 8608337
11.269715 7.3154292 103.80001 8476751
11.46743 7.3154292 103.80001 8410704
11.665144 7.3154292 103.80001 8410704
11.862859 7.3154292 103.80001 8410958
12.060573 7.3154292 103.80001 8410958
12.258286 7.3154292 103.80001 8410704
12.456 7.3154292 103.80001 8410704
12.653716 7.3154292 103.80001 8410704
12.888572 7.3365717 104.1 8410704
13.086857 7.3365717 104.1 8410704
13.285144 7.3365717 104.1 8410704
13.483429 7.3365717 104.1 8476751
13.681714 7.3365717 104.1 8476751
13.92 7.3577142 104.4 8476751
14.078286 7.3365717 104.1 8476751
14.23543 7.3154292 103.80001 8476751
14.433144 7.3154292 103.80001 8476751
14.630858 7.3154292 103.80001 8477010
14.828573 7.3154292 103.80001 8477010
15.026288 7.3154292 103.80001 8477010
15.224002 7.3154292 103.80001 8542803
15.421716 7.3154292 103.80001 8346199
15.61943 7.3154292 103.80001 8346199
15.817144 7.3154292 103.80001 8346451
16.014858 7.3154292 103.80001 8346451
16.212574 7.3154292 103.80001 8281171
16.410286 7.3154292 103.80001 8281171
16.608002 7.3154292 103.80001 8346451
16.805716 7.3154292 103.80001 8346451
17.003429 7.3154292 103.80001 8477008
17.201143 7.3154292 103.80001 8542801
17.398857 7.3154292 103.80001 8412244
17.596575 7.3154292 103.80001 8412244
17.845715 7.3365717 104.1 8478291
18.044001 7.3365717 104.1 8478291
18.189716 7.3154292 103.80001 8544593
18.38743 7.3154292 103.80001 8544593
18.585144 7.3154292 103.80001 8610386
18.782858 7.3154292 103.80001 8610386
18.980574 7.3154292 103.80001 8610134
19.178288 7.3154292 103.80001 8610134
19.376001 7.3154292 103.80001 8676179
19.630285 7.3365717 104.1 8676179
19.828571 7.3365717 104.1 8676179
10.241524 7.48419 103.4 8412001
10.438477 7.48419 103.4 8412001
10.635428 7.48419 103.4 8346199
10.800953 7.4624763 103.1 8280406
10.997334 7.4624763 103.1 8476758
11.226286 7.48419 103.4 8345172
11.423239 7.48419 103.4 8344911
11.620191 7.48419 103.4 8279118
11.817143 7.48419 103.4 8279372
12.014095 7.48419 103.4 8345165
12.211048 7.48419 103.4 8344911
12.408001 7.48419 103.4 8410704
12.604954 7.48419 103.4 8345424
12.851431 7.513144 103.80001 8345424
13.049145 7.513144 103.80001 8345165
13.195809 7.48419 103.4 8345165
13.392763 7.48419 103.4 8476490
13.642287 7.513144 103.80001 8608076
13.84 7.513144 103.80001 8542796
13.98362 7.48419 103.4 8477003
14.180573 7.48419 103.4 8476751
14.33581 7.4624763 103.1 8476751
14.53219 7.4624763 103.1 8476758
14.771429 7.48419 103.4 8476758
14.96838 7.48419 103.4 8280658
15.165334 7.48419 103.4 8346451
15.362285 7.48419 103.4 8280406
15.559238 7.48419 103.4 8280406
15.756189 7.48419 103.4 8280910
15.953144 7.48419 103.4 8346703
16.150097 7.48419 103.4 8346705
16.34705 7.48419 103.4 8346705
16.544001 7.48419 103.4 8346451
16.740953 7.48419 103.4 8346451
16.937906 7.48419 103.4 8542801
17.134857 7.48419 103.4 8608594
17.33181 7.48419 103.4 8346451
17.528763 7.48419 103.4 8412244
17.794289 7.513144 103.80001 8478291
17.992002 7.513144 103.80001 8478291
18.119619 7.48419 103.4 8478291
18.316572 7.48419 103.4 8478291
18.513525 7.48419 103.4 8478548
18.782858 7.513144 103.80001 8478548
18.980574 7.513144 103.80001 8544084
19.104382 7.48419 103.4 8609877
19.301332 7.48419 103.4 8544341
19.573715 7.513144 103.80001 8544341
19.771429 7.513144 103.80001 8479061
9.9862862 7.6365709 102.8 8412001
10.182096 7.6365709 102.8 8346208
10.377905 7.6365709 102.8 8280415
10.573714 7.6365709 102.8 8346199
10.769524 7.6365709 102.8 8280406
10.965333 7.6365709 102.8 8280658
11.161142 7.6365709 102.8 8149072
11.390095 7.6588573 103.1 8345424
11.586477 7.6588573 103.1 8213838
11.782857 7.6588573 103.1 8344911
11.979239 7.6588573 103.1 8344911
12.175619 7.6588573 103.1 8345165
12.372001 7.6588573 103.1 8345165
12.568381 7.6588573 103.1 8345424
12.764762 7.6588573 103.1 8279631
12.961142 7.6588573 103.1 8345165
13.157524 7.6588573 103.1 8345165
13.353905 7.6588573 103.1 8411210
13.550286 7.6588573 103.1 8411210
13.746667 7.6588573 103.1 8477003
13.943048 7.6588573 103.1 8411210
14.139429 7.6588573 103.1 8411215
14.294095 7.6365709 102.8 8411215
14.489904 7.6365709 102.8 8476758
14.728572 7.6588573 103.1 8410965
14.924953 7.6588573 103.1 8477010
15.121333 7.6588573 103.1 8477010
15.317715 7.6588573 103.1 8477010
15.514096 7.6588573 103.1 8477010
15.710476 7.6588573 103.1 8346705
15.906857 7.6588573 103.1 8346705
16.103237 7.6588573 103.1 8346705
16.29962 7.6588573 103.1 8346705
16.496 7.6588573 103.1 8346705
16.692381 7.6588573 103.1 8346705
16.888762 7.6588573 103.1 8346451
17.085142 7.6588573 103.1 8412244
17.281525 7.6588573 103.1 8412498
17.528763 7.6811423 103.4 8412498
17.725716 7.6811423 103.4 8412496
17.922667 7.6811423 103.4 8412496
18.067049 7.6588573 103.1 8280908
18.26343 7.6588573 103.1 8280908
18.513525 7.6811423 103.4 8412755
18.710476 7.6811423 103.4 8412755
18.907429 7.6811423 103.4 8478548
19.048954 7.6588573 103.1 8478548
19.245335 7.6588573 103.1 8479313
19.498287 7.6811423 103.4 8479313
19.695238 7.6811423 103.4 8478548
9.9862862 7.8323803 102.8 8280928
10.182096 7.8323803 102.8 8280928
10.377905 7.8323803 102.8 8215135
10.573714 7.8323803 102.8 8280669
10.769524 7.8323803 102.8 8149083
10.965333 7.8323803 102.8 8214354
11.161142 7.8323803 102.8 8148561
11.356952 7.8323803 102.8 8213838
11.552761 7.8323803 102.8 8213838
11.748571 7.8323803 102.8 8213838
11.944381 7.8323803 102.8 8213838
12.14019 7.8323803 102.8 8213838
12.336 7.8323803 102.8 8213838
12.53181 7.8323803 102.8 8279631
12.727618 7.8323803 102.8 8279631
12.923429 7.8323803 102.8 8213838
13.119237 7.8323803 102.8 8279631
13.315047 7.8323803 102.8 8279883
13.471429 7.8095241 102.50001 8345676
13.666669 7.8095241 102.50001 8345422
13.861906 7.8095241 102.50001 8345422
14.098285 7.8323803 102.8 8345422
14.294095 7.8323803 102.8 8345422
14.489904 7.8323803 102.8 8411217
14.685715 7.8323803 102.8 8411217
14.881523 7.8323803 102.8 8411215
15.077333 7.8323803 102.8 8411215
15.273142 7.8323803 102.8 8411217
15.468952 7.8323803 102.8 8411217
15.664761 7.8323803 102.8 8280910
15.860571 7.8323803 102.8 8215117
16.056379 7.8323803 102.8 8280910
16.25219 7.8323803 102.8 8280910
16.447998 7.8323803 102.8 8346705
16.643808 7.8323803 102.8 8346705
16.839619 7.8323803 102.8 8346703
17.035427 7.8323803 102.8 8346703
17.231237 7.8323803 102.8 8412498
17.427046 7.8323803 102.8 8412498
17.622856 7.8323803 102.8 8412498
17.818665 7.8323803 102.8 8346705
18.014475 7.8323803 102.8 8280908
18.210285 7.8323803 102.8 8280908
18.406096 7.8323803 102.8 8347216
18.601904 7.8323803 102.8 8347216
18.852571 7.855238 103.1 8412757
18.993525 7.8323803 102.8 8412757
19.189335 7.8323803 102.8 8347732
19.441713 7.855238 103.1 8281939
19.638094 7.855238 103.1 8282193
19.834476 7.855238 103.1 8282193
9.7619057 8.0047626 102.50001 8215135
9.9571438 8.0047626 102.50001 8215135
10.152382 8.0047626 102.50001 8280415
10.34762 8.0047626 102.50001 8280415
10.542858 8.0047626 102.50001 8280406
10.738095 8.0047626 102.50001 8214613
10.933334 8.0047626 102.50001 8148561
11.128572 8.0047626 102.50001 8082768
11.323811 8.0047626 102.50001 8017229
11.519049 8.0047626 102.50001 8017229
11.714287 8.0047626 102.50001 8147532
11.909524 8.0047626 102.50001 8213325
12.104763 8.0047626 102.50001 8148045
12.300001 8.0047626 102.50001 8148045
12.495239 8.0047626 102.50001 8213838
12.690477 8.0047626 102.50001 8213838
12.885716 8.0047626 102.50001 8279883
13.080953 8.0047626 102.50001 8279883
13.276191 8.0047626 102.50001 8279883
13.432 7.9813337 102.2 8279883
13.626668 7.9813337 102.2 8279883
13.821334 7.9813337 102.2 8279883
14.016001 7.9813337 102.2 8279631
14.252381 8.0047626 102.50001 8279631
14.44762 8.0047626 102.50001 8345422
14.642859 8.0047626 102.50001 8345422
14.838097 8.0047626 102.50001 8411215
15.033335 8.0047626 102.50001 8345422
15.228573 8.0047626 102.50001 8345424
15.423811 8.0047626 102.50001 8411217
15.619048 8.0047626 102.50001 8215117
15.814288 8.0047626 102.50001 8215117
16.009525 8.0047626 102.50001 8280910
16.204762 8.0047626 102.50001 8280910
16.4 8.0047626 102.50001 8280910
16.59524 8.0047626 102.50001 8280910
16.790478 8.0047626 102.50001 8346705
16.985716 8.0047626 102.50001 8346705
17.180954 8.0047626 102.50001 8411985
17.376192 8.0047626 102.50001 8411985
17.57143 8.0047626 102.50001 8346451
17.766668 8.0047626 102.50001 8412244
17.961906 8.0047626 102.50001 8412498
18.157145 8.0047626 102.50001 8412498
18.352383 8.0047626 102.50001 8347216
18.547621 8.0047626 102.50001 8413009
18.742859 8.0047626 102.50001 8412757
18.938097 8.0047626 102.50001 8412757
19.133335 8.0047626 102.50001 8413009
19.385143 8.0281897 102.8 8413009
19.580954 8.0281897 102.8 8413009
19.776762 8.0281897 102.8 8413009
19.914288 8.0047626 102.50001 8347216
9.3165722 8.1520004 101.90001 7886413
9.5106668 8.1520004 101.90001 8083792
9.7047625 8.1520004 101.90001 8149342
9.8988571 8.1520004 101.90001 8149342
10.092953 8.1520004 101.90001 8149342
10.287048 8.1520004 101.90001 8149342
10.542858 8.1999998 102.50001 8083801
10.706667 8.1760006 102.2 8083801
10.901334 8.1760006 102.2 8083538
11.128572 8.1999998 102.50001 8083538
11.323811 8.1999998 102.50001 8017486
11.519049 8.1999998 102.50001 7820107
11.714287 8.1999998 102.50001 8081991
11.909524 8.1999998 102.50001 8147784
12.104763 8.1999998 102.50001 8147532
12.264 8.1760006 102.2 8081739
12.458667 8.1760006 102.2 8147532
12.653335 8.1760006 102.2 8213325
12.848001 8.1760006 102.2 8148045
13.042667 8.1760006 102.2 8148045
13.237333 8.1760006 102.2 8148297
13.392572 8.1520004 101.90001 8214090
13.586667 8.1520004 101.90001 8214090
13.780764 8.1520004 101.90001 8214090
13.974857 8.1520004 101.90001 8214090
14.168952 8.1520004 101.90001 8279883
14.363049 8.1520004 101.90001 8279631
14.557142 8.1520004 101.90001 8345424
14.751238 8.1520004 101.90001 8345422
14.989334 8.1760006 102.2 8345422
15.184 8.1760006 102.2 8214604
15.378668 8.1760006 102.2 8280397
15.573335 8.1760006 102.2 8215117
15.768001 8.1760006 102.2 8215117
15.962667 8.1760006 102.2 8215117
16.157333 8.1760006 102.2 8215117
16.352001 8.1760006 102.2 8280910
16.546667 8.1760006 102.2 8280910
16.741333 8.1760006 102.2 8280910
16.886286 8.1520004 101.90001 8346703
17.080381 8.1520004 101.90001 8346451
17.325335 8.1760006 102.2 8412244
17.52 8.1760006 102.2 8346451
17.714668 8.1760006 102.2 8412244
17.909334 8.1760006 102.2 8347216
18.104 8.1760006 102.2 8347216
18.298668 8.1760006 102.2 8281423
18.493334 8.1760006 102.2 8347216
18.688002 8.1760006 102.2 8346964
18.882668 8.1760006 102.2 8412757
19.133335 8.1999998 102.50001 8478291
19.328571 8.1999998 102.50001 8478291
19.523811 8.1999998 102.50001 8412496
19.719049 8.1999998 102.50001 8412496
19.914288 8.1999998 102.50001 8281423
9.0956192 8.3215237 101.60001 7820109
9.2891436 8.3215237 101.60001 7754557
9.482667 8.3215237 101.60001 7820350
9.6761913 8.3215237 101.60001 8017238
9.8697147 8.3215237 101.60001 8148824
10.063238 8.3215237 101.60001 8083549
10.256763 8.3215237 101.60001 8017756
10.481143 8.346096 101.90001 8018008
10.675238 8.346096 101.90001 8018008
10.869334 8.346096 101.90001 8017999
11.096001 8.3706665 102.2 7952206
11.290668 8.3706665 102.2 7885900
11.485333 8.3706665 102.2 7820107
11.68 8.3706665 102.2 7885375
11.874667 8.3706665 102.2 8016961
12.069334 8.3706665 102.2 7885643
12.228001 8.346096 101.90001 7885643
12.422096 8.346096 101.90001 7951436
12.61619 8.346096 101.90001 7951436
12.810287 8.346096 101.90001 7951436
13.004382 8.346096 101.90001 8017229
13.198477 8.346096 101.90001 8017225
13.353144 8.3215237 101.60001 8017225
13.546666 8.3215237 101.60001 8017225
13.740191 8.3215237 101.60001 8017225
13.974857 8.346096 101.90001 8148297
14.168952 8.346096 101.90001 8148297
14.363049 8.346096 101.90001 8148811
14.557142 8.346096 101.90001 8148811
14.751238 8.346096 101.90001 8279883
14.945334 8.346096 101.90001 8345676
15.139429 8.346096 101.90001 8214604
15.333525 8.346096 101.90001 8214604
15.527619 8.346096 101.90001 8215117
15.721714 8.346096 101.90001 8149324
15.915812 8.346096 101.90001 8215117
16.109905 8.346096 101.90001 8215117
16.304001 8.346096 101.90001 8215115
16.498096 8.346096 101.90001 8215115
16.692192 8.346096 101.90001 8280910
16.886286 8.346096 101.90001 8280910
17.080381 8.346096 101.90001 8346705
17.325335 8.3706665 102.2 8346705
17.52 8.3706665 102.2 8412244
17.662666 8.346096 101.90001 8346451
17.856762 8.346096 101.90001 8346701
18.050858 8.346096 101.90001 8346701
18.244953 8.346096 101.90001 8281423
18.439049 8.346096 101.90001 8281423
18.633144 8.346096 101.90001 8281423
18.827238 8.346096 101.90001 8347216
19.077333 8.3706665 102.2 8347216
19.272001 8.3706665 102.2 8281423
19.466667 8.3706665 102.2 8347214
19.661335 8.3706665 102.2 8281421
19.797714 8.346096 101.90001 8215630
19.932953 8.3215237 101.60001 8215630
8.8758097 8.4899044 101.3 7819859
9.0687618 8.4899044 101.3 7754066
9.261714 8.4899044 101.3 7754055
9.4546671 8.4899044 101.3 7819848
9.6476192 8.4899044 101.3 7885652
9.8405724 8.4899044 101.3 7951445
10.063238 8.515048 101.60001 7952215
