# .PCD v0.7 - Point Cloud Data file format
VERSION 0.7
FIELDS x y z rgb
SIZE 4 4 4 4
TYPE F F F U
COUNT 1 1 1 1
WIDTH 1353
HEIGHT 1
VIEWPOINT 0 0 0 1 0 0 0
POINTS 1353
DATA ascii
52.452003 -0.56400001 98.700005 66048
52.640003 -0.56400001 98.700005 65793
52.667427 -0.56228572 98.400002 65793
52.854858 -0.56228572 98.400002 65793
53.042286 -0.56228572 98.400002 65793
53.067429 -0.56057149 98.100006 66048
53.254288 -0.56057149 98.100006 66048
53.441143 -0.56057149 98.100006 65793
53.628002 -0.56057149 98.100006 65793
53.814857 -0.56057149 98.100006 65793
54.00172 -0.56057149 98.100006 65793
54.188572 -0.56057149 98.100006 66048
54.209148 -0.55885714 97.800003 66048
54.395432 -0.55885714 97.800003 65793
54.414291 -0.55714285 97.5 65793
54.488003 -0.55600005 97.300003 65793
54.504757 -0.55428571 97 65793
54.689522 -0.55428571 97 65793
54.704571 -0.55257148 96.700005 65793
54.888767 -0.55257148 96.700005 65793
55.072956 -0.55257148 96.700005 65793
55.257141 -0.55257148 96.700005 65793
55.269329 -0.55085719 96.400002 131586
55.337906 -0.54971433 96.200005 7
55.521149 -0.54971433 96.200005 7
55.704384 -0.54971433 96.200005 1447950
55.887627 -0.54971433 96.200005 2434845
48.806862 -0.37257144 97.800003 262913
48.993145 -0.37257144 97.800003 262913
49.48114 -0.37485716 98.400002 131586
49.920948 -0.37676191 98.900002 131586
50.261337 -0.37790477 99.200005 65793
50.450291 -0.37790477 99.200005 65793
50.63924 -0.37790477 99.200005 66048
50.828194 -0.37790477 99.200005 66048
51.017147 -0.37790477 99.200005 65793
51.206093 -0.37790477 99.200005 65793
51.395046 -0.37790477 99.200005 66048
51.584 -0.37790477 99.200005 66048
51.616375 -0.37676191 98.900002 66048
51.804764 -0.37676191 98.900002 66048
51.993145 -0.37676191 98.900002 65793
52.181522 -0.37676191 98.900002 65793
52.369904 -0.37676191 98.900002 65793
52.452003 -0.37600002 98.700005 65793
52.640003 -0.37600002 98.700005 66048
52.667427 -0.37485716 98.400002 66048
52.854858 -0.37485716 98.400002 65793
53.042286 -0.37485716 98.400002 65793
53.067429 -0.3737143 98.100006 66048
53.254288 -0.3737143 98.100006 66048
53.441143 -0.3737143 98.100006 65793
53.628002 -0.3737143 98.100006 65793
53.814857 -0.3737143 98.100006 65793
54.00172 -0.3737143 98.100006 65793
54.188572 -0.3737143 98.100006 65793
54.209148 -0.37257144 97.800003 65793
54.395432 -0.37257144 97.800003 65793
54.414291 -0.37142858 97.5 65793
54.488003 -0.37066668 97.300003 65793
54.504757 -0.36952382 97 65793
54.689522 -0.36952382 97 65793
54.704571 -0.36838096 96.700005 65793
54.888767 -0.36838096 96.700005 65793
55.072956 -0.36838096 96.700005 65793
55.257141 -0.36838096 96.700005 131586
55.269329 -0.3672381 96.400002 65793
55.452953 -0.3672381 96.400002 131079
55.521149 -0.36647624 96.200005 196616
55.704384 -0.36647624 96.200005 1776411
49.256004 -0.18800001 98.700005 262913
49.444004 -0.18800001 98.700005 197120
49.632004 -0.18800001 98.700005 131586
49.920948 -0.18838096 98.900002 131586
50.261337 -0.18895239 99.200005 131586
50.450291 -0.18895239 99.200005 131586
50.63924 -0.18895239 99.200005 65793
50.828194 -0.18895239 99.200005 131586
51.017147 -0.18895239 99.200005 131586
51.051243 -0.18838096 98.900002 131586
51.239616 -0.18838096 98.900002 65793
51.428001 -0.18838096 98.900002 65793
51.616375 -0.18838096 98.900002 65793
51.804764 -0.18838096 98.900002 65793
51.993145 -0.18838096 98.900002 65793
52.181522 -0.18838096 98.900002 65793
52.369904 -0.18838096 98.900002 65793
52.452003 -0.18800001 98.700005 65793
52.640003 -0.18800001 98.700005 66048
52.667427 -0.18742858 98.400002 66048
52.854858 -0.18742858 98.400002 65793
53.042286 -0.18742858 98.400002 65793
53.067429 -0.18685715 98.100006 65793
53.254288 -0.18685715 98.100006 65793
53.441143 -0.18685715 98.100006 65793
53.628002 -0.18685715 98.100006 65793
53.814857 -0.18685715 98.100006 65793
54.00172 -0.18685715 98.100006 65793
54.188572 -0.18685715 98.100006 65793
54.209148 -0.18628572 97.800003 65793
54.395432 -0.18628572 97.800003 65793
54.414291 -0.18571429 97.5 65793
54.488003 -0.18533334 97.300003 65793
54.504757 -0.18476191 97 65793
54.689522 -0.18476191 97 65793
54.874283 -0.18476191 97 65793
54.888767 -0.18419048 96.700005 65792
55.072956 -0.18419048 96.700005 65792
55.257141 -0.18419048 96.700005 65793
55.269329 -0.18361905 96.400002 131586
55.452953 -0.18361905 96.400002 65800
55.636574 -0.18361905 96.400002 7
49.355812 0 98.900002 196866
49.544189 0 98.900002 196866
49.732571 0 98.900002 131586
50.072384 0 99.200005 131586
50.261337 0 99.200005 131586
50.450291 0 99.200005 131586
50.63924 0 99.200005 65792
50.828194 0 99.200005 65792
51.017147 0 99.200005 65793
51.051243 0 98.900002 65793
51.239616 0 98.900002 65793
51.428001 0 98.900002 65793
51.616375 0 98.900002 65793
51.804764 0 98.900002 65793
51.993145 0 98.900002 65793
52.181522 0 98.900002 65793
52.369904 0 98.900002 65793
52.452003 0 98.700005 65793
52.640003 0 98.700005 65793
52.828003 0 98.700005 65793
52.854858 0 98.400002 66048
53.042286 0 98.400002 66048
53.067429 0 98.100006 65793
53.254288 0 98.100006 65793
53.441143 0 98.100006 65793
53.628002 0 98.100006 65793
53.814857 0 98.100006 66048
54.00172 0 98.100006 66048
54.188572 0 98.100006 65792
54.209148 0 97.800003 65792
54.395432 0 97.800003 65793
54.414291 0 97.5 65793
54.488003 0 97.300003 65793
54.504757 0 97 65793
54.689522 0 97 65793
54.874283 0 97 65793
55.059044 0 97 65792
55.072956 0 96.700005 65792
55.257141 0 96.700005 65793
55.154671 0 96.200005 65793
55.165333 0 95.900002 772
55.348003 0 95.900002 772
49.167427 0.18838096 98.900002 459018
49.355812 0.18838096 98.900002 196866
49.544189 0.18838096 98.900002 196866
49.883427 0.18895239 99.200005 131586
50.072384 0.18895239 99.200005 131586
50.261337 0.18895239 99.200005 131586
50.450291 0.18895239 99.200005 65793
50.63924 0.18895239 99.200005 66048
50.828194 0.18895239 99.200005 66048
51.017147 0.18895239 99.200005 65793
51.051243 0.18838096 98.900002 65793
51.239616 0.18838096 98.900002 65793
51.428001 0.18838096 98.900002 65793
51.616375 0.18838096 98.900002 65793
51.804764 0.18838096 98.900002 65793
51.993145 0.18838096 98.900002 65793
52.181522 0.18838096 98.900002 65793
52.369904 0.18838096 98.900002 65793
52.452003 0.18800001 98.700005 65793
52.640003 0.18800001 98.700005 65793
52.828003 0.18800001 98.700005 65793
53.016003 0.18800001 98.700005 66048
53.042286 0.18742858 98.400002 66048
53.067429 0.18685715 98.100006 66048
53.254288 0.18685715 98.100006 66048
53.441143 0.18685715 98.100006 65793
53.628002 0.18685715 98.100006 65793
53.814857 0.18685715 98.100006 66048
54.00172 0.18685715 98.100006 66048
54.022861 0.18628572 97.800003 65792
54.209148 0.18628572 97.800003 65792
54.228573 0.18571429 97.5 65792
54.414291 0.18571429 97.5 65792
54.488003 0.18533334 97.300003 65793
54.504757 0.18476191 97 65793
54.689522 0.18476191 97 65793
54.874283 0.18476191 97 65793
55.059044 0.18476191 97 65792
55.072956 0.18419048 96.700005 65792
55.08572 0.18361905 96.400002 65793
55.154671 0.18323812 96.200005 131586
55.165333 0.18266667 95.900002 131588
55.174858 0.18209524 95.600006 263174
55.356956 0.18209524 95.600006 1381124
55.713337 0.18266667 95.900002 1381124
49.465717 0.37904763 99.500008 524288
49.505527 0.37790477 99.200005 196866
49.694481 0.37790477 99.200005 196866
49.883427 0.37790477 99.200005 131586
50.072384 0.37790477 99.200005 131586
50.261337 0.37790477 99.200005 131586
50.450291 0.37790477 99.200005 131586
50.63924 0.37790477 99.200005 66048
50.828194 0.37790477 99.200005 66048
51.017147 0.37790477 99.200005 65793
51.206093 0.37790477 99.200005 65793
51.395046 0.37790477 99.200005 65793
51.428001 0.37676191 98.900002 65793
51.616375 0.37676191 98.900002 65793
51.804764 0.37676191 98.900002 65793
51.993145 0.37676191 98.900002 65793
52.181522 0.37676191 98.900002 65793
52.369904 0.37676191 98.900002 65793
52.452003 0.37600002 98.700005 65793
52.640003 0.37600002 98.700005 65793
52.828003 0.37600002 98.700005 65793
53.016003 0.37600002 98.700005 65793
53.042286 0.37485716 98.400002 65793
53.067429 0.3737143 98.100006 65793
53.254288 0.3737143 98.100006 131586
53.441143 0.3737143 98.100006 131586
53.628002 0.3737143 98.100006 65793
53.814857 0.3737143 98.100006 65793
54.00172 0.3737143 98.100006 65793
54.022861 0.37257144 97.800003 65792
54.209148 0.37257144 97.800003 65792
54.228573 0.37142858 97.5 65793
54.30267 0.37066668 97.300003 65793
54.488003 0.37066668 97.300003 65793
54.504757 0.36952382 97 65793
54.689522 0.36952382 97 65793
54.874283 0.36952382 97 65793
54.888767 0.36838096 96.700005 65792
55.072956 0.36838096 96.700005 65792
55.08572 0.3672381 96.400002 65793
55.154671 0.36647624 96.200005 131586
55.165333 0.36533335 95.900002 197127
55.174858 0.36419049 95.600006 328713
55.356956 0.36419049 95.600006 328965
55.713337 0.36533335 95.900002 986895
55.896004 0.36533335 95.900002 921102
49.465717 0.56857145 99.500008 327936
49.655239 0.56857145 99.500008 197120
49.844765 0.56857145 99.500008 197120
50.03429 0.56857145 99.500008 131586
50.072384 0.56685716 99.200005 131586
50.261337 0.56685716 99.200005 131588
50.450291 0.56685716 99.200005 131588
50.63924 0.56685716 99.200005 65793
50.828194 0.56685716 99.200005 65793
51.017147 0.56685716 99.200005 65793
51.206093 0.56685716 99.200005 65793
51.395046 0.56685716 99.200005 65793
51.584 0.56685716 99.200005 65793
51.772953 0.56685716 99.200005 65793
51.804764 0.56514281 98.900002 65793
51.993145 0.56514281 98.900002 0
52.181522 0.56514281 98.900002 65793
52.369904 0.56514281 98.900002 65793
52.452003 0.56400001 98.700005 65793
52.640003 0.56400001 98.700005 65793
52.667427 0.56228572 98.400002 65793
52.854858 0.56228572 98.400002 65793
53.042286 0.56228572 98.400002 65793
53.229713 0.56228572 98.400002 65793
53.254288 0.56057149 98.100006 65793
53.441143 0.56057149 98.100006 65793
53.628002 0.56057149 98.100006 65793
53.814857 0.56057149 98.100006 66048
54.00172 0.56057149 98.100006 66048
54.022861 0.55885714 97.800003 65792
54.209148 0.55885714 97.800003 65792
54.228573 0.55714285 97.5 65793
54.30267 0.55600005 97.300003 65793
54.488003 0.55600005 97.300003 65793
54.504757 0.55428571 97 65793
54.689522 0.55428571 97 65793
54.874283 0.55428571 97 65793
54.888767 0.55257148 96.700005 66048
55.072956 0.55257148 96.700005 66048
55.08572 0.55085719 96.400002 65793
55.154671 0.54971433 96.200005 131586
55.337906 0.54971433 96.200005 197379
55.348003 0.54800004 95.900002 197379
55.530666 0.54800004 95.900002 196866
55.713337 0.54800004 95.900002 262659
55.896004 0.54800004 95.900002 262661
49.465717 0.75809526 99.500008 458752
49.655239 0.75809526 99.500008 131586
49.844765 0.75809526 99.500008 131586
50.03429 0.75809526 99.500008 131586
50.223816 0.75809526 99.500008 131586
50.261337 0.75580955 99.200005 131586
50.450291 0.75580955 99.200005 131586
50.63924 0.75580955 99.200005 65793
50.828194 0.75580955 99.200005 131586
51.017147 0.75580955 99.200005 131586
51.206093 0.75580955 99.200005 131586
51.395046 0.75580955 99.200005 65793
51.584 0.75580955 99.200005 65793
51.772953 0.75580955 99.200005 65793
51.804764 0.75352383 98.900002 65793
51.993145 0.75352383 98.900002 65793
52.181522 0.75352383 98.900002 65793
52.369904 0.75352383 98.900002 65793
52.452003 0.75200003 98.700005 65793
52.640003 0.75200003 98.700005 65793
52.667427 0.74971431 98.400002 65793
52.854858 0.74971431 98.400002 65793
53.042286 0.74971431 98.400002 65793
53.229713 0.74971431 98.400002 65793
53.417141 0.74971431 98.400002 131586
53.441143 0.7474286 98.100006 65793
53.628002 0.7474286 98.100006 65793
53.814857 0.7474286 98.100006 65793
54.00172 0.7474286 98.100006 65793
54.022861 0.74514288 97.800003 65792
54.209148 0.74514288 97.800003 65792
54.228573 0.74285716 97.5 65793
54.30267 0.74133337 97.300003 65793
54.32 0.73904765 97 65793
54.504757 0.73904765 97 65793
54.689522 0.73904765 97 65793
54.874283 0.73904765 97 65793
54.888767 0.73676193 96.700005 65793
55.072956 0.73676193 96.700005 65793
55.08572 0.73447621 96.400002 131586
55.269329 0.73447621 96.400002 131586
55.337906 0.73295248 96.200005 197127
55.348003 0.7306667 95.900002 197127
55.530666 0.7306667 95.900002 196866
55.713337 0.7306667 95.900002 196866
49.614857 0.95047623 99.800003 327936
49.655239 0.94761914 99.500008 131328
49.844765 0.94761914 99.500008 131328
50.03429 0.94761914 99.500008 131586
50.223816 0.94761914 99.500008 131586
50.261337 0.94476193 99.200005 131586
50.450291 0.94476193 99.200005 131586
50.63924 0.94476193 99.200005 65793
50.828194 0.94476193 99.200005 65793
51.017147 0.94476193 99.200005 65793
51.206093 0.94476193 99.200005 131586
51.395046 0.94476193 99.200005 65793
51.584 0.94476193 99.200005 65793
51.772953 0.94476193 99.200005 65793
51.961906 0.94476193 99.200005 65793
52.150864 0.94476193 99.200005 65793
52.181522 0.94190484 98.900002 65793
52.369904 0.94190484 98.900002 65793
52.452003 0.94000006 98.700005 65793
52.640003 0.94000006 98.700005 65793
52.828003 0.94000006 98.700005 65793
53.016003 0.94000006 98.700005 131586
53.042286 0.93714285 98.400002 131586
53.229713 0.93714285 98.400002 131588
53.417141 0.93714285 98.400002 131588
53.441143 0.93428576 98.100006 131586
53.628002 0.93428576 98.100006 65793
53.814857 0.93428576 98.100006 65793
54.00172 0.93428576 98.100006 65793
54.022861 0.93142867 97.800003 65793
54.209148 0.93142867 97.800003 65793
54.228573 0.92857146 97.5 65793
54.414291 0.92857146 97.5 65793
54.32 0.92380959 97 65793
54.504757 0.92380959 97 65793
54.689522 0.92380959 97 65793
54.874283 0.92380959 97 65793
54.888767 0.9209525 96.700005 65793
55.072956 0.9209525 96.700005 65793
55.257141 0.9209525 96.700005 197379
55.269329 0.91809529 96.400002 131586
55.452953 0.91809529 96.400002 1183744
55.521149 0.91619056 96.200005 1710087
55.704384 0.91619056 96.200005 1312258
55.887627 0.91619056 96.200005 983296
56.187428 0.91809529 96.400002 590338
49.573334 1.1440001 100.10001 196866
49.764 1.1440001 100.10001 196866
49.804955 1.1405714 99.800003 65793
49.995049 1.1405714 99.800003 65793
50.185143 1.1405714 99.800003 65793
50.375237 1.1405714 99.800003 131586
50.413334 1.1371429 99.500008 131586
50.602859 1.1371429 99.500008 131586
50.792377 1.1371429 99.500008 65793
50.981911 1.1371429 99.500008 65793
51.171432 1.1371429 99.500008 65793
51.206093 1.1337143 99.200005 131586
51.395046 1.1337143 99.200005 131586
51.584 1.1337143 99.200005 131586
51.772953 1.1337143 99.200005 66048
51.961906 1.1337143 99.200005 66048
52.150864 1.1337143 99.200005 65793
52.181522 1.1302856 98.900002 65793
52.369904 1.1302856 98.900002 65793
52.558285 1.1302856 98.900002 65793
52.640003 1.128 98.700005 65793
52.828003 1.128 98.700005 65793
53.016003 1.128 98.700005 65793
53.042286 1.1245714 98.400002 65793
53.229713 1.1245714 98.400002 65793
53.417141 1.1245714 98.400002 65793
53.604572 1.1245714 98.400002 65793
53.628002 1.121143 98.100006 65793
53.814857 1.121143 98.100006 65793
54.00172 1.121143 98.100006 65793
54.022861 1.1177143 97.800003 65793
54.209148 1.1177143 97.800003 65793
54.395432 1.1177143 97.800003 65793
54.414291 1.1142857 97.5 65793
54.488003 1.1120001 97.300003 65793
54.504757 1.1085714 97 65793
54.689522 1.1085714 97 65793
54.874283 1.1085714 97 65793
54.888767 1.105143 96.700005 65793
55.072956 1.105143 96.700005 65793
55.257141 1.105143 96.700005 65795
55.441338 1.105143 96.700005 526346
55.452953 1.1017144 96.400002 2234634
55.636574 1.1017144 96.400002 2497806
55.82019 1.1017144 96.400002 2427904
56.003815 1.1017144 96.400002 1835776
56.187428 1.1017144 96.400002 590338
49.573334 1.3346667 100.10001 65793
49.764 1.3346667 100.10001 65793
49.95467 1.3346667 100.10001 66048
50.145332 1.3346667 100.10001 66048
50.185143 1.3306667 99.800003 65793
50.375237 1.3306667 99.800003 65793
50.565338 1.3306667 99.800003 131586
50.755428 1.3306667 99.800003 131586
50.792377 1.3266668 99.500008 131586
50.981911 1.3266668 99.500008 65793
51.171432 1.3266668 99.500008 65793
51.360954 1.3266668 99.500008 65793
51.395046 1.3226668 99.200005 65793
51.584 1.3226668 99.200005 65793
51.772953 1.3226668 99.200005 66048
51.961906 1.3226668 99.200005 66048
52.150864 1.3226668 99.200005 65793
52.181522 1.3186667 98.900002 65793
52.369904 1.3186667 98.900002 65793
52.558285 1.3186667 98.900002 65793
52.74667 1.3186667 98.900002 65793
52.828003 1.3160001 98.700005 65793
53.016003 1.3160001 98.700005 65793
53.203999 1.3160001 98.700005 65793
53.229713 1.312 98.400002 65793
53.417141 1.312 98.400002 131586
53.604572 1.312 98.400002 65793
53.792007 1.312 98.400002 65793
53.814857 1.3080001 98.100006 65793
54.00172 1.3080001 98.100006 65793
54.188572 1.3080001 98.100006 65793
54.209148 1.304 97.800003 65793
54.395432 1.304 97.800003 65793
54.414291 1.3000001 97.5 65793
54.488003 1.2973334 97.300003 65793
54.504757 1.2933333 97 65793
54.689522 1.2933333 97 65793
54.874283 1.2933333 97 65793
54.888767 1.2893333 96.700005 65793
55.072956 1.2893333 96.700005 131586
55.257141 1.2893333 96.700005 197640
55.441338 1.2893333 96.700005 723984
55.625526 1.2893333 96.700005 3222528
55.636574 1.2853334 96.400002 3485696
55.82019 1.2853334 96.400002 3547392
56.003815 1.2853334 96.400002 2626304
56.187428 1.2853334 96.400002 1114890
50.371433 1.5619049 102.50001 196866
50.566673 1.5619049 102.50001 196866
49.721905 1.5299048 100.40001 65793
49.913143 1.5299048 100.40001 65793
49.95467 1.5253334 100.10001 65793
50.145332 1.5253334 100.10001 65793
50.185143 1.520762 99.800003 65793
50.375237 1.520762 99.800003 131586
50.565338 1.520762 99.800003 131586
50.755428 1.520762 99.800003 131586
50.792377 1.5161905 99.500008 65793
50.981911 1.5161905 99.500008 65793
51.171432 1.5161905 99.500008 65793
51.360954 1.5161905 99.500008 65793
51.395046 1.5116191 99.200005 66048
51.584 1.5116191 99.200005 66048
51.772953 1.5116191 99.200005 65793
51.961906 1.5116191 99.200005 65793
52.150864 1.5116191 99.200005 65793
52.181522 1.5070477 98.900002 65793
52.369904 1.5070477 98.900002 65793
52.558285 1.5070477 98.900002 65793
52.74667 1.5070477 98.900002 65793
52.935047 1.5070477 98.900002 65793
53.123432 1.5070477 98.900002 65793
53.203999 1.5040001 98.700005 65793
53.392006 1.5040001 98.700005 65793
53.580006 1.5040001 98.700005 65793
53.604572 1.4994286 98.400002 65793
53.792007 1.4994286 98.400002 65793
53.814857 1.4948572 98.100006 65793
54.00172 1.4948572 98.100006 65793
54.188572 1.4948572 98.100006 65793
54.209148 1.4902858 97.800003 65793
54.395432 1.4902858 97.800003 65793
54.414291 1.4857143 97.5 65793
54.488003 1.4826667 97.300003 65793
54.504757 1.4780953 97 65793
54.689522 1.4780953 97 131586
54.874283 1.4780953 97 65793
54.888767 1.4735239 96.700005 131075
55.072956 1.4735239 96.700005 131075
55.257141 1.4735239 96.700005 262920
55.441338 1.4735239 96.700005 1447194
55.625526 1.4735239 96.700005 3222021
55.809711 1.4735239 96.700005 3616779
55.993908 1.4735239 96.700005 3680005
56.178101 1.4735239 96.700005 3087872
50.371433 1.7571429 102.50001 196866
50.122665 1.7417142 101.60001 131073
49.870483 1.7262857 100.70001 65793
49.913143 1.721143 100.40001 65793
50.104378 1.721143 100.40001 65793
50.145332 1.7160002 100.10001 65793
50.336002 1.7160002 100.10001 65793
50.526665 1.7160002 100.10001 65793
50.717335 1.7160002 100.10001 131586
50.755428 1.7108573 99.800003 131586
50.945526 1.7108573 99.800003 65793
51.135616 1.7108573 99.800003 65793
51.171432 1.7057145 99.500008 65793
51.360954 1.7057145 99.500008 65793
51.395046 1.7005715 99.200005 66048
51.584 1.7005715 99.200005 66048
51.772953 1.7005715 99.200005 65793
51.961906 1.7005715 99.200005 65793
52.150864 1.7005715 99.200005 65793
52.181522 1.6954286 98.900002 65793
52.369904 1.6954286 98.900002 65793
52.558285 1.6954286 98.900002 65793
52.74667 1.6954286 98.900002 65793
52.935047 1.6954286 98.900002 65793
53.123432 1.6954286 98.900002 65793
53.203999 1.692 98.700005 65793
53.392006 1.692 98.700005 65793
53.580006 1.692 98.700005 131586
53.604572 1.6868571 98.400002 65793
53.792007 1.6868571 98.400002 131586
53.814857 1.6817143 98.100006 131586
54.00172 1.6817143 98.100006 131586
54.188572 1.6817143 98.100006 65793
54.209148 1.6765714 97.800003 65793
54.228573 1.6714286 97.5 65793
54.414291 1.6714286 97.5 65793
54.488003 1.668 97.300003 65793
54.504757 1.6628573 97 65793
54.689522 1.6628573 97 65793
54.874283 1.6628573 97 65793
54.888767 1.6577145 96.700005 65795
55.072956 1.6577145 96.700005 2
55.257141 1.6577145 96.700005 1051659
55.441338 1.6577145 96.700005 2301726
55.625526 1.6577145 96.700005 3090435
55.809711 1.6577145 96.700005 3090435
55.993908 1.6577145 96.700005 3548419
56.178101 1.6577145 96.700005 3482626
49.929146 1.935238 101.60001 196866
50.122665 1.935238 101.60001 131073
50.019051 1.9238095 101 65793
50.062294 1.9180954 100.70001 65793
50.104378 1.9123812 100.40001 65793
50.295628 1.9123812 100.40001 65793
50.336002 1.9066668 100.10001 65793
50.526665 1.9066668 100.10001 65793
50.717335 1.9066668 100.10001 65793
50.755428 1.9009525 99.800003 65793
50.945526 1.9009525 99.800003 65793
51.135616 1.9009525 99.800003 65793
51.171432 1.8952383 99.500008 65793
51.360954 1.8952383 99.500008 65793
51.550476 1.8952383 99.500008 65793
51.584 1.8895239 99.200005 65793
51.772953 1.8895239 99.200005 65793
51.961906 1.8895239 99.200005 65793
52.150864 1.8895239 99.200005 65793
52.339817 1.8895239 99.200005 65793
52.528763 1.8895239 99.200005 65793
52.717716 1.8895239 99.200005 65793
52.74667 1.8838097 98.900002 66048
52.935047 1.8838097 98.900002 66048
53.123432 1.8838097 98.900002 65793
53.203999 1.8800001 98.700005 65793
53.392006 1.8800001 98.700005 65793
53.417141 1.8742857 98.400002 65793
53.604572 1.8742857 98.400002 65793
53.628002 1.8685715 98.100006 65793
53.814857 1.8685715 98.100006 65793
53.836571 1.8628573 97.800003 65793
54.022861 1.8628573 97.800003 65793
54.209148 1.8628573 97.800003 65793
54.228573 1.8571429 97.5 65793
54.414291 1.8571429 97.5 65793
54.488003 1.8533335 97.300003 65793
54.504757 1.8476192 97 65793
54.689522 1.8476192 97 65793
54.874283 1.8476192 97 65793
54.888767 1.841905 96.700005 515
55.072956 1.841905 96.700005 515
55.257141 1.841905 96.700005 1578253
55.441338 1.841905 96.700005 2696734
55.625526 1.841905 96.700005 2957837
55.809711 1.841905 96.700005 3023630
55.993908 1.841905 96.700005 3416080
56.178101 1.841905 96.700005 3547666
49.735619 2.128762 101.60001 524544
49.781715 2.1224761 101.3 197120
49.974667 2.1224761 101.3 131328
50.019051 2.1161904 101 65793
50.062294 2.1099048 100.70001 65793
50.104378 2.1036191 100.40001 65793
50.295628 2.1036191 100.40001 65793
50.336002 2.0973334 100.10001 65793
50.526665 2.0973334 100.10001 65793
50.717335 2.0973334 100.10001 65793
50.755428 2.0910478 99.800003 65793
50.945526 2.0910478 99.800003 65793
51.135616 2.0910478 99.800003 65793
51.171432 2.0847621 99.500008 65793
51.360954 2.0847621 99.500008 65793
51.550476 2.0847621 99.500008 66048
51.584 2.0784764 99.200005 66048
51.772953 2.0784764 99.200005 65793
51.961906 2.0784764 99.200005 65793
52.150864 2.0784764 99.200005 65793
52.339817 2.0784764 99.200005 65793
52.528763 2.0784764 99.200005 65793
52.717716 2.0784764 99.200005 65793
52.90667 2.0784764 99.200005 66048
52.935047 2.0721905 98.900002 66048
53.123432 2.0721905 98.900002 65793
53.203999 2.0680001 98.700005 65793
53.392006 2.0680001 98.700005 65795
53.417141 2.0617144 98.400002 65795
53.604572 2.0617144 98.400002 65793
53.628002 2.0554285 98.100006 131586
53.814857 2.0554285 98.100006 65793
53.836571 2.0491428 97.800003 65793
54.022861 2.0491428 97.800003 65793
54.209148 2.0491428 97.800003 65793
54.228573 2.0428572 97.5 65793
54.414291 2.0428572 97.5 65793
54.488003 2.0386667 97.300003 65793
54.673332 2.0386667 97.300003 65793
54.689522 2.0323808 97 65793
54.874283 2.0323808 97 131586
55.059044 2.0323808 97 263
55.072956 2.0260954 96.700005 263
55.257141 2.0260954 96.700005 2565120
55.441338 2.0260954 96.700005 2762496
55.625526 2.0260954 96.700005 3350285
55.809711 2.0260954 96.700005 3481871
55.993908 2.0260954 96.700005 3481623
56.178101 2.0260954 96.700005 3415830
49.735619 2.3222859 101.60001 720896
49.781715 2.3154285 101.3 131586
49.974667 2.3154285 101.3 65793
50.019051 2.3085713 101 65793
50.062294 2.3017147 100.70001 65793
50.104378 2.2948573 100.40001 65793
50.295628 2.2948573 100.40001 65793
50.336002 2.2880001 100.10001 65793
50.526665 2.2880001 100.10001 65793
50.717335 2.2880001 100.10001 65793
50.755428 2.2811427 99.800003 65793
50.945526 2.2811427 99.800003 65793
51.135616 2.2811427 99.800003 65793
51.171432 2.2742858 99.500008 65793
51.360954 2.2742858 99.500008 65793
51.550476 2.2742858 99.500008 65793
51.584 2.2674286 99.200005 65793
51.772953 2.2674286 99.200005 65793
51.961906 2.2674286 99.200005 65793
52.150864 2.2674286 99.200005 65793
52.339817 2.2674286 99.200005 65793
52.528763 2.2674286 99.200005 65793
52.717716 2.2674286 99.200005 65793
52.90667 2.2674286 99.200005 65793
52.935047 2.2605712 98.900002 65793
53.123432 2.2605712 98.900002 65793
53.311806 2.2605712 98.900002 65793
53.392006 2.256 98.700005 65793
53.417141 2.2491429 98.400002 65793
53.604572 2.2491429 98.400002 65793
53.628002 2.242286 98.100006 131586
53.814857 2.242286 98.100006 65793
53.836571 2.2354286 97.800003 65793
54.022861 2.2354286 97.800003 65793
54.209148 2.2354286 97.800003 65793
54.228573 2.2285714 97.5 65793
54.414291 2.2285714 97.5 65793
54.488003 2.2240002 97.300003 65793
54.673332 2.2240002 97.300003 65793
54.689522 2.2171428 97 65793
54.874283 2.2171428 97 65793
55.059044 2.2171428 97 66315
55.072956 2.2102859 96.700005 522
55.257141 2.2102859 96.700005 2762240
55.441338 2.2102859 96.700005 3222791
55.625526 2.2102859 96.700005 3350285
55.809711 2.2102859 96.700005 3350285
55.993908 2.2102859 96.700005 3677969
49.735619 2.5158095 101.60001 458752
49.781715 2.5083809 101.3 131073
49.974667 2.5083809 101.3 131073
50.167622 2.5083809 101.3 65793
50.062294 2.4935241 100.70001 65793
50.254093 2.4935241 100.70001 65793
50.295628 2.4860954 100.40001 65793
50.336002 2.4786668 100.10001 65793
50.526665 2.4786668 100.10001 65793
50.717335 2.4786668 100.10001 65793
50.755428 2.4712379 99.800003 65793
50.945526 2.4712379 99.800003 65793
51.135616 2.4712379 99.800003 65793
51.171432 2.4638095 99.500008 65795
51.360954 2.4638095 99.500008 65795
51.550476 2.4638095 99.500008 65792
51.584 2.4563811 99.200005 65792
51.772953 2.4563811 99.200005 65793
51.961906 2.4563811 99.200005 65793
52.150864 2.4563811 99.200005 65793
52.339817 2.4563811 99.200005 65793
52.528763 2.4563811 99.200005 65792
52.717716 2.4563811 99.200005 65792
52.90667 2.4563811 99.200005 65793
52.935047 2.4489524 98.900002 65793
53.123432 2.4489524 98.900002 65793
53.311806 2.4489524 98.900002 65793
53.392006 2.444 98.700005 65793
53.417141 2.4365716 98.400002 65793
53.604572 2.4365716 98.400002 65793
53.628002 2.4291432 98.100006 65793
53.814857 2.4291432 98.100006 131586
53.836571 2.4217143 97.800003 131586
54.022861 2.4217143 97.800003 65793
54.209148 2.4217143 97.800003 65793
54.228573 2.4142857 97.5 65793
54.414291 2.4142857 97.5 65793
54.599998 2.4142857 97.5 65793
54.673332 2.4093335 97.300003 65793
54.858673 2.4093335 97.300003 65795
55.044003 2.4093335 97.300003 131588
55.059044 2.4019048 97 66315
55.243809 2.4019048 97 66315
55.42857 2.4019048 97 2762496
55.613335 2.4019048 97 3157250
55.625526 2.3944764 96.700005 3614212
55.809711 2.3944764 96.700005 3482626
55.993908 2.3944764 96.700005 3809555
49.735619 2.7093334 101.60001 197120
49.781715 2.7013333 101.3 65792
49.974667 2.7013333 101.3 65792
50.167622 2.7013333 101.3 65793
50.062294 2.6853335 100.70001 65793
50.254093 2.6853335 100.70001 65793
50.295628 2.6773334 100.40001 65793
50.336002 2.6693335 100.10001 513
50.526665 2.6693335 100.10001 513
50.717335 2.6693335 100.10001 65793
50.755428 2.6613333 99.800003 65793
50.945526 2.6613333 99.800003 65793
51.135616 2.6613333 99.800003 65793
51.171432 2.6533337 99.500008 65793
51.360954 2.6533337 99.500008 65793
51.550476 2.6533337 99.500008 66048
51.584 2.6453335 99.200005 66048
51.772953 2.6453335 99.200005 65793
51.961906 2.6453335 99.200005 65793
52.150864 2.6453335 99.200005 65793
52.339817 2.6453335 99.200005 65793
52.528763 2.6453335 99.200005 65793
52.717716 2.6453335 99.200005 65793
52.90667 2.6453335 99.200005 65793
52.935047 2.6373334 98.900002 65793
53.123432 2.6373334 98.900002 65793
53.311806 2.6373334 98.900002 65793
53.392006 2.6320002 98.700005 65793
53.417141 2.6240001 98.400002 65793
53.604572 2.6240001 98.400002 65793
53.628002 2.6160002 98.100006 65793
53.814857 2.6160002 98.100006 65793
54.00172 2.6160002 98.100006 65793
54.022861 2.608 97.800003 131586
54.209148 2.608 97.800003 65793
54.228573 2.6000001 97.5 65793
54.414291 2.6000001 97.5 65793
54.599998 2.6000001 97.5 513
54.673332 2.5946667 97.300003 513
54.858673 2.5946667 97.300003 65795
55.044003 2.5946667 97.300003 65795
55.229336 2.5946667 97.300003 66315
55.414665 2.5946667 97.300003 132108
55.600006 2.5946667 97.300003 3024384
50.761147 2.9742856 104.1 393728
49.735619 2.9028573 101.60001 327936
49.929146 2.9028573 101.60001 65793
49.974667 2.8942857 101.3 65793
50.167622 2.8942857 101.3 65793
50.062294 2.8771429 100.70001 65793
50.254093 2.8771429 100.70001 513
50.295628 2.8685718 100.40001 513
50.486862 2.8685718 100.40001 513
50.526665 2.8599999 100.10001 513
50.717335 2.8599999 100.10001 65793
50.908001 2.8599999 100.10001 65793
50.945526 2.8514287 99.800003 65793
51.135616 2.8514287 99.800003 65793
51.171432 2.8428574 99.500008 65793
51.360954 2.8428574 99.500008 65793
51.550476 2.8428574 99.500008 66048
51.584 2.8342857 99.200005 66048
51.772953 2.8342857 99.200005 65793
51.961906 2.8342857 99.200005 65793
52.150864 2.8342857 99.200005 65793
52.339817 2.8342857 99.200005 65793
52.528763 2.8342857 99.200005 65793
52.717716 2.8342857 99.200005 65793
52.74667 2.8257143 98.900002 65793
52.935047 2.8257143 98.900002 65793
53.123432 2.8257143 98.900002 65793
53.203999 2.8200002 98.700005 65793
53.392006 2.8200002 98.700005 65793
53.417141 2.8114285 98.400002 65793
53.604572 2.8114285 98.400002 65793
53.628002 2.8028574 98.100006 131586
53.814857 2.8028574 98.100006 131586
54.00172 2.8028574 98.100006 65793
54.022861 2.7942858 97.800003 65793
54.209148 2.7942858 97.800003 65793
54.395432 2.7942858 97.800003 65793
54.581718 2.7942858 97.800003 65793
54.599998 2.7857144 97.5 65793
54.785717 2.7857144 97.5 65793
54.971428 2.7857144 97.5 65795
55.157143 2.7857144 97.5 65795
55.342857 2.7857144 97.5 394258
55.528568 2.7857144 97.5 986395
55.714287 2.7857144 97.5 2893826
56.243999 2.8028574 98.100006 2959619
50.562859 3.1725717 104.1 655872
50.761147 3.1725717 104.1 393728
49.735619 3.0963809 101.60001 262144
49.929146 3.0963809 101.60001 65793
49.974667 3.0872381 101.3 0
50.167622 3.0872381 101.3 65793
50.062294 3.0689526 100.70001 65793
50.254093 3.0689526 100.70001 65793
50.295628 3.0598097 100.40001 65793
50.486862 3.0598097 100.40001 65793
50.678097 3.0598097 100.40001 65793
50.717335 3.0506668 100.10001 65793
50.908001 3.0506668 100.10001 65793
51.098667 3.0506668 100.10001 513
51.135616 3.0415239 99.800003 513
51.325722 3.0415239 99.800003 65793
51.515812 3.0415239 99.800003 65793
51.550476 3.0323811 99.500008 65793
51.740002 3.0323811 99.500008 65793
51.772953 3.0232382 99.200005 65793
51.961906 3.0232382 99.200005 65793
52.150864 3.0232382 99.200005 65793
52.339817 3.0232382 99.200005 65793
52.528763 3.0232382 99.200005 65793
52.717716 3.0232382 99.200005 65793
52.74667 3.0140953 98.900002 66048
52.935047 3.0140953 98.900002 66048
53.123432 3.0140953 98.900002 65793
53.203999 3.0080001 98.700005 65793
53.392006 3.0080001 98.700005 65793
53.417141 2.9988573 98.400002 65793
53.604572 2.9988573 98.400002 65793
53.628002 2.9897144 98.100006 65793
53.814857 2.9897144 98.100006 65795
54.00172 2.9897144 98.100006 65795
54.022861 2.9805715 97.800003 65793
54.209148 2.9805715 97.800003 65793
54.395432 2.9805715 97.800003 65793
54.581718 2.9805715 97.800003 65793
54.599998 2.9714286 97.5 65793
54.785717 2.9714286 97.5 131586
54.971428 2.9714286 97.5 65795
55.157143 2.9714286 97.5 131588
55.342857 2.9714286 97.5 1183245
55.528568 2.9714286 97.5 1446417
56.057144 2.9897144 98.100006 2762240
56.243999 2.9897144 98.100006 2959619
50.417149 3.3611431 103.80001 458756
50.419815 3.3481908 103.4 131073
49.735619 3.2899048 101.60001 131073
49.929146 3.2899048 101.60001 65793
49.974667 3.2801907 101.3 0
50.167622 3.2801907 101.3 65793
50.211422 3.2704763 101 65793
50.254093 3.2607622 100.70001 65793
50.295628 3.2510478 100.40001 65793
50.486862 3.2510478 100.40001 65793
50.678097 3.2510478 100.40001 65793
50.869339 3.2510478 100.40001 65795
50.908001 3.2413335 100.10001 65795
51.098667 3.2413335 100.10001 65793
51.289337 3.2413335 100.10001 65793
51.325722 3.2316189 99.800003 65793
51.515812 3.2316189 99.800003 65793
51.705902 3.2316189 99.800003 65793
51.740002 3.2219048 99.500008 65793
51.92952 3.2219048 99.500008 65793
51.961906 3.2121904 99.200005 65793
52.150864 3.2121904 99.200005 65793
52.339817 3.2121904 99.200005 65793
52.528763 3.2121904 99.200005 65793
52.717716 3.2121904 99.200005 65793
52.74667 3.202476 98.900002 66048
52.935047 3.202476 98.900002 66048
53.123432 3.202476 98.900002 65793
53.203999 3.1960003 98.700005 65793
53.392006 3.1960003 98.700005 65793
53.417141 3.186286 98.400002 65793
53.604572 3.186286 98.400002 65793
53.628002 3.1765718 98.100006 65793
53.814857 3.1765718 98.100006 65793
54.00172 3.1765718 98.100006 65793
54.022861 3.1668572 97.800003 65793
54.209148 3.1668572 97.800003 65793
54.395432 3.1668572 97.800003 65793
54.581718 3.1668572 97.800003 65793
54.599998 3.1571429 97.5 65793
54.785717 3.1571429 97.5 65793
54.971428 3.1571429 97.5 65795
55.157143 3.1571429 97.5 65795
55.342857 3.1571429 97.5 1051909
55.528568 3.1571429 97.5 1249288
55.885719 3.1668572 97.800003 2762240
56.243999 3.1765718 98.100006 2959619
50.417149 3.5588574 103.80001 458752
49.542095 3.4834285 101.60001 131328
49.735619 3.4834285 101.60001 131328
49.929146 3.4834285 101.60001 65793
49.974667 3.4731429 101.3 65793
50.167622 3.4731429 101.3 0
50.211422 3.462857 101 65793
50.254093 3.4525714 100.70001 65793
50.295628 3.442286 100.40001 65793
50.486862 3.442286 100.40001 65793
50.678097 3.442286 100.40001 65793
50.869339 3.442286 100.40001 65793
50.908001 3.4320004 100.10001 65793
51.098667 3.4320004 100.10001 65793
51.289337 3.4320004 100.10001 65793
51.325722 3.4217145 99.800003 65793
51.515812 3.4217145 99.800003 65793
51.705902 3.4217145 99.800003 65793
51.740002 3.4114289 99.500008 65793
51.92952 3.4114289 99.500008 65793
51.961906 3.4011431 99.200005 65793
52.150864 3.4011431 99.200005 65793
52.339817 3.4011431 99.200005 65793
52.528763 3.4011431 99.200005 65793
52.717716 3.4011431 99.200005 65793
52.74667 3.3908572 98.900002 65793
52.935047 3.3908572 98.900002 65793
53.123432 3.3908572 98.900002 65793
53.311806 3.3908572 98.900002 65793
53.392006 3.3840001 98.700005 65793
53.417141 3.3737142 98.400002 65793
53.604572 3.3737142 98.400002 65793
53.628002 3.3634286 98.100006 65793
53.814857 3.3634286 98.100006 65793
54.00172 3.3634286 98.100006 65793
54.188572 3.3634286 98.100006 65793
54.209148 3.3531427 97.800003 65793
54.395432 3.3531427 97.800003 65793
54.581718 3.3531427 97.800003 65793
54.768002 3.3531427 97.800003 65793
54.785717 3.3428571 97.5 65793
54.971428 3.3428571 97.5 131075
55.157143 3.3428571 97.5 196868
55.513145 3.3531427 97.800003 1181955
55.699432 3.3531427 97.800003 1839885
55.885719 3.3531427 97.800003 3024129
56.072002 3.3531427 97.800003 3221508
49.542095 3.6769524 101.60001 131073
49.735619 3.6769524 101.60001 131073
49.929146 3.6769524 101.60001 65793
49.974667 3.666095 101.3 65793
50.167622 3.666095 101.3 0
50.211422 3.6552382 101 0
50.403809 3.6552382 101 65793
50.445908 3.644381 100.70001 65793
50.486862 3.6335242 100.40001 65793
50.678097 3.6335242 100.40001 65793
50.869339 3.6335242 100.40001 65793
51.060574 3.6335242 100.40001 65793
51.098667 3.6226668 100.10001 65793
51.289337 3.6226668 100.10001 65793
51.325722 3.6118095 99.800003 65793
51.515812 3.6118095 99.800003 65793
51.705902 3.6118095 99.800003 513
51.896 3.6118095 99.800003 513
51.92952 3.6009524 99.500008 65793
52.119053 3.6009524 99.500008 65793
52.150864 3.5900955 99.200005 65793
52.339817 3.5900955 99.200005 65793
52.528763 3.5900955 99.200005 65793
52.717716 3.5900955 99.200005 65793
52.74667 3.5792379 98.900002 65793
52.935047 3.5792379 98.900002 65793
53.123432 3.5792379 98.900002 65795
53.311806 3.5792379 98.900002 65795
53.392006 3.5720003 98.700005 65793
53.580006 3.5720003 98.700005 65793
53.604572 3.5611432 98.400002 65793
53.792007 3.5611432 98.400002 65793
53.814857 3.5502858 98.100006 66048
54.00172 3.5502858 98.100006 66048
54.188572 3.5502858 98.100006 66048
54.375427 3.5502858 98.100006 66048
54.56229 3.5502858 98.100006 65793
54.581718 3.5394285 97.800003 65793
54.768002 3.5394285 97.800003 65793
54.954285 3.5394285 97.800003 65793
55.140572 3.5394285 97.800003 131588
55.326855 3.5394285 97.800003 263174
55.513145 3.5394285 97.800003 1644296
55.699432 3.5394285 97.800003 2104847
55.885719 3.5394285 97.800003 3222021
56.072002 3.5394285 97.800003 3090435
49.688385 3.8819048 101.90001 131073
49.735619 3.870476 101.60001 131073
49.929146 3.870476 101.60001 65793
49.974667 3.8590477 101.3 65793
50.167622 3.8590477 101.3 0
50.211422 3.8476191 101 0
50.403809 3.8476191 101 65793
50.445908 3.8361907 100.70001 0
50.637714 3.8361907 100.70001 0
50.678097 3.8247623 100.40001 65793
50.869339 3.8247623 100.40001 65792
51.060574 3.8247623 100.40001 65792
51.098667 3.8133335 100.10001 65792
51.289337 3.8133335 100.10001 65792
51.48 3.8133335 100.10001 65793
51.67067 3.8133335 100.10001 65793
51.861336 3.8133335 100.10001 65793
52.052002 3.8133335 100.10001 65793
52.08609 3.8019049 99.800003 65793
52.119053 3.7904766 99.500008 65793
52.308578 3.7904766 99.500008 65793
52.498096 3.7904766 99.500008 65793
52.528763 3.7790477 99.200005 65793
52.717716 3.7790477 99.200005 65793
52.74667 3.7676194 98.900002 65793
52.935047 3.7676194 98.900002 65793
53.123432 3.7676194 98.900002 65793
53.311806 3.7676194 98.900002 65793
53.392006 3.7600002 98.700005 66048
53.580006 3.7600002 98.700005 66048
53.768002 3.7600002 98.700005 65793
53.792007 3.7485714 98.400002 65793
53.979427 3.7485714 98.400002 65793
54.00172 3.737143 98.100006 65793
54.188572 3.737143 98.100006 65793
54.375427 3.737143 98.100006 65793
54.56229 3.737143 98.100006 65793
54.581718 3.7257147 97.800003 65793
54.768002 3.7257147 97.800003 65793
54.954285 3.7257147 97.800003 65793
55.140572 3.7257147 97.800003 65800
55.326855 3.7257147 97.800003 263179
55.513145 3.7257147 97.800003 2366220
55.699432 3.7257147 97.800003 2826771
55.885719 3.7257147 97.800003 3090202
56.072002 3.7257147 97.800003 3024409
56.258289 3.7257147 97.800003 3547666
49.785717 4.0999999 102.50001 65538
49.688385 4.0760002 101.90001 131073
49.882481 4.0760002 101.90001 131073
49.929146 4.0640001 101.60001 65793
50.122665 4.0640001 101.60001 65793
50.167622 4.052 101.3 65793
50.360573 4.052 101.3 65793
50.553524 4.052 101.3 65793
50.445908 4.0280004 100.70001 0
50.637714 4.0280004 100.70001 0
50.829525 4.0280004 100.70001 0
50.869339 4.0160003 100.40001 0
51.060574 4.0160003 100.40001 65793
51.251812 4.0160003 100.40001 0
51.443054 4.0160003 100.40001 0
51.48 4.0040002 100.10001 65793
51.67067 4.0040002 100.10001 65793
51.861336 4.0040002 100.10001 65792
52.052002 4.0040002 100.10001 65792
52.08609 3.9919999 99.800003 65793
52.119053 3.98 99.500008 65793
52.308578 3.98 99.500008 65793
52.498096 3.98 99.500008 65793
52.528763 3.9679999 99.200005 65793
52.717716 3.9679999 99.200005 65793
52.74667 3.9560001 98.900002 65793
52.935047 3.9560001 98.900002 65793
53.123432 3.9560001 98.900002 65793
53.311806 3.9560001 98.900002 65793
53.392006 3.948 98.700005 65793
53.580006 3.948 98.700005 65793
53.604572 3.9360001 98.400002 65793
53.792007 3.9360001 98.400002 0
53.979427 3.9360001 98.400002 65793
54.00172 3.9240003 98.100006 65793
54.188572 3.9240003 98.100006 66048
54.375427 3.9240003 98.100006 66048
54.56229 3.9240003 98.100006 65793
54.749142 3.9240003 98.100006 65793
54.768002 3.9119999 97.800003 65793
54.954285 3.9119999 97.800003 131586
55.140572 3.9119999 97.800003 131345
55.326855 3.9119999 97.800003 526103
55.68343 3.9240003 98.100006 2302730
55.870289 3.9240003 98.100006 2697488
56.057144 3.9240003 98.100006 3352604
56.243999 3.9240003 98.100006 3352604
49.785717 4.2952385 102.50001 131328
49.980957 4.2952385 102.50001 131073
50.029339 4.2826667 102.2 131073
50.076572 4.2700953 101.90001 65793
50.270672 4.2700953 101.90001 65793
50.316193 4.257524 101.60001 65793
50.360573 4.2449522 101.3 65793
50.553524 4.2449522 101.3 65793
50.445908 4.2198095 100.70001 65793
50.637714 4.2198095 100.70001 0
50.678097 4.2072382 100.40001 0
50.869339 4.2072382 100.40001 65793
51.060574 4.2072382 100.40001 0
51.251812 4.2072382 100.40001 0
51.443054 4.2072382 100.40001 0
51.48 4.1946669 100.10001 65793
51.67067 4.1946669 100.10001 65793
51.861336 4.1946669 100.10001 65792
52.052002 4.1946669 100.10001 65792
52.08609 4.1820955 99.800003 65793
52.276196 4.1820955 99.800003 65793
52.308578 4.1695242 99.500008 65793
52.498096 4.1695242 99.500008 65793
52.528763 4.1569529 99.200005 65793
52.717716 4.1569529 99.200005 65793
52.90667 4.1569529 99.200005 65793
52.935047 4.144381 98.900002 65793
53.123432 4.144381 98.900002 65793
53.311806 4.144381 98.900002 65793
53.392006 4.1360002 98.700005 513
53.580006 4.1360002 98.700005 513
53.604572 4.1234288 98.400002 65793
53.792007 4.1234288 98.400002 65793
53.979427 4.1234288 98.400002 0
54.00172 4.110857 98.100006 65793
54.188572 4.110857 98.100006 65793
54.375427 4.110857 98.100006 65793
54.56229 4.110857 98.100006 65793
54.749142 4.110857 98.100006 65793
54.936005 4.110857 98.100006 131588
55.12286 4.110857 98.100006 65795
55.309711 4.110857 98.100006 262920
55.835999 4.1360002 98.700005 986643
56.024002 4.1360002 98.700005 2827534
56.325905 4.144381 98.900002 2893327
56.514286 4.144381 98.900002 3089175
49.590485 4.4904766 102.50001 196866
49.785717 4.4904766 102.50001 131073
49.980957 4.4904766 102.50001 131073
50.029339 4.4773335 102.2 131073
50.076572 4.4641905 101.90001 65793
50.270672 4.4641905 101.90001 65793
50.316193 4.4510474 101.60001 65793
50.360573 4.4379048 101.3 65793
50.553524 4.4379048 101.3 65795
50.596191 4.4247618 101 65795
50.637714 4.4116192 100.70001 65793
50.678097 4.3984761 100.40001 65793
50.869339 4.3984761 100.40001 65793
51.060574 4.3984761 100.40001 65793
51.251812 4.3984761 100.40001 65793
51.443054 4.3984761 100.40001 65793
51.48 4.3853335 100.10001 65793
51.67067 4.3853335 100.10001 65793
51.861336 4.3853335 100.10001 65793
52.052002 4.3853335 100.10001 65793
52.242668 4.3853335 100.10001 65793
52.276196 4.3721905 99.800003 65793
52.308578 4.3590479 99.500008 513
52.498096 4.3590479 99.500008 513
52.528763 4.3459048 99.200005 65793
52.717716 4.3459048 99.200005 65793
52.90667 4.3459048 99.200005 65793
53.095619 4.3459048 99.200005 65793
53.123432 4.3327618 98.900002 65793
53.311806 4.3327618 98.900002 65793
53.392006 4.3239999 98.700005 65793
53.580006 4.3239999 98.700005 65793
53.768002 4.3239999 98.700005 65793
53.956001 4.3239999 98.700005 65793
53.979427 4.3108573 98.400002 65793
54.166859 4.3108573 98.400002 65793
54.354286 4.3108573 98.400002 65793
54.541714 4.3108573 98.400002 65793
54.729145 4.3108573 98.400002 65793
54.916573 4.3108573 98.400002 65793
55.104004 4.3108573 98.400002 65800
55.291428 4.3108573 98.400002 65800
55.647999 4.3239999 98.700005 1117452
55.949146 4.3327618 98.900002 2104347
56.137527 4.3327618 98.900002 2695948
56.325905 4.3327618 98.900002 2827534
56.514286 4.3327618 98.900002 3547666
56.702667 4.3327618 98.900002 3547666
49.590485 4.6857147 102.50001 197120
49.785717 4.6857147 102.50001 131328
49.980957 4.6857147 102.50001 65793
50.029339 4.6720004 102.2 65793
50.076572 4.6582861 101.90001 65793
50.270672 4.6582861 101.90001 65793
50.316193 4.6445718 101.60001 65793
50.509716 4.6445718 101.60001 65793
50.553524 4.630857 101.3 65793
50.596191 4.6171427 101 65793
50.637714 4.6034293 100.70001 65792
50.829525 4.6034293 100.70001 65792
50.869339 4.5897145 100.40001 65793
51.060574 4.5897145 100.40001 65793
51.251812 4.5897145 100.40001 65793
51.443054 4.5897145 100.40001 65793
51.634289 4.5897145 100.40001 65793
51.825523 4.5897145 100.40001 65793
51.861336 4.5760002 100.10001 65793
52.052002 4.5760002 100.10001 65793
52.242668 4.5760002 100.10001 65793
52.276196 4.5622854 99.800003 65793
52.308578 4.5485716 99.500008 65793
52.498096 4.5485716 99.500008 65793
52.528763 4.5348573 99.200005 65793
52.717716 4.5348573 99.200005 65793
52.90667 4.5348573 99.200005 65793
53.095619 4.5348573 99.200005 65793
53.284573 4.5348573 99.200005 65793
53.311806 4.5211425 98.900002 65793
53.392006 4.5120001 98.700005 65793
53.580006 4.5120001 98.700005 65793
53.768002 4.5120001 98.700005 65793
53.956001 4.5120001 98.700005 65793
54.144001 4.5120001 98.700005 65793
54.166859 4.4982858 98.400002 65793
54.354286 4.4982858 98.400002 65793
54.541714 4.4982858 98.400002 65793
54.729145 4.4982858 98.400002 65793
54.916573 4.4982858 98.400002 65793
55.271999 4.5120001 98.700005 196868
55.459999 4.5120001 98.700005 328454
55.647999 4.5120001 98.700005 2300179
55.949146 4.5211425 98.900002 2431765
56.137527 4.5211425 98.900002 2693902
56.325905 4.5211425 98.900002 3022867
56.514286 4.5211425 98.900002 3416080
56.702667 4.5211425 98.900002 3481873
49.250668 4.8666668 102.2 524544
49.445335 4.8666668 102.2 196866
49.640003 4.8666668 102.2 196866
49.980957 4.8809528 102.50001 66048
50.029339 4.8666668 102.2 66048
50.076572 4.8523812 101.90001 65793
50.270672 4.8523812 101.90001 65793
50.46476 4.8523812 101.90001 65793
50.509716 4.8380957 101.60001 65793
50.553524 4.8238096 101.3 65793
50.596191 4.8095236 101 65793
50.78857 4.8095236 101 65792
50.829525 4.795239 100.70001 65792
50.869339 4.7809525 100.40001 65793
51.060574 4.7809525 100.40001 65793
51.251812 4.7809525 100.40001 65793
51.443054 4.7809525 100.40001 65793
51.634289 4.7809525 100.40001 65793
51.825523 4.7809525 100.40001 65793
51.861336 4.7666669 100.10001 65793
52.052002 4.7666669 100.10001 65793
52.242668 4.7666669 100.10001 65795
52.433334 4.7666669 100.10001 65795
52.466286 4.7523813 99.800003 65793
52.498096 4.7380953 99.500008 65793
52.687622 4.7380953 99.500008 65793
52.717716 4.7238097 99.200005 65793
52.90667 4.7238097 99.200005 65793
53.095619 4.7238097 99.200005 65793
53.284573 4.7238097 99.200005 65793
53.311806 4.7095242 98.900002 65793
53.392006 4.7000003 98.700005 65793
53.580006 4.7000003 98.700005 65793
53.768002 4.7000003 98.700005 65793
53.956001 4.7000003 98.700005 65793
53.979427 4.6857142 98.400002 65793
54.166859 4.6857142 98.400002 65793
54.354286 4.6857142 98.400002 65793
54.541714 4.6857142 98.400002 65793
54.729145 4.6857142 98.400002 65793
55.084003 4.7000003 98.700005 131586
55.271999 4.7000003 98.700005 393736
55.459999 4.7000003 98.700005 525322
55.647999 4.7000003 98.700005 1971714
55.949146 4.7095242 98.900002 2234886
56.137527 4.7095242 98.900002 2760458
56.325905 4.7095242 98.900002 2760458
56.514286 4.7095242 98.900002 3481873
56.702667 4.7095242 98.900002 3481873
49.250668 5.0613337 102.2 196866
49.445335 5.0613337 102.2 65793
49.640003 5.0613337 102.2 65793
49.980957 5.0761909 102.50001 65793
50.029339 5.0613337 102.2 65793
50.076572 5.0464764 101.90001 65793
50.270672 5.0464764 101.90001 65793
50.46476 5.0464764 101.90001 65793
50.509716 5.0316191 101.60001 65793
50.703239 5.0316191 101.60001 65793
50.746475 5.0167618 101.3 65793
50.93943 5.0167618 101.3 65792
50.980949 5.001905 101 65792
51.021339 4.9870481 100.70001 65793
51.213146 4.9870481 100.70001 65793
51.404961 4.9870481 100.70001 65793
51.596767 4.9870481 100.70001 65793
51.788574 4.9870481 100.70001 65793
51.825523 4.9721909 100.40001 65793
52.016766 4.9721909 100.40001 65793
52.208 4.9721909 100.40001 65793
52.242668 4.9573336 100.10001 65793
52.433334 4.9573336 100.10001 65793
52.466286 4.9424758 99.800003 65793
52.498096 4.927619 99.500008 65793
52.687622 4.927619 99.500008 65793
