# .PCD v0.7 - Point Cloud Data file format
VERSION 0.7
FIELDS x y z rgb
SIZE 4 4 4 4
TYPE F F F U
COUNT 1 1 1 1
WIDTH 1347
HEIGHT 1
VIEWPOINT 0 0 0 1 0 0 0
POINTS 1347
DATA ascii
48.242096 -15.528572 108.7 1773331
48.449142 -15.528572 108.7 1576456
48.656193 -15.528572 108.7 1708042
48.863239 -15.528572 108.7 2035742
49.205719 -15.571429 109 2035742
46.091431 -15.36381 109 524545
46.299049 -15.36381 109 458752
46.677338 -15.420193 109.40001 197120
46.714287 -15.36381 109 131328
46.921906 -15.36381 109 196868
47.129524 -15.36381 109 328454
47.337143 -15.36381 109 2693902
47.544762 -15.36381 109 2759695
47.620956 -15.321525 108.7 1576456
47.827999 -15.321525 108.7 1444870
48.035049 -15.321525 108.7 1575950
48.242096 -15.321525 108.7 1707536
48.449142 -15.321525 108.7 1444870
48.790474 -15.36381 109 1576456
48.9981 -15.36381 109 1969177
49.205719 -15.36381 109 2166556
46.091431 -15.15619 109 327936
46.299049 -15.15619 109 327936
46.677338 -15.21181 109.40001 131328
46.885719 -15.21181 109.40001 197120
47.094097 -15.21181 109.40001 328204
47.129524 -15.15619 109 459790
47.337143 -15.15619 109 1510913
47.544762 -15.15619 109 1576706
47.620956 -15.114476 108.7 984328
47.827999 -15.114476 108.7 984328
48.167618 -15.15619 109 1576456
48.242096 -15.114476 108.7 1576456
48.449142 -15.114476 108.7 1379073
48.790474 -15.15619 109 1444866
48.9981 -15.15619 109 1510157
49.205719 -15.15619 109 1510157
46.094288 -15.154285 110.5 1246737
46.304764 -15.154285 110.5 787204
46.178474 -15.044572 109.7 721411
46.260578 -15.003429 109.40001 393729
46.468956 -15.003429 109.40001 327936
46.677338 -15.003429 109.40001 196866
46.885719 -15.003429 109.40001 196866
47.094097 -15.003429 109.40001 393736
47.302483 -15.003429 109.40001 459529
47.337143 -14.948572 109 1050369
47.544762 -14.948572 109 852992
47.752384 -14.948572 109 590086
47.960003 -14.948572 109 721672
48.167618 -14.948572 109 1969681
48.375237 -14.948572 109 2035474
48.582859 -14.948572 109 1444870
48.790474 -14.948572 109 1444870
48.9981 -14.948572 109 1444364
49.386288 -15.003429 109.40001 1312778
46.008381 -14.984381 110.8 1312258
46.094288 -14.94381 110.5 1246465
46.304764 -14.94381 110.5 918785
46.178474 -14.835618 109.7 787200
46.387428 -14.835618 109.7 327936
46.468956 -14.795049 109.40001 262144
46.677338 -14.795049 109.40001 196866
46.885719 -14.795049 109.40001 196866
47.094097 -14.795049 109.40001 393986
47.302483 -14.795049 109.40001 393986
47.337143 -14.740952 109 656131
47.544762 -14.740952 109 656131
47.752384 -14.740952 109 655879
47.960003 -14.740952 109 721672
48.167618 -14.740952 109 2695168
48.375237 -14.740952 109 2760960
48.582859 -14.740952 109 1640716
48.790474 -14.740952 109 1574923
48.9981 -14.740952 109 1444364
49.205719 -14.740952 109 1246985
46.008381 -14.773335 110.8 787204
46.094288 -14.733333 110.5 787204
46.304764 -14.733333 110.5 721411
46.51524 -14.733333 110.5 721411
46.556576 -14.680001 110.10001 197120
46.596382 -14.626667 109.7 131328
46.805332 -14.626667 109.7 262661
47.014282 -14.626667 109.7 328454
47.223236 -14.626667 109.7 262913
47.302483 -14.586668 109.40001 262913
47.51086 -14.586668 109.40001 393728
47.719238 -14.586668 109.40001 393728
47.752384 -14.533334 109 590086
47.960003 -14.533334 109 787465
48.167618 -14.533334 109 3154471
48.375237 -14.533334 109 3022885
48.761143 -14.586668 109.40001 1312008
48.790474 -14.533334 109 1246215
48.9981 -14.533334 109 1312778
49.205719 -14.533334 109 1246985
45.375237 -14.562286 110.8 1246208
45.586285 -14.562286 110.8 786945
45.797333 -14.562286 110.8 721152
46.008381 -14.562286 110.8 656129
46.094288 -14.522858 110.5 656129
46.304764 -14.522858 110.5 721664
46.51524 -14.522858 110.5 655872
46.556576 -14.470285 110.10001 131328
46.596382 -14.417714 109.7 197120
46.805332 -14.417714 109.7 393986
47.014282 -14.417714 109.7 459779
47.223236 -14.417714 109.7 590338
47.43219 -14.417714 109.7 458752
47.641144 -14.417714 109.7 327936
47.719238 -14.378287 109.40001 393728
47.927624 -14.378287 109.40001 590086
48.136002 -14.378287 109.40001 655879
48.344387 -14.378287 109.40001 3022876
48.552765 -14.378287 109.40001 2957083
48.761143 -14.378287 109.40001 1114892
44.831429 -14.312381 110.5 1706509
45.041904 -14.312381 110.5 1575173
45.25238 -14.312381 110.5 1377794
45.46286 -14.312381 110.5 393729
45.673336 -14.312381 110.5 459522
46.008381 -14.351238 110.8 590336
46.219429 -14.351238 110.8 590336
46.430477 -14.351238 110.8 393986
46.641525 -14.351238 110.8 393986
46.725716 -14.312381 110.5 196866
46.936192 -14.312381 110.5 196866
47.146667 -14.312381 110.5 590086
47.185719 -14.260572 110.10001 721672
47.395432 -14.260572 110.10001 721408
47.605145 -14.260572 110.10001 589824
47.814861 -14.260572 110.10001 327936
47.850094 -14.208762 109.7 393729
47.927624 -14.169906 109.40001 655879
48.136002 -14.169906 109.40001 853258
44.831429 -14.101905 110.5 1838095
45.041904 -14.101905 110.5 1706759
45.25238 -14.101905 110.5 1443587
45.46286 -14.101905 110.5 984067
45.673336 -14.101905 110.5 852481
45.883808 -14.101905 110.5 393729
46.219429 -14.14019 110.8 327936
46.430477 -14.14019 110.8 262913
46.641525 -14.14019 110.8 197120
46.725716 -14.101905 110.5 196866
46.936192 -14.101905 110.5 196866
47.146667 -14.101905 110.5 393729
47.357143 -14.101905 110.5 393729
47.395432 -14.050858 110.10001 327936
47.605145 -14.050858 110.10001 327936
47.814861 -14.050858 110.10001 196866
47.850094 -13.999809 109.7 262659
47.927624 -13.961524 109.40001 721674
48.136002 -13.961524 109.40001 721674
44.531052 -13.929144 110.8 1838095
44.742096 -13.929144 110.8 1838095
44.831429 -13.891429 110.5 1903888
45.041904 -13.891429 110.5 1706509
45.25238 -13.891429 110.5 1706509
45.46286 -13.891429 110.5 1050119
45.673336 -13.891429 110.5 852740
45.883808 -13.891429 110.5 393728
46.219429 -13.929144 110.8 327936
46.430477 -13.929144 110.8 262913
46.641525 -13.929144 110.8 262913
46.852573 -13.929144 110.8 196866
46.936192 -13.891429 110.5 196866
47.146667 -13.891429 110.5 327936
47.357143 -13.891429 110.5 327936
47.567619 -13.891429 110.5 131073
47.778095 -13.891429 110.5 196866
47.814861 -13.841145 110.10001 196866
48.024574 -13.841145 110.10001 328452
48.234287 -13.841145 110.10001 655879
44.480003 -13.767619 111.20001 2232333
44.531052 -13.718096 110.8 2034954
44.742096 -13.718096 110.8 1838095
44.953144 -13.718096 110.8 1772302
45.041904 -13.680953 110.5 1772552
45.25238 -13.680953 110.5 1575173
45.46286 -13.680953 110.5 1050369
45.673336 -13.680953 110.5 852992
45.883808 -13.680953 110.5 197120
46.219429 -13.718096 110.8 197120
46.430477 -13.718096 110.8 394240
46.641525 -13.718096 110.8 394240
46.852573 -13.718096 110.8 393986
46.936192 -13.680953 110.5 393986
47.146667 -13.680953 110.5 393728
47.357143 -13.680953 110.5 327936
47.567619 -13.680953 110.5 327936
47.778095 -13.680953 110.5 327936
47.988571 -13.680953 110.5 328704
48.199047 -13.680953 110.5 328704
44.54686 -13.641145 111.90001 2560546
44.480003 -13.555811 111.20001 2624781
44.531052 -13.507048 110.8 2558988
44.742096 -13.507048 110.8 1838095
44.953144 -13.507048 110.8 1838095
45.164192 -13.507048 110.8 1706509
45.25238 -13.470477 110.5 1706509
45.46286 -13.470477 110.5 723203
45.797333 -13.507048 110.8 657410
46.008381 -13.507048 110.8 262912
46.219429 -13.507048 110.8 197120
46.430477 -13.507048 110.8 263172
46.641525 -13.507048 110.8 328965
46.852573 -13.507048 110.8 787204
47.063622 -13.507048 110.8 787204
47.27467 -13.507048 110.8 524545
47.485714 -13.507048 110.8 458752
47.696762 -13.507048 110.8 327936
47.90781 -13.507048 110.8 327936
48.118858 -13.507048 110.8 196866
44.387619 -13.38 111.5 2428960
44.480003 -13.344002 111.20001 2624779
44.531052 -13.296 110.8 2558986
44.742096 -13.296 110.8 2493193
44.953144 -13.296 110.8 2295814
45.164192 -13.296 110.8 1706759
45.375237 -13.296 110.8 1640966
45.586285 -13.296 110.8 1116162
45.797333 -13.296 110.8 918784
46.008381 -13.296 110.8 196866
46.219429 -13.296 110.8 196866
46.430477 -13.296 110.8 394240
46.641525 -13.296 110.8 394240
46.852573 -13.296 110.8 787204
47.063622 -13.296 110.8 721411
47.27467 -13.296 110.8 524545
47.485714 -13.296 110.8 458752
47.696762 -13.296 110.8 196866
47.90781 -13.296 110.8 196866
48.118858 -13.296 110.8 196866
43.967621 -13.297525 112.60001 1311232
44.182098 -13.297525 112.60001 1904917
44.175236 -13.167618 111.5 1969947
44.268192 -13.132193 111.20001 1969947
44.480003 -13.132193 111.20001 2624531
44.531052 -13.084952 110.8 2558738
44.742096 -13.084952 110.8 1838095
44.953144 -13.084952 110.8 1772302
45.164192 -13.084952 110.8 1640716
45.25238 -13.049523 110.5 1574923
45.46286 -13.049523 110.5 1116162
45.673336 -13.049523 110.5 1050369
45.883808 -13.049523 110.5 393986
46.094288 -13.049523 110.5 262400
46.430477 -13.084952 110.8 328706
46.641525 -13.084952 110.8 394499
46.852573 -13.084952 110.8 525574
47.063622 -13.084952 110.8 657160
47.27467 -13.084952 110.8 524545
47.485714 -13.084952 110.8 458752
47.696762 -13.084952 110.8 327936
47.90781 -13.084952 110.8 327936
43.850479 -13.04819 112.3 1181196
44.064381 -13.04819 112.3 2100997
44.120575 -13.001715 111.90001 2100997
44.175236 -12.955238 111.5 2166292
44.268192 -12.920382 111.20001 2100499
44.480003 -12.920382 111.20001 2427152
44.531052 -12.873906 110.8 2492945
44.742096 -12.873906 110.8 1838345
44.953144 -12.873906 110.8 1706759
45.164192 -12.873906 110.8 1575173
45.25238 -12.839047 110.5 1377794
45.46286 -12.839047 110.5 1116162
45.673336 -12.839047 110.5 984576
45.883808 -12.839047 110.5 328706
46.094288 -12.839047 110.5 197120
46.304764 -12.839047 110.5 262913
46.51524 -12.839047 110.5 394499
46.852573 -12.873906 110.8 918533
47.063622 -12.873906 110.8 918533
47.27467 -12.873906 110.8 590086
47.485714 -12.873906 110.8 524293
43.694286 -12.788573 111.90001 1246726
43.907433 -12.788573 111.90001 1510663
44.120575 -12.788573 111.90001 1839628
44.175236 -12.742858 111.5 2166540
44.387619 -12.742858 111.5 2166540
44.600002 -12.742858 111.5 1838095
44.531052 -12.662858 110.8 1838095
44.742096 -12.662858 110.8 1706759
44.953144 -12.662858 110.8 1443587
45.164192 -12.662858 110.8 1443587
45.25238 -12.628572 110.5 1377794
45.46286 -12.628572 110.5 984578
45.673336 -12.628572 110.5 984578
45.883808 -12.628572 110.5 393986
46.094288 -12.628572 110.5 196608
46.304764 -12.628572 110.5 196866
46.51524 -12.628572 110.5 328452
46.852573 -12.662858 110.8 1180672
47.063622 -12.662858 110.8 1180672
47.27467 -12.662858 110.8 590338
47.485714 -12.662858 110.8 590338
43.694286 -12.57543 111.90001 1312771
43.907433 -12.57543 111.90001 1772552
44.120575 -12.57543 111.90001 1969931
44.175236 -12.530478 111.5 2166540
44.387619 -12.530478 111.5 2166540
44.600002 -12.530478 111.5 2166540
44.691814 -12.496763 111.20001 2034954
44.742096 -12.45181 110.8 1575173
44.953144 -12.45181 110.8 1443587
45.164192 -12.45181 110.8 1116162
45.375237 -12.45181 110.8 1050369
45.46286 -12.418095 110.5 984576
45.673336 -12.418095 110.5 852992
45.883808 -12.418095 110.5 394240
46.094288 -12.418095 110.5 262656
46.304764 -12.418095 110.5 196868
46.51524 -12.418095 110.5 394247
46.725716 -12.418095 110.5 1312512
46.936192 -12.418095 110.5 1575684
47.27467 -12.45181 110.8 1246465
47.485714 -12.45181 110.8 983296
43.325718 -12.318095 111.5 984067
43.538094 -12.318095 111.5 1115653
43.907433 -12.362288 111.90001 1312778
44.120575 -12.362288 111.90001 1510157
44.175236 -12.318095 111.5 1772552
44.387619 -12.318095 111.5 1838345
44.600002 -12.318095 111.5 1772302
44.691814 -12.284954 111.20001 1772302
44.903622 -12.284954 111.20001 1575173
44.953144 -12.240762 110.8 1377794
45.164192 -12.240762 110.8 1050369
45.375237 -12.240762 110.8 984576
45.586285 -12.240762 110.8 787456
45.673336 -12.20762 110.5 721664
45.883808 -12.20762 110.5 328704
46.094288 -12.20762 110.5 197120
46.304764 -12.20762 110.5 524545
46.51524 -12.20762 110.5 590338
46.725716 -12.20762 110.5 1180672
46.936192 -12.20762 110.5 1904395
47.27467 -12.240762 110.8 1706005
47.485714 -12.240762 110.8 1311247
49.117332 -12.605333 114.10001 656131
49.507622 -12.649525 114.50001 524545
49.725719 -12.649525 114.50001 196866
49.943813 -12.649525 114.50001 196866
43.325718 -12.105715 111.5 721664
43.538094 -12.105715 111.5 853249
43.907433 -12.149144 111.90001 1312258
44.120575 -12.149144 111.90001 1378051
44.175236 -12.105715 111.5 1575173
44.387619 -12.105715 111.5 1575173
44.600002 -12.105715 111.5 1706759
44.691814 -12.073144 111.20001 1443587
44.903622 -12.073144 111.20001 1312258
44.953144 -12.029715 110.8 1246465
45.164192 -12.029715 110.8 1246720
45.375237 -12.029715 110.8 1115136
45.46286 -11.997143 110.5 656384
45.673336 -11.997143 110.5 524800
45.883808 -11.997143 110.5 393728
46.094288 -11.997143 110.5 327936
46.304764 -11.997143 110.5 393728
46.51524 -11.997143 110.5 393728
46.725716 -11.997143 110.5 918272
46.936192 -11.997143 110.5 1181444
47.27467 -12.029715 110.8 1771548
47.485714 -12.029715 110.8 1245204
49.117332 -12.388 114.10001 655879
49.334671 -12.388 114.10001 590086
49.552002 -12.388 114.10001 196866
49.943813 -12.43143 114.50001 262659
50.161911 -12.43143 114.50001 196866
50.380005 -12.43143 114.50001 262659
50.598099 -12.43143 114.50001 328706
43.481144 -11.936001 111.90001 590336
43.694286 -11.936001 111.90001 721922
43.907433 -11.936001 111.90001 984065
44.120575 -11.936001 111.90001 1049858
44.175236 -11.893333 111.5 1246465
44.387619 -11.893333 111.5 1246465
44.600002 -11.893333 111.5 1312258
44.691814 -11.861335 111.20001 1180672
44.903622 -11.861335 111.20001 1115392
44.953144 -11.818667 110.8 1049600
45.164192 -11.818667 110.8 918272
45.375237 -11.818667 110.8 918272
45.46286 -11.786667 110.5 590336
45.673336 -11.786667 110.5 458752
45.883808 -11.786667 110.5 327936
46.219429 -11.818667 110.8 327936
46.304764 -11.786667 110.5 327936
46.51524 -11.786667 110.5 327936
46.725716 -11.786667 110.5 327936
46.936192 -11.786667 110.5 525315
47.27467 -11.818667 110.8 1181201
47.485714 -11.818667 110.8 918029
49.289528 -12.213334 114.50001 393986
49.334671 -12.170668 114.10001 393986
49.552002 -12.170668 114.10001 197120
49.943813 -12.213334 114.50001 197120
50.161911 -12.213334 114.50001 196866
50.380005 -12.213334 114.50001 196866
50.598099 -12.213334 114.50001 262913
50.993717 -12.256001 114.9 328706
43.481144 -11.722858 111.90001 590336
43.694286 -11.722858 111.90001 590336
43.907433 -11.722858 111.90001 984065
44.120575 -11.722858 111.90001 984065
44.175236 -11.680952 111.5 1180672
44.387619 -11.680952 111.5 1180672
44.600002 -11.680952 111.5 1180672
44.691814 -11.649525 111.20001 1114880
44.903622 -11.649525 111.20001 786945
44.953144 -11.607619 110.8 786945
45.164192 -11.607619 110.8 590336
45.375237 -11.607619 110.8 590336
45.586285 -11.607619 110.8 393728
45.797333 -11.607619 110.8 262144
46.008381 -11.607619 110.8 196866
46.094288 -11.576191 110.5 131073
46.304764 -11.576191 110.5 131073
46.51524 -11.576191 110.5 131073
46.725716 -11.576191 110.5 196866
46.936192 -11.576191 110.5 196866
47.146667 -11.576191 110.5 393986
49.242859 -12.037143 114.9 459779
49.289528 -11.995239 114.50001 393986
49.334671 -11.953334 114.10001 393986
49.552002 -11.953334 114.10001 197120
49.769333 -11.953334 114.10001 197120
50.161911 -11.995239 114.50001 196866
50.204002 -11.953334 114.10001 196866
50.421333 -11.953334 114.10001 196866
50.638664 -11.953334 114.10001 328452
50.855999 -11.953334 114.10001 393986
43.481144 -11.509714 111.90001 590336
43.694286 -11.509714 111.90001 721922
43.907433 -11.509714 111.90001 918272
44.120575 -11.509714 111.90001 918272
44.175236 -11.468572 111.5 721664
44.387619 -11.468572 111.5 721664
44.600002 -11.468572 111.5 721411
44.691814 -11.437715 111.20001 721411
44.903622 -11.437715 111.20001 721154
45.115433 -11.437715 111.20001 721154
45.164192 -11.396571 110.8 393728
45.375237 -11.396571 110.8 393728
45.586285 -11.396571 110.8 131328
45.797333 -11.396571 110.8 131328
46.008381 -11.396571 110.8 131073
46.094288 -11.365715 110.5 131073
46.304764 -11.365715 110.5 131073
46.51524 -11.365715 110.5 131073
46.725716 -11.365715 110.5 196866
46.936192 -11.365715 110.5 196866
47.146667 -11.365715 110.5 196866
49.242859 -11.818286 114.9 328452
49.117332 -11.736 114.10001 656131
49.334671 -11.736 114.10001 590338
49.552002 -11.736 114.10001 197120
49.769333 -11.736 114.10001 197120
49.986664 -11.736 114.10001 196866
50.071995 -11.705143 113.8 196866
50.288761 -11.705143 113.8 328706
50.50552 -11.705143 113.8 328706
50.722282 -11.705143 113.8 393986
43.481144 -11.296572 111.90001 590336
43.694286 -11.296572 111.90001 656129
43.907433 -11.296572 111.90001 787200
43.962856 -11.25619 111.5 721408
44.175236 -11.25619 111.5 590336
44.54686 -11.296572 111.90001 590336
44.760002 -11.296572 111.90001 590338
44.812382 -11.25619 111.5 590338
44.903622 -11.225905 111.20001 590336
45.115433 -11.225905 111.20001 524544
45.164192 -11.185524 110.8 393728
45.375237 -11.185524 110.8 327936
45.586285 -11.185524 110.8 131073
45.797333 -11.185524 110.8 131073
46.008381 -11.185524 110.8 197120
46.219429 -11.185524 110.8 197120
46.430477 -11.185524 110.8 196866
46.51524 -11.155239 110.5 196866
46.725716 -11.155239 110.5 196866
47.063622 -11.185524 110.8 131073
48.384007 -11.448001 113.40001 196866
48.771427 -11.488381 113.8 262659
48.988186 -11.488381 113.8 656384
49.334671 -11.518667 114.10001 656384
49.552002 -11.518667 114.10001 394240
49.769333 -11.518667 114.10001 394240
49.986664 -11.518667 114.10001 196866
50.071995 -11.488381 113.8 196866
50.112003 -11.448001 113.40001 131847
50.328003 -11.448001 113.40001 263433
50.722282 -11.488381 113.8 459529
43.481144 -11.083429 111.90001 787200
43.694286 -11.083429 111.90001 721408
43.750477 -11.043809 111.5 393728
43.962856 -11.043809 111.5 393728
44.175236 -11.043809 111.5 393729
44.54686 -11.083429 111.90001 393729
44.760002 -11.083429 111.90001 196866
44.812382 -11.043809 111.5 196866
45.024761 -11.043809 111.5 393729
45.115433 -11.014096 111.20001 393729
45.32724 -11.014096 111.20001 197120
45.375237 -10.974477 110.8 197120
45.586285 -10.974477 110.8 131073
45.797333 -10.974477 110.8 131073
46.008381 -10.974477 110.8 131073
46.219429 -10.974477 110.8 196866
46.430477 -10.974477 110.8 196866
46.641525 -10.974477 110.8 196866
46.852573 -10.974477 110.8 196866
47.233528 -11.014096 111.20001 131073
48.384007 -11.232 113.40001 196866
48.771427 -11.271619 113.8 196866
48.988186 -11.271619 113.8 328704
49.334671 -11.301333 114.10001 394497
49.552002 -11.301333 114.10001 394240
49.769333 -11.301333 114.10001 394240
49.986664 -11.301333 114.10001 393986
50.071995 -11.271619 113.8 393986
50.112003 -11.232 113.40001 459529
50.328003 -11.232 113.40001 459529
43.481144 -10.870286 111.90001 393728
43.694286 -10.870286 111.90001 393728
43.750477 -10.831429 111.5 393728
43.962856 -10.831429 111.5 327936
44.333717 -10.870286 111.90001 393729
44.54686 -10.870286 111.90001 393729
44.600002 -10.831429 111.5 393729
44.691814 -10.802287 111.20001 327936
44.903622 -10.802287 111.20001 196866
45.115433 -10.802287 111.20001 196866
45.32724 -10.802287 111.20001 131073
45.375237 -10.763429 110.8 131073
45.586285 -10.763429 110.8 131073
45.797333 -10.763429 110.8 131073
46.008381 -10.763429 110.8 131073
46.219429 -10.763429 110.8 131073
46.430477 -10.763429 110.8 196866
46.80991 -10.802287 111.20001 196866
47.021721 -10.802287 111.20001 196866
48.168003 -11.016001 113.40001 196866
48.384007 -11.016001 113.40001 196866
48.771427 -11.054857 113.8 196866
48.988186 -11.054857 113.8 196866
49.334671 -11.084 114.10001 328452
49.552002 -11.084 114.10001 460033
49.769333 -11.084 114.10001 525826
49.986664 -11.084 114.10001 459779
50.204002 -11.084 114.10001 393986
50.112003 -11.016001 113.40001 459529
50.328003 -11.016001 113.40001 459529
43.481144 -10.657144 111.90001 393729
43.694286 -10.657144 111.90001 393729
43.907433 -10.657144 111.90001 393729
44.120575 -10.657144 111.90001 327936
44.333717 -10.657144 111.90001 196866
44.54686 -10.657144 111.90001 262659
44.600002 -10.619047 111.5 393729
44.691814 -10.590477 111.20001 393729
44.903622 -10.590477 111.20001 197120
45.115433 -10.590477 111.20001 197120
45.32724 -10.590477 111.20001 131073
45.539051 -10.590477 111.20001 131073
45.750858 -10.590477 111.20001 131073
45.962669 -10.590477 111.20001 131073
46.17448 -10.590477 111.20001 131073
46.386292 -10.590477 111.20001 131073
46.598099 -10.590477 111.20001 327936
46.80991 -10.590477 111.20001 327936
47.148571 -10.619047 111.5 196866
48.635242 -10.904762 114.50001 196866
48.682671 -10.866668 114.10001 196866
48.899998 -10.866668 114.10001 131073
49.117332 -10.866668 114.10001 196866
49.334671 -10.866668 114.10001 196866
49.725719 -10.904762 114.50001 393986
49.943813 -10.904762 114.50001 459779
50.161911 -10.904762 114.50001 459779
50.380005 -10.904762 114.50001 459779
50.598099 -10.904762 114.50001 525322
50.816196 -10.904762 114.50001 525322
44.280003 -10.584001 113.40001 327936
43.907433 -10.444001 111.90001 196866
44.120575 -10.444001 111.90001 196866
44.492191 -10.481333 112.3 196866
44.706093 -10.481333 112.3 196866
44.760002 -10.444001 111.90001 327936
44.812382 -10.406667 111.5 327936
45.024761 -10.406667 111.5 197120
45.237141 -10.406667 111.5 197120
45.449524 -10.406667 111.5 196866
45.661907 -10.406667 111.5 131073
45.874287 -10.406667 111.5 131073
46.086666 -10.406667 111.5 131073
46.299049 -10.406667 111.5 197120
46.511425 -10.406667 111.5 197120
46.723808 -10.406667 111.5 196866
46.936192 -10.406667 111.5 196866
48.586288 -10.724001 114.9 196866
48.635242 -10.686667 114.50001 196866
48.853336 -10.686667 114.50001 196866
49.071434 -10.686667 114.50001 131073
49.289528 -10.686667 114.50001 131586
49.507622 -10.686667 114.50001 131586
49.725719 -10.686667 114.50001 262913
49.943813 -10.686667 114.50001 328706
50.161911 -10.686667 114.50001 459779
50.380005 -10.686667 114.50001 459779
50.598099 -10.686667 114.50001 1049869
43.200005 -10.368001 113.40001 721408
43.416 -10.368001 113.40001 655616
43.632 -10.368001 113.40001 393729
43.848003 -10.368001 113.40001 393729
44.064003 -10.368001 113.40001 197120
44.436192 -10.404572 113.8 197120
44.496002 -10.368001 113.40001 196866
44.554287 -10.331429 113 196866
44.61105 -10.294858 112.60001 196866
44.825527 -10.294858 112.60001 262659
44.920002 -10.267428 112.3 393729
44.812382 -10.194286 111.5 327936
45.024761 -10.194286 111.5 196866
45.237141 -10.194286 111.5 196866
45.449524 -10.194286 111.5 131073
45.661907 -10.194286 111.5 131073
45.874287 -10.194286 111.5 131073
46.086666 -10.194286 111.5 131073
46.299049 -10.194286 111.5 131073
46.678291 -10.230858 111.90001 196866
48.986664 -10.688 116.9 196866
49.209332 -10.688 116.9 196866
48.586288 -10.505143 114.9 196866
48.805149 -10.505143 114.9 196866
48.853336 -10.468573 114.50001 131073
49.071434 -10.468573 114.50001 131073
49.289528 -10.468573 114.50001 131586
49.507622 -10.468573 114.50001 131586
49.899433 -10.505143 114.9 131586
49.943813 -10.468573 114.50001 263172
50.161911 -10.468573 114.50001 393986
50.380005 -10.468573 114.50001 459779
50.598099 -10.468573 114.50001 1049869
50.816196 -10.468573 114.50001 1115662
50.760002 -10.368001 113.40001 918272
50.976002 -10.368001 113.40001 460033
51.192005 -10.368001 113.40001 394240
42.26857 -10.187809 113.8 1376256
42.485332 -10.187809 113.8 1245972
42.702095 -10.187809 113.8 1048593
42.918858 -10.187809 113.8 787200
42.984001 -10.152001 113.40001 721408
43.200005 -10.152001 113.40001 721408
43.416 -10.152001 113.40001 655616
43.632 -10.152001 113.40001 393729
43.848003 -10.152001 113.40001 327936
44.064003 -10.152001 113.40001 197120
44.436192 -10.187809 113.8 197120
44.496002 -10.152001 113.40001 196866
44.712002 -10.152001 113.40001 196866
44.928001 -10.152001 113.40001 196866
44.825527 -10.08038 112.60001 196866
44.920002 -10.053524 112.3 196866
44.812382 -9.981904 111.5 196866
45.024761 -9.981904 111.5 196866
45.399429 -10.017715 111.90001 131073
45.612572 -10.017715 111.90001 131073
45.825718 -10.017715 111.90001 131073
46.038857 -10.017715 111.90001 65793
46.417336 -10.053524 112.3 65793
48.37524 -10.429524 116.50001 196866
48.597149 -10.429524 116.50001 196866
48.986664 -10.465334 116.9 196866
49.040958 -10.429524 116.50001 196866
49.093716 -10.393714 116.1 197120
48.975044 -10.322095 115.3 131328
49.024002 -10.286285 114.9 131328
49.242859 -10.286285 114.9 197120
49.289528 -10.250478 114.50001 196866
49.507622 -10.250478 114.50001 196866
49.899433 -10.286285 114.9 196866
50.118286 -10.286285 114.9 196866
50.161911 -10.250478 114.50001 393986
50.380005 -10.250478 114.50001 393986
50.598099 -10.250478 114.50001 787204
50.816196 -10.250478 114.50001 852997
51.03429 -10.250478 114.50001 787204
50.760002 -10.152001 113.40001 721411
50.796188 -10.116191 113 590338
51.011425 -10.116191 113 590338
42.26857 -9.9710474 113.8 1442048
42.485332 -9.9710474 113.8 1114892
42.702095 -9.9710474 113.8 1049099
42.768002 -9.9360008 113.40001 787200
42.984001 -9.9360008 113.40001 721408
43.200005 -9.9360008 113.40001 721408
43.416 -9.9360008 113.40001 655616
43.632 -9.9360008 113.40001 327936
43.848003 -9.9360008 113.40001 327936
44.064003 -9.9360008 113.40001 197120
44.436192 -9.9710474 113.8 197120
44.652954 -9.9710474 113.8 197120
44.869717 -9.9710474 113.8 197120
45.086475 -9.9710474 113.8 196866
45.144001 -9.9360008 113.40001 196866
45.360001 -9.9360008 113.40001 196866
45.133904 -9.8396187 112.3 196866
45.347809 -9.8396187 112.3 196866
45.561714 -9.8396187 112.3 196866
45.77562 -9.8396187 112.3 65793
45.989525 -9.8396187 112.3 65793
46.326859 -9.8659048 112.60001 131073
46.706665 -9.9009523 113 131073
47.544765 -10.032382 114.50001 131073
48.597149 -10.20762 116.50001 196866
48.81905 -10.20762 116.50001 196866
49.040958 -10.20762 116.50001 196866
49.093716 -10.172572 116.1 196866
49.144955 -10.137525 115.7 131073
49.024002 -10.06743 114.9 131328
49.242859 -10.06743 114.9 197120
49.461716 -10.06743 114.9 196866
49.680569 -10.06743 114.9 196866
49.899433 -10.06743 114.9 196866
50.118286 -10.06743 114.9 196866
50.161911 -10.032382 114.50001 262913
50.380005 -10.032382 114.50001 262913
50.598099 -10.032382 114.50001 328706
50.816196 -10.032382 114.50001 394499
50.722282 -9.9710474 113.8 459779
50.760002 -9.9360008 113.40001 459779
50.796188 -9.9009523 113 394240
51.011425 -9.9009523 113 262656
42.26857 -9.7542849 113.8 1573633
42.485332 -9.7542849 113.8 984065
42.552002 -9.7200003 113.40001 918272
42.768002 -9.7200003 113.40001 787200
42.984001 -9.7200003 113.40001 721408
43.200005 -9.7200003 113.40001 393728
43.416 -9.7200003 113.40001 393728
43.632 -9.7200003 113.40001 393728
44.002666 -9.7542849 113.8 327936
44.219429 -9.7542849 113.8 197120
44.436192 -9.7542849 113.8 197120
44.652954 -9.7542849 113.8 393728
44.869717 -9.7542849 113.8 327936
45.522289 -9.8485718 114.9 196866
45.741142 -9.8485718 114.9 262659
45.959999 -9.8485718 114.9 393729
45.254478 -9.6514292 112.60001 327936
45.468952 -9.6514292 112.60001 197120
45.683434 -9.6514292 112.60001 131328
45.897903 -9.6514292 112.60001 131073
46.440002 -9.7200003 113.40001 131073
46.820572 -9.7542849 113.8 131073
47.037334 -9.7542849 113.8 131073
47.544765 -9.8142872 114.50001 131073
48.597149 -9.985714 116.50001 131073
48.81905 -9.985714 116.50001 131073
49.040958 -9.985714 116.50001 131073
49.093716 -9.9514284 116.1 131073
49.144955 -9.9171429 115.7 131073
49.194668 -9.8828573 115.3 131073
49.242859 -9.8485718 114.9 196866
49.461716 -9.8485718 114.9 196866
49.680569 -9.8485718 114.9 196866
49.899433 -9.8485718 114.9 196866
50.118286 -9.8485718 114.9 196866
50.337147 -9.8485718 114.9 262913
50.556 -9.8485718 114.9 328706
50.77486 -9.8485718 114.9 393986
50.993717 -9.8485718 114.9 393986
50.722282 -9.7542849 113.8 459779
50.760002 -9.7200003 113.40001 525572
50.796188 -9.6857138 113 262913
51.011425 -9.6857138 113 262913
42.552002 -9.5040007 113.40001 918272
42.768002 -9.5040007 113.40001 787200
42.984001 -9.5040007 113.40001 721408
43.200005 -9.5040007 113.40001 393728
43.416 -9.5040007 113.40001 327936
43.632 -9.5040007 113.40001 327936
43.848003 -9.5040007 113.40001 327936
44.064003 -9.5040007 113.40001 393728
44.436192 -9.5375233 113.8 393728
44.652954 -9.5375233 113.8 393729
44.869717 -9.5375233 113.8 327936
45.680763 -9.6632376 115.3 524545
45.900379 -9.6632376 115.3 524545
46.119999 -9.6632376 115.3 327936
46.17886 -9.629715 114.9 327936
45.468952 -9.4369526 112.60001 197120
45.683434 -9.4369526 112.60001 197120
45.897903 -9.4369526 112.60001 131328
46.603809 -9.5375233 113.8 131328
46.944 -9.5626669 114.10001 65793
47.161331 -9.5626669 114.10001 65793
48.37524 -9.7638102 116.50001 131073
48.597149 -9.7638102 116.50001 131073
48.986664 -9.7973328 116.9 196866
49.040958 -9.7638102 116.50001 131073
49.093716 -9.7302856 116.1 131073
49.314861 -9.7302856 116.1 131073
49.194668 -9.6632376 115.3 131073
49.242859 -9.629715 114.9 196866
49.461716 -9.629715 114.9 196866
49.680569 -9.629715 114.9 196866
49.899433 -9.629715 114.9 196866
50.118286 -9.629715 114.9 262659
50.337147 -9.629715 114.9 262913
50.556 -9.629715 114.9 328706
50.77486 -9.629715 114.9 328706
50.638664 -9.5626669 114.10001 328706
50.544006 -9.5040007 113.40001 721411
50.760002 -9.5040007 113.40001 721411
50.796188 -9.4704762 113 328704
50.83086 -9.4369526 112.60001 197120
51.045334 -9.4369526 112.60001 525072
43.416 -9.2880001 113.40001 327936
43.632 -9.2880001 113.40001 327936
43.848003 -9.2880001 113.40001 327936
44.064003 -9.2880001 113.40001 327936
44.436192 -9.3207617 113.8 327936
44.652954 -9.3207617 113.8 393729
44.869717 -9.3207617 113.8 459522
45.680763 -9.4436188 115.3 524545
46.059624 -9.4763813 115.7 590338
46.119999 -9.4436188 115.3 590338
46.018097 -9.3780956 114.50001 524545
45.953526 -9.3207617 113.8 262912
46.170284 -9.3207617 113.8 131328
46.509335 -9.3453331 114.10001 131328
46.89048 -9.3780956 114.50001 131328
47.108574 -9.3780956 114.50001 66048
47.326672 -9.3780956 114.50001 66048
48.209145 -9.5091429 116.1 197120
48.597149 -9.5419054 116.50001 197120
48.986664 -9.574667 116.9 196866
49.040958 -9.5419054 116.50001 196866
49.093716 -9.5091429 116.1 131073
49.314861 -9.5091429 116.1 131073
49.194668 -9.4436188 115.3 131073
49.414284 -9.4436188 115.3 196866
49.461716 -9.4108572 114.9 196866
49.680569 -9.4108572 114.9 262659
49.899433 -9.4108572 114.9 393728
50.118286 -9.4108572 114.9 327936
50.337147 -9.4108572 114.9 262912
50.380005 -9.3780956 114.50001 197120
50.598099 -9.3780956 114.50001 656131
50.638664 -9.3453331 114.10001 656131
50.544006 -9.2880001 113.40001 984578
50.760002 -9.2880001 113.40001 1050371
50.616383 -9.222477 112.60001 918785
50.83086 -9.222477 112.60001 787200
51.045334 -9.222477 112.60001 656154
43.416 -9.0720005 113.40001 327936
43.632 -9.0720005 113.40001 327936
43.848003 -9.0720005 113.40001 393728
44.064003 -9.0720005 113.40001 327936
44.280003 -9.0720005 113.40001 327936
44.496002 -9.0720005 113.40001 787200
44.712002 -9.0720005 113.40001 918785
45.680763 -9.224 115.3 984065
46.059624 -9.2560005 115.7 852480
45.959999 -9.1920004 114.9 656384
46.018097 -9.1600008 114.50001 590592
45.953526 -9.1040001 113.8 197120
46.170284 -9.1040001 113.8 197120
46.509335 -9.1280003 114.10001 131073
46.89048 -9.1600008 114.50001 131073
47.108574 -9.1600008 114.50001 131328
47.326672 -9.1600008 114.50001 131328
48.209145 -9.2880001 116.1 131073
48.597149 -9.3200006 116.50001 196866
48.986664 -9.3520002 116.9 196866
49.040958 -9.3200006 116.50001 196866
49.093716 -9.2880001 116.1 196866
49.144955 -9.2560005 115.7 196866
49.194668 -9.224 115.3 196866
49.414284 -9.224 115.3 196866
49.461716 -9.1920004 114.9 393729
49.680569 -9.1920004 114.9 393729
49.899433 -9.1920004 114.9 393729
50.118286 -9.1920004 114.9 393729
50.337147 -9.1920004 114.9 262912
50.380005 -9.1600008 114.50001 197120
50.598099 -9.1600008 114.50001 393986
50.638664 -9.1280003 114.10001 525572
50.722282 -9.1040001 113.8 1180935
50.760002 -9.0720005 113.40001 1444107
50.616383 -9.0080004 112.60001 1115392
50.695427 -8.9840002 112.3 983808
50.909336 -8.9840002 112.3 393997
43.416 -8.8560009 113.40001 393728
43.632 -8.8560009 113.40001 393728
43.848003 -8.8560009 113.40001 459520
44.064003 -8.8560009 113.40001 721154
44.280003 -8.8560009 113.40001 655361
44.496002 -8.8560009 113.40001 1312512
44.712002 -8.8560009 113.40001 1707270
45.741142 -8.9731436 114.9 1704192
45.959999 -8.9731436 114.9 1115392
45.576004 -8.8560009 113.40001 918016
45.792004 -8.8560009 113.40001 590336
46.007999 -8.8560009 113.40001 458752
46.387047 -8.8872385 113.8 131073
46.603809 -8.8872385 113.8 131073
46.944 -8.9106674 114.10001 131073
47.161331 -8.9106674 114.10001 131073
48.209145 -9.0668573 116.1 196866
48.597149 -9.0980959 116.50001 196866
48.986664 -9.1293335 116.9 197120
49.040958 -9.0980959 116.50001 197120
49.093716 -9.0668573 116.1 196866
49.144955 -9.0356197 115.7 196866
49.194668 -9.0043802 115.3 327936
49.414284 -9.0043802 115.3 327936
49.461716 -8.9731436 114.9 196866
49.680569 -8.9731436 114.9 196866
49.899433 -8.9731436 114.9 393729
50.292759 -9.0043802 115.3 327936
50.512379 -9.0043802 115.3 196866
50.556 -8.9731436 114.9 196866
50.77486 -8.9731436 114.9 721411
50.993717 -8.9731436 114.9 787204
50.722282 -8.8872385 113.8 1180935
50.939049 -8.8872385 113.8 1180935
50.616383 -8.7935238 112.60001 918274
50.695427 -8.7700949 112.3 852481
50.909336 -8.7700949 112.3 393493
43.416 -8.6400003 113.40001 393728
43.632 -8.6400003 113.40001 721408
43.848003 -8.6400003 113.40001 787200
44.064003 -8.6400003 113.40001 721154
44.280003 -8.6400003 113.40001 1247498
44.496002 -8.6400003 113.40001 2559039
45.200001 -8.6095238 113 1115392
45.415237 -8.6095238 113 983808
45.792004 -8.6400003 113.40001 590336
46.007999 -8.6400003 113.40001 524544
46.387047 -8.670476 113.8 196866
46.603809 -8.670476 113.8 131073
46.944 -8.6933327 114.10001 131073
47.161331 -8.6933327 114.10001 131073
48.209145 -8.8457146 116.1 131073
48.597149 -8.8761911 116.50001 196866
48.81905 -8.8761911 116.50001 196866
49.040958 -8.8761911 116.50001 196866
48.924572 -8.815239 115.7 590338
48.975044 -8.7847614 115.3 590338
49.024002 -8.7542858 114.9 393728
49.242859 -8.7542858 114.9 327936
49.461716 -8.7542858 114.9 196866
49.680569 -8.7542858 114.9 196866
49.899433 -8.7542858 114.9 197120
50.292759 -8.7847614 115.3 197120
50.512379 -8.7847614 115.3 393729
50.908005 -8.815239 115.7 459522
51.12838 -8.815239 115.7 656131
51.171238 -8.7847614 115.3 787717
51.390858 -8.7847614 115.3 787204
43.416 -8.4240007 113.40001 393728
43.632 -8.4240007 113.40001 918272
43.848003 -8.4240007 113.40001 918272
44.064003 -8.4240007 113.40001 590080
45.200001 -8.3942852 113 1115392
45.415237 -8.3942852 113 918016
45.792004 -8.4240007 113.40001 590336
46.007999 -8.4240007 113.40001 524544
46.387047 -8.4537144 113.8 131073
46.603809 -8.4537144 113.8 131073
46.944 -8.4759998 114.10001 131073
47.161331 -8.4759998 114.10001 131073
48.209145 -8.6245718 116.1 131073
48.597149 -8.6542864 116.50001 196866
48.81905 -8.6542864 116.50001 196866
48.87257 -8.6245718 116.1 262659
48.586288 -8.535428 114.9 393477
48.805149 -8.535428 114.9 393477
48.853336 -8.5057144 114.50001 393728
49.071434 -8.5057144 114.50001 327936
49.461716 -8.535428 114.9 197120
49.680569 -8.535428 114.9 197120
50.594288 -8.6542864 116.50001 197120
50.816189 -8.6542864 116.50001 197120
51.038097 -8.6542864 116.50001 327936
46.170284 -8.2369518 113.8 524545
46.387047 -8.2369518 113.8 131073
46.603809 -8.2369518 113.8 131073
46.944 -8.258667 114.10001 131073
47.161331 -8.258667 114.10001 131073
47.876953 -8.3455238 115.3 131073
48.597149 -8.4323816 116.50001 131073
47.980957 -8.2876186 114.50001 196866
48.199051 -8.2876186 114.50001 196866
48.586288 -8.3165722 114.9 393729
48.465336 -8.258667 114.10001 327936
48.682671 -8.258667 114.10001 197120
49.071434 -8.2876186 114.50001 197120
49.461716 -8.3165722 114.9 131073
49.680569 -8.3165722 114.9 196866
50.594288 -8.4323816 116.50001 196866
50.816189 -8.4323816 116.50001 196866
51.038097 -8.4323816 116.50001 196866
46.170284 -8.0201902 113.8 458752
46.387047 -8.0201902 113.8 131073
46.726669 -8.0413342 114.10001 131073
46.944 -8.0413342 114.10001 131073
47.161331 -8.0413342 114.10001 131073
47.710861 -8.0977144 114.9 131073
47.929718 -8.0977144 114.9 131073
47.813335 -8.0413342 114.10001 196866
48.03067 -8.0413342 114.10001 262659
48.247997 -8.0413342 114.10001 393728
48.465336 -8.0413342 114.10001 327936
48.682671 -8.0413342 114.10001 131328
49.071434 -8.0695248 114.50001 131328
49.461716 -8.0977144 114.9 131075
49.853523 -8.1259041 115.3 131075
50.42057 -8.1822853 116.1 131073
50.641708 -8.1822853 116.1 196866
51.038097 -8.2104769 116.50001 328706
46.170284 -7.8034291 113.8 197120
46.387047 -7.8034291 113.8 131073
46.603809 -7.8034291 113.8 131073
46.944 -7.8239999 114.10001 131073
47.161331 -7.8239999 114.10001 131073
47.710861 -7.8788576 114.9 131073
47.929718 -7.8788576 114.9 196866
47.813335 -7.8239999 114.10001 196868
47.904381 -7.8034291 113.8 196868
48.121143 -7.8034291 113.8 196866
48.337902 -7.8034291 113.8 196866
48.682671 -7.8239999 114.10001 131328
49.071434 -7.8514295 114.50001 131328
49.289528 -7.8514295 114.50001 131073
49.680569 -7.8788576 114.9 196866
50.246857 -7.9337144 115.7 196866
50.641708 -7.961143 116.1 196866
50.862854 -7.961143 116.1 590338
46.170284 -7.5866671 113.8 524544
46.387047 -7.5866671 113.8 196866
46.603809 -7.5866671 113.8 131073
46.820572 -7.5866671 113.8 131073
47.037334 -7.5866671 113.8 131073
47.254093 -7.5866671 113.8 131073
47.596001 -7.6066666 114.10001 196866
47.813335 -7.6066666 114.10001 327936
47.904381 -7.5866671 113.8 393729
48.121143 -7.5866671 113.8 196866
48.337902 -7.5866671 113.8 196866
48.682671 -7.6066666 114.10001 131073
49.071434 -7.6333342 114.50001 131073
49.289528 -7.6333342 114.50001 196866
49.680569 -7.6599998 114.9 196866
50.073139 -7.6866665 115.3 196866
50.467239 -7.7133336 115.7 196866
50.862854 -7.7400007 116.1 656129
45.576004 -7.3440008 113.40001 852480
45.792004 -7.3440008 113.40001 393728
46.170284 -7.369905 113.8 393728
46.387047 -7.369905 113.8 196866
46.603809 -7.369905 113.8 131073
46.820572 -7.369905 113.8 131328
47.037334 -7.369905 113.8 131328
47.544765 -7.4152389 114.50001 196866
47.762863 -7.4152389 114.50001 196866
47.980957 -7.4152389 114.50001 590338
47.904381 -7.369905 113.8 656131
48.121143 -7.369905 113.8 327936
48.337902 -7.369905 113.8 327936
48.682671 -7.3893337 114.10001 131328
49.071434 -7.4152389 114.50001 131328
49.289528 -7.4152389 114.50001 131073
49.680569 -7.441143 114.9 196866
50.073139 -7.4670472 115.3 196866
50.467239 -7.4929528 115.7 196866
50.862854 -7.518857 116.1 590336
45.360001 -7.1280003 113.40001 918272
45.576004 -7.1280003 113.40001 786688
45.792004 -7.1280003 113.40001 590336
46.170284 -7.1531429 113.8 524544
46.509335 -7.1719995 114.10001 131328
46.89048 -7.1971431 114.50001 131328
46.944 -7.1719995 114.10001 131328
47.161331 -7.1719995 114.10001 131328
47.544765 -7.1971431 114.50001 327936
47.762863 -7.1971431 114.50001 327936
47.813335 -7.1719995 114.10001 590338
48.03067 -7.1719995 114.10001 524545
48.247997 -7.1719995 114.10001 327936
48.465336 -7.1719995 114.10001 262144
48.853336 -7.1971431 114.50001 131328
49.071434 -7.1971431 114.50001 131328
49.461716 -7.2222857 114.9 131073
49.853523 -7.2474284 115.3 196866
50.246857 -7.272572 115.7 196866
50.641708 -7.2977142 116.1 262659
45.360001 -6.9120007 113.40001 590336
45.576004 -6.9120007 113.40001 524544
45.792004 -6.9120007 113.40001 393729
46.170284 -6.9363809 113.8 327936
46.387047 -6.9363809 113.8 131328
46.726669 -6.9546671 114.10001 131328
46.944 -6.9546671 114.10001 131328
47.161331 -6.9546671 114.10001 131328
47.37867 -6.9546671 114.10001 196866
47.596001 -6.9546671 114.10001 196866
47.813335 -6.9546671 114.10001 393729
48.03067 -6.9546671 114.10001 327936
48.417145 -6.9790483 114.50001 131328
48.635242 -6.9790483 114.50001 131328
48.853336 -6.9790483 114.50001 131328
49.242859 -7.0034289 114.9 131328
49.633904 -7.0278091 115.3 131073
49.853523 -7.0278091 115.3 196866
50.073139 -7.0278091 115.3 197120
50.816189 -7.1009531 116.50001 197120
44.825527 -6.6487627 112.60001 918272
45.040001 -6.6487627 112.60001 590336
45.576004 -6.6960006 113.40001 524544
45.792004 -6.6960006 113.40001 393728
46.170284 -6.7196188 113.8 327936
46.387047 -6.7196188 113.8 131328
46.726669 -6.7373333 114.10001 131328
46.944 -6.7373333 114.10001 131328
47.161331 -6.7373333 114.10001 131328
47.37867 -6.7373333 114.10001 197120
47.596001 -6.7373333 114.10001 197120
47.813335 -6.7373333 114.10001 197120
48.975044 -6.8081899 115.3 131328
49.194668 -6.8081899 115.3 131073
49.414284 -6.8081899 115.3 131073
49.633904 -6.8081899 115.3 131073
49.853523 -6.8081899 115.3 196866
50.073139 -6.8081899 115.3 131328
44.825527 -6.4342866 112.60001 524544
45.040001 -6.4342866 112.60001 393728
45.576004 -6.48 113.40001 327936
45.792004 -6.48 113.40001 131073
46.170284 -6.5028572 113.8 131073
46.387047 -6.5028572 113.8 131073
46.726669 -6.52 114.10001 131073
46.944 -6.52 114.10001 131073
47.161331 -6.52 114.10001 131073
47.37867 -6.52 114.10001 131328
47.762863 -6.5428576 114.50001 131328
47.980957 -6.5428576 114.50001 131073
48.975044 -6.5885715 115.3 131073
49.194668 -6.5885715 115.3 131073
49.414284 -6.5885715 115.3 131073
49.461716 -6.5657148 114.9 131073
49.680569 -6.5657148 114.9 131073
50.073139 -6.5885715 115.3 196866
45.360001 -6.2640004 113.40001 131073
45.576004 -6.2640004 113.40001 131073
45.792004 -6.2640004 113.40001 131073
46.170284 -6.2860951 113.8 131073
46.387047 -6.2860951 113.8 131073
46.726669 -6.3026667 114.10001 131073
46.944 -6.3026667 114.10001 131073
47.326672 -6.3247623 114.50001 131073
47.544765 -6.3247623 114.50001 131073
47.762863 -6.3247623 114.50001 131073
48.148571 -6.3468575 114.9 131073
49.461716 -6.3468575 114.9 131073
49.680569 -6.3468575 114.9 131073
45.360001 -6.0480008 113.40001 131073
45.576004 -6.0480008 113.40001 131073
45.792004 -6.0480008 113.40001 131073
46.170284 -6.0693336 113.8 131073
46.387047 -6.0693336 113.8 131073
46.726669 -6.0853338 114.10001 131073
46.944 -6.0853338 114.10001 131073
47.326672 -6.106667 114.50001 131073
47.544765 -6.106667 114.50001 131073
47.762863 -6.106667 114.50001 131073
48.148571 -6.1280003 114.9 196866
45.576004 -5.8320003 113.40001 131073
45.792004 -5.8320003 113.40001 131073
46.292 -5.868 114.10001 131073
46.509335 -5.868 114.10001 131073
46.726669 -5.868 114.10001 131073
46.944 -5.868 114.10001 131073
47.492001 -5.909143 114.9 131073
47.710861 -5.909143 114.9 327936
45.736759 -5.6358094 113.8 131073
45.953526 -5.6358094 113.8 131073
46.292 -5.6506667 114.10001 196866
46.509335 -5.6506667 114.10001 131073
46.89048 -5.6704769 114.50001 131073
47.108574 -5.6704769 114.50001 131073
45.736759 -5.4190474 113.8 131328
45.953526 -5.4190474 113.8 131073
46.292 -5.4333339 114.10001 131073
46.509335 -5.4333339 114.10001 131073
46.397717 -5.2525716 114.9 131073
46.616573 -5.2525716 114.9 131073
46.83543 -5.2525716 114.9 131073
47.873333 -5.3439999 116.9 131073
44.540577 -5.1739054 118.10001 2033155
44.76553 -5.1739054 118.10001 2033155
47.043812 -5.1038098 116.50001 131073
47.265717 -5.1038098 116.50001 131073
47.650665 -5.1213336 116.9 131073
44.465714 -4.9657145 118.50001 984583
44.540577 -4.9489527 118.10001 1311758
44.76553 -4.9489527 118.10001 1443344
44.990479 -4.9489527 118.10001 918272
45.215435 -4.9489527 118.10001 852480
46.760002 -4.8986664 116.9 131073
46.98267 -4.8986664 116.9 131073
47.043812 -4.8819051 116.50001 131073
47.265717 -4.8819051 116.50001 131073
47.650665 -4.8986664 116.9 131073
48.364765 -4.9489527 118.10001 131073
48.589718 -4.9489527 118.10001 131073
44.240002 -4.7400007 118.50001 787204
44.465714 -4.7400007 118.50001 984583
44.540577 -4.7240005 118.10001 1706509
44.76553 -4.7240005 118.10001 1838095
44.990479 -4.7240005 118.10001 1312512
45.215435 -4.7240005 118.10001 1049344
46.855812 -4.7080002 117.7 131073
46.760002 -4.6760001 116.9 131073
46.98267 -4.6760001 116.9 131073
47.205334 -4.6760001 116.9 65793
47.428001 -4.6760001 116.9 65793
47.813717 -4.6920004 117.30001 131073
48.364765 -4.7240005 118.10001 131073
48.589718 -4.7240005 118.10001 131073
48.980003 -4.7400007 118.50001 196866
49.262856 -4.6600003 116.50001 196866
49.484764 -4.6600003 116.50001 131073
44.240002 -4.514286 118.50001 918533
44.315624 -4.4990482 118.10001 1642256
44.540577 -4.4990482 118.10001 2167326
44.76553 -4.4990482 118.10001 2035740
44.990479 -4.4990482 118.10001 1246465
45.215435 -4.4990482 118.10001 1049088
45.440384 -4.4990482 118.10001 787200
45.82 -4.514286 118.50001 589824
46.722858 -4.514286 118.50001 196866
46.7901 -4.4990482 118.10001 65793
46.855812 -4.4838095 117.7 65793
46.920002 -4.4685717 117.30001 131073
47.143433 -4.4685717 117.30001 131073
47.366859 -4.4685717 117.30001 65793
47.59029 -4.4685717 117.30001 65793
47.813717 -4.4685717 117.30001 65793
48.364765 -4.4990482 118.10001 65793
48.589718 -4.4990482 118.10001 196866
48.814671 -4.4990482 118.10001 196866
48.873524 -4.4838095 117.7 656131
49.097713 -4.4838095 117.7 985096
48.986664 -4.4533334 116.9 852747
49.040958 -4.4380956 116.50001 655368
49.262856 -4.4380956 116.50001 197120
49.484764 -4.4380956 116.50001 197120
44.090672 -4.2740955 118.10001 1116162
44.315624 -4.2740955 118.10001 1445127
44.540577 -4.2740955 118.10001 3217434
44.76553 -4.2740955 118.10001 3217434
44.990479 -4.2740955 118.10001 1901826
45.215435 -4.2740955 118.10001 1572864
45.440384 -4.2740955 118.10001 721408
45.82 -4.2885718 118.50001 589824
45.890289 -4.2740955 118.10001 196866
46.115242 -4.2740955 118.10001 196866
46.340195 -4.2740955 118.10001 197120
46.722858 -4.2885718 118.50001 131328
46.7901 -4.2740955 118.10001 131328
47.015053 -4.2740955 118.10001 131328
47.080002 -4.2596192 117.7 131073
47.304192 -4.2596192 117.7 131073
47.528381 -4.2596192 117.7 65793
47.59029 -4.2451434 117.30001 65793
47.813717 -4.2451434 117.30001 131073
48.364765 -4.2740955 118.10001 131073
48.589718 -4.2740955 118.10001 196866
48.814671 -4.2740955 118.10001 196866
48.873524 -4.2596192 117.7 656129
48.930862 -4.2451434 117.30001 721922
48.986664 -4.2306666 116.9 656384
49.040958 -4.2161908 116.50001 524800
49.262856 -4.2161908 116.50001 197120
49.654667 -4.2306666 116.9 197120
43.717148 -4.0354285 117.7 656129
43.941338 -4.0354285 117.7 1312008
44.165524 -4.0354285 117.7 1904145
44.389717 -4.0354285 117.7 3151641
44.613907 -4.0354285 117.7 3414813
44.838097 -4.0354285 117.7 2229507
45.215435 -4.0491433 118.10001 1835008
45.440384 -4.0491433 118.10001 721408
45.66534 -4.0491433 118.10001 655616
45.890289 -4.0491433 118.10001 327936
46.115242 -4.0491433 118.10001 327936
46.340195 -4.0491433 118.10001 131328
46.722858 -4.0628576 118.50001 197120
46.948574 -4.0628576 118.50001 131328
47.015053 -4.0491433 118.10001 131328
47.240005 -4.0491433 118.10001 131328
47.464958 -4.0491433 118.10001 131328
47.689907 -4.0491433 118.10001 131073
47.752571 -4.0354285 117.7 131073
47.976761 -4.0354285 117.7 131073
48.364765 -4.0491433 118.10001 196866
48.425144 -4.0354285 117.7 196866
48.649334 -4.0354285 117.7 328452
48.873524 -4.0354285 117.7 590338
48.930862 -4.0217147 117.30001 590338
49.154289 -4.0217147 117.30001 590338
49.040958 -3.9942861 116.50001 458752
49.262856 -3.9942861 116.50001 197120
49.654667 -4.0079999 116.9 197120
49.877338 -4.0079999 116.9 196866
43.717148 -3.8112383 117.7 656131
43.941338 -3.8112383 117.7 1312258
44.165524 -3.8112383 117.7 1575430
44.389717 -3.8112383 117.7 2889728
44.613907 -3.8112383 117.7 3087104
44.838097 -3.8112383 117.7 1836033
45.215435 -3.8241909 118.10001 1572864
45.440384 -3.8241909 118.10001 721408
45.66534 -3.8241909 118.10001 589824
45.890289 -3.8241909 118.10001 327936
46.115242 -3.8241909 118.10001 262144
46.340195 -3.8241909 118.10001 131328
46.722858 -3.8371429 118.50001 131328
46.948574 -3.8371429 118.50001 131328
47.015053 -3.8241909 118.10001 131328
47.240005 -3.8241909 118.10001 131328
47.464958 -3.8241909 118.10001 131328
47.689907 -3.8241909 118.10001 131073
47.752571 -3.8112383 117.7 131073
47.976761 -3.8112383 117.7 196866
48.200954 -3.8112383 117.7 196866
48.260574 -3.798286 117.30001 196866
48.484005 -3.798286 117.30001 328452
48.707432 -3.798286 117.30001 590338
