# .PCD v0.7 - Point Cloud Data file format
VERSION 0.7
FIELDS x y z rgb
SIZE 4 4 4 4
TYPE F F F U
COUNT 1 1 1 1
WIDTH 1354
HEIGHT 1
VIEWPOINT 0 0 0 1 0 0 0
POINTS 1354
DATA ascii
44.616001 4.7666669 100.10001 1576706
44.269527 4.7095242 98.900002 1905671
45.323433 4.7809525 100.40001 524301
45.514668 4.7809525 100.40001 131073
45.705906 4.7809525 100.40001 131073
45.897148 4.7809525 100.40001 131840
46.088387 4.7809525 100.40001 66048
46.279621 4.7809525 100.40001 65793
46.332001 4.7666669 100.10001 65793
46.522671 4.7666669 100.10001 196866
46.573334 4.7523813 99.800003 196866
46.763428 4.7523813 99.800003 131586
46.953526 4.7523813 99.800003 65793
46.860191 4.7238097 99.200005 196868
47.049145 4.7238097 99.200005 196868
47.380955 4.7380953 99.500008 460033
47.57048 4.7380953 99.500008 657412
47.903999 4.7523813 99.800003 590336
43.270096 4.9127622 99.200005 65536
43.459049 4.9127622 99.200005 0
43.515999 4.8979049 98.900002 131586
43.70438 4.8979049 98.900002 196866
43.892765 4.8979049 98.900002 657417
44.081146 4.8979049 98.900002 1447446
45.323433 4.9721909 100.40001 2
45.514668 4.9721909 100.40001 131073
45.705906 4.9721909 100.40001 131073
45.897148 4.9721909 100.40001 65793
45.950668 4.9573336 100.10001 65793
46.141331 4.9573336 100.10001 65793
46.332001 4.9573336 100.10001 65793
46.522671 4.9573336 100.10001 65793
46.573334 4.9424758 99.800003 65793
46.763428 4.9424758 99.800003 65793
46.812382 4.927619 99.500008 0
46.860191 4.9127622 99.200005 131073
47.049145 4.9127622 99.200005 131073
47.380955 4.927619 99.500008 196866
47.713905 4.9424758 99.800003 196866
47.903999 4.9424758 99.800003 196866
43.081142 5.1017141 99.200005 196866
43.270096 5.1017141 99.200005 131073
43.459049 5.1017141 99.200005 65793
43.515999 5.0862861 98.900002 65793
43.70438 5.0862861 98.900002 131075
43.892765 5.0862861 98.900002 131075
44.081146 5.0862861 98.900002 262913
44.045715 5.0605717 98.400002 328706
44.233143 5.0605717 98.400002 262913
44.420574 5.0605717 98.400002 197120
45.378666 5.1479998 100.10001 131586
45.569336 5.1479998 100.10001 65793
45.759998 5.1479998 100.10001 65793
45.950668 5.1479998 100.10001 0
46.141331 5.1479998 100.10001 65793
46.193142 5.1325717 99.800003 65793
46.38324 5.1325717 99.800003 65793
46.433334 5.1171432 99.500008 65793
46.62286 5.1171432 99.500008 65793
46.812382 5.1171432 99.500008 65793
47.001907 5.1171432 99.500008 131073
47.191433 5.1171432 99.500008 131073
47.380955 5.1171432 99.500008 131073
47.57048 5.1171432 99.500008 131073
47.760002 5.1171432 99.500008 131073
47.804955 5.1017141 99.200005 131073
42.574097 5.2746668 98.900002 327936
42.762478 5.2746668 98.900002 262144
43.081142 5.2906671 99.200005 131586
43.270096 5.2906671 99.200005 131586
43.327618 5.2746668 98.900002 65793
43.515999 5.2746668 98.900002 65793
43.616001 5.2640004 98.700005 65793
43.804001 5.2640004 98.700005 65793
43.858288 5.2480001 98.400002 131075
44.045715 5.2480001 98.400002 196868
44.233143 5.2480001 98.400002 262913
44.420574 5.2480001 98.400002 197120
44.608002 5.2480001 98.400002 196868
45.432762 5.3226666 99.800003 196868
45.62286 5.3226666 99.800003 65793
45.812954 5.3226666 99.800003 65793
46.003048 5.3226666 99.800003 65793
46.193142 5.3226666 99.800003 65793
46.243813 5.3066673 99.500008 65793
46.433334 5.3066673 99.500008 65793
46.62286 5.3066673 99.500008 65793
46.812382 5.3066673 99.500008 65793
47.001907 5.3066673 99.500008 65793
47.049145 5.2906671 99.200005 65793
47.238098 5.2906671 99.200005 65793
47.427048 5.2906671 99.200005 65793
47.616001 5.2906671 99.200005 65793
47.804955 5.2906671 99.200005 65793
42.574097 5.4630475 98.900002 131073
42.762478 5.4630475 98.900002 131073
43.081142 5.4796195 99.200005 65793
43.270096 5.4796195 99.200005 65793
43.327618 5.4630475 98.900002 65793
43.428001 5.4520001 98.700005 65793
43.616001 5.4520001 98.700005 65793
43.670856 5.4354286 98.400002 131586
43.858288 5.4354286 98.400002 65793
44.045715 5.4354286 98.400002 65793
44.233143 5.4354286 98.400002 131586
44.420574 5.4354286 98.400002 131586
44.472004 5.4188571 98.100006 393997
44.658859 5.4188571 98.100006 262411
44.845718 5.4188571 98.100006 196866
45.399811 5.4630475 98.900002 196866
45.726479 5.4796195 99.200005 65793
45.915432 5.4796195 99.200005 65793
46.104382 5.4796195 99.200005 65793
46.293335 5.4796195 99.200005 65793
46.482288 5.4796195 99.200005 65793
46.671242 5.4796195 99.200005 65793
46.860191 5.4796195 99.200005 65793
47.049145 5.4796195 99.200005 65793
47.238098 5.4796195 99.200005 65793
47.427048 5.4796195 99.200005 65793
47.472004 5.4630475 98.900002 65793
47.660385 5.4630475 98.900002 65793
47.848763 5.4630475 98.900002 65793
42.574097 5.6514287 98.900002 131073
42.762478 5.6514287 98.900002 131073
42.950855 5.6514287 98.900002 65793
43.139236 5.6514287 98.900002 65793
43.327618 5.6514287 98.900002 65793
43.296001 5.6228571 98.400002 65793
43.483429 5.6228571 98.400002 65793
43.670856 5.6228571 98.400002 131586
43.724571 5.6057148 98.100006 65793
43.91143 5.6057148 98.100006 65793
44.098289 5.6057148 98.100006 65793
44.285145 5.6057148 98.100006 131586
44.472004 5.6057148 98.100006 262663
44.658859 5.6057148 98.100006 394249
44.845718 5.6057148 98.100006 196866
45.170288 5.6228571 98.400002 196866
45.588192 5.6514287 98.900002 65793
45.776573 5.6514287 98.900002 65793
46.104382 5.6685715 99.200005 65793
46.293335 5.6685715 99.200005 65793
46.482288 5.6685715 99.200005 65793
46.671242 5.6685715 99.200005 65793
46.860191 5.6685715 99.200005 65793
46.906857 5.6514287 98.900002 65793
47.095238 5.6514287 98.900002 65793
47.283619 5.6514287 98.900002 65793
47.375999 5.6400003 98.700005 65793
47.564003 5.6400003 98.700005 65793
47.752003 5.6400003 98.700005 65793
47.940002 5.6400003 98.700005 65793
48.128002 5.6400003 98.700005 65792
42.574097 5.8398094 98.900002 65793
42.762478 5.8398094 98.900002 65793
42.950855 5.8398094 98.900002 65793
43.139236 5.8398094 98.900002 65793
43.327618 5.8398094 98.900002 66048
43.296001 5.810286 98.400002 66048
43.483429 5.810286 98.400002 66048
43.670856 5.810286 98.400002 66048
43.724571 5.7925715 98.100006 65793
43.91143 5.7925715 98.100006 65793
44.098289 5.7925715 98.100006 65793
44.285145 5.7925715 98.100006 65793
44.472004 5.7925715 98.100006 131075
44.658859 5.7925715 98.100006 196868
44.845718 5.7925715 98.100006 196866
45.032578 5.7925715 98.100006 196866
45.357716 5.810286 98.400002 131840
45.545143 5.810286 98.400002 66048
45.872002 5.8280001 98.700005 65793
46.153336 5.8398094 98.900002 65793
46.341713 5.8398094 98.900002 65793
46.530094 5.8398094 98.900002 65793
46.718475 5.8398094 98.900002 66048
46.906857 5.8398094 98.900002 66048
47.000004 5.8280001 98.700005 65793
47.188004 5.8280001 98.700005 65793
47.231998 5.810286 98.400002 65793
47.41943 5.810286 98.400002 65793
47.606857 5.810286 98.400002 65793
47.794289 5.810286 98.400002 65793
47.981716 5.810286 98.400002 512
48.169144 5.810286 98.400002 512
48.504002 5.8280001 98.700005 65792
42.762478 6.0281906 98.900002 65793
42.950855 6.0281906 98.900002 65793
43.139236 6.0281906 98.900002 65793
43.327618 6.0281906 98.900002 65793
43.296001 5.9977145 98.400002 65793
43.483429 5.9977145 98.400002 65793
43.670856 5.9977145 98.400002 65793
43.724571 5.9794288 98.100006 65793
43.91143 5.9794288 98.100006 65793
44.098289 5.9794288 98.100006 65793
44.285145 5.9794288 98.100006 65793
44.335999 5.961143 97.800003 65793
44.522285 5.961143 97.800003 131586
44.708572 5.961143 97.800003 131586
44.894859 5.961143 97.800003 131586
45.219433 5.9794288 98.100006 131586
45.406288 5.9794288 98.100006 131586
45.593147 5.9794288 98.100006 512
45.919998 5.9977145 98.400002 256
46.248005 6.0160003 98.700005 65792
46.530094 6.0281906 98.900002 0
46.718475 6.0281906 98.900002 65793
46.812004 6.0160003 98.700005 65793
47.000004 6.0160003 98.700005 65793
47.044571 5.9977145 98.400002 65793
47.231998 5.9977145 98.400002 65793
47.41943 5.9977145 98.400002 65793
47.461716 5.9794288 98.100006 65793
47.648575 5.9794288 98.100006 65793
47.83543 5.9794288 98.100006 65793
48.022289 5.9794288 98.100006 65793
48.356571 5.9977145 98.400002 65793
48.396 5.9794288 98.100006 65793
48.582859 5.9794288 98.100006 65793
48.769714 5.9794288 98.100006 65793
42.762478 6.2165713 98.900002 65536
42.864002 6.2040005 98.700005 65793
43.052002 6.2040005 98.700005 65793
43.327618 6.2165713 98.900002 65793
43.296001 6.1851425 98.400002 65793
43.483429 6.1851425 98.400002 65793
43.537716 6.166286 98.100006 65793
43.724571 6.166286 98.100006 66048
43.91143 6.166286 98.100006 66048
44.098289 6.166286 98.100006 66048
44.149715 6.147429 97.800003 66048
44.335999 6.147429 97.800003 65793
44.522285 6.147429 97.800003 65793
44.708572 6.147429 97.800003 197120
44.894859 6.147429 97.800003 131328
45.081146 6.147429 97.800003 65793
45.267429 6.147429 97.800003 65793
45.453716 6.147429 97.800003 65793
45.780003 6.166286 98.100006 0
46.10743 6.1851425 98.400002 65792
46.436005 6.2040005 98.700005 0
46.624001 6.2040005 98.700005 65793
46.669716 6.1851425 98.400002 65793
46.857143 6.1851425 98.400002 65793
47.044571 6.1851425 98.400002 65793
47.231998 6.1851425 98.400002 65793
47.41943 6.1851425 98.400002 65793
47.461716 6.166286 98.100006 131588
47.648575 6.166286 98.100006 65795
47.83543 6.166286 98.100006 65793
48.022289 6.166286 98.100006 65793
48.209145 6.166286 98.100006 65793
48.396 6.166286 98.100006 65793
48.582859 6.166286 98.100006 65793
48.769714 6.166286 98.100006 65793
49.106289 6.1851425 98.400002 65793
42.864002 6.3920007 98.700005 0
43.052002 6.3920007 98.700005 65793
43.240002 6.3920007 98.700005 65793
43.296001 6.3725719 98.400002 65793
43.350857 6.3531437 98.100006 65793
43.537716 6.3531437 98.100006 65793
43.724571 6.3531437 98.100006 65793
43.91143 6.3531437 98.100006 65793
43.963428 6.3337145 97.800003 65793
44.149715 6.3337145 97.800003 65793
44.335999 6.3337145 97.800003 65793
44.522285 6.3337145 97.800003 65793
44.708572 6.3337145 97.800003 65793
44.894859 6.3337145 97.800003 65793
45.081146 6.3337145 97.800003 65793
45.128571 6.3142858 97.5 65793
45.314289 6.3142858 97.5 65793
45.640003 6.3337145 97.800003 65793
45.82629 6.3337145 97.800003 65792
46.153717 6.3531437 98.100006 0
46.482288 6.3725719 98.400002 0
46.527431 6.3531437 98.100006 65793
46.714287 6.3531437 98.100006 65793
46.901146 6.3531437 98.100006 65793
47.088005 6.3531437 98.100006 65793
47.27486 6.3531437 98.100006 65793
47.461716 6.3531437 98.100006 65793
47.648575 6.3531437 98.100006 65793
47.83543 6.3531437 98.100006 65793
48.022289 6.3531437 98.100006 65793
48.209145 6.3531437 98.100006 65793
48.396 6.3531437 98.100006 65793
48.582859 6.3531437 98.100006 131586
48.769714 6.3531437 98.100006 131586
48.95657 6.3531437 98.100006 131586
42.864002 6.5800004 98.700005 65536
42.921143 6.5599999 98.400002 65536
43.108574 6.5599999 98.400002 65793
43.164001 6.5400004 98.100006 65793
43.350857 6.5400004 98.100006 65793
43.537716 6.5400004 98.100006 0
43.724571 6.5400004 98.100006 65793
43.91143 6.5400004 98.100006 65793
43.963428 6.5200009 97.800003 65793
44.149715 6.5200009 97.800003 65793
44.335999 6.5200009 97.800003 65793
44.522285 6.5200009 97.800003 65793
44.708572 6.5200009 97.800003 65793
44.894859 6.5200009 97.800003 65793
44.94286 6.5 97.5 65793
45.128571 6.5 97.5 65793
45.314289 6.5 97.5 65793
45.5 6.5 97.5 65793
45.685715 6.5 97.5 0
45.871429 6.5 97.5 0
46.198856 6.5200009 97.800003 0
46.385147 6.5200009 97.800003 65793
46.57143 6.5200009 97.800003 0
46.757717 6.5200009 97.800003 0
47.088005 6.5400004 98.100006 65793
47.27486 6.5400004 98.100006 65793
47.461716 6.5400004 98.100006 65793
47.648575 6.5400004 98.100006 65793
47.83543 6.5400004 98.100006 65793
48.022289 6.5400004 98.100006 65793
48.209145 6.5400004 98.100006 131586
48.396 6.5400004 98.100006 197379
48.582859 6.5400004 98.100006 263172
48.620571 6.5200009 97.800003 263172
48.806862 6.5200009 97.800003 197640
48.993145 6.5200009 97.800003 131847
42.921143 6.7474284 98.400002 131073
42.977146 6.7268572 98.100006 131073
43.164001 6.7268572 98.100006 131073
43.350857 6.7268572 98.100006 65793
43.537716 6.7268572 98.100006 65793
43.724571 6.7268572 98.100006 65793
43.91143 6.7268572 98.100006 65793
44.098289 6.7268572 98.100006 65793
44.149715 6.7062855 97.800003 65793
44.335999 6.7062855 97.800003 65793
44.522285 6.7062855 97.800003 65793
44.708572 6.7062855 97.800003 66048
44.757141 6.6857142 97.5 66048
44.94286 6.6857142 97.5 65793
45.036003 6.6719999 97.300003 65793
45.221336 6.6719999 97.300003 65793
45.40667 6.6719999 97.300003 65793
45.592003 6.6719999 97.300003 131586
45.871429 6.6857142 97.5 65793
46.057144 6.6857142 97.5 65793
46.242859 6.6857142 97.5 65793
46.42857 6.6857142 97.5 65793
46.757717 6.7062855 97.800003 0
46.944 6.7062855 97.800003 65793
47.27486 6.7268572 98.100006 65793
47.461716 6.7268572 98.100006 65793
47.648575 6.7268572 98.100006 65793
47.83543 6.7268572 98.100006 65793
48.022289 6.7268572 98.100006 131586
48.209145 6.7268572 98.100006 131847
48.396 6.7268572 98.100006 329226
48.582859 6.7268572 98.100006 264205
48.620571 6.7062855 97.800003 329998
48.806862 6.7062855 97.800003 526094
49.143433 6.7268572 98.100006 526094
49.330288 6.7268572 98.100006 460301
49.517147 6.7268572 98.100006 460301
42.977146 6.9137139 98.100006 131073
43.164001 6.9137139 98.100006 131073
43.350857 6.9137139 98.100006 65793
43.537716 6.9137139 98.100006 65793
43.724571 6.9137139 98.100006 65793
43.91143 6.9137139 98.100006 65793
44.098289 6.9137139 98.100006 65793
44.149715 6.8925714 97.800003 65793
44.335999 6.8925714 97.800003 65793
44.522285 6.8925714 97.800003 65793
44.57143 6.8714285 97.5 65793
44.757141 6.8714285 97.5 65793
44.94286 6.8714285 97.5 65793
45.036003 6.8573341 97.300003 65793
45.221336 6.8573341 97.300003 131586
45.40667 6.8573341 97.300003 131586
45.592003 6.8573341 97.300003 131586
45.777336 6.8573341 97.300003 131586
45.962669 6.8573341 97.300003 131586
46.148003 6.8573341 97.300003 197379
46.333336 6.8573341 97.300003 65800
46.614285 6.8714285 97.5 7
46.800003 6.8714285 97.5 2
47.130287 6.8925714 97.800003 2
47.316574 6.8925714 97.800003 0
47.502861 6.8925714 97.800003 65793
47.83543 6.9137139 98.100006 131588
48.022289 6.9137139 98.100006 197381
48.209145 6.9137139 98.100006 394758
48.396 6.9137139 98.100006 460551
48.582859 6.9137139 98.100006 657930
48.620571 6.8925714 97.800003 657930
48.806862 6.8925714 97.800003 789266
49.143433 6.9137139 98.100006 789266
49.330288 6.9137139 98.100006 789266
49.517147 6.9137139 98.100006 789266
49.704002 6.9137139 98.100006 723723
42.977146 7.1005716 98.100006 131073
43.164001 7.1005716 98.100006 65536
43.350857 7.1005716 98.100006 131073
43.537716 7.1005716 98.100006 131073
43.724571 7.1005716 98.100006 65793
43.91143 7.1005716 98.100006 65793
44.098289 7.1005716 98.100006 65793
44.149715 7.0788569 97.800003 65793
44.335999 7.0788569 97.800003 65793
44.385715 7.0571432 97.5 65793
44.57143 7.0571432 97.5 65793
44.757141 7.0571432 97.5 65793
44.85067 7.0426674 97.300003 65793
44.897144 7.0209527 97 65793
45.081905 7.0209527 97 131586
45.266666 7.0209527 97 131586
45.451431 7.0209527 97 131588
45.777336 7.0426674 97.300003 328967
45.820953 7.0209527 97 262920
46.005718 7.0209527 97 328713
46.190475 7.0209527 97 263172
46.518669 7.0426674 97.300003 131586
46.800003 7.0571432 97.5 65793
47.130287 7.0788569 97.800003 65793
47.316574 7.0788569 97.800003 131588
47.502861 7.0788569 97.800003 131588
47.689144 7.0788569 97.800003 131586
48.022289 7.1005716 98.100006 263172
48.209145 7.1005716 98.100006 394758
48.396 7.1005716 98.100006 657930
48.582859 7.1005716 98.100006 461584
48.620571 7.0788569 97.800003 658963
48.806862 7.0788569 97.800003 855059
48.993145 7.0788569 97.800003 986645
49.028568 7.0571432 97.5 1249313
49.113335 7.0426674 97.300003 1183520
49.298672 7.0426674 97.300003 789516
49.484001 7.0426674 97.300003 657930
43.296001 7.3097138 98.400002 458752
43.350857 7.2874293 98.100006 131075
43.537716 7.2874293 98.100006 131075
43.724571 7.2874293 98.100006 131073
43.91143 7.2874293 98.100006 65536
44.098289 7.2874293 98.100006 65793
44.149715 7.2651429 97.800003 65793
44.200001 7.2428575 97.5 65793
44.385715 7.2428575 97.5 65793
44.57143 7.2428575 97.5 65793
44.665333 7.2280006 97.300003 65793
44.85067 7.2280006 97.300003 65793
44.897144 7.2057142 97 65793
45.081905 7.2057142 97 131586
45.266666 7.2057142 97 131586
45.451431 7.2057142 97 263172
45.636192 7.2057142 97 328965
45.820953 7.2057142 97 592137
46.005718 7.2057142 97 592137
46.190475 7.2057142 97 723723
46.518669 7.2280006 97.300003 855309
46.704002 7.2280006 97.300003 592137
46.985714 7.2428575 97.5 197379
47.171429 7.2428575 97.5 197379
47.357143 7.2428575 97.5 131586
47.689144 7.2651429 97.800003 131588
47.875427 7.2651429 97.800003 328967
48.356571 7.3097138 98.400002 460551
48.396 7.2874293 98.100006 592137
48.582859 7.2874293 98.100006 789516
48.471432 7.2428575 97.5 855309
48.657146 7.2428575 97.5 1184274
48.842857 7.2428575 97.5 1250067
48.928001 7.2280006 97.300003 1512998
48.961906 7.2057142 97 1184033
49.146671 7.2057142 97 592137
49.178864 7.1834288 96.700005 394758
49.363049 7.1834288 96.700005 329728
49.547241 7.1834288 96.700005 132352
43.350857 7.4742861 98.100006 196608
43.537716 7.4742861 98.100006 196608
43.724571 7.4742861 98.100006 131073
43.91143 7.4742861 98.100006 131073
44.098289 7.4742861 98.100006 65793
44.149715 7.4514294 97.800003 65793
44.200001 7.4285717 97.5 65793
44.385715 7.4285717 97.5 65793
44.480003 7.4133339 97.300003 65793
44.665333 7.4133339 97.300003 65793
44.712383 7.3904767 97 65793
44.897144 7.3904767 97 65793
45.081905 7.3904767 97 131586
45.266666 7.3904767 97 197379
45.451431 7.3904767 97 263172
45.636192 7.3904767 97 394758
45.820953 7.3904767 97 526344
46.005718 7.3904767 97 592137
46.190475 7.3904767 97 789516
46.518669 7.4133339 97.300003 921102
46.704002 7.4133339 97.300003 920852
46.889336 7.4133339 97.300003 657680
46.929523 7.3904767 97 197640
47.114285 7.3904767 97 131847
47.689144 7.4514294 97.800003 263172
47.875427 7.4514294 97.800003 263172
48.356571 7.4971428 98.400002 460551
48.543999 7.4971428 98.400002 592137
48.73143 7.4971428 98.400002 723723
48.471432 7.4285717 97.5 855309
48.657146 7.4285717 97.5 986895
48.842857 7.4285717 97.5 1250067
48.777145 7.3904767 97 1249817
48.961906 7.3904767 97 789266
48.994671 7.36762 96.700005 263172
49.026287 7.3447623 96.400002 197379
49.107811 7.3295245 96.200005 131586
49.137333 7.3066669 95.900002 131586
49.320004 7.3066669 95.900002 131840
43.350857 7.6611438 98.100006 1050369
43.537716 7.6611438 98.100006 524288
43.590858 7.6377144 97.800003 131073
43.777145 7.6377144 97.800003 131073
44.098289 7.6611438 98.100006 0
44.149715 7.6377144 97.800003 65793
44.200001 7.6142864 97.5 65793
44.385715 7.6142864 97.5 65793
44.480003 7.5986667 97.300003 0
44.527618 7.5752378 97 0
44.712383 7.5752378 97 131586
44.897144 7.5752378 97 131586
45.081905 7.5752378 97 197888
45.266666 7.5752378 97 263681
45.451431 7.5752378 97 328965
45.636192 7.5752378 97 460551
45.820953 7.5752378 97 526344
46.005718 7.5752378 97 592137
46.190475 7.5752378 97 855309
46.518669 7.5986667 97.300003 1052688
46.704002 7.5986667 97.300003 1249313
46.744762 7.5752378 97 1051934
46.784382 7.5518103 96.700005 527105
46.968575 7.5518103 96.700005 263936
47.689144 7.6377144 97.800003 263681
47.875427 7.6377144 97.800003 263681
46.734856 7.426857 95.100006 395521
46.916 7.426857 95.100006 461314
47.097145 7.426857 95.100006 723723
48.222858 7.5752378 97 789516
48.407619 7.5752378 97 1249288
48.592381 7.5752378 97 1249288
48.777145 7.5752378 97 526344
48.810474 7.5518103 96.700005 131586
48.994671 7.5518103 96.700005 131588
49.026287 7.5283809 96.400002 131588
49.107811 7.5127625 96.200005 131586
49.137333 7.4893332 95.900002 65793
49.320004 7.4893332 95.900002 256
49.657528 7.5127625 96.200005 512
43.590858 7.8239999 97.800003 65795
43.777145 7.8239999 97.800003 65795
44.098289 7.8480005 98.100006 131073
44.149715 7.8239999 97.800003 65536
44.335999 7.8239999 97.800003 65793
44.385715 7.8000002 97.5 65793
44.57143 7.8000002 97.5 0
44.527618 7.7600002 97 0
44.712383 7.7600002 97 131586
44.897144 7.7600002 97 131586
45.081905 7.7600002 97 197379
45.266666 7.7600002 97 263172
45.451431 7.7600002 97 328965
45.636192 7.7600002 97 526344
45.820953 7.7600002 97 592137
46.005718 7.7600002 97 592137
46.190475 7.7600002 97 985612
46.231812 7.7360005 96.700005 1117198
46.176003 7.6960006 96.200005 921102
46.214668 7.6720009 95.900002 789516
46.397335 7.6720009 95.900002 460551
46.580002 7.6720009 95.900002 263172
46.616383 7.6480002 95.600006 197379
46.553715 7.6080003 95.100006 263172
46.734856 7.6080003 95.100006 263172
46.916 7.6080003 95.100006 460551
47.097145 7.6080003 95.100006 460551
47.27829 7.6080003 95.100006 855309
48.108189 7.7120008 96.400002 987656
48.291813 7.7120008 96.400002 461312
48.475433 7.7120008 96.400002 131586
48.810474 7.7360005 96.700005 131586
48.994671 7.7360005 96.700005 131586
49.026287 7.7120008 96.400002 131586
49.107811 7.6960006 96.200005 131586
49.29105 7.6960006 96.200005 131586
49.474289 7.6960006 96.200005 256
49.657528 7.6960006 96.200005 512
49.840767 7.6960006 96.200005 131586
43.590858 8.0102863 97.800003 262661
43.777145 8.0102863 97.800003 131075
44.098289 8.0348577 98.100006 65793
44.149715 8.0102863 97.800003 65793
44.335999 8.0102863 97.800003 65793
44.385715 7.985714 97.5 65793
44.57143 7.985714 97.5 65792
44.527618 7.9447627 97 65792
44.712383 7.9447627 97 131586
44.897144 7.9447627 97 131586
45.081905 7.9447627 97 197379
45.266666 7.9447627 97 263172
45.451431 7.9447627 97 394758
45.636192 7.9447627 97 460551
45.679237 7.9201908 96.700005 854789
45.86343 7.9201908 96.700005 854789
46.047623 7.9201908 96.700005 1051909
45.992764 7.8792391 96.200005 1183495
46.032001 7.8546672 95.900002 1052161
46.214668 7.8546672 95.900002 723200
46.397335 7.8546672 95.900002 394240
46.434288 7.8300953 95.600006 262656
46.51886 7.8137145 95.400009 131586
46.553715 7.7891431 95.100006 131586
46.734856 7.7891431 95.100006 131588
46.916 7.7891431 95.100006 131588
47.097145 7.7891431 95.100006 263681
47.27829 7.7891431 95.100006 263681
48.108189 7.8956194 96.400002 131588
48.291813 7.8956194 96.400002 65795
48.475433 7.8956194 96.400002 131073
48.659046 7.8956194 96.400002 131073
48.842667 7.8956194 96.400002 65793
48.924576 7.8792391 96.200005 65793
49.107811 7.8792391 96.200005 65793
49.29105 7.8792391 96.200005 65793
49.474289 7.8792391 96.200005 65792
49.502666 7.8546672 95.900002 65792
49.529907 7.8300953 95.600006 131586
49.711998 7.8300953 95.600006 131586
50.050671 7.8546672 95.900002 197379
43.724571 8.221714 98.100006 459529
43.91143 8.221714 98.100006 262150
43.963428 8.1965714 97.800003 131586
44.149715 8.1965714 97.800003 65793
44.335999 8.1965714 97.800003 512
44.385715 8.1714287 97.5 512
44.57143 8.1714287 97.5 66048
44.665333 8.1546669 97.300003 131840
44.85067 8.1546669 97.300003 131586
44.897144 8.1295233 97 131586
45.081905 8.1295233 97 197632
45.266666 8.1295233 97 263424
45.451431 8.1295233 97 263172
45.495052 8.1043816 96.700005 460551
45.679237 8.1043816 96.700005 526344
45.721142 8.0792379 96.400002 723723
45.904766 8.0792379 96.400002 1117702
45.849335 8.0373335 95.900002 1183495
45.888 8.0121908 95.600006 986116
46.070095 8.0121908 95.600006 591360
46.25219 8.0121908 95.600006 131586
46.434288 8.0121908 95.600006 131586
46.51886 7.995429 95.400009 65793
46.553715 7.9702864 95.100006 131586
46.734856 7.9702864 95.100006 65793
46.916 7.9702864 95.100006 131586
47.097145 7.9702864 95.100006 197379
47.27829 7.9702864 95.100006 131586
48.108189 8.0792379 96.400002 131073
48.291813 8.0792379 96.400002 131073
48.475433 8.0792379 96.400002 131073
48.659046 8.0792379 96.400002 131073
48.842667 8.0792379 96.400002 65792
48.924576 8.0624771 96.200005 65792
49.107811 8.0624771 96.200005 65793
49.29105 8.0624771 96.200005 65793
49.474289 8.0624771 96.200005 131586
49.347813 8.0121908 95.600006 131586
49.529907 8.0121908 95.600006 772
49.711998 8.0121908 95.600006 515
50.050671 8.0373335 95.900002 65793
50.233334 8.0373335 95.900002 131586
43.724571 8.4085722 98.100006 328456
43.91143 8.4085722 98.100006 196870
43.963428 8.3828573 97.800003 131586
44.149715 8.3828573 97.800003 65793
44.335999 8.3828573 97.800003 65793
44.385715 8.3571424 97.5 65793
44.57143 8.3571424 97.5 131586
44.665333 8.3400002 97.300003 131586
44.85067 8.3400002 97.300003 197379
45.036003 8.3400002 97.300003 197379
45.221336 8.3400002 97.300003 197379
45.266666 8.3142862 97 263172
45.451431 8.3142862 97 263172
45.495052 8.2885723 96.700005 328965
45.679237 8.2885723 96.700005 657410
45.721142 8.2628574 96.400002 591617
45.904766 8.2628574 96.400002 460033
45.849335 8.2200003 95.900002 460033
45.888 8.1942854 95.600006 196866
46.070095 8.1942854 95.600006 65536
46.25219 8.1942854 95.600006 65793
46.337147 8.1771431 95.400009 131586
46.37257 8.1514292 95.100006 131586
46.553715 8.1514292 95.100006 65793
46.734856 8.1514292 95.100006 65793
46.916 8.1514292 95.100006 65793
47.097145 8.1514292 95.100006 65793
47.427429 8.1771431 95.400009 65793
47.609146 8.1771431 95.400009 256
48.041336 8.2200003 95.900002 256
48.224003 8.2200003 95.900002 65793
48.558098 8.2457151 96.200005 65793
48.741333 8.2457151 96.200005 65792
48.924576 8.2457151 96.200005 65792
49.107811 8.2457151 96.200005 65793
49.137333 8.2200003 95.900002 65793
49.320004 8.2200003 95.900002 131588
49.347813 8.1942854 95.600006 131588
49.426289 8.1771431 95.400009 65809
49.608006 8.1771431 95.400009 16
49.789719 8.1771431 95.400009 513
49.971428 8.1771431 95.400009 513
50.153149 8.1771431 95.400009 512
43.724571 8.5954294 98.100006 459529
43.91143 8.5954294 98.100006 393736
44.098289 8.5954294 98.100006 197379
44.149715 8.5691433 97.800003 197379
44.335999 8.5691433 97.800003 513
44.522285 8.5691433 97.800003 513
44.57143 8.5428572 97.5 513
44.757141 8.5428572 97.5 770
44.94286 8.5428572 97.5 197127
45.128571 8.5428572 97.5 197127
45.314289 8.5428572 97.5 197379
45.40667 8.5253334 97.300003 263172
45.451431 8.4990482 97 393986
45.636192 8.4990482 97 459779
45.679237 8.4727621 96.700005 460033
45.86343 8.4727621 96.700005 394240
45.904766 8.4464769 96.400002 262912
45.849335 8.402667 95.900002 197120
45.888 8.3763819 95.600006 131073
46.070095 8.3763819 95.600006 65536
46.15543 8.3588581 95.400009 65793
46.191429 8.332571 95.100006 65793
46.37257 8.332571 95.100006 131586
46.553715 8.332571 95.100006 131586
46.734856 8.332571 95.100006 131586
46.916 8.332571 95.100006 65793
47.097145 8.332571 95.100006 65793
47.27829 8.332571 95.100006 65793
47.459431 8.332571 95.100006 0
47.790859 8.3588581 95.400009 0
48.073143 8.3763819 95.600006 65793
48.255241 8.3763819 95.600006 0
48.589333 8.402667 95.900002 0
48.772003 8.402667 95.900002 65793
48.95467 8.402667 95.900002 65793
49.137333 8.402667 95.900002 0
49.320004 8.402667 95.900002 263
49.347813 8.3763819 95.600006 855829
49.426289 8.3588581 95.400009 790591
49.608006 8.3588581 95.400009 330040
49.633141 8.332571 95.100006 512
49.814289 8.332571 95.100006 66304
49.99543 8.332571 95.100006 256
50.176575 8.332571 95.100006 256
43.963428 8.7554293 97.800003 197379
44.149715 8.7554293 97.800003 131586
44.335999 8.7554293 97.800003 65793
44.522285 8.7554293 97.800003 65793
44.708572 8.7554293 97.800003 65793
44.894859 8.7554293 97.800003 131586
45.081146 8.7554293 97.800003 131847
45.267429 8.7554293 97.800003 131847
45.314289 8.7285709 97.5 393986
45.40667 8.7106667 97.300003 393986
45.451431 8.6838093 97 394240
45.636192 8.6838093 97 394240
45.537525 8.6300955 96.400002 196866
45.721142 8.6300955 96.400002 196866
45.809525 8.6121912 96.200005 196866
45.849335 8.5853338 95.900002 131073
45.888 8.5584764 95.600006 131073
46.070095 8.5584764 95.600006 131073
46.15543 8.5405712 95.400009 65793
46.191429 8.5137148 95.100006 65793
46.37257 8.5137148 95.100006 131586
46.553715 8.5137148 95.100006 65793
46.734856 8.5137148 95.100006 0
46.916 8.5137148 95.100006 0
46.948578 8.4868584 94.800011 0
47.129147 8.4868584 94.800011 0
47.309719 8.4868584 94.800011 65793
47.490292 8.4868584 94.800011 65793
47.972576 8.5405712 95.400009 0
48.154289 8.5405712 95.400009 0
48.437332 8.5584764 95.600006 0
48.619431 8.5584764 95.600006 65793
48.801525 8.5584764 95.600006 65793
48.98362 8.5584764 95.600006 65793
49.165714 8.5584764 95.600006 65809
49.244576 8.5405712 95.400009 2171185
49.426289 8.5405712 95.400009 2433106
49.608006 8.5405712 95.400009 1051453
49.633141 8.5137148 95.100006 65793
49.657146 8.4868584 94.800011 65793
49.837715 8.4868584 94.800011 65793
50.018288 8.4868584 94.800011 65793
50.19886 8.4868584 94.800011 65793
50.379436 8.4868584 94.800011 65793
45.5 8.9142857 97.5 328706
45.592003 8.8960009 97.300003 197379
45.636192 8.8685713 97 197379
45.537525 8.813715 96.400002 196866
45.721142 8.813715 96.400002 196866
45.809525 8.7954292 96.200005 131073
45.849335 8.7680006 95.900002 131073
45.888 8.740571 95.600006 0
46.070095 8.740571 95.600006 65793
46.15543 8.7222862 95.400009 65793
46.191429 8.6948576 95.100006 65793
46.226292 8.6674299 94.800011 0
46.40686 8.6674299 94.800011 65793
46.587433 8.6674299 94.800011 65563
46.768002 8.6674299 94.800011 262686
46.948578 8.6674299 94.800011 196907
47.129147 8.6674299 94.800011 39
47.309719 8.6674299 94.800011 65536
47.490292 8.6674299 94.800011 131073
47.821716 8.6948576 95.100006 0
48.002861 8.6948576 95.100006 0
48.336002 8.7222862 95.400009 65793
48.517715 8.7222862 95.400009 65793
48.801525 8.740571 95.600006 131073
48.98362 8.740571 95.600006 131073
49.165714 8.740571 95.600006 65800
49.244576 8.7222862 95.400009 1250074
49.426289 8.7222862 95.400009 1447737
49.608006 8.7222862 95.400009 658221
49.633141 8.6948576 95.100006 0
49.657146 8.6674299 94.800011 65793
49.837715 8.6674299 94.800011 65793
50.018288 8.6674299 94.800011 65793
50.19886 8.6674299 94.800011 65793
50.379436 8.6674299 94.800011 65793
50.560005 8.6674299 94.800011 131586
45.636192 9.0533342 97 131840
45.537525 8.9973335 96.400002 131073
45.721142 8.9973335 96.400002 131073
45.809525 8.9786673 96.200005 131073
45.849335 8.9506674 95.900002 131073
45.792004 8.9040003 95.400009 65793
45.973717 8.9040003 95.400009 65793
46.010288 8.8760004 95.100006 65793
46.191429 8.8760004 95.100006 65793
46.226292 8.8480005 94.800011 0
46.40686 8.8480005 94.800011 197379
46.587433 8.8480005 94.800011 2300741
46.768002 8.8480005 94.800011 5261426
46.948578 8.8480005 94.800011 5131323
47.029716 8.8293333 94.600006 1644294
47.209908 8.8293333 94.600006 65536
47.390095 8.8293333 94.600006 131073
47.67086 8.8480005 94.800011 65793
47.851433 8.8480005 94.800011 65793
48.184002 8.8760004 95.100006 65793
48.365143 8.8760004 95.100006 65793
48.699429 8.9040003 95.400009 65793
48.98362 8.9226675 95.600006 65793
49.165714 8.9226675 95.600006 0
49.244576 8.9040003 95.400009 0
49.426289 8.9040003 95.400009 0
49.608006 8.9040003 95.400009 0
49.633141 8.8760004 95.100006 65536
49.814289 8.8760004 95.100006 131328
49.837715 8.8480005 94.800011 65793
50.018288 8.8480005 94.800011 65793
50.092953 8.8293333 94.600006 65793
50.273144 8.8293333 94.600006 65793
50.453335 8.8293333 94.600006 65793
50.633526 8.8293333 94.600006 131586
50.813717 8.8293333 94.600006 197632
45.679237 9.2095242 96.700005 65793
45.721142 9.180953 96.400002 65793
45.809525 9.1619053 96.200005 65793
45.849335 9.1333342 95.900002 65793
45.792004 9.0857143 95.400009 0
45.973717 9.0857143 95.400009 65793
46.010288 9.0571432 95.100006 65793
46.045719 9.028573 94.800011 65793
46.226292 9.028573 94.800011 256
46.40686 9.028573 94.800011 512
46.587433 9.028573 94.800011 1972033
46.768002 9.028573 94.800011 4801132
46.849525 9.0095243 94.600006 4803922
47.029716 9.0095243 94.600006 658963
47.209908 9.0095243 94.600006 65536
47.390095 9.0095243 94.600006 197120
47.570286 9.0095243 94.600006 196866
47.750481 9.0095243 94.600006 131073
47.930672 9.0095243 94.600006 65793
48.110859 9.0095243 94.600006 65793
48.393147 9.028573 94.800011 65793
48.727432 9.0571432 95.100006 65793
48.754292 9.028573 94.800011 65793
48.93486 9.028573 94.800011 65793
49.115433 9.028573 94.800011 0
49.192001 9.0095243 94.600006 65793
49.372192 9.0095243 94.600006 0
49.657146 9.028573 94.800011 65793
49.732571 9.0095243 94.600006 65793
49.912766 9.0095243 94.600006 65793
50.092953 9.0095243 94.600006 65793
50.273144 9.0095243 94.600006 65793
50.560005 9.028573 94.800011 65793
50.633526 9.0095243 94.600006 131586
50.813717 9.0095243 94.600006 131840
50.993908 9.0095243 94.600006 197632
45.904766 9.3645716 96.400002 65793
45.992764 9.3451433 96.200005 0
45.792004 9.2674294 95.400009 65793
45.973717 9.2674294 95.400009 65793
46.010288 9.238286 95.100006 65793
46.045719 9.2091436 94.800011 65793
46.226292 9.2091436 94.800011 65793
46.40686 9.2091436 94.800011 0
46.587433 9.2091436 94.800011 131588
46.768002 9.2091436 94.800011 131588
46.849525 9.1897144 94.600006 197120
47.029716 9.1897144 94.600006 65536
47.209908 9.1897144 94.600006 131073
47.390095 9.1897144 94.600006 196866
47.41943 9.1605711 94.300003 131586
47.599049 9.1605711 94.300003 131586
47.778667 9.1605711 94.300003 65793
47.958286 9.1605711 94.300003 65793
48.137901 9.1605711 94.300003 66048
48.061337 9.1120005 93.800003 66048
48.240002 9.1120005 93.800003 65793
48.831619 9.1897144 94.600006 65793
49.01181 9.1897144 94.600006 65793
49.192001 9.1897144 94.600006 65793
49.372192 9.1897144 94.600006 65793
49.657146 9.2091436 94.800011 65793
49.732571 9.1897144 94.600006 65793
49.912766 9.1897144 94.600006 65793
50.092953 9.1897144 94.600006 65793
50.273144 9.1897144 94.600006 65793
50.453335 9.1897144 94.600006 65793
50.47295 9.1605711 94.300003 65793
50.222862 9.0828571 93.500008 131840
50.400955 9.0828571 93.500008 131840
50.579048 9.0828571 93.500008 131586
46.088383 9.5481911 96.400002 0
45.792004 9.4491434 95.400009 65793
45.973717 9.4491434 95.400009 65793
46.010288 9.4194298 95.100006 65793
46.191429 9.4194298 95.100006 65793
46.226292 9.3897152 94.800011 65793
46.40686 9.3897152 94.800011 65793
46.587433 9.3897152 94.800011 65795
46.768002 9.3897152 94.800011 2
46.948578 9.3897152 94.800011 0
47.029716 9.3699045 94.600006 0
47.209908 9.3699045 94.600006 65793
47.390095 9.3699045 94.600006 65793
47.41943 9.3401899 94.300003 65793
47.599049 9.3401899 94.300003 65793
47.778667 9.3401899 94.300003 131586
47.805714 9.3104773 94.000008 65793
47.984764 9.3104773 94.000008 65793
47.907619 9.260952 93.500008 65793
48.085716 9.260952 93.500008 65793
48.521908 9.3104773 94.000008 0
48.85638 9.3401899 94.300003 0
49.035999 9.3401899 94.300003 65793
49.372192 9.3699045 94.600006 65793
49.552383 9.3699045 94.600006 65793
49.837715 9.3897152 94.800011 65793
50.018288 9.3897152 94.800011 65793
49.934093 9.3401899 94.300003 65793
50.113712 9.3401899 94.300003 65793
50.293331 9.3401899 94.300003 65793
50.205334 9.2906666 93.800003 65793
50.222862 9.260952 93.500008 65793
50.400955 9.260952 93.500008 65793
50.741333 9.2906666 93.800003 131586
50.920002 9.2906666 93.800003 131586
51.098667 9.2906666 93.800003 197379
55.441338 9.5779057 96.700005 1513239
55.625526 9.5779057 96.700005 1643542
55.348003 9.4986668 95.900002 1446163
55.530666 9.4986668 95.900002 1247748
45.888 9.6510477 95.600006 0
46.070095 9.6510477 95.600006 65793
46.15543 9.6308584 95.400009 65793
46.191429 9.6005726 95.100006 65793
46.226292 9.5702868 94.800011 65793
46.40686 9.5702868 94.800011 65793
46.587433 9.5702868 94.800011 65795
46.768002 9.5702868 94.800011 65795
46.849525 9.5500956 94.600006 65793
47.029716 9.5500956 94.600006 0
47.060192 9.5198097 94.300003 65793
47.239811 9.5198097 94.300003 65793
47.41943 9.5198097 94.300003 66048
47.44762 9.4895248 94.000008 66048
47.626667 9.4895248 94.000008 65793
47.805714 9.4895248 94.000008 131586
47.882668 9.4693336 93.800003 65793
47.907619 9.4390478 93.500008 65793
48.085716 9.4390478 93.500008 65793
48.521908 9.4895248 94.000008 65793
48.85638 9.5198097 94.300003 65793
49.035999 9.5198097 94.300003 65793
49.372192 9.5500956 94.600006 65793
49.552383 9.5500956 94.600006 65793
49.837715 9.5702868 94.800011 65793
50.018288 9.5702868 94.800011 65793
49.934093 9.5198097 94.300003 65793
49.954285 9.4895248 94.000008 65793
50.133335 9.4895248 94.000008 65793
50.205334 9.4693336 93.800003 65793
50.384003 9.4693336 93.800003 66048
50.562668 9.4693336 93.800003 66048
50.741333 9.4693336 93.800003 65793
50.920002 9.4693336 93.800003 65793
51.098667 9.4693336 93.800003 131586
51.277332 9.4693336 93.800003 131586
54.9021 9.7318096 96.400002 1514000
55.08572 9.7318096 96.400002 2171921
55.269329 9.7318096 96.400002 2237714
55.337906 9.7116194 96.200005 2369309
55.348003 9.6813335 95.900002 1842965
55.530666 9.6813335 95.900002 1182991
55.713337 9.6813335 95.900002 1117198
45.888 9.8331432 95.600006 65795
46.070095 9.8331432 95.600006 65795
46.15543 9.8125715 95.400009 513
46.191429 9.7817144 95.100006 513
46.226292 9.7508583 94.800011 513
46.40686 9.7508583 94.800011 513
46.587433 9.7508583 94.800011 65793
46.768002 9.7508583 94.800011 65793
46.849525 9.7302866 94.600006 65793
46.880569 9.6994286 94.300003 65793
47.060192 9.6994286 94.300003 65793
47.239811 9.6994286 94.300003 65793
47.268574 9.6685715 94.000008 65793
47.346668 9.6479998 93.800003 65793
47.525333 9.6479998 93.800003 65793
47.703999 9.6479998 93.800003 65793
47.729527 9.6171427 93.500008 65793
47.907619 9.6171427 93.500008 65793
48.085716 9.6171427 93.500008 65793
48.263813 9.6171427 93.500008 65793
48.597332 9.6479998 93.800003 65793
49.296005 9.7508583 94.800011 65793
49.372192 9.7302866 94.600006 65793
49.552383 9.7302866 94.600006 65793
49.732571 9.7302866 94.600006 65793
49.754478 9.6994286 94.300003 65793
49.934093 9.6994286 94.300003 65793
49.848 9.6479998 93.800003 65793
50.026669 9.6479998 93.800003 65793
50.205334 9.6479998 93.800003 65793
50.384003 9.6479998 93.800003 65793
50.562668 9.6479998 93.800003 65793
50.741333 9.6479998 93.800003 131586
50.920002 9.6479998 93.800003 131586
51.098667 9.6479998 93.800003 65793
51.277332 9.6479998 93.800003 131586
51.456005 9.6479998 93.800003 131586
51.634663 9.6479998 93.800003 197379
51.813335 9.6479998 93.800003 329728
51.992001 9.6479998 93.800003 461314
52.448769 9.6994286 94.300003 461834
54.534859 9.9154291 96.400002 659981
54.718475 9.9154291 96.400002 857106
54.9021 9.9154291 96.400002 988692
54.971432 9.8948584 96.200005 1842708
55.154671 9.8948584 96.200005 1842708
55.165333 9.8640003 95.900002 1842204
55.348003 9.8640003 95.900002 1710618
55.530666 9.8640003 95.900002 1643542
55.713337 9.8640003 95.900002 1577749
55.896004 9.8640003 95.900002 1183245
46.032001 10.046667 95.900002 65795
46.070095 10.015238 95.600006 65795
46.25219 10.015238 95.600006 65793
46.191429 9.9628563 95.100006 65793
46.226292 9.9314289 94.800011 65793
46.40686 9.9314289 94.800011 65793
46.587433 9.9314289 94.800011 65793
46.669334 9.9104767 94.600006 65793
46.849525 9.9104767 94.600006 65793
46.880569 9.8790483 94.300003 65793
46.91048 9.84762 94.000008 65793
47.089527 9.84762 94.000008 65793
47.168003 9.8266668 93.800003 65793
47.346668 9.8266668 93.800003 65793
47.525333 9.8266668 93.800003 65793
47.551434 9.7952385 93.500008 65793
47.729527 9.7952385 93.500008 65793
47.907619 9.7952385 93.500008 65793
47.982857 9.7742863 93.300003 131588
48.160572 9.7742863 93.300003 65795
48.338284 9.7742863 93.300003 65793
48.516003 9.7742863 93.300003 65793
48.693718 9.7742863 93.300003 65793
49.395241 9.8790483 94.300003 65793
49.57486 9.8790483 94.300003 65793
49.754478 9.8790483 94.300003 65793
49.510479 9.7952385 93.500008 65793
49.688576 9.7952385 93.500008 65793
49.866669 9.7952385 93.500008 65793
50.205334 9.8266668 93.800003 65793
50.384003 9.8266668 93.800003 65793
50.400955 9.7952385 93.500008 65793
50.579048 9.7952385 93.500008 66048
50.757145 9.7952385 93.500008 66048
50.935238 9.7952385 93.500008 131586
51.113338 9.7952385 93.500008 65793
51.291435 9.7952385 93.500008 131586
51.634663 9.8266668 93.800003 131586
51.813335 9.8266668 93.800003 263172
51.992001 9.8266668 93.800003 328965
52.448769 9.8790483 94.300003 396041
52.795811 9.9104767 94.600006 461834
53.088005 9.9314289 94.800011 593420
53.437145 9.9628563 95.100006 593420
54.069336 10.046667 95.900002 528395
55.165333 10.046667 95.900002 1710618
55.348003 10.046667 95.900002 1776411
55.356956 10.015238 95.600006 1775382
55.539047 10.015238 95.600006 1709589
55.721146 10.015238 95.600006 1575950
55.903236 10.015238 95.600006 1378571
46.25219 10.197334 95.600006 65793
46.191429 10.144 95.100006 65793
46.226292 10.112001 94.800011 65793
46.40686 10.112001 94.800011 65793
46.489143 10.090667 94.600006 65793
46.669334 10.090667 94.600006 65793
46.849525 10.090667 94.600006 65793
46.880569 10.058667 94.300003 65793
46.91048 10.026668 94.000008 65793
47.089527 10.026668 94.000008 65793
47.168003 10.005333 93.800003 65793
47.195236 9.9733334 93.500008 65793
47.373337 9.9733334 93.500008 65793
47.551434 9.9733334 93.500008 65793
47.729527 9.9733334 93.500008 65793
47.907619 9.9733334 93.500008 65793
47.828575 9.9200001 93.000008 65793
48.005714 9.9200001 93.000008 65793
48.182861 9.9200001 93.000008 65793
48.360001 9.9200001 93.000008 65793
48.432762 9.8986673 92.800003 65793
48.609524 9.8986673 92.800003 65793
48.89143 9.9200001 93.000008 65793
49.068573 9.9200001 93.000008 65793
49.245716 9.9200001 93.000008 65795
49.582287 9.9519997 93.300003 65795
49.760006 9.9519997 93.300003 65793
50.044762 9.9733334 93.500008 65793
50.222862 9.9733334 93.500008 65793
50.400955 9.9733334 93.500008 65793
50.579048 9.9733334 93.500008 65793
50.757145 9.9733334 93.500008 65793
50.935238 9.9733334 93.500008 65793
51.113338 9.9733334 93.500008 65793
51.291435 9.9733334 93.500008 131586
51.469528 9.9733334 93.500008 131586
51.813335 10.005333 93.800003 263172
51.992001 10.005333 93.800003 328965
52.448769 10.058667 94.300003 198660
52.62838 10.058667 94.300003 264453
52.976006 10.090667 94.600006 657930
53.437145 10.144 95.100006 657930
53.900192 10.197334 95.600006 723723
54.982674 10.229334 95.900002 1579032
55.165333 10.229334 95.900002 1710368
55.174858 10.197334 95.600006 2039333
55.356956 10.197334 95.600006 2564644
55.539047 10.197334 95.600006 2433058
55.721146 10.197334 95.600006 1510157
55.903236 10.197334 95.600006 1444364
46.37257 10.325143 95.100006 0
46.40686 10.292572 94.800011 0
46.489143 10.270857 94.600006 0
46.669334 10.270857 94.600006 0
46.849525 10.270857 94.600006 65792
46.880569 10.238285 94.300003 65792
46.91048 10.205714 94.000008 65793
46.989334 10.184 93.800003 65793
47.168003 10.184 93.800003 65793
47.195236 10.151429 93.500008 65793
47.373337 10.151429 93.500008 65793
47.551434 10.151429 93.500008 65793
47.729527 10.151429 93.500008 65793
47.805141 10.129714 93.300003 65793
47.828575 10.097143 93.000008 65793
48.005714 10.097143 93.000008 65793
48.079239 10.075429 92.800003 65793
48.256001 10.075429 92.800003 65793
48.432762 10.075429 92.800003 65793
48.609524 10.075429 92.800003 65793
48.786289 10.075429 92.800003 65793
48.963047 10.075429 92.800003 65793
49.139809 10.075429 92.800003 262411
49.422863 10.097143 93.000008 196618
49.760006 10.129714 93.300003 131073
50.044762 10.151429 93.500008 131073
50.222862 10.151429 93.500008 65793
50.400955 10.151429 93.500008 65793
50.579048 10.151429 93.500008 65793
50.757145 10.151429 93.500008 65793
50.935238 10.151429 93.500008 65795
51.113338 10.151429 93.500008 131588
51.291435 10.151429 93.500008 197379
51.469528 10.151429 93.500008 197379
51.813335 10.184 93.800003 328965
51.992001 10.184 93.800003 460551
52.448769 10.238285 94.300003 328715
52.62838 10.238285 94.300003 526094
52.976006 10.270857 94.600006 723723
53.437145 10.325143 95.100006 723723
53.78743 10.357715 95.400009 461834
54.992764 10.379429 95.600006 1448993
55.174858 10.379429 95.600006 1646372
55.356956 10.379429 95.600006 2695980
55.539047 10.379429 95.600006 2761773
55.721146 10.379429 95.600006 2168593
55.903236 10.379429 95.600006 1444870
46.587433 10.473145 94.800011 0
46.768002 10.473145 94.800011 0
46.948578 10.473145 94.800011 0
46.880569 10.417905 94.300003 0
46.91048 10.384762 94.000008 0
46.989334 10.362667 93.800003 0
47.168003 10.362667 93.800003 65793
47.195236 10.329524 93.500008 65793
47.373337 10.329524 93.500008 65793
47.551434 10.329524 93.500008 65793
47.729527 10.329524 93.500008 65793
47.805141 10.307429 93.300003 65793
47.828575 10.274286 93.000008 65793
47.902477 10.252191 92.800003 65793
48.079239 10.252191 92.800003 65793
48.100002 10.219049 92.500008 65793
48.276192 10.219049 92.500008 65795
48.452385 10.219049 92.500008 65795
48.786289 10.252191 92.800003 65793
48.963047 10.252191 92.800003 65793
49.139809 10.252191 92.800003 196868
49.422863 10.274286 93.000008 196868
49.760006 10.307429 93.300003 131073
50.044762 10.329524 93.500008 65536
50.222862 10.329524 93.500008 0
50.400955 10.329524 93.500008 0
50.579048 10.329524 93.500008 65793
50.757145 10.329524 93.500008 65793
50.935238 10.329524 93.500008 65793
51.113338 10.329524 93.500008 131586
51.291435 10.329524 93.500008 131847
51.634663 10.362667 93.800003 197640
51.813335 10.362667 93.800003 394758
51.992001 10.362667 93.800003 394758
52.448769 10.417905 94.300003 460301
52.62838 10.417905 94.300003 591887
52.976006 10.451048 94.600006 657930
53.437145 10.506286 95.100006 723723
55.422859 10.53943 95.400009 2170919
46.768002 10.653715 94.800011 0
46.948578 10.653715 94.800011 0
46.880569 10.597524 94.300003 0
46.91048 10.56381 94.000008 0
46.989334 10.541334 93.800003 0
47.168003 10.541334 93.800003 65792
47.195236 10.50762 93.500008 65792
47.373337 10.50762 93.500008 65793
47.551434 10.50762 93.500008 65793
47.729527 10.50762 93.500008 65793
47.805141 10.485144 93.300003 0
47.828575 10.451429 93.000008 65793
47.902477 10.428952 92.800003 65793
48.079239 10.428952 92.800003 65793
48.100002 10.395239 92.500008 65793
48.276192 10.395239 92.500008 65795
48.452385 10.395239 92.500008 65795
48.786289 10.428952 92.800003 65793
48.963047 10.428952 92.800003 65793
49.245716 10.451429 93.000008 65793
49.422863 10.451429 93.000008 65793
49.760006 10.485144 93.300003 65793
50.044762 10.50762 93.500008 0
50.222862 10.50762 93.500008 0
50.400955 10.50762 93.500008 0
50.579048 10.50762 93.500008 0
50.920002 10.541334 93.800003 65793
51.098667 10.541334 93.800003 131586
51.277332 10.541334 93.800003 197379
51.456005 10.541334 93.800003 263172
51.634663 10.541334 93.800003 394758
51.923813 10.56381 94.000008 460551
52.102859 10.56381 94.000008 526344
52.448769 10.597524 94.300003 526094
52.62838 10.597524 94.300003 723473
52.976006 10.631239 94.600006 657930
54.886288 10.687428 95.100006 1712919
55.067425 10.687428 95.100006 2105376
55.248577 10.687428 95.100006 2105376
55.429714 10.687428 95.100006 2827030
55.610859 10.687428 95.100006 2958616
46.880569 10.777143 94.300003 65793
46.91048 10.742857 94.000008 65793
46.989334 10.72 93.800003 65793
47.168003 10.72 93.800003 65792
47.195236 10.685715 93.500008 65792
47.373337 10.685715 93.500008 65792
47.551434 10.685715 93.500008 65792
47.729527 10.685715 93.500008 65793
47.805141 10.662857 93.300003 65793
47.828575 10.628572 93.000008 65793
47.902477 10.605715 92.800003 65793
48.079239 10.605715 92.800003 65793
48.256001 10.605715 92.800003 65793
48.432762 10.605715 92.800003 65793
48.609524 10.605715 92.800003 65793
48.786289 10.605715 92.800003 65793
49.068573 10.628572 93.000008 65793
49.245716 10.628572 93.000008 65793
49.582287 10.662857 93.300003 65793
49.760006 10.662857 93.300003 65793
50.044762 10.685715 93.500008 0
50.222862 10.685715 93.500008 0
50.400955 10.685715 93.500008 0
50.579048 10.685715 93.500008 65793
50.757145 10.685715 93.500008 131586
50.935238 10.685715 93.500008 197379
51.277332 10.72 93.800003 263172
51.456005 10.72 93.800003 328965
51.744759 10.742857 94.000008 460551
52.089523 10.777143 94.300003 526094
52.269142 10.777143 94.300003 657680
52.615623 10.811429 94.600006 657680
52.795811 10.811429 94.600006 789266
53.088005 10.834287 94.800011 789516
54.958092 10.811429 94.600006 2039583
55.13829 10.811429 94.600006 2960669
55.318474 10.811429 94.600006 2894876
