# .PCD v0.7 - Point Cloud Data file format
VERSION 0.7
FIELDS x y z rgb
SIZE 4 4 4 4
TYPE F F F U
COUNT 1 1 1 1
WIDTH 1244
HEIGHT 1
VIEWPOINT 0 0 0 0 1 0 0
POINTS 1244
DATA ascii
4.446857 -8.1525717 129.70001 14011883
4.7119999 -8.184001 130.20001 14735606
4.9409523 -8.1525717 129.70001 16644607
5.1880002 -8.1525717 129.70001 16578814
5.4560003 -8.184001 130.20001 12888464
5.6820955 -8.1525717 129.70001 9072470
5.9291434 -8.1525717 129.70001 8478575
6.1761909 -8.1525717 129.70001 9202298
6.3984766 -8.1211433 129.20001 9861793
6.6445718 -8.1211433 129.20001 10651309
6.8906674 -8.1211433 129.20001 11111853
7.1367621 -8.1211433 129.20001 11375025
7.3828578 -8.1211433 129.20001 10980267
-25.060955 -6.7961903 111.5 6193521
-24.848572 -6.7961903 111.5 7772553
-24.724575 -6.8205724 111.90001 12381165
-24.511431 -6.8205724 111.90001 13236474
-24.298288 -6.8205724 111.90001 14548223
-23.999046 -6.7961903 111.5 14482430
-23.786667 -6.7961903 111.5 14220287
-23.574286 -6.7961903 111.5 14154494
-23.299049 -6.7779055 111.20001 12253688
-23.08724 -6.7779055 111.20001 12056309
-22.875429 -6.7779055 111.20001 8509638
-22.66362 -6.7779055 111.20001 7588536
-22.451811 -6.7779055 111.20001 4099708
-22.240002 -6.7779055 111.20001 3639157
-22.028193 -6.7779055 111.20001 3434812
-21.737906 -6.7535238 110.8 2908468
-21.526857 -6.7535238 110.8 2247474
-21.392765 -6.7779055 111.20001 2313267
-21.180954 -6.7779055 111.20001 2767649
-20.969145 -6.7779055 111.20001 2767649
-20.757336 -6.7779055 111.20001 2765833
-20.600952 -6.7961903 111.5 2765833
-20.388573 -6.7961903 111.5 2304011
-20.248573 -6.8205724 111.90001 2238218
-20.035429 -6.8205724 111.90001 1975305
-19.822289 -6.8205724 111.90001 1777926
-19.609144 -6.8205724 111.90001 1710089
-19.396002 -6.8205724 111.90001 1644296
-19.182858 -6.8205724 111.90001 1383170
-18.969715 -6.8205724 111.90001 1383170
-18.756573 -6.8205724 111.90001 1710089
-18.297905 -7.704381 126.40001 16514043
-18.057144 -7.704381 126.40001 16645629
-17.816381 -7.704381 126.40001 16514043
-17.575621 -7.704381 126.40001 16579836
-17.334858 -7.704381 126.40001 16514043
-17.148191 -7.7287621 126.8 16514043
-16.906666 -7.7287621 126.8 16514043
-16.665142 -7.7287621 126.8 16514043
-16.423618 -7.7287621 126.8 16514043
-16.182095 -7.7287621 126.8 16514043
-15.940573 -7.7287621 126.8 16514043
-15.699047 -7.7287621 126.8 16514043
-15.457524 -7.7287621 126.8 16514043
-15.216001 -7.7287621 126.8 16514043
-14.974475 -7.7287621 126.8 16514043
-14.732952 -7.7287621 126.8 16514043
-14.491428 -7.7287621 126.8 16514043
-14.249906 -7.7287621 126.8 16514043
-14.008381 -7.7287621 126.8 16514043
-13.766856 -7.7287621 126.8 16514043
-13.525334 -7.7287621 126.8 16514043
-13.33619 -7.7592382 127.3 16514043
-13.042286 -7.7287621 126.8 16514043
-12.800762 -7.7287621 126.8 16711422
-12.51962 -7.704381 126.40001 16711422
-12.278858 -7.704381 126.40001 16514043
-12.038096 -7.704381 126.40001 786495
-11.797335 -7.704381 126.40001 327736
-6.5424762 -6.7535238 110.8 2622471
-6.331429 -6.7535238 110.8 3543303
-6.1203809 -6.7535238 110.8 3938061
-5.9093337 -6.7535238 110.8 3611406
-5.6982856 -6.7535238 110.8 3677199
-5.4872384 -6.7535238 110.8 3546912
-5.2761903 -6.7535238 110.8 3415326
-5.0651431 -6.7535238 110.8 3611406
-4.8540955 -6.7535238 110.8 3414027
-4.6430478 -6.7535238 110.8 2294528
-4.4320002 -6.7535238 110.8 2557700
-4.2209525 -6.7535238 110.8 3212544
-4.0099049 -6.7535238 110.8 3212544
-3.812572 -6.7779055 111.20001 3212288
-3.6007621 -6.7779055 111.20001 3212288
-3.3889527 -6.7779055 111.20001 3212288
-3.1857145 -6.7961903 111.5 3278080
-2.9733334 -6.7961903 111.5 3278336
-2.7609522 -6.7961903 111.5 3278336
-2.5577145 -6.8205724 111.90001 3277830
-2.3445716 -6.8205724 111.90001 3475209
-2.1314285 -6.8205724 111.90001 4459787
-1.9251429 -6.8449526 112.3 4722959
-1.7112381 -6.8449526 112.3 4658965
-1.4973333 -6.8449526 112.3 4264207
-1.2868572 -6.8632388 112.60001 2491905
-1.072381 -6.8632388 112.60001 2228736
-0.85790485 -6.8632388 112.60001 786688
-0.64571428 -6.887619 113 918272
-0.43047619 -6.887619 113 9995442
-0.21600002 -6.9120007 113.40001 14929917
0 -6.9120007 113.40001 16711422
1.7106669 -7.8201914 128.30002 16052981
2.2080002 -7.850667 128.80002 14933489
2.4533336 -7.850667 128.80002 14340596
2.6881905 -7.8201914 128.30002 14274803
2.9325719 -7.8201914 128.30002 13615846
3.1893334 -7.850667 128.80002 13484260
3.4346671 -7.850667 128.80002 13483239
3.6800001 -7.850667 128.80002 13417446
3.9375238 -7.8750477 129.20001 13089771
4.183619 -7.8750477 129.20001 13747701
4.4297142 -7.8750477 129.20001 14735354
4.6758099 -7.8750477 129.20001 15853823
4.9219046 -7.8750477 129.20001 16644607
5.1680002 -7.8750477 129.20001 14670817
5.4140954 -7.8750477 129.20001 10188874
5.6601906 -7.8750477 129.20001 8609842
5.9062858 -7.8750477 129.20001 9006216
6.1523814 -7.8750477 129.20001 9993111
6.3984766 -7.8750477 129.20001 10781614
6.6239996 -7.850667 128.80002 11110579
6.8693342 -7.850667 128.80002 11309232
7.1146674 -7.850667 128.80002 11309232
-22.875429 -6.5660963 111.20001 7852221
-22.66362 -6.5660963 111.20001 6996912
-22.451811 -6.5660963 111.20001 2982506
-22.240002 -6.5660963 111.20001 2916713
-22.028193 -6.5660963 111.20001 2973481
-21.816383 -6.5660963 111.20001 2973481
-20.461716 -6.607429 111.90001 2435093
-20.248573 -6.607429 111.90001 2171921
-20.035429 -6.607429 111.90001 1843719
-19.822289 -6.607429 111.90001 1712133
-19.609144 -6.607429 111.90001 1579784
-19.396002 -6.607429 111.90001 1513991
-18.225525 -7.4340954 125.90001 16514043
-17.985716 -7.4340954 125.90001 16579836
-17.745907 -7.4340954 125.90001 16514043
-17.506096 -7.4340954 125.90001 16514043
-17.334858 -7.4636192 126.40001 16514043
-17.094095 -7.4636192 126.40001 16514043
-16.853334 -7.4636192 126.40001 16514043
-16.612572 -7.4636192 126.40001 16514043
-16.371811 -7.4636192 126.40001 16514043
-16.131048 -7.4636192 126.40001 16514043
-15.890286 -7.4636192 126.40001 16514043
-15.649525 -7.4636192 126.40001 16514043
-15.408762 -7.4636192 126.40001 16514043
-15.216001 -7.4872375 126.8 16514043
-14.974475 -7.4872375 126.8 16514043
-14.732952 -7.4872375 126.8 16514043
-14.491428 -7.4872375 126.8 16514043
-14.249906 -7.4872375 126.8 16514043
-14.008381 -7.4872375 126.8 16514043
-13.723429 -7.4636192 126.40001 16514043
-13.482668 -7.4636192 126.40001 16514043
-13.241905 -7.4636192 126.40001 16514043
-13.001144 -7.4636192 126.40001 16514043
-12.760382 -7.4636192 126.40001 16711422
-12.51962 -7.4636192 126.40001 16711422
-12.278858 -7.4636192 126.40001 16645629
-12.038096 -7.4636192 126.40001 196692
-11.797335 -7.4636192 126.40001 79
-11.556573 -7.4636192 126.40001 131328
-6.1203809 -6.5424762 110.8 3347712
-5.9093337 -6.5424762 110.8 3612176
-5.6982856 -6.5424762 110.8 3612176
-5.4872384 -6.5424762 110.8 3677465
-5.2761903 -6.5424762 110.8 3677465
-5.0651431 -6.5424762 110.8 3678722
-4.8540955 -6.5424762 110.8 3678722
-4.6430478 -6.5424762 110.8 3016457
-4.4320002 -6.5424762 110.8 2950664
-4.2209525 -6.5424762 110.8 3081473
-4.0243812 -6.5660963 111.20001 3081473
-3.812572 -6.5660963 111.20001 3147266
-3.6007621 -6.5660963 111.20001 3147266
-3.3889527 -6.5660963 111.20001 3475200
-3.1857145 -6.5838089 111.5 3606786
-2.9733334 -6.5838089 111.5 3804160
-2.7708573 -6.607429 111.90001 4133121
-2.5577145 -6.607429 111.90001 3805971
-2.3445716 -6.607429 111.90001 3740178
-2.1314285 -6.607429 111.90001 3279361
-1.9251429 -6.6310472 112.3 3147776
-1.7112381 -6.6310472 112.3 2622730
-1.4973333 -6.6310472 112.3 2359558
-1.2868572 -6.6487627 112.60001 1901576
-1.0761905 -6.6723809 113 1835783
-0.86095238 -6.6723809 113 262144
-0.64571428 -6.6723809 113 656899
-0.43200004 -6.6960006 113.40001 10587586
-0.21600002 -6.6960006 113.40001 14929919
0 -6.6960006 113.40001 16711422
1.2171428 -7.5462861 127.80001 16645629
1.4605715 -7.5462861 127.80001 16381946
1.7040001 -7.5462861 127.80001 16184567
1.9474287 -7.5462861 127.80001 15394036
2.1908572 -7.5462861 127.80001 15065071
2.4342856 -7.5462861 127.80001 14274292
2.6777146 -7.5462861 127.80001 14011120
2.9211431 -7.5462861 127.80001 13418469
3.1769526 -7.57581 128.30002 13418469
3.4213338 -7.57581 128.30002 13222120
3.6657143 -7.57581 128.30002 13353706
3.9253335 -7.6053338 128.80002 14735606
4.1706672 -7.6053338 128.80002 15788287
4.4160004 -7.6053338 128.80002 16645118
4.6613336 -7.6053338 128.80002 16645118
4.9066672 -7.6053338 128.80002 13876386
5.1520004 -7.6053338 128.80002 10060392
5.4140954 -7.6289525 129.20001 9005664
5.6426668 -7.6053338 128.80002 9400422
5.8880005 -7.6053338 128.80002 10519966
6.1333342 -7.6053338 128.80002 11243689
6.3786669 -7.6053338 128.80002 11703740
6.5982862 -7.57581 128.30002 11637947
6.8426676 -7.57581 128.30002 11309230
-22.451811 -6.3542867 111.20001 2195559
-22.240002 -6.3542867 111.20001 2327145
-22.087618 -6.371429 111.5 3104038
-20.107048 -6.4171433 112.3 2040335
-19.893143 -6.4171433 112.3 1777163
-19.679237 -6.4171433 112.3 1318409
-19.465334 -6.4171433 112.3 1186823
-18.406668 -7.1714292 125.50002 16776191
-18.16762 -7.1714292 125.50002 16514043
-17.928572 -7.1714292 125.50002 16645629
-17.745907 -7.1942859 125.90001 16514043
-17.506096 -7.1942859 125.90001 16514043
-17.266285 -7.1942859 125.90001 16514043
-17.026478 -7.1942859 125.90001 16514043
-16.786667 -7.1942859 125.90001 16514043
-16.546858 -7.1942859 125.90001 16514043
-16.307049 -7.1942859 125.90001 16514043
-16.067238 -7.1942859 125.90001 16514043
-15.827429 -7.1942859 125.90001 16514043
-15.587621 -7.1942859 125.90001 16514043
-15.34781 -7.1942859 125.90001 16514043
-15.168001 -7.2228575 126.40001 16514043
-14.927238 -7.2228575 126.40001 16514043
-14.686478 -7.2228575 126.40001 16514043
-14.491428 -7.2457142 126.8 16514043
-14.204953 -7.2228575 126.40001 16514043
-13.964191 -7.2228575 126.40001 16514043
-13.723429 -7.2228575 126.40001 16514043
-13.429335 -7.1942859 125.90001 16514043
-13.189525 -7.1942859 125.90001 16514043
-12.949714 -7.1942859 125.90001 16514043
-12.709906 -7.1942859 125.90001 16711422
-12.470096 -7.1942859 125.90001 16711422
-12.230286 -7.1942859 125.90001 16645629
-11.990478 -7.1942859 125.90001 65615
-11.797335 -7.2228575 126.40001 75
-5.6982856 -6.331429 110.8 3677465
-5.4872384 -6.331429 110.8 3479572
-5.2761903 -6.331429 110.8 3676951
-5.0651431 -6.331429 110.8 3742222
-4.8540955 -6.331429 110.8 3676429
-4.6430478 -6.331429 110.8 3412487
-4.4320002 -6.331429 110.8 3149315
-4.2209525 -6.331429 110.8 2950914
-4.0243812 -6.3542867 111.20001 3016707
-3.8228571 -6.371429 111.5 3279631
-3.610476 -6.371429 111.5 3279631
-3.3980951 -6.371429 111.5 3935494
-3.1857145 -6.371429 111.5 4067080
-2.9733334 -6.371429 111.5 3477260
-2.7708573 -6.3942866 111.90001 3543053
-2.5577145 -6.3942866 111.90001 3349533
-2.3445716 -6.3942866 111.90001 2494224
-2.1390476 -6.4171433 112.3 918528
-1.9251429 -6.4171433 112.3 786944
-1.7112381 -6.4171433 112.3 524545
-1.4973333 -6.4171433 112.3 524545
-1.2868572 -6.4342866 112.60001 918533
-1.0761905 -6.4571433 113 1181705
-0.86095238 -6.4571433 113 262144
-0.64571428 -6.4571433 113 591106
-0.43200004 -6.48 113.40001 10982335
-0.21600002 -6.48 113.40001 14929915
0.96990478 -7.2742858 127.3 16579836
1.2123809 -7.2742858 127.3 16579836
1.4548571 -7.2742858 127.3 16316153
1.6973333 -7.2742858 127.3 16184567
1.9474287 -7.3028579 127.80001 15460083
2.1908572 -7.3028579 127.80001 15065325
2.4342856 -7.3028579 127.80001 14866931
2.6777146 -7.3028579 127.80001 14340587
2.9211431 -7.3028579 127.80001 14207213
3.164572 -7.3028579 127.80001 13878248
3.4080002 -7.3028579 127.80001 13157104
3.6514289 -7.3028579 127.80001 13749241
3.8948574 -7.3028579 127.80001 15920634
4.1382861 -7.3028579 127.80001 16775935
4.3988576 -7.3314285 128.30002 16645118
4.6432385 -7.3314285 128.30002 14802914
4.887619 -7.3314285 128.30002 10518832
5.3973336 -7.3600001 128.80002 8481137
5.6207623 -7.3314285 128.30002 10125962
5.8651438 -7.3314285 128.30002 10783156
6.1095247 -7.3314285 128.30002 11704258
6.3539052 -7.3314285 128.30002 11704767
-18.16762 -6.9323816 125.50002 16448250
-17.928572 -6.9323816 125.50002 16645629
-17.689526 -6.9323816 125.50002 16579836
-17.450478 -6.9323816 125.50002 16514043
-17.21143 -6.9323816 125.50002 16514043
-16.972382 -6.9323816 125.50002 16514043
-16.733335 -6.9323816 125.50002 16514043
-16.494287 -6.9323816 125.50002 16514043
-16.255239 -6.9323816 125.50002 16514043
-16.016191 -6.9323816 125.50002 16514043
-15.777143 -6.9323816 125.50002 16514043
-15.538096 -6.9323816 125.50002 16514043
-15.34781 -6.9544764 125.90001 16514043
-15.060001 -6.9323816 125.50002 16514043
-14.820952 -6.9323816 125.50002 16514043
-14.628382 -6.9544764 125.90001 16514043
-14.445715 -6.9820957 126.40001 16514043
-14.148763 -6.9544764 125.90001 16514043
-13.908953 -6.9544764 125.90001 16514043
-13.669142 -6.9544764 125.90001 16514043
-13.386668 -6.9323816 125.50002 16514043
-13.147621 -6.9323816 125.50002 16514043
-12.908572 -6.9323816 125.50002 16514043
-12.669524 -6.9323816 125.50002 16645629
-12.430478 -6.9323816 125.50002 16711422
-12.230286 -6.9544764 125.90001 16711422
-11.990478 -6.9544764 125.90001 79
-11.750667 -6.9544764 125.90001 75
-5.2761903 -6.1203809 110.8 3020046
-4.8540955 -6.1203809 110.8 3019012
-4.6430478 -6.1203809 110.8 3019012
-4.4320002 -6.1203809 110.8 2821633
-4.2209525 -6.1203809 110.8 2557448
-4.0243812 -6.142477 111.20001 2689034
-3.8228571 -6.1590476 111.5 2820379
-3.610476 -6.1590476 111.5 2754586
-3.3980951 -6.1590476 111.5 2229507
-3.1857145 -6.1590476 111.5 2097921
-2.9733334 -6.1590476 111.5 1573635
-2.7708573 -6.1811438 111.90001 1376256
-2.5577145 -6.1811438 111.90001 984067
-2.3445716 -6.1811438 111.90001 852481
-2.1314285 -6.1811438 111.90001 721408
-1.9182858 -6.1811438 111.90001 787200
-1.7051431 -6.1811438 111.90001 787204
-1.4973333 -6.2032385 112.3 852997
-1.2834285 -6.2032385 112.3 1115912
-1.0695238 -6.2032385 112.3 1181705
-0.86095238 -6.2419047 113 262144
-0.43047619 -6.2419047 113 10983865
1.4491428 -7.0041904 126.8 16250360
1.6906668 -7.0041904 126.8 16052981
1.9398096 -7.0318093 127.3 15459570
2.1822858 -7.0318093 127.3 15393777
2.4247618 -7.0318093 127.3 15327732
2.6672382 -7.0318093 127.3 15459318
2.9097142 -7.0318093 127.3 14999282
3.164572 -7.0594296 127.80001 14867696
3.4080002 -7.0594296 127.80001 15789559
3.6514289 -7.0594296 127.80001 16315903
3.8948574 -7.0594296 127.80001 16645629
4.1382861 -7.0594296 127.80001 16711422
4.3817143 -7.0594296 127.80001 14601156
4.6251431 -7.0594296 127.80001 9864060
-18.095238 -6.666666 125 16316664
-17.857143 -6.666666 125 16645629
-17.619047 -6.666666 125 16579836
-17.380953 -6.666666 125 16579836
-17.21143 -6.6933341 125.50002 16514043
-16.972382 -6.6933341 125.50002 16514043
-16.733335 -6.6933341 125.50002 16514043
-16.494287 -6.6933341 125.50002 16514043
-16.255239 -6.6933341 125.50002 16514043
-16.016191 -6.6933341 125.50002 16514043
-15.777143 -6.6933341 125.50002 16514043
-15.538096 -6.6933341 125.50002 16514043
-15.299049 -6.6933341 125.50002 16514043
-15.060001 -6.6933341 125.50002 16514043
-14.820952 -6.6933341 125.50002 16514043
-14.581907 -6.6933341 125.50002 16514043
-14.342858 -6.6933341 125.50002 16514043
-14.10381 -6.6933341 125.50002 16514043
-13.864763 -6.6933341 125.50002 16514043
-13.625714 -6.6933341 125.50002 16514043
-13.386668 -6.6933341 125.50002 16514043
-13.147621 -6.6933341 125.50002 16514043
-12.857142 -6.666666 125 16514043
-12.619047 -6.666666 125 16645629
-12.430478 -6.6933341 125.50002 16711422
-12.19143 -6.6933341 125.50002 16711422
-11.952382 -6.6933341 125.50002 65633
-11.713334 -6.6933341 125.50002 93
-4.8540955 -5.9093337 110.8 1773331
-4.6430478 -5.9093337 110.8 1773835
-4.4320002 -5.9093337 110.8 1642249
-4.2209525 -5.9093337 110.8 1510157
-4.0243812 -5.9306674 111.20001 1378571
-3.8228571 -5.9466667 111.5 722190
-3.610476 -5.9466667 111.5 393225
-3.3980951 -5.9466667 111.5 327936
-3.1857145 -5.9466667 111.5 262144
-2.9733334 -5.9466667 111.5 393729
-2.7708573 -5.9680004 111.90001 525315
-2.5577145 -5.9680004 111.90001 590338
-2.3445716 -5.9680004 111.90001 590338
-2.1314285 -5.9680004 111.90001 590338
-1.9182858 -5.9680004 111.90001 656131
-1.7051431 -5.9680004 111.90001 787204
-1.4920001 -5.9680004 111.90001 787204
1.2038096 -6.741334 126.40001 16579836
1.4491428 -6.7626672 126.8 16250360
1.6906668 -6.7626672 126.8 16118774
1.9321905 -6.7626672 126.8 15525363
2.1737142 -6.7626672 126.8 15327984
2.4247618 -6.7893333 127.3 15065073
2.6672382 -6.7893333 127.3 15065073
2.9097142 -6.7893333 127.3 14671087
3.1521904 -6.7893333 127.3 15657982
3.3946667 -6.7893333 127.3 16711422
3.6371429 -6.7893333 127.3 16711422
3.8796191 -6.7893333 127.3 16711422
4.1220951 -6.7893333 127.3 14606046
4.3645716 -6.7893333 127.3 10186849
4.6070476 -6.7893333 127.3 8476231
-17.548571 -6.4028578 124.5 16579836
-17.311428 -6.4028578 124.5 16579836
-17.142859 -6.4285712 125 16514043
-16.904762 -6.4285712 125 16514043
-16.666668 -6.4285712 125 16514043
-16.428572 -6.4285712 125 16514043
-16.190477 -6.4285712 125 16514043
-15.952381 -6.4285712 125 16514043
-15.714286 -6.4285712 125 16514043
-15.476191 -6.4285712 125 16514043
-15.238094 -6.4285712 125 16514043
-14.999999 -6.4285712 125 16514043
-14.761904 -6.4285712 125 16514043
-14.523808 -6.4285712 125 16514043
-14.285713 -6.4285712 125 16514043
-14.047618 -6.4285712 125 16514043
-13.809523 -6.4285712 125 16514043
-13.571427 -6.4285712 125 16514043
-13.28 -6.4028578 124.5 16514043
-13.042857 -6.4028578 124.5 16514043
-12.857142 -6.4285712 125 16514043
-12.619047 -6.4285712 125 16514043
-12.380953 -6.4285712 125 16711422
-12.142858 -6.4285712 125 16711422
-11.904762 -6.4285712 125 196733
-4.4320002 -5.6982856 110.8 327936
-4.2209525 -5.6982856 110.8 393477
-4.0243812 -5.7188573 111.20001 459270
-3.610476 -5.7342858 111.5 393477
-3.3980951 -5.7342858 111.5 393986
-3.1857145 -5.7342858 111.5 393986
-2.9840002 -5.7548571 111.90001 590338
-2.7609522 -5.7342858 111.5 656131
-2.5485716 -5.7342858 111.5 656131
-2.3445716 -5.7548571 111.90001 656131
-2.1314285 -5.7548571 111.90001 787204
-1.9182858 -5.7548571 111.90001 721411
-1.7051431 -5.7548571 111.90001 787204
-1.4920001 -5.7548571 111.90001 787204
1.1990477 -6.4748569 125.90001 16579836
1.4445716 -6.5005722 126.40001 16448250
1.6906668 -6.521143 126.8 16514043
1.9321905 -6.521143 126.8 15855093
2.1737142 -6.521143 126.8 15657714
2.4152381 -6.521143 126.8 15723507
2.6567619 -6.521143 126.8 15591921
2.8982856 -6.521143 126.8 16053494
3.1521904 -6.5468564 127.3 16579838
3.3946667 -6.5468564 127.3 16711422
3.6371429 -6.5468564 127.3 16711422
3.8796191 -6.5468564 127.3 14928791
-17.492191 -6.1459055 124.10001 16579836
-17.25581 -6.1459055 124.10001 16579836
-17.074286 -6.1657143 124.5 16514043
-16.837143 -6.1657143 124.5 16514043
-16.599998 -6.1657143 124.5 16514043
-16.310287 -6.1459055 124.10001 16514043
-16.073904 -6.1459055 124.10001 16514043
-15.888572 -6.1657143 124.5 16514043
-15.651428 -6.1657143 124.5 16514043
-15.414286 -6.1657143 124.5 16514043
-15.177143 -6.1657143 124.5 16514043
-14.94 -6.1657143 124.5 16514043
-14.702858 -6.1657143 124.5 16514043
-14.465714 -6.1657143 124.5 16514043
-14.228571 -6.1657143 124.5 16514043
-13.991429 -6.1657143 124.5 16514043
-13.754286 -6.1657143 124.5 16514043
-13.473713 -6.1459055 124.10001 16514043
-13.237333 -6.1459055 124.10001 16514043
-13.000954 -6.1459055 124.10001 16514043
-12.805716 -6.1657143 124.5 16514043
-12.568571 -6.1657143 124.5 16514043
-12.331429 -6.1657143 124.5 16711422
-12.094285 -6.1657143 124.5 16711422
-3.1857145 -5.5219045 111.5 262913
-2.7609522 -5.5219045 111.5 328706
-2.5485716 -5.5219045 111.5 590086
-2.3445716 -5.5417147 111.90001 590086
0.95619059 -6.215239 125.50002 16579836
1.1952381 -6.215239 125.50002 16514043
1.4388572 -6.2350478 125.90001 16448250
1.6853335 -6.25981 126.40001 16448250
1.9260952 -6.25981 126.40001 15855093
2.1668572 -6.25981 126.40001 15789300
2.4152381 -6.2796192 126.8 15921397
2.6567619 -6.2796192 126.8 16316155
2.8982856 -6.2796192 126.8 16711422
3.1398096 -6.2796192 126.8 16711422
3.3813336 -6.2796192 126.8 16711420
3.6228571 -6.2796192 126.8 15000802
-17.657143 -5.8857145 123.60001 16316666
-17.421715 -5.8857145 123.60001 16579836
-17.186287 -5.8857145 123.60001 16579836
-17.01943 -5.909524 124.10001 16514043
-16.783049 -5.909524 124.10001 16514043
-16.546667 -5.909524 124.10001 16514043
-16.244572 -5.8857145 123.60001 16514043
-16.009144 -5.8857145 123.60001 16514043
-15.837524 -5.909524 124.10001 16514043
-15.601143 -5.909524 124.10001 16514043
-15.364761 -5.909524 124.10001 16514043
-15.128382 -5.909524 124.10001 16514043
-14.892001 -5.909524 124.10001 16514043
-14.65562 -5.909524 124.10001 16514043
-14.419238 -5.909524 124.10001 16514043
-14.182858 -5.909524 124.10001 16514043
-13.946477 -5.909524 124.10001 16514043
-13.710096 -5.909524 124.10001 16514043
-13.419429 -5.8857145 123.60001 16514043
-13.184001 -5.8857145 123.60001 16514043
-12.948572 -5.8857145 123.60001 16514043
-12.764571 -5.909524 124.10001 16514043
-12.528192 -5.909524 124.10001 16514043
-12.291811 -5.909524 124.10001 16711422
-12.055429 -5.909524 124.10001 16711422
0.9523809 -5.9523811 125 16381944
1.1904762 -5.9523811 125 16184565
1.4285715 -5.9523811 125 16316153
4.742857 -5.9285717 124.5 12297422
19.260954 -6.0190482 126.40001 9724767
-17.600002 -5.6320004 123.20001 16185080
-17.365335 -5.6320004 123.20001 16645629
-17.130667 -5.6320004 123.20001 16645629
-16.950857 -5.6502862 123.60001 16514043
-16.715429 -5.6502862 123.60001 16514043
-16.48 -5.6502862 123.60001 16514043
-16.244572 -5.6502862 123.60001 16514043
-16.009144 -5.6502862 123.60001 16514043
-15.773715 -5.6502862 123.60001 16514043
-15.538285 -5.6502862 123.60001 16514043
-15.302857 -5.6502862 123.60001 16514043
-15.06743 -5.6502862 123.60001 16514043
-14.832001 -5.6502862 123.60001 16514043
-14.596573 -5.6502862 123.60001 16514043
-14.361143 -5.6502862 123.60001 16514043
-14.125715 -5.6502862 123.60001 16514043
-13.890285 -5.6502862 123.60001 16514043
-13.654858 -5.6502862 123.60001 16514043
-13.419429 -5.6502862 123.60001 16514043
-13.184001 -5.6502862 123.60001 16514043
-12.948572 -5.6502862 123.60001 16514043
-12.713143 -5.6502862 123.60001 16514043
-12.477715 -5.6502862 123.60001 16514043
-12.242286 -5.6502862 123.60001 16711422
-12.006857 -5.6502862 123.60001 16711422
-11.771429 -5.6502862 123.60001 9078007
0.71142858 -5.6914287 124.5 16448250
0.94857144 -5.6914287 124.5 16250360
1.1904762 -5.7142859 125 16184567
1.4285715 -5.7142859 125 16316153
1.6666665 -5.7142859 125 16250360
1.9047618 -5.7142859 125 16250360
4.5057144 -5.6914287 124.5 12561628
4.7276192 -5.6731429 124.10001 12495063
4.9639997 -5.6731429 124.10001 12363477
5.2171426 -5.6914287 124.5 11969481
-17.528572 -5.3754287 122.70001 15987701
-17.365335 -5.3973336 123.20001 16579836
-17.130667 -5.3973336 123.20001 16645629
-16.896002 -5.3973336 123.20001 16514043
-16.661335 -5.3973336 123.20001 16514043
-16.426668 -5.3973336 123.20001 16514043
-16.192003 -5.3973336 123.20001 16514043
-15.957335 -5.3973336 123.20001 16514043
-15.722668 -5.3973336 123.20001 16514043
-15.488 -5.3973336 123.20001 16514043
-15.253335 -5.3973336 123.20001 16514043
-15.018667 -5.3973336 123.20001 16514043
-14.784 -5.3973336 123.20001 16514043
-14.549335 -5.3973336 123.20001 16514043
-14.361143 -5.4148574 123.60001 16514043
-14.080002 -5.3973336 123.20001 16514043
-13.845333 -5.3973336 123.20001 16514043
-13.610668 -5.3973336 123.20001 16514043
-13.376 -5.3973336 123.20001 16514043
-13.141335 -5.3973336 123.20001 16514043
-12.906669 -5.3973336 123.20001 16514043
-12.672001 -5.3973336 123.20001 16514043
-12.437334 -5.3973336 123.20001 16514043
-12.242286 -5.4148574 123.60001 16711422
-12.006857 -5.4148574 123.60001 16711422
-11.771429 -5.4148574 123.60001 10261759
0.47276193 -5.4367619 124.10001 16382457
0.71142858 -5.4542856 124.5 16185078
0.94857144 -5.4542856 124.5 15789300
1.1857142 -5.4542856 124.5 15723507
1.4228572 -5.4542856 124.5 15789300
1.66 -5.4542856 124.5 15723507
1.8971429 -5.4542856 124.5 16381944
2.1342857 -5.4542856 124.5 16645116
2.3714285 -5.4542856 124.5 16711422
4.2685714 -5.4542856 124.5 12890591
4.4912381 -5.4367619 124.10001 13153763
4.7276192 -5.4367619 124.10001 12956633
4.9639997 -5.4367619 124.10001 12561875
5.2003813 -5.4367619 124.10001 12035274
5.4542856 -5.4542856 124.5 11969481
-17.47143 -5.1249528 122.3 15987701
-17.294861 -5.141715 122.70001 16382457
-17.061144 -5.141715 122.70001 16645629
-16.827431 -5.141715 122.70001 16514043
-16.593718 -5.141715 122.70001 16514043
-16.360001 -5.141715 122.70001 16514043
-16.126287 -5.141715 122.70001 16514043
-15.892572 -5.141715 122.70001 16514043
-15.722668 -5.1626673 123.20001 16514043
-15.488 -5.1626673 123.20001 16514043
-15.253335 -5.1626673 123.20001 16514043
-15.018667 -5.1626673 123.20001 16514043
-14.784 -5.1626673 123.20001 16514043
-14.549335 -5.1626673 123.20001 16514043
-14.314668 -5.1626673 123.20001 16514043
-14.022859 -5.141715 122.70001 16514043
-13.789145 -5.141715 122.70001 16514043
-13.555429 -5.141715 122.70001 16514043
-13.321714 -5.141715 122.70001 16514043
-13.141335 -5.1626673 123.20001 16514043
-12.906669 -5.1626673 123.20001 16514043
-12.672001 -5.1626673 123.20001 16514043
-12.437334 -5.1626673 123.20001 16514043
-12.202667 -5.1626673 123.20001 16711422
-11.968001 -5.1626673 123.20001 16711422
-11.733335 -5.1626673 123.20001 14080511
0.47085717 -5.1794286 123.60001 16250360
0.70628577 -5.1794286 123.60001 16052981
0.94171435 -5.1794286 123.60001 15657714
1.177143 -5.1794286 123.60001 15591921
1.4182857 -5.2003813 124.10001 15460592
1.6546667 -5.2003813 124.10001 15723764
1.8910477 -5.2003813 124.10001 16514043
2.1274288 -5.2003813 124.10001 16711422
2.3638096 -5.2003813 124.10001 16711422
2.6001906 -5.2003813 124.10001 14803425
2.8365715 -5.2003813 124.10001 11107692
3.0729527 -5.2003813 124.10001 9594453
3.3093333 -5.2003813 124.10001 9865396
3.5457146 -5.2003813 124.10001 11707600
3.7820954 -5.2003813 124.10001 12956136
4.018476 -5.2003813 124.10001 12890343
4.2548575 -5.2003813 124.10001 12628183
4.4731431 -5.1794286 123.60001 12957148
4.7085719 -5.1794286 123.60001 12891612
4.9440002 -5.1794286 123.60001 12431061
5.2003813 -5.2003813 124.10001 12101067
5.4367619 -5.2003813 124.10001 11969481
5.6731429 -5.2003813 124.10001 11902918
-28.904766 -4.8559999 121.40001 3089667
-17.646477 -4.8760004 121.90001 15790070
-17.414288 -4.8760004 121.90001 16119035
-17.182096 -4.8760004 121.90001 16645629
-16.949905 -4.8760004 121.90001 16645629
-16.717716 -4.8760004 121.90001 16514043
-16.539618 -4.8920002 122.3 16514043
-16.306667 -4.8920002 122.3 16514043
-16.073713 -4.8920002 122.3 16514043
-15.840761 -4.8920002 122.3 16514043
-15.658858 -4.9080005 122.70001 16514043
-15.425144 -4.9080005 122.70001 16514043
-15.19143 -4.9080005 122.70001 16514043
-14.957716 -4.9080005 122.70001 16514043
-14.724001 -4.9080005 122.70001 16514043
-14.490287 -4.9080005 122.70001 16514043
-14.256573 -4.9080005 122.70001 16514043
-13.977143 -4.8920002 122.3 16514043
-13.744192 -4.8920002 122.3 16514043
-13.511239 -4.8920002 122.3 16514043
-13.278286 -4.8920002 122.3 16514043
-13.088001 -4.9080005 122.70001 16514043
-12.854287 -4.9080005 122.70001 16514043
-12.620571 -4.9080005 122.70001 16514043
-12.386858 -4.9080005 122.70001 16514043
-12.153144 -4.9080005 122.70001 16645629
-11.91943 -4.9080005 122.70001 16711422
-11.685716 -4.9080005 122.70001 16646142
0.23466668 -4.9280005 123.20001 16119285
0.46933335 -4.9280005 123.20001 15987188
0.70400006 -4.9280005 123.20001 15987188
0.94171435 -4.9440002 123.60001 15987188
1.177143 -4.9440002 123.60001 15987188
1.4125715 -4.9440002 123.60001 15987188
1.6480001 -4.9440002 123.60001 16381946
1.8834287 -4.9440002 123.60001 16711422
2.1188571 -4.9440002 123.60001 16711422
2.354286 -4.9440002 123.60001 14601156
2.5897143 -4.9440002 123.60001 9403509
2.8251431 -4.9440002 123.60001 9401487
3.0605714 -4.9440002 123.60001 10519968
3.2960002 -4.9440002 123.60001 10983641
3.5314288 -4.9440002 123.60001 11904743
3.7668574 -4.9440002 123.60001 12956897
4.002286 -4.9440002 123.60001 12956897
4.2377143 -4.9440002 123.60001 12825562
4.4731431 -4.9440002 123.60001 12825562
4.7085719 -4.9440002 123.60001 12694487
4.9440002 -4.9440002 123.60001 12365522
5.1794286 -4.9440002 123.60001 12101067
5.4148574 -4.9440002 123.60001 12166860
5.6502862 -4.9440002 123.60001 12232131
-29.598478 -4.6247625 121.40001 3215108
-29.367239 -4.6247625 121.40001 3083522
-29.136002 -4.6247625 121.40001 3019264
-28.904766 -4.6247625 121.40001 3085056
-28.57905 -4.6095243 121 2767104
-17.805334 -4.6247625 121.40001 14868216
-17.574097 -4.6247625 121.40001 15592691
-17.414288 -4.6438098 121.90001 16053242
-17.182096 -4.6438098 121.90001 16711422
-16.949905 -4.6438098 121.90001 16711422
-16.717716 -4.6438098 121.90001 16514043
-16.485523 -4.6438098 121.90001 16514043
-16.253334 -4.6438098 121.90001 16514043
-16.021145 -4.6438098 121.90001 16514043
-15.788953 -4.6438098 121.90001 16514043
-15.60781 -4.6590476 122.3 16514043
-15.374857 -4.6590476 122.3 16514043
-15.141906 -4.6590476 122.3 16514043
-14.908953 -4.6590476 122.3 16514043
-14.676001 -4.6590476 122.3 16514043
-14.443048 -4.6590476 122.3 16514043
-14.210096 -4.6590476 122.3 16514043
-13.931429 -4.6438098 121.90001 16514043
-13.69924 -4.6438098 121.90001 16514043
-13.467048 -4.6438098 121.90001 16514043
-13.234859 -4.6438098 121.90001 16514043
-13.045335 -4.6590476 122.3 16514043
-12.812381 -4.6590476 122.3 16514043
-12.579428 -4.6590476 122.3 16514043
-12.346477 -4.6590476 122.3 16514043
-12.113523 -4.6590476 122.3 16514043
-11.880571 -4.6590476 122.3 16711422
-11.647619 -4.6590476 122.3 16711422
0.23466668 -4.6933336 123.20001 16119285
0.46933335 -4.6933336 123.20001 15987188
0.70400006 -4.6933336 123.20001 16052981
0.9386667 -4.6933336 123.20001 16184567
1.177143 -4.7085719 123.60001 16118774
1.4080001 -4.6933336 123.20001 16250360
1.6426668 -4.6933336 123.20001 16776703
1.8773334 -4.6933336 123.20001 16711422
2.1120002 -4.6933336 123.20001 15987699
2.3466668 -4.6933336 123.20001 10585679
2.5813336 -4.6933336 123.20001 8348717
2.8160002 -4.6933336 123.20001 9668533
3.0506668 -4.6933336 123.20001 11379151
3.2853336 -4.6933336 123.20001 12101854
3.5200005 -4.6933336 123.20001 12365026
3.7546668 -4.6933336 123.20001 13022690
3.9893336 -4.6933336 123.20001 12956897
4.2240005 -4.6933336 123.20001 12760280
4.4586673 -4.6933336 123.20001 12760280
4.6933336 -4.6933336 123.20001 12430551
4.9280005 -4.6933336 123.20001 12364758
5.1626673 -4.6933336 123.20001 12100303
5.4148574 -4.7085719 123.60001 12166096
5.6502862 -4.7085719 123.60001 12297676
-29.270475 -4.3790479 121 3478016
-29.039999 -4.3790479 121 3214858
-28.809525 -4.3790479 121 3083272
-28.57905 -4.3790479 121 922368
-28.25486 -4.3645716 120.60001 3554087
-18.14743 -4.3645716 120.60001 14341630
-17.917715 -4.3645716 120.60001 14802419
-17.746668 -4.3790479 121 14999798
-17.516191 -4.3790479 121 15592691
-17.285713 -4.3790479 121 15987449
-17.11162 -4.3935242 121.40001 16645629
-16.880383 -4.3935242 121.40001 16711422
-16.649143 -4.3935242 121.40001 16579836
-16.417906 -4.3935242 121.40001 16514043
-16.186668 -4.3935242 121.40001 16514043
-15.95543 -4.3935242 121.40001 16514043
-15.724193 -4.3935242 121.40001 16514043
-15.556763 -4.4116192 121.90001 16514043
-15.324574 -4.4116192 121.90001 16514043
-15.092381 -4.4116192 121.90001 16514043
-14.860192 -4.4116192 121.90001 16514043
-14.628 -4.4116192 121.90001 16514043
-14.395811 -4.4116192 121.90001 16514043
-14.163621 -4.4116192 121.90001 16514043
-13.931429 -4.4116192 121.90001 16514043
-13.69924 -4.4116192 121.90001 16514043
-13.467048 -4.4116192 121.90001 16514043
-13.234859 -4.4116192 121.90001 16514043
-13.002668 -4.4116192 121.90001 16514043
-12.770477 -4.4116192 121.90001 16514043
-12.538287 -4.4116192 121.90001 16514043
-12.306096 -4.4116192 121.90001 16514043
-12.073906 -4.4116192 121.90001 16514043
-11.841715 -4.4116192 121.90001 16645629
-11.609525 -4.4116192 121.90001 16711422
0.23371431 -4.4405718 122.70001 16514043
0.46742862 -4.4405718 122.70001 16514043
0.70114291 -4.4405718 122.70001 16579836
0.9386667 -4.4586673 123.20001 16579836
1.1733334 -4.4586673 123.20001 16711422
1.4080001 -4.4586673 123.20001 16711422
1.6426668 -4.4586673 123.20001 16711422
1.8773334 -4.4586673 123.20001 16247260
2.1120002 -4.4586673 123.20001 12036508
2.3466668 -4.4586673 123.20001 8810363
2.5813336 -4.4586673 123.20001 9599879
2.8045716 -4.4405718 122.70001 11642073
3.038286 -4.4405718 122.70001 12365796
3.2853336 -4.4586673 123.20001 12956904
3.5200005 -4.4586673 123.20001 13220076
3.7546668 -4.4586673 123.20001 13155038
3.9893336 -4.4586673 123.20001 12826073
4.2240005 -4.4586673 123.20001 12760026
4.4586673 -4.4586673 123.20001 12760026
4.6933336 -4.4586673 123.20001 12364760
4.9280005 -4.4586673 123.20001 12298967
5.1626673 -4.4586673 123.20001 12100303
5.3973336 -4.4586673 123.20001 12100303
5.6320004 -4.4586673 123.20001 12297672
18.36343 -4.4731431 123.60001 9921885
18.598858 -4.4731431 123.60001 9987678
18.834288 -4.4731431 123.60001 10053471
19.069715 -4.4731431 123.60001 10053471
19.305143 -4.4731431 123.60001 9987935
-29.173717 -4.1348577 120.60001 3478016
-28.944 -4.1348577 120.60001 3477510
-28.714287 -4.1348577 120.60001 3477510
-28.390095 -4.1211424 120.2 1378816
-28.161144 -4.1211424 120.2 2431502
-27.93219 -4.1211424 120.2 10004899
-18.316191 -4.1211424 120.2 14012411
-18.087238 -4.1211424 120.2 14275583
-17.917715 -4.1348577 120.60001 14999798
-17.746668 -4.1485715 121 14934005
-17.516191 -4.1485715 121 15723764
-17.285713 -4.1485715 121 15921143
-17.11162 -4.1622858 121.40001 16382457
-16.880383 -4.1622858 121.40001 16645629
-16.594286 -4.1485715 121 16579836
-16.36381 -4.1485715 121 16514043
-16.133333 -4.1485715 121 16514043
-15.902858 -4.1485715 121 16514043
-15.724193 -4.1622858 121.40001 16514043
-15.492953 -4.1622858 121.40001 16514043
-15.261716 -4.1622858 121.40001 16514043
-15.030477 -4.1622858 121.40001 16514043
-14.799239 -4.1622858 121.40001 16514043
-14.568001 -4.1622858 121.40001 16514043
-14.336763 -4.1622858 121.40001 16514043
-14.105526 -4.1622858 121.40001 16514043
-13.874287 -4.1622858 121.40001 16514043
-13.643048 -4.1622858 121.40001 16514043
-13.41181 -4.1622858 121.40001 16514043
-13.180572 -4.1622858 121.40001 16514043
-12.949335 -4.1622858 121.40001 16514043
-12.770477 -4.1794291 121.90001 16514043
-12.486858 -4.1622858 121.40001 16514043
-12.255619 -4.1622858 121.40001 16514043
-12.024382 -4.1622858 121.40001 16514043
-11.793144 -4.1622858 121.40001 16514043
-11.561906 -4.1622858 121.40001 16711422
0.2321905 -4.1794291 121.90001 16579836
0.46438101 -4.1794291 121.90001 16645629
0.69885713 -4.1931429 122.3 16645629
0.93485725 -4.2068577 122.70001 16711422
1.1685715 -4.2068577 122.70001 16711422
1.4022858 -4.2068577 122.70001 16711420
1.6360002 -4.2068577 122.70001 15592939
1.8697145 -4.2068577 122.70001 11967898
2.0965714 -4.1931429 122.3 10257280
2.3295238 -4.1931429 122.3 8158623
2.5624764 -4.1931429 122.3 10198206
2.7954285 -4.1931429 122.3 12496616
3.0283809 -4.1931429 122.3 12825581
3.2720003 -4.2068577 122.70001 13088742
3.5057147 -4.2068577 122.70001 13220328
3.7272382 -4.1931429 122.3 13154787
3.9601903 -4.1931429 122.3 12957408
4.2068577 -4.2068577 122.70001 12891355
4.4405718 -4.2068577 122.70001 12693976
4.6742859 -4.2068577 122.70001 12298454
4.9080005 -4.2068577 122.70001 12298454
5.141715 -4.2068577 122.70001 12033999
5.3754287 -4.2068577 122.70001 11968206
18.36343 -4.2377143 123.60001 10118746
18.598858 -4.2377143 123.60001 10184539
18.773335 -4.2240005 123.20001 10053471
19.008001 -4.2240005 123.20001 10053471
19.242668 -4.2240005 123.20001 9987935
19.477337 -4.2240005 123.20001 10053728
-29.076954 -3.8921905 120.2 3739142
-28.847998 -3.8921905 120.2 3477510
-28.5 -3.8760002 119.7 3543303
-28.271999 -3.8760002 119.7 1507840
-28.044001 -3.8760002 119.7 1048576
-27.93219 -3.8921905 120.2 8359492
-27.703238 -3.8921905 120.2 14017690
-18.468 -3.8760002 119.7 14471676
-18.24 -3.8760002 119.7 14077434
-18.087238 -3.8921905 120.2 14406399
-17.917715 -3.9051428 120.60001 14934259
-17.688002 -3.9051428 120.60001 14802673
-17.458286 -3.9051428 120.60001 15395058
-17.228573 -3.9051428 120.60001 15658230
-17.055239 -3.9180954 121 16316664
-16.824762 -3.9180954 121 16711422
-16.539431 -3.9051428 120.60001 16645629
-16.309715 -3.9051428 120.60001 16579836
-16.080002 -3.9051428 120.60001 16579836
-15.850286 -3.9051428 120.60001 16514043
-15.672381 -3.9180954 121 16514043
-15.441905 -3.9180954 121 16514043
-15.211429 -3.9180954 121 16514043
-14.980952 -3.9180954 121 16514043
-14.750476 -3.9180954 121 16514043
-14.52 -3.9180954 121 16514043
-14.289525 -3.9180954 121 16514043
-14.012572 -3.9051428 120.60001 16514043
-13.782859 -3.9051428 120.60001 16514043
-13.553144 -3.9051428 120.60001 16514043
-13.323429 -3.9051428 120.60001 16514043
-13.093715 -3.9051428 120.60001 16514043
-12.864001 -3.9051428 120.60001 16514043
-12.676191 -3.9180954 121 16514043
-12.445715 -3.9180954 121 16514043
-12.215239 -3.9180954 121 16514043
-11.984762 -3.9180954 121 16514043
-11.754286 -3.9180954 121 16514043
-11.523809 -3.9180954 121 16711422
-11.256001 -3.9051428 120.60001 16711422
-11.026286 -3.9051428 120.60001 11840767
0 -3.9310482 121.40001 16579836
0.2321905 -3.9472382 121.90001 16514043
0.46438101 -3.9472382 121.90001 16579836
0.69657147 -3.9472382 121.90001 16711422
0.93180954 -3.9601903 122.3 16711422
1.1685715 -3.9731431 122.70001 16711422
1.3977143 -3.9601903 122.3 14272697
1.6253335 -3.9472382 121.90001 9272429
1.857524 -3.9472382 121.90001 8943212
2.0897145 -3.9472382 121.90001 9337970
2.3219049 -3.9472382 121.90001 10392024
2.5540955 -3.9472382 121.90001 12036849
2.7748573 -3.9310482 121.40001 13351921
3.0060954 -3.9310482 121.40001 13680886
3.2506671 -3.9472382 121.90001 13418469
3.4942858 -3.9601903 122.3 13221090
3.7272382 -3.9601903 122.3 13352163
3.9601903 -3.9601903 122.3 13023198
4.1931429 -3.9601903 122.3 12364508
4.4260955 -3.9601903 122.3 12232922
4.6590476 -3.9601903 122.3 12363985
4.8920002 -3.9601903 122.3 12363985
5.1249528 -3.9601903 122.3 11968206
5.3579049 -3.9601903 122.3 11902413
18.069334 -3.9893336 123.20001 9987937
18.304001 -3.9893336 123.20001 10053723
18.53867 -3.9893336 123.20001 10053723
18.697144 -3.9731431 122.70001 9988187
18.930859 -3.9731431 122.70001 10053980
19.242668 -3.9893336 123.20001 10119516
-29.313713 -3.6358097 119.30001 3739142
-29.086477 -3.6358097 119.30001 3739142
-28.85924 -3.6358097 119.30001 3804935
-28.728003 -3.6480002 119.7 3543303
-28.5 -3.6480002 119.7 3543303
-28.271999 -3.6480002 119.7 2754048
-28.044001 -3.6480002 119.7 2162688
-27.93219 -3.663238 120.2 4210438
-27.703238 -3.663238 120.2 10131808
-18.468 -3.6480002 119.7 14535677
-18.24 -3.6480002 119.7 13946872
-18.012001 -3.6480002 119.7 14275837
-17.858286 -3.663238 120.2 14670835
-17.629333 -3.663238 120.2 14802421
-17.400383 -3.663238 120.2 15131890
-17.228573 -3.6754289 120.60001 15395062
-16.998857 -3.6754289 120.60001 16250873
-16.769144 -3.6754289 120.60001 16645631
-16.539431 -3.6754289 120.60001 16645629
-16.255621 -3.663238 120.2 16579836
-16.026667 -3.663238 120.2 16579836
-15.797715 -3.663238 120.2 16514043
-15.568762 -3.663238 120.2 16514043
-15.339809 -3.663238 120.2 16514043
-15.110858 -3.663238 120.2 16514043
-14.881906 -3.663238 120.2 16514043
-14.652952 -3.663238 120.2 16514043
-14.423999 -3.663238 120.2 16514043
-14.195047 -3.663238 120.2 16514043
-13.966095 -3.663238 120.2 16514043
-13.737144 -3.663238 120.2 16514043
-13.50819 -3.663238 120.2 16514043
-13.279239 -3.663238 120.2 16514043
-13.050285 -3.663238 120.2 16514043
-12.821335 -3.663238 120.2 16514043
-12.634286 -3.6754289 120.60001 16514043
-12.404573 -3.6754289 120.60001 16514043
-12.174857 -3.6754289 120.60001 16514043
-11.945144 -3.6754289 120.60001 16514043
-11.676572 -3.663238 120.2 16514043
-11.447619 -3.663238 120.2 16711422
-11.218667 -3.663238 120.2 16711422
-10.989714 -3.663238 120.2 16382718
-10.760762 -3.663238 120.2 14474721
0 -3.687619 121 16514043
0.23123811 -3.6998098 121.40001 16579836
0.46438101 -3.7150481 121.90001 16711422
0.69657147 -3.7150481 121.90001 16711422
0.92876202 -3.7150481 121.90001 16711670
1.1609524 -3.7150481 121.90001 14409171
1.3931429 -3.7150481 121.90001 9398616
1.6186669 -3.6998098 121.40001 8609100
1.8499049 -3.6998098 121.40001 8750511
2.0811429 -3.6998098 121.40001 10197957
2.3123813 -3.6998098 121.40001 11971038
2.5436192 -3.6998098 121.40001 12628968
2.7748573 -3.6998098 121.40001 13615345
3.0060954 -3.6998098 121.40001 13549552
3.2373338 -3.6998098 121.40001 13286630
3.4685717 -3.6998098 121.40001 13286630
3.7150481 -3.7150481 121.90001 13352163
3.9472382 -3.7150481 121.90001 12891612
4.1794291 -3.7150481 121.90001 12298454
4.4116192 -3.7150481 121.90001 12298454
4.6438098 -3.7150481 121.90001 12298192
4.8760004 -3.7150481 121.90001 12166606
5.108191 -3.7150481 121.90001 11836622
5.3403811 -3.7150481 121.90001 11836622
17.996002 -3.739429 122.70001 9987937
18.229715 -3.739429 122.70001 9988187
18.46343 -3.739429 122.70001 9988187
18.697144 -3.739429 122.70001 9987935
18.930859 -3.739429 122.70001 10053728
19.164572 -3.739429 122.70001 10119516
-29.668383 -3.3971429 118.9 3607556
-29.441906 -3.3971429 118.9 3673349
-29.215427 -3.3971429 118.9 3739142
-28.988951 -3.3971429 118.9 3739142
-28.762478 -3.3971429 118.9 3804935
-28.632 -3.4085712 119.30001 3674889
-28.404764 -3.4085712 119.30001 3674889
-28.177525 -3.4085712 119.30001 3346444
-28.044001 -3.4199998 119.7 2556928
-27.815998 -3.4199998 119.7 65565
-27.703238 -3.4342859 120.2 1117997
-18.468 -3.4199998 119.7 13550276
-18.24 -3.4199998 119.7 14143479
-18.012001 -3.4199998 119.7 14340858
-17.784 -3.4199998 119.7 14670837
-17.556 -3.4199998 119.7 14934009
-17.327999 -3.4199998 119.7 15395060
-17.1 -3.4199998 119.7 15460853
-16.872002 -3.4199998 119.7 16185080
-16.644001 -3.4199998 119.7 16316666
-16.416 -3.4199998 119.7 16514043
-16.188 -3.4199998 119.7 16579836
-15.96 -3.4199998 119.7 16579836
-15.732 -3.4199998 119.7 16579836
-15.504001 -3.4199998 119.7 16514043
-15.276001 -3.4199998 119.7 16514043
-15.048 -3.4199998 119.7 16514043
-14.820001 -3.4199998 119.7 16514043
-14.592001 -3.4199998 119.7 16514043
-14.423999 -3.4342859 120.2 16514043
-14.136 -3.4199998 119.7 16514043
-13.907999 -3.4199998 119.7 16514043
-13.679999 -3.4199998 119.7 16514043
-13.452 -3.4199998 119.7 16514043
-13.224 -3.4199998 119.7 16514043
-13.050285 -3.4342859 120.2 16514043
-12.821335 -3.4342859 120.2 16514043
-12.592381 -3.4342859 120.2 16514043
-12.363429 -3.4342859 120.2 16514043
-12.134476 -3.4342859 120.2 16514043
-11.905524 -3.4342859 120.2 16514043
-11.676572 -3.4342859 120.2 16514043
-11.447619 -3.4342859 120.2 16645629
-11.218667 -3.4342859 120.2 16711422
-10.989714 -3.4342859 120.2 16711422
-10.760762 -3.4342859 120.2 16711422
-0.2297143 -3.4457147 120.60001 16514043
0 -3.4571431 121 16514043
0.23123811 -3.4685717 121.40001 16711422
0.46247622 -3.4685717 121.40001 16711422
0.69371432 -3.4685717 121.40001 16645629
0.92495245 -3.4685717 121.40001 12759169
1.1561906 -3.4685717 121.40001 8219452
1.3874286 -3.4685717 121.40001 9271698
1.6133335 -3.4571431 121 10784937
1.8377144 -3.4457147 120.60001 12301025
2.0674288 -3.4457147 120.60001 12958955
2.3047621 -3.4571431 121 13287402
2.535238 -3.4571431 121 13353195
2.7657144 -3.4571431 121 13352423
2.9961905 -3.4571431 121 13220837
3.2373338 -3.4685717 121.40001 13155297
3.4685717 -3.4685717 121.40001 13155297
3.6998098 -3.4685717 121.40001 13089243
3.9310482 -3.4685717 121.40001 12694485
4.1622858 -3.4685717 121.40001 12496094
4.3935242 -3.4685717 121.40001 12430301
4.6438098 -3.4828572 121.90001 12034510
4.8760004 -3.4828572 121.90001 11968717
5.108191 -3.4828572 121.90001 11901647
5.3403811 -3.4828572 121.90001 11901647
17.414288 -3.4828572 121.90001 9856351
17.646477 -3.4828572 121.90001 9922142
17.878668 -3.4828572 121.90001 9922142
18.110857 -3.4828572 121.90001 9922394
18.34305 -3.4828572 121.90001 9988187
18.63619 -3.4942858 122.3 10053730
18.807428 -3.4828572 121.90001 9987937
19.039621 -3.4828572 121.90001 10053980
19.271812 -3.4828572 121.90001 10053980
-29.668383 -3.1706665 118.9 3607556
-29.441906 -3.1706665 118.9 3541513
-29.215427 -3.1706665 118.9 3673099
-28.988951 -3.1706665 118.9 3673099
-28.762478 -3.1706665 118.9 3738892
-28.535997 -3.1706665 118.9 3739142
-28.404764 -3.1813335 119.30001 3739142
-28.177525 -3.1813335 119.30001 3543053
-27.950287 -3.1813335 119.30001 3411467
-27.815998 -3.1919997 119.7 262144
-27.588001 -3.1919997 119.7 854278
-27.26857 -3.1813335 119.30001 12889598
-18.34457 -3.1706665 118.9 12298689
-18.179049 -3.1813335 119.30001 14668026
-18.012001 -3.1919997 119.7 14733819
-17.784 -3.1919997 119.7 14605044
-17.556 -3.1919997 119.7 14868216
-17.270096 -3.1813335 119.30001 15460853
-17.042858 -3.1813335 119.30001 15460853
-16.815619 -3.1813335 119.30001 15987701
-16.588381 -3.1813335 119.30001 16250873
-16.361143 -3.1813335 119.30001 16382457
-16.133904 -3.1813335 119.30001 16448250
-15.906666 -3.1813335 119.30001 16645629
-15.679429 -3.1813335 119.30001 16579836
-15.452191 -3.1813335 119.30001 16514043
-15.224953 -3.1813335 119.30001 16514043
-14.997715 -3.1813335 119.30001 16514043
-14.770476 -3.1813335 119.30001 16514043
-14.592001 -3.1919997 119.7 16514043
-14.364001 -3.1919997 119.7 16514043
-14.136 -3.1919997 119.7 16514043
-13.907999 -3.1919997 119.7 16514043
-13.634285 -3.1813335 119.30001 16514043
-13.407047 -3.1813335 119.30001 16514043
-13.224 -3.1919997 119.7 16514043
-12.996 -3.1919997 119.7 16514043
-12.767999 -3.1919997 119.7 16514043
-12.539999 -3.1919997 119.7 16514043
-12.312 -3.1919997 119.7 16514043
-12.084001 -3.1919997 119.7 16514043
-11.856001 -3.1919997 119.7 16514043
-11.627999 -3.1919997 119.7 16514043
-11.4 -3.1919997 119.7 16514043
-11.172 -3.1919997 119.7 16645629
-10.944 -3.1919997 119.7 16711422
-10.716001 -3.1919997 119.7 16711422
-10.488 -3.1919997 119.7 7960018
-0.45790476 -3.2053337 120.2 16579836
-0.22895238 -3.2053337 120.2 16579836
0 -3.2160003 120.60001 16711422
0.23123811 -3.2373338 121.40001 16711422
0.46247622 -3.2373338 121.40001 16711670
0.69371432 -3.2373338 121.40001 12830139
0.92495245 -3.2373338 121.40001 7162153
1.1561906 -3.2373338 121.40001 8609599
1.3874286 -3.2373338 121.40001 10195656
1.6026669 -3.2053337 120.2 11774688
1.831619 -3.2053337 120.2 13285619
2.0674288 -3.2160003 120.60001 13417205
2.297143 -3.2160003 120.60001 13615088
2.5268574 -3.2160003 120.60001 13483502
2.7565715 -3.2160003 120.60001 13352166
2.9862859 -3.2160003 120.60001 13286373
3.2266669 -3.2266669 121 13220328
3.4571431 -3.2266669 121 13154535
3.687619 -3.2266669 121 12628189
3.9180954 -3.2266669 121 12693982
4.1485715 -3.2266669 121 12562396
4.3935242 -3.2373338 121.40001 12299224
4.6247625 -3.2373338 121.40001 11903434
4.8559999 -3.2373338 121.40001 11903434
5.0872383 -3.2373338 121.40001 11836874
5.3184767 -3.2373338 121.40001 11836874
17.11162 -3.2373338 121.40001 9855838
17.342859 -3.2373338 121.40001 9921631
17.574097 -3.2373338 121.40001 9856603
17.805334 -3.2373338 121.40001 9790810
18.036573 -3.2373338 121.40001 9725274
18.34305 -3.2506671 121.90001 9791067
18.575239 -3.2506671 121.90001 9922396
18.730288 -3.2373338 121.40001 9922396
18.961527 -3.2373338 121.40001 9988187
19.192762 -3.2373338 121.40001 10053980
19.424 -3.2373338 121.40001 10053728
-29.568571 -2.9342859 118.50001 3607556
-29.342857 -2.9342859 118.50001 3607306
-29.117144 -2.9342859 118.50001 3673099
-28.89143 -2.9342859 118.50001 3673099
-28.665716 -2.9342859 118.50001 3738892
-28.535997 -2.9441905 118.9 3411467
-28.309525 -2.9441905 118.9 3411467
-28.083048 -2.9441905 118.9 3149065
-27.950287 -2.9540954 119.30001 3214858
-27.723047 -2.9540954 119.30001 655620
-27.49581 -2.9540954 119.30001 393216
-27.177143 -2.9441905 118.9 786688
-25.781906 -2.9144762 117.7 6460375
-19.280382 -2.9144762 117.7 658725
-19.056192 -2.9144762 117.7 198174
-18.896002 -2.9243813 118.10001 1049600
-18.671049 -2.9243813 118.10001 2102287
-18.446096 -2.9243813 118.10001 9207395
