# .PCD v0.7 - Point Cloud Data file format
VERSION 0.7
FIELDS x y z rgb
SIZE 4 4 4 4
TYPE F F F U
COUNT 1 1 1 1
WIDTH 1286
HEIGHT 1
VIEWPOINT 0 0 0 0 1 0 0
POINTS 1286
DATA ascii
17.626667 -9.5687618 132.2 9657943
17.878475 -9.5687618 132.2 9657943
18.130285 -9.5687618 132.2 9461591
18.382095 -9.5687618 132.2 9461591
18.718477 -9.6121912 132.8 9527127
18.97143 -9.6121912 132.8 9527127
19.224382 -9.6121912 132.8 9527127
19.477335 -9.6121912 132.8 9527127
19.730286 -9.6121912 132.8 9527127
19.892954 -9.5687618 132.2 9461334
-10.481333 -7.9144769 112.3 786445
-10.267428 -7.9144769 112.3 262663
-10.053524 -7.9144769 112.3 525835
-9.8396187 -7.9144769 112.3 984578
-9.5914288 -7.8862863 111.90001 852992
-9.3782864 -7.8862863 111.90001 459779
-9.1323805 -7.8580952 111.5 393986
-8.8960018 -7.8369536 111.20001 656129
-8.6841908 -7.8369536 111.20001 656129
8.2154293 -9.2112389 130.7 10914458
8.4643812 -9.2112389 130.7 10914458
8.9965715 -9.2464771 131.2 10584989
9.2464771 -9.2464771 131.2 10453403
9.4963808 -9.2464771 131.2 10519189
9.7462864 -9.2464771 131.2 10321810
9.996191 -9.2464771 131.2 10254997
10.246095 -9.2464771 131.2 10189204
10.496 -9.2464771 131.2 10189193
10.745905 -9.2464771 131.2 10123400
10.99581 -9.2464771 131.2 10122628
11.245714 -9.2464771 131.2 9991042
11.539429 -9.2817144 131.7 9991294
11.790286 -9.2817144 131.7 9728122
12.041143 -9.2817144 131.7 9726589
12.292001 -9.2817144 131.7 9660796
12.542857 -9.2817144 131.7 9791866
12.793714 -9.2817144 131.7 9791866
13.094096 -9.3169527 132.2 9660278
13.345904 -9.3169527 132.2 9594485
13.597715 -9.3169527 132.2 9725294
13.849524 -9.3169527 132.2 9725294
14.101333 -9.3169527 132.2 9659494
14.353144 -9.3169527 132.2 9593701
14.549714 -9.2817144 131.7 9725024
14.800572 -9.2817144 131.7 9725024
15.051429 -9.2817144 131.7 9658974
15.302287 -9.2817144 131.7 9658974
15.553143 -9.2817144 131.7 9658970
15.804 -9.2817144 131.7 9593177
16.054857 -9.2817144 131.7 9658459
16.305716 -9.2817144 131.7 9658459
16.556572 -9.2817144 131.7 9658459
16.871239 -9.3169527 132.2 9592666
17.058287 -9.2817144 131.7 9527384
17.309143 -9.2817144 131.7 9527384
17.560001 -9.2817144 131.7 9527384
17.810858 -9.2817144 131.7 9527384
18.061716 -9.2817144 131.7 9527388
18.382095 -9.3169527 132.2 9461595
18.633905 -9.3169527 132.2 9526875
18.885714 -9.3169527 132.2 9526875
19.224382 -9.3592386 132.8 9527127
19.477335 -9.3592386 132.8 9527127
19.641144 -9.3169527 132.2 9527127
19.892954 -9.3169527 132.2 9527127
-10.481333 -7.7005715 112.3 1179657
-10.267428 -7.7005715 112.3 656131
-10.053524 -7.7005715 112.3 919303
-9.8396187 -7.7005715 112.3 1050119
-9.6257143 -7.7005715 112.3 852740
-9.3782864 -7.6731434 111.90001 393986
-9.165144 -7.6731434 111.90001 393986
-8.9200001 -7.6457143 111.5 656131
-8.6841908 -7.625144 111.20001 656131
-8.4723816 -7.625144 111.20001 656131
8.7133341 -8.962286 130.7 10979745
8.962286 -8.962286 130.7 10650782
9.2112389 -8.962286 130.7 10584989
9.4601908 -8.962286 130.7 10585239
9.7091436 -8.962286 130.7 10519446
9.9580956 -8.962286 130.7 10189972
10.207048 -8.962286 130.7 10124179
10.456 -8.962286 130.7 10189193
10.704952 -8.962286 130.7 10189193
10.953905 -8.962286 130.7 10057096
11.202858 -8.962286 130.7 9991303
11.45181 -8.962286 130.7 9991296
11.700762 -8.962286 130.7 9859710
11.995429 -8.9965715 131.2 9792636
12.245334 -8.9965715 131.2 9792636
12.495237 -8.9965715 131.2 9792634
12.745144 -8.9965715 131.2 9726841
12.995048 -8.9965715 131.2 9792118
13.244952 -8.9965715 131.2 9726325
13.494857 -8.9965715 131.2 9660784
13.797143 -9.030858 131.7 9594991
14.047999 -9.030858 131.7 9659501
14.244573 -8.9965715 131.2 9725294
14.494475 -8.9965715 131.2 9725026
14.744382 -8.9965715 131.2 9593440
14.994286 -8.9965715 131.2 9658974
15.244192 -8.9965715 131.2 9593181
15.494095 -8.9965715 131.2 9593431
15.744 -8.9965715 131.2 9593431
15.993905 -8.9965715 131.2 9658459
16.243809 -8.9965715 131.2 9592666
16.556572 -9.030858 131.7 9658461
16.807428 -9.030858 131.7 9592668
17.058287 -9.030858 131.7 9527384
17.309143 -9.030858 131.7 9527384
17.560001 -9.030858 131.7 9527384
17.810858 -9.030858 131.7 9527384
18.061716 -9.030858 131.7 9593181
18.312571 -9.030858 131.7 9527388
18.563429 -9.030858 131.7 9461591
18.814285 -9.030858 131.7 9461591
19.065144 -9.030858 131.7 9461591
19.316002 -9.030858 131.7 9461591
19.566858 -9.030858 131.7 9396052
19.742477 -8.9965715 131.2 9396052
19.992382 -8.9965715 131.2 9527127
-10.509334 -7.5066662 112.60001 1179665
-10.294858 -7.5066662 112.60001 984328
-10.053524 -7.4866667 112.3 1444879
-9.8396187 -7.4866667 112.3 1115912
-9.6257143 -7.4866667 112.3 852740
-9.4118099 -7.4866667 112.3 721674
-9.165144 -7.4600005 111.90001 655881
-8.9200001 -7.4333334 111.5 721411
-8.7076187 -7.4333334 111.5 721411
-8.4723816 -7.4133339 111.20001 721411
-8.2605724 -7.4133339 111.20001 721411
-8.0198097 -7.3866673 110.8 918272
8.4320002 -8.6800003 130.20001 10585250
9.2112389 -8.7133341 130.7 10584478
9.4601908 -8.7133341 130.7 10584982
9.7091436 -8.7133341 130.7 10584982
9.9580956 -8.7133341 130.7 10386320
10.207048 -8.7133341 130.7 10386320
10.456 -8.7133341 130.7 10320779
10.704952 -8.7133341 130.7 10320779
10.912001 -8.6800003 130.20001 10123143
11.160001 -8.6800003 130.20001 9991557
11.408 -8.6800003 130.20001 9991296
11.656 -8.6800003 130.20001 9991296
11.949715 -8.7133341 130.7 9924733
12.198667 -8.7133341 130.7 9793147
12.447618 -8.7133341 130.7 9792634
12.696571 -8.7133341 130.7 9726841
12.995048 -8.7466669 131.2 9858163
13.244952 -8.7466669 131.2 9792370
13.494857 -8.7466669 131.2 9660019
13.744762 -8.7466669 131.2 9660019
13.994667 -8.7466669 131.2 9725544
14.244573 -8.7466669 131.2 9659751
14.439239 -8.7133341 130.7 9659494
14.68819 -8.7133341 130.7 9527908
14.937144 -8.7133341 130.7 9593438
15.244192 -8.7466669 131.2 9396059
15.494095 -8.7466669 131.2 9395539
15.684001 -8.7133341 130.7 9527125
15.932953 -8.7133341 130.7 9657691
16.243809 -8.7466669 131.2 9591898
16.493715 -8.7466669 131.2 9657691
16.743618 -8.7466669 131.2 9657691
16.993525 -8.7466669 131.2 9657943
17.243429 -8.7466669 131.2 9657943
17.493334 -8.7466669 131.2 9657943
17.743237 -8.7466669 131.2 9657943
17.993143 -8.7466669 131.2 9658209
18.243048 -8.7466669 131.2 9658209
18.492954 -8.7466669 131.2 9593431
18.742857 -8.7466669 131.2 9527638
18.992762 -8.7466669 131.2 9461845
19.242666 -8.7466669 131.2 9461845
19.492573 -8.7466669 131.2 9396050
19.66724 -8.7133341 130.7 9396050
-10.294858 -7.2921901 112.60001 1576706
-10.08038 -7.2921901 112.60001 1379328
-9.8396187 -7.2727613 112.3 1378571
-9.6257143 -7.2727613 112.3 1115399
-9.4118099 -7.2727613 112.3 918785
-9.165144 -7.2468572 111.90001 852992
-8.9520006 -7.2468572 111.90001 721411
-8.7388573 -7.2468572 111.90001 721411
-8.4952374 -7.220952 111.5 721411
-8.2828569 -7.220952 111.5 721411
-8.0487623 -7.2015243 111.20001 656131
-7.8369536 -7.2015243 111.20001 656131
-7.5977144 -7.1756191 110.8 984065
8.3996201 -8.3996201 129.70001 10519455
9.4239998 -8.4320002 130.20001 10583703
9.6719999 -8.4320002 130.20001 10452117
9.9200001 -8.4320002 130.20001 10321038
10.168 -8.4320002 130.20001 10321038
10.416 -8.4320002 130.20001 10320779
10.664 -8.4320002 130.20001 10254986
10.870095 -8.3996201 129.70001 10057096
11.117144 -8.3996201 129.70001 9991303
11.364191 -8.3996201 129.70001 9991044
11.611238 -8.3996201 129.70001 9991044
11.904 -8.4320002 130.20001 9990524
12.152 -8.4320002 130.20001 9858938
12.400002 -8.4320002 130.20001 9792632
12.696571 -8.4643812 130.7 9858425
12.945524 -8.4643812 130.7 9858163
13.194476 -8.4643812 130.7 9792370
13.443428 -8.4643812 130.7 9726577
13.692381 -8.4643812 130.7 9660784
13.941333 -8.4643812 130.7 9791087
14.190287 -8.4643812 130.7 9791087
14.384002 -8.4320002 130.20001 9593958
14.632 -8.4320002 130.20001 9593958
14.937144 -8.4643812 130.7 9593440
15.128 -8.4320002 130.20001 9527647
15.376 -8.4320002 130.20001 9329746
15.624001 -8.4320002 130.20001 9527125
15.872 -8.4320002 130.20001 9593177
16.181906 -8.4643812 130.7 9527384
16.430859 -8.4643812 130.7 9723484
16.67981 -8.4643812 130.7 9657691
16.928762 -8.4643812 130.7 9592150
17.177715 -8.4643812 130.7 9592150
17.426668 -8.4643812 130.7 9657686
17.675621 -8.4643812 130.7 9723479
17.924572 -8.4643812 130.7 9723484
18.173525 -8.4643812 130.7 9789277
18.422478 -8.4643812 130.7 9593170
18.671429 -8.4643812 130.7 9658963
18.920382 -8.4643812 130.7 9527638
19.169334 -8.4643812 130.7 9461845
19.418287 -8.4643812 130.7 9461845
19.592001 -8.4320002 130.20001 9461845
-10.08038 -7.077714 112.60001 1313800
-9.8396187 -7.0588574 112.3 1773331
-9.6257143 -7.0588574 112.3 1707538
-9.4118099 -7.0588574 112.3 1772800
-9.1979046 -7.0588574 112.3 1378048
-8.9840002 -7.0588574 112.3 1049601
-8.7388573 -7.0337148 111.90001 852224
-8.5257139 -7.0337148 111.90001 590338
-8.2828569 -7.0085721 111.5 590338
-8.0487623 -6.9897146 111.20001 590336
-7.8369536 -6.9897146 111.20001 524544
-7.625144 -6.9897146 111.20001 918274
-7.4133339 -6.9897146 111.20001 1115653
-7.2015243 -6.9897146 111.20001 2032642
9.3878098 -8.1525717 129.70001 10254743
9.6348572 -8.1525717 129.70001 10254743
9.8819046 -8.1525717 129.70001 10188945
10.128953 -8.1525717 129.70001 10254738
10.376 -8.1525717 129.70001 10057098
10.623048 -8.1525717 129.70001 9859719
10.870095 -8.1525717 129.70001 9990535
11.117144 -8.1525717 129.70001 9990535
11.320381 -8.1211433 129.20001 9924738
11.566477 -8.1211433 129.20001 9858945
11.858287 -8.1525717 129.70001 9990265
12.105333 -8.1525717 129.70001 9858679
12.352382 -8.1525717 129.70001 9792884
12.648 -8.184001 130.20001 9792884
12.896 -8.184001 130.20001 9922932
13.144001 -8.184001 130.20001 9857139
13.392 -8.184001 130.20001 9791344
13.64 -8.184001 130.20001 9791344
13.888 -8.184001 130.20001 9791337
14.081714 -8.1525717 129.70001 9725544
14.328763 -8.1525717 129.70001 9660003
14.575809 -8.1525717 129.70001 9594210
14.822857 -8.1525717 129.70001 9593697
15.069905 -8.1525717 129.70001 9527904
15.316953 -8.1525717 129.70001 9593438
15.564001 -8.1525717 129.70001 9593438
15.811049 -8.1525717 129.70001 9658970
16.058094 -8.1525717 129.70001 9593177
16.305143 -8.1525717 129.70001 9593181
16.552191 -8.1525717 129.70001 9461595
16.79924 -8.1525717 129.70001 9461334
17.112 -8.184001 130.20001 9527127
17.360001 -8.184001 130.20001 9592404
17.608 -8.184001 130.20001 9658197
17.856001 -8.184001 130.20001 9592920
18.034477 -8.1525717 129.70001 9527127
18.281525 -8.1525717 129.70001 9658447
18.528572 -8.1525717 129.70001 9658447
18.77562 -8.1525717 129.70001 9527638
19.022667 -8.1525717 129.70001 9461845
19.269714 -8.1525717 129.70001 9461591
-10.116191 -6.887619 113 591878
-9.9009523 -6.887619 113 1444364
-9.6514292 -6.8632388 112.60001 1312778
-9.4369526 -6.8632388 112.60001 1574923
-9.1979046 -6.8449526 112.3 1640716
-8.9840002 -6.8449526 112.3 1312008
-8.7388573 -6.8205724 111.90001 1048836
-8.5257139 -6.8205724 111.90001 721408
-8.3125715 -6.8205724 111.90001 787200
-8.0487623 -6.7779055 111.20001 394240
-7.8369536 -6.7779055 111.20001 328448
-7.625144 -6.7779055 111.20001 656384
-7.4133339 -6.7779055 111.20001 919555
-7.2015243 -6.7779055 111.20001 1835776
-6.9897146 -6.7779055 111.20001 2033155
-6.7535238 -6.7535238 110.8 2556678
8.0960016 -7.850667 128.80002 10782375
8.6133327 -7.8750477 129.20001 10519455
8.8594284 -7.8750477 129.20001 10321308
9.1055241 -7.8750477 129.20001 10255515
9.3516197 -7.8750477 129.20001 10451863
9.5977144 -7.8750477 129.20001 10386070
9.8438091 -7.8750477 129.20001 10188432
10.089906 -7.8750477 129.20001 10188432
10.336 -7.8750477 129.20001 9924742
10.582096 -7.8750477 129.20001 9924742
10.828191 -7.8750477 129.20001 9924742
11.074286 -7.8750477 129.20001 9858949
11.320381 -7.8750477 129.20001 9858945
11.566477 -7.8750477 129.20001 9858945
11.812572 -7.8750477 129.20001 9858679
12.058667 -7.8750477 129.20001 9792886
12.352382 -7.9055243 129.70001 9858163
12.599429 -7.9055243 129.70001 9858163
12.846476 -7.9055243 129.70001 9857137
13.093525 -7.9055243 129.70001 9988723
13.340571 -7.9055243 129.70001 9857137
13.58762 -7.9055243 129.70001 9791344
13.834667 -7.9055243 129.70001 9725294
14.027429 -7.8750477 129.20001 9725294
14.273524 -7.8750477 129.20001 9660003
14.51962 -7.8750477 129.20001 9594210
14.765716 -7.8750477 129.20001 9659233
15.011809 -7.8750477 129.20001 9659233
15.257905 -7.8750477 129.20001 9659231
15.456001 -7.850667 128.80002 9659231
15.701334 -7.850667 128.80002 9593438
15.946669 -7.850667 128.80002 9527645
16.242287 -7.8750477 129.20001 9527645
16.48838 -7.8750477 129.20001 9461852
16.734476 -7.8750477 129.20001 9527897
16.980572 -7.8750477 129.20001 9527897
17.226665 -7.8750477 129.20001 9527638
17.472761 -7.8750477 129.20001 9527638
17.718857 -7.8750477 129.20001 9527388
17.964952 -7.8750477 129.20001 9461595
18.211048 -7.8750477 129.20001 9461845
18.457144 -7.8750477 129.20001 9461845
18.703239 -7.8750477 129.20001 9461591
18.949333 -7.8750477 129.20001 9461591
19.195429 -7.8750477 129.20001 9330775
-10.152001 -6.6960006 113.40001 460292
-9.9360008 -6.6960006 113.40001 591367
-9.7200003 -6.6960006 113.40001 525574
-9.4704762 -6.6723809 113 591367
-9.2552376 -6.6723809 113 657160
-9.0080004 -6.6487627 112.60001 1378323
-8.7388573 -6.607429 111.90001 1444116
-8.5257139 -6.607429 111.90001 1444866
-8.3125715 -6.607429 111.90001 1510659
-8.0487623 -6.5660963 111.20001 1707009
-7.8369536 -6.5660963 111.20001 1443840
-7.625144 -6.5660963 111.20001 1312258
-7.4133339 -6.5660963 111.20001 1180672
-7.2015243 -6.5660963 111.20001 1704960
-6.9897146 -6.5660963 111.20001 1836546
-6.7535238 -6.5424762 110.8 2360069
-6.5424762 -6.5424762 110.8 2557448
-6.331429 -6.5424762 110.8 3347712
8.5866671 -7.6053338 128.80002 10650530
8.8320007 -7.6053338 128.80002 10518687
9.0773344 -7.6053338 128.80002 10452894
9.3226671 -7.6053338 128.80002 10517915
9.5680008 -7.6053338 128.80002 10517915
9.8133345 -7.6053338 128.80002 10123157
10.058667 -7.6053338 128.80002 9991571
10.336 -7.6289525 129.20001 9925262
10.582096 -7.6289525 129.20001 9859469
10.828191 -7.6289525 129.20001 9924740
11.074286 -7.6289525 129.20001 9924740
11.320381 -7.6289525 129.20001 9924479
11.566477 -7.6289525 129.20001 9858686
11.812572 -7.6289525 129.20001 9857659
12.058667 -7.6289525 129.20001 9791866
12.304763 -7.6289525 129.20001 9726827
12.550858 -7.6289525 129.20001 9726827
12.796953 -7.6289525 129.20001 9857137
13.043049 -7.6289525 129.20001 9791344
13.289144 -7.6289525 129.20001 9725042
13.493334 -7.6053338 128.80002 9725042
13.738668 -7.6053338 128.80002 9725294
13.984001 -7.6053338 128.80002 9659501
14.229335 -7.6053338 128.80002 9594210
14.474668 -7.6053338 128.80002 9594210
14.72 -7.6053338 128.80002 9593697
14.965335 -7.6053338 128.80002 9593697
15.210668 -7.6053338 128.80002 9724767
15.396002 -7.57581 128.30002 9724767
15.640383 -7.57581 128.30002 9658974
15.946669 -7.6053338 128.80002 9658974
16.192003 -7.6053338 128.80002 9658970
16.437334 -7.6053338 128.80002 9658970
16.682669 -7.6053338 128.80002 9658970
16.928001 -7.6053338 128.80002 9593177
17.173334 -7.6053338 128.80002 9593431
17.472761 -7.6289525 129.20001 9593431
17.664001 -7.6053338 128.80002 9593181
17.909334 -7.6053338 128.80002 9593181
18.154669 -7.6053338 128.80002 9527384
18.400002 -7.6053338 128.80002 9461591
18.645334 -7.6053338 128.80002 9461595
18.890669 -7.6053338 128.80002 9461595
19.136002 -7.6053338 128.80002 9461595
-9.9360008 -6.48 113.40001 459779
-9.7200003 -6.48 113.40001 328193
-9.5375233 -6.5028572 113.8 197379
-9.3207617 -6.5028572 113.8 197379
-9.0080004 -6.4342866 112.60001 656397
-8.7935238 -6.4342866 112.60001 1051155
-8.5561905 -6.4171433 112.3 1510663
-8.3125715 -6.3942866 111.90001 1379077
-8.0487623 -6.3542867 111.20001 2230021
-7.8369536 -6.3542867 111.20001 2295814
-7.625144 -6.3542867 111.20001 2230021
-7.4133339 -6.3542867 111.20001 2098435
-7.2015243 -6.3542867 111.20001 2098948
-6.964572 -6.331429 110.8 2098948
-6.7535238 -6.331429 110.8 2426373
-6.5424762 -6.331429 110.8 2492166
-6.331429 -6.331429 110.8 2885893
-6.1203809 -6.331429 110.8 3412237
-5.9093337 -6.331429 110.8 3743258
7.5462861 -7.3028579 127.80001 11243691
7.7897148 -7.3028579 127.80001 10848170
8.033144 -7.3028579 127.80001 10782377
8.3089533 -7.3314285 128.30002 10650530
8.5533333 -7.3314285 128.30002 10650530
8.7977152 -7.3314285 128.30002 10584478
9.0420961 -7.3314285 128.30002 10518685
9.2864771 -7.3314285 128.30002 10387097
9.5308571 -7.3314285 128.30002 10387097
9.8133345 -7.3600001 128.80002 10320788
10.058667 -7.3600001 128.80002 10189202
10.304001 -7.3600001 128.80002 10122378
10.549334 -7.3600001 128.80002 9990792
10.794667 -7.3600001 128.80002 10056326
11.040001 -7.3600001 128.80002 9990533
11.285334 -7.3600001 128.80002 10055808
11.530666 -7.3600001 128.80002 10055808
11.730288 -7.3314285 128.30002 9857659
11.974667 -7.3314285 128.30002 9857659
12.266668 -7.3600001 128.80002 9792370
12.463429 -7.3314285 128.30002 9726577
12.70781 -7.3314285 128.30002 9792118
12.952192 -7.3314285 128.30002 9726325
13.196572 -7.3314285 128.30002 9725294
13.440953 -7.3314285 128.30002 9725294
13.685335 -7.3314285 128.30002 9659751
13.929714 -7.3314285 128.30002 9593958
14.174096 -7.3314285 128.30002 9659490
14.418477 -7.3314285 128.30002 9659490
14.662857 -7.3314285 128.30002 9593951
14.907239 -7.3314285 128.30002 9528158
15.15162 -7.3314285 128.30002 9724513
15.396002 -7.3314285 128.30002 9724513
15.640383 -7.3314285 128.30002 9724254
15.884763 -7.3314285 128.30002 9724254
16.129145 -7.3314285 128.30002 9724254
16.373524 -7.3314285 128.30002 9790047
16.682669 -7.3600001 128.80002 9724252
16.928001 -7.3600001 128.80002 9658459
17.173334 -7.3600001 128.80002 9593177
17.418667 -7.3600001 128.80002 9593177
17.664001 -7.3600001 128.80002 9593181
17.839811 -7.3314285 128.30002 9527388
18.084192 -7.3314285 128.30002 9461591
18.328573 -7.3314285 128.30002 9461591
18.572954 -7.3314285 128.30002 9527127
18.817335 -7.3314285 128.30002 9527127
-9.9710474 -6.2860951 113.8 459779
-9.7542849 -6.2860951 113.8 393986
-9.5626669 -6.3026667 114.10001 262913
-9.0080004 -6.21981 112.60001 262663
-8.7935238 -6.21981 112.60001 262663
-8.5561905 -6.2032385 112.3 393986
-8.3422852 -6.2032385 112.3 459779
-8.0704756 -6.1590476 111.5 787204
-7.8580952 -6.1590476 111.5 852997
-7.6457143 -6.1590476 111.5 1246465
-7.4133339 -6.142477 111.20001 1312258
-7.2015243 -6.142477 111.20001 1575173
-6.964572 -6.1203809 110.8 1575173
-6.7535238 -6.1203809 110.8 2164228
-6.5424762 -6.1203809 110.8 2493193
-6.331429 -6.1203809 110.8 2493445
-6.1203809 -6.1203809 110.8 2493445
-5.9093337 -6.1203809 110.8 2954759
-5.6982856 -6.1203809 110.8 2954759
-5.4872384 -6.1203809 110.8 2888460
-5.0834289 -6.142477 111.20001 3150598
7.5167618 -7.0318093 127.3 11309995
7.7592382 -7.0318093 127.3 10913963
8.0017138 -7.0318093 127.3 10716584
8.2765722 -7.0594296 127.80001 10716064
8.5200005 -7.0594296 127.80001 10584478
8.7634287 -7.0594296 127.80001 10518685
9.0068579 -7.0594296 127.80001 10452892
9.2502861 -7.0594296 127.80001 10583703
9.4937143 -7.0594296 127.80001 10452117
9.7371426 -7.0594296 127.80001 10386320
9.9805727 -7.0594296 127.80001 10386320
10.224001 -7.0594296 127.80001 10254727
10.467429 -7.0594296 127.80001 10188934
10.752762 -7.0870481 128.30002 10187910
10.997144 -7.0870481 128.30002 10056324
11.241525 -7.0870481 128.30002 10122623
11.485906 -7.0870481 128.30002 9925244
11.730288 -7.0870481 128.30002 9858429
11.974667 -7.0870481 128.30002 9858429
12.219049 -7.0870481 128.30002 9792886
12.414859 -7.0594296 127.80001 9727093
12.658288 -7.0594296 127.80001 9857141
12.901716 -7.0594296 127.80001 9791348
13.145144 -7.0594296 127.80001 9790835
13.388573 -7.0594296 127.80001 9725042
13.632001 -7.0594296 127.80001 9725796
13.875429 -7.0594296 127.80001 9594210
14.118859 -7.0594296 127.80001 9593697
14.362288 -7.0594296 127.80001 9527904
14.605716 -7.0594296 127.80001 9527645
14.849144 -7.0594296 127.80001 9527645
15.092572 -7.0594296 127.80001 9658720
15.336 -7.0594296 127.80001 9658720
15.57943 -7.0594296 127.80001 9724254
15.822859 -7.0594296 127.80001 9724254
16.066288 -7.0594296 127.80001 9658974
16.309715 -7.0594296 127.80001 9658974
16.553144 -7.0594296 127.80001 9658974
16.796572 -7.0594296 127.80001 9593181
17.040001 -7.0594296 127.80001 9593181
17.28343 -7.0594296 127.80001 9593181
17.526857 -7.0594296 127.80001 9527388
17.770287 -7.0594296 127.80001 9527388
18.013716 -7.0594296 127.80001 9527384
-8.0994291 -5.9680004 111.90001 196866
-7.8580952 -5.9466667 111.5 262659
-7.6457143 -5.9466667 111.5 590336
-7.4333334 -5.9466667 111.5 656129
-7.220952 -5.9466667 111.5 787204
-6.9897146 -5.9306674 111.20001 1050376
-6.7779055 -5.9306674 111.20001 1115912
-6.5660963 -5.9306674 111.20001 1444877
-6.3542867 -5.9306674 111.20001 1707538
-6.142477 -5.9306674 111.20001 1707538
-5.9306674 -5.9306674 111.20001 1839628
-5.7188573 -5.9306674 111.20001 1839628
-5.4872384 -5.9093337 110.8 1905671
-5.2761903 -5.9093337 110.8 1905671
-5.0834289 -5.9306674 111.20001 1904917
7.4872375 -6.7626672 126.8 11309743
7.7287621 -6.7626672 126.8 10914474
7.9702864 -6.7626672 126.8 10848681
8.2118092 -6.7626672 126.8 10650530
8.4866667 -6.7893333 127.3 10518944
8.7291431 -6.7893333 127.3 10649501
8.9716196 -6.7893333 127.3 10517915
9.2140951 -6.7893333 127.3 10517910
9.4565716 -6.7893333 127.3 10452117
9.6990471 -6.7893333 127.3 10320779
9.9415236 -6.7893333 127.3 10320779
10.184 -6.7893333 127.3 10189193
10.426476 -6.7893333 127.3 10123400
10.668953 -6.7893333 127.3 10122628
10.911428 -6.7893333 127.3 10122628
11.153904 -6.7893333 127.3 10056578
11.441144 -6.8160005 127.80001 9990785
11.684572 -6.8160005 127.80001 9924222
11.928001 -6.8160005 127.80001 9858429
12.17143 -6.8160005 127.80001 9792632
12.414859 -6.8160005 127.80001 9792632
12.608762 -6.7893333 127.3 9792118
12.851238 -6.7893333 127.3 9726325
13.093713 -6.7893333 127.3 9791344
13.33619 -6.7893333 127.3 9857137
13.578667 -6.7893333 127.3 9791337
13.821141 -6.7893333 127.3 9725544
14.063619 -6.7893333 127.3 9659490
14.306095 -6.7893333 127.3 9659490
14.548572 -6.7893333 127.3 9725024
14.791048 -6.7893333 127.3 9659231
15.033524 -6.7893333 127.3 9724515
15.276 -6.7893333 127.3 9724515
15.518476 -6.7893333 127.3 9658720
15.760952 -6.7893333 127.3 9592927
16.003428 -6.7893333 127.3 9658974
16.245905 -6.7893333 127.3 9658974
16.48838 -6.7893333 127.3 9593440
16.730858 -6.7893333 127.3 9527647
16.973333 -6.7893333 127.3 9527897
17.215809 -6.7893333 127.3 9527897
17.458286 -6.7893333 127.3 9527388
17.700762 -6.7893333 127.3 9593181
17.943239 -6.7893333 127.3 9593177
18.185715 -6.7893333 127.3 9593177
18.42819 -6.7893333 127.3 9593181
-7.8862863 -5.7548571 111.90001 262913
-7.6731434 -5.7548571 111.90001 590336
-7.4600005 -5.7548571 111.90001 590336
-7.220952 -5.7342858 111.5 656129
-7.0085721 -5.7342858 111.5 656129
-6.7779055 -5.7188573 111.20001 656131
-6.5660963 -5.7188573 111.20001 524545
-6.3542867 -5.7188573 111.20001 393729
-6.142477 -5.7188573 111.20001 327936
-5.9306674 -5.7188573 111.20001 327684
-5.7188573 -5.7188573 111.20001 262147
-5.4872384 -5.6982856 110.8 196608
-5.2761903 -5.6982856 110.8 262400
-5.0834289 -5.7188573 111.20001 327682
-4.8540955 -5.6982856 110.8 327682
-4.6430478 -5.6982856 110.8 327936
-3.8228571 -5.7342858 111.5 393477
6.9820957 -6.5005722 126.40001 11243950
7.4872375 -6.521143 126.8 10979754
7.704381 -6.5005722 126.40001 11045799
7.9451432 -6.5005722 126.40001 11111592
8.1859055 -6.5005722 126.40001 10650784
8.4533329 -6.521143 126.8 10519198
8.6948566 -6.521143 126.8 10517917
8.9363804 -6.521143 126.8 10517917
9.1779051 -6.521143 126.8 10320277
9.4194288 -6.521143 126.8 10254484
9.6609526 -6.521143 126.8 10254477
9.9024754 -6.521143 126.8 10122891
10.144 -6.521143 126.8 9991053
10.385524 -6.521143 126.8 9991053
10.627048 -6.521143 126.8 9924740
10.868571 -6.521143 126.8 9990533
11.110095 -6.521143 126.8 9990272
11.396381 -6.5468564 127.3 9924479
11.638857 -6.5468564 127.3 9923454
11.881332 -6.5468564 127.3 9989247
12.12381 -6.5468564 127.3 9792632
12.366285 -6.5468564 127.3 9726839
12.608762 -6.5468564 127.3 9988725
12.851238 -6.5468564 127.3 9857139
13.093713 -6.5468564 127.3 9791344
13.33619 -6.5468564 127.3 9791344
13.578667 -6.5468564 127.3 9856871
13.821141 -6.5468564 127.3 9791078
14.063619 -6.5468564 127.3 9856610
14.306095 -6.5468564 127.3 9725024
14.491428 -6.521143 126.8 9790565
14.732952 -6.521143 126.8 9724772
14.974475 -6.521143 126.8 9725024
15.216001 -6.521143 126.8 9659231
15.457524 -6.521143 126.8 9658720
15.699047 -6.521143 126.8 9658720
15.940573 -6.521143 126.8 9592927
16.182095 -6.521143 126.8 9658720
16.423618 -6.521143 126.8 9659494
16.730858 -6.5468564 127.3 9527908
16.973333 -6.5468564 127.3 9527645
17.215809 -6.5468564 127.3 9527645
17.458286 -6.5468564 127.3 9658974
17.700762 -6.5468564 127.3 9658974
17.943239 -6.5468564 127.3 9658970
18.185715 -6.5468564 127.3 9658970
-7.4600005 -5.5417147 111.90001 328452
-7.2468572 -5.5417147 111.90001 524545
-7.0085721 -5.5219045 111.5 524545
-6.7779055 -5.5070481 111.20001 524545
-6.5660963 -5.5070481 111.20001 458752
-6.3542867 -5.5070481 111.20001 327936
-6.142477 -5.5070481 111.20001 327936
-5.9306674 -5.5070481 111.20001 327682
-5.7188573 -5.5070481 111.20001 327682
-5.4872384 -5.4872384 110.8 196608
-5.2761903 -5.4872384 110.8 262400
-5.0834289 -5.5070481 111.20001 262402
-4.8716197 -5.5070481 111.20001 262402
-4.6598101 -5.5070481 111.20001 327682
-4.4480009 -5.5070481 111.20001 327682
-4.2361908 -5.5070481 111.20001 327936
-4.0243812 -5.5070481 111.20001 459522
-3.8228571 -5.5219045 111.5 262663
-3.610476 -5.5219045 111.5 262663
-3.3980951 -5.5219045 111.5 328706
-2.9840002 -5.5417147 111.90001 262913
6.7146673 -6.2350478 125.90001 10981550
6.9544764 -6.2350478 125.90001 11047343
7.4636192 -6.25981 126.40001 10979754
7.704381 -6.25981 126.40001 10980006
7.9451432 -6.25981 126.40001 10914213
8.1859055 -6.25981 126.40001 10585248
8.4266672 -6.25981 126.40001 10519455
8.667429 -6.25981 126.40001 10452376
8.9081907 -6.25981 126.40001 10386583
9.1489525 -6.25981 126.40001 10188945
9.3897142 -6.25981 126.40001 10254738
9.5923815 -6.2350478 125.90001 10386315
9.8321905 -6.2350478 125.90001 10254729
10.112 -6.25981 126.40001 9926021
10.352762 -6.25981 126.40001 9794435
10.593524 -6.25981 126.40001 9793665
10.834286 -6.25981 126.40001 9859458
11.075047 -6.25981 126.40001 9990272
11.31581 -6.25981 126.40001 9924479
11.556573 -6.25981 126.40001 9858427
11.834667 -6.2796192 126.8 9726841
12.076191 -6.2796192 126.8 9792118
12.317714 -6.2796192 126.8 9726325
12.559238 -6.2796192 126.8 9922932
12.800762 -6.2796192 126.8 9857139
13.042286 -6.2796192 126.8 9856873
13.283809 -6.2796192 126.8 9791080
13.525334 -6.2796192 126.8 9856360
13.766856 -6.2796192 126.8 9856360
14.008381 -6.2796192 126.8 9790565
14.249906 -6.2796192 126.8 9724772
14.445715 -6.25981 126.40001 9855590
14.686478 -6.25981 126.40001 9921383
14.927238 -6.25981 126.40001 9790047
15.168001 -6.25981 126.40001 9790047
15.408762 -6.25981 126.40001 9724515
15.649525 -6.25981 126.40001 9658722
15.890286 -6.25981 126.40001 9658974
16.131048 -6.25981 126.40001 9658974
16.423618 -6.2796192 126.8 9593440
16.665142 -6.2796192 126.8 9593440
16.906666 -6.2796192 126.8 9593438
17.148191 -6.2796192 126.8 9593438
17.389713 -6.2796192 126.8 9658974
17.631239 -6.2796192 126.8 9658974
17.872761 -6.2796192 126.8 9658970
18.114285 -6.2796192 126.8 9658970
18.35581 -6.2796192 126.8 9528158
18.597334 -6.2796192 126.8 9462365
-7.2468572 -5.3285718 111.90001 262913
-7.0337148 -5.3285718 111.90001 197120
-6.8205724 -5.3285718 111.90001 196866
-6.5838089 -5.3095236 111.5 196866
-6.371429 -5.3095236 111.5 196866
-6.142477 -5.2952385 111.20001 262659
-5.9306674 -5.2952385 111.20001 393729
-5.7188573 -5.2952385 111.20001 393729
-5.4872384 -5.2761903 110.8 393729
-5.2761903 -5.2761903 110.8 393729
-5.0971432 -5.3095236 111.5 196866
-4.8716197 -5.2952385 111.20001 196866
-4.6598101 -5.2952385 111.20001 393477
-4.4480009 -5.2952385 111.20001 393477
-4.2361908 -5.2952385 111.20001 590338
-4.0352378 -5.3095236 111.5 590338
-3.8228571 -5.3095236 111.5 262663
6.6933341 -5.976191 125.50002 11178675
6.9323816 -5.976191 125.50002 11047089
7.1714292 -5.976191 125.50002 10979758
7.4104762 -5.976191 125.50002 10913965
7.6739049 -5.9952388 125.90001 10914467
7.9137144 -5.9952388 125.90001 10717088
8.1535244 -5.9952388 125.90001 10650782
8.3933334 -5.9952388 125.90001 10584989
8.6331425 -5.9952388 125.90001 10387097
8.8729534 -5.9952388 125.90001 10387097
9.0838099 -5.976191 125.50002 10517906
9.3228579 -5.976191 125.50002 10386320
9.5619049 -5.976191 125.50002 10320779
9.8009539 -5.976191 125.50002 10320779
10.072001 -5.9952388 125.90001 10255238
10.31181 -5.9952388 125.90001 10123652
10.55162 -5.9952388 125.90001 10188673
10.79143 -5.9952388 125.90001 9991294
11.031238 -5.9952388 125.90001 9991037
11.271049 -5.9952388 125.90001 9859451
11.510858 -5.9952388 125.90001 9924220
11.750667 -5.9952388 125.90001 9792634
11.990478 -5.9952388 125.90001 9791864
12.230286 -5.9952388 125.90001 9726071
12.51962 -6.0190482 126.40001 9791344
12.760382 -6.0190482 126.40001 9791344
13.001144 -6.0190482 126.40001 9725294
13.241905 -6.0190482 126.40001 9659501
13.482668 -6.0190482 126.40001 9658988
13.723429 -6.0190482 126.40001 9658988
13.964191 -6.0190482 126.40001 9658988
14.204953 -6.0190482 126.40001 9593195
14.388572 -5.9952388 125.90001 9724261
14.628382 -5.9952388 125.90001 9724261
14.868191 -5.9952388 125.90001 9658461
15.108 -5.9952388 125.90001 9790047
15.34781 -5.9952388 125.90001 9724515
15.649525 -6.0190482 126.40001 9724515
15.890286 -6.0190482 126.40001 9658461
16.131048 -6.0190482 126.40001 9724254
16.371811 -6.0190482 126.40001 9658974
16.612572 -6.0190482 126.40001 9658974
16.906666 -6.0380955 126.8 9593177
17.148191 -6.0380955 126.8 9658970
17.389713 -6.0380955 126.8 9658974
17.631239 -6.0380955 126.8 9658974
17.816381 -6.0190482 126.40001 9658970
18.057144 -6.0190482 126.40001 9658970
18.297905 -6.0190482 126.40001 9659483
18.538668 -6.0190482 126.40001 9593690
-5.3095236 -5.0971432 111.5 196866
-5.0971432 -5.0971432 111.5 196866
-4.9022861 -5.1154289 111.90001 196866
-4.6598101 -5.0834289 111.20001 196866
-4.4480009 -5.0834289 111.20001 196866
-4.2361908 -5.0834289 111.20001 196866
6.4285712 -5.7142859 125 11442365
6.666666 -5.7142859 125 11178423
6.9047613 -5.7142859 125 11178423
7.1714292 -5.7371435 125.50002 11046317
7.4104762 -5.7371435 125.50002 10980524
7.6495247 -5.7371435 125.50002 10914213
7.8885717 -5.7371435 125.50002 10716834
8.1276197 -5.7371435 125.50002 10716577
8.3666677 -5.7371435 125.50002 10584991
8.6057148 -5.7371435 125.50002 10518683
8.8447628 -5.7371435 125.50002 10387097
9.0838099 -5.7371435 125.50002 10517910
9.3228579 -5.7371435 125.50002 10386324
9.5619049 -5.7371435 125.50002 10320779
9.8009539 -5.7371435 125.50002 10320779
10.040001 -5.7371435 125.50002 10386311
10.279048 -5.7371435 125.50002 10452104
10.518096 -5.7371435 125.50002 10189186
10.757144 -5.7371435 125.50002 10123393
10.996191 -5.7371435 125.50002 9991296
11.271049 -5.7554288 125.90001 9925503
11.510858 -5.7554288 125.90001 9990524
11.750667 -5.7554288 125.90001 9990524
11.990478 -5.7554288 125.90001 9858427
12.230286 -5.7554288 125.90001 9726841
12.470096 -5.7554288 125.90001 9792370
12.760382 -5.7782865 126.40001 9726577
13.001144 -5.7782865 126.40001 9660784
13.189525 -5.7554288 125.90001 9529198
13.429335 -5.7554288 125.90001 9659751
13.669142 -5.7554288 125.90001 9659751
13.908953 -5.7554288 125.90001 9593958
14.148763 -5.7554288 125.90001 9462372
14.388572 -5.7554288 125.90001 9593958
14.628382 -5.7554288 125.90001 9528165
14.868191 -5.7554288 125.90001 9658970
15.108 -5.7554288 125.90001 9724763
15.34781 -5.7554288 125.90001 9790560
15.587621 -5.7554288 125.90001 9724767
15.827429 -5.7554288 125.90001 9790047
16.067238 -5.7554288 125.90001 9790047
16.307049 -5.7554288 125.90001 9724767
16.546858 -5.7554288 125.90001 9658974
16.853334 -5.7782865 126.40001 9658970
17.094095 -5.7782865 126.40001 9658970
17.334858 -5.7782865 126.40001 9658974
17.575621 -5.7782865 126.40001 9658974
17.816381 -5.7782865 126.40001 9724252
18.057144 -5.7782865 126.40001 9724252
18.297905 -5.7782865 126.40001 9724763
6.1657143 -5.4542856 124.5 11770814
6.4028578 -5.4542856 124.5 11507642
6.9047613 -5.4761906 125 11178423
7.1428566 -5.4761906 125 11045808
7.3809519 -5.4761906 125 10980015
7.6190472 -5.4761906 125 10782375
7.8571429 -5.4761906 125 10716582
8.0952387 -5.4761906 125 10518687
8.333334 -5.4761906 125 10452894
8.5714293 -5.4761906 125 10517656
8.8095236 -5.4761906 125 10517656
9.0476189 -5.4761906 125 10583442
9.2857141 -5.4761906 125 10451856
9.5238094 -5.4761906 125 10386315
9.7619047 -5.4761906 125 10320522
10 -5.4761906 125 10320770
10.238095 -5.4761906 125 10254977
10.476191 -5.4761906 125 10254207
10.757144 -5.4980955 125.50002 10188414
10.996191 -5.4980955 125.50002 10056830
11.235239 -5.4980955 125.50002 9925244
11.474287 -5.4980955 125.50002 9990013
11.713334 -5.4980955 125.50002 9924220
11.952382 -5.4980955 125.50002 10054777
12.19143 -5.4980955 125.50002 10054777
12.430478 -5.4980955 125.50002 9792884
12.669524 -5.4980955 125.50002 9661298
12.908572 -5.4980955 125.50002 9726577
13.147621 -5.4980955 125.50002 9660784
13.333332 -5.4761906 125 9791087
13.571427 -5.4761906 125 9725294
13.864763 -5.4980955 125.50002 9659501
14.10381 -5.4980955 125.50002 9593708
14.342858 -5.4980955 125.50002 9659492
14.581907 -5.4980955 125.50002 9659492
14.820952 -5.4980955 125.50002 9659224
15.060001 -5.4980955 125.50002 9790810
15.299049 -5.4980955 125.50002 9855838
15.538096 -5.4980955 125.50002 9790045
15.777143 -5.4980955 125.50002 9921117
16.016191 -5.4980955 125.50002 9986910
16.255239 -5.4980955 125.50002 9790047
16.494287 -5.4980955 125.50002 9658461
16.786667 -5.5156188 125.90001 9723990
17.026478 -5.5156188 125.90001 9855576
17.266285 -5.5156188 125.90001 9724252
17.506096 -5.5156188 125.90001 9724252
17.745907 -5.5156188 125.90001 9724252
17.985716 -5.5156188 125.90001 9724252
18.225525 -5.5156188 125.90001 9724252
18.465334 -5.5156188 125.90001 9790045
6.1459055 -5.2003813 124.10001 11639492
6.3822856 -5.2003813 124.10001 11507906
6.6399999 -5.2171426 124.5 11178423
6.8771429 -5.2171426 124.5 11178423
7.1142855 -5.2171426 124.5 11045808
7.3809519 -5.2380953 125 10980015
7.6190472 -5.2380953 125 10716582
7.8571429 -5.2380953 125 10650789
8.0628576 -5.2171426 124.5 10387099
8.2999992 -5.2171426 124.5 10387099
8.5371428 -5.2171426 124.5 10386070
8.7742853 -5.2171426 124.5 10451863
9.0114288 -5.2171426 124.5 10451856
9.2485714 -5.2171426 124.5 10386063
9.485714 -5.2171426 124.5 10386315
9.7228575 -5.2171426 124.5 10320522
10 -5.2380953 125 10122882
10.238095 -5.2380953 125 9991296
10.476191 -5.2380953 125 10056830
10.714286 -5.2380953 125 10056830
10.952381 -5.2380953 125 9924992
11.190476 -5.2380953 125 9859199
11.428572 -5.2380953 125 9858940
11.666667 -5.2380953 125 9858940
11.904762 -5.2380953 125 9858679
12.142858 -5.2380953 125 9792886
12.380953 -5.2380953 125 9923704
12.568571 -5.2171426 124.5 9857911
12.805716 -5.2171426 124.5 9792370
13.042857 -5.2171426 124.5 9792370
13.28 -5.2171426 124.5 9857130
13.517143 -5.2171426 124.5 9791337
13.809523 -5.2380953 125 9725544
14.047618 -5.2380953 125 9725544
14.285713 -5.2380953 125 9725285
14.523808 -5.2380953 125 9725285
14.761904 -5.2380953 125 9725017
14.999999 -5.2380953 125 9790810
15.238094 -5.2380953 125 9856090
15.476191 -5.2380953 125 9856090
15.777143 -5.259048 125.50002 9986910
16.016191 -5.259048 125.50002 9986910
16.255239 -5.259048 125.50002 9855838
16.494287 -5.259048 125.50002 9724252
16.733335 -5.259048 125.50002 9789781
16.972382 -5.259048 125.50002 9855574
17.21143 -5.259048 125.50002 9921117
17.450478 -5.259048 125.50002 9921117
17.689526 -5.259048 125.50002 9724504
17.928572 -5.259048 125.50002 9724504
18.16762 -5.259048 125.50002 9790297
18.406668 -5.259048 125.50002 9790297
18.645716 -5.259048 125.50002 9856603
5.8857145 -4.9440002 123.60001 12166338
6.1211429 -4.9440002 123.60001 11705288
6.6186666 -4.9639997 124.10001 11178929
6.8550482 -4.9639997 124.10001 11178929
7.1142855 -4.98 124.5 10980015
7.351429 -4.98 124.5 10914222
7.5885715 -4.98 124.5 10716582
7.8257141 -4.98 124.5 10650789
8.036952 -4.9639997 124.10001 10518685
8.2733335 -4.9639997 124.10001 10584478
8.5097151 -4.9639997 124.10001 10517656
8.7460957 -4.9639997 124.10001 10386070
8.9824762 -4.9639997 124.10001 10385811
9.2188578 -4.9639997 124.10001 10320018
9.485714 -4.98 124.5 10188936
9.7228575 -4.98 124.5 10123143
9.96 -4.98 124.5 10056324
10.164382 -4.9639997 124.10001 9990531
10.400763 -4.9639997 124.10001 9990524
10.671429 -4.98 124.5 9924731
10.908571 -4.98 124.5 9858686
11.145714 -4.98 124.5 9792893
11.382857 -4.98 124.5 9858679
11.62 -4.98 124.5 9858679
11.857143 -4.98 124.5 10054518
12.094285 -4.98 124.5 9988725
12.331429 -4.98 124.5 9989229
12.528192 -4.9639997 124.10001 9857643
12.764571 -4.9639997 124.10001 9857137
13.000954 -4.9639997 124.10001 9791344
13.237333 -4.9639997 124.10001 9922664
13.473713 -4.9639997 124.10001 9856871
13.754286 -4.98 124.5 9856358
13.991429 -4.98 124.5 9856358
14.228571 -4.98 124.5 9856101
14.523808 -5 125 9856101
14.761904 -5 125 9921631
14.999999 -5 125 9855838
15.238094 -5 125 9986651
15.476191 -5 125 9986651
15.714286 -5 125 9986651
15.952381 -5 125 10052444
16.190477 -5 125 9986908
16.428572 -5 125 9986908
16.666668 -5 125 9987160
16.904762 -5 125 9921367
17.142859 -5 125 9921631
17.380953 -5 125 9790045
17.619047 -5 125 9921619
17.857143 -5 125 9987412
18.095238 -5 125 9987160
18.333334 -5 125 9987160
6.3565717 -4.7085719 123.60001 11442367
6.5920005 -4.7085719 123.60001 11047607
7.0914292 -4.7276192 124.10001 11045551
7.3278098 -4.7276192 124.10001 10979758
7.5641909 -4.7276192 124.10001 10848420
7.8005714 -4.7276192 124.10001 10848420
8.036952 -4.7276192 124.10001 10453662
8.2733335 -4.7276192 124.10001 10453662
8.5097151 -4.7276192 124.10001 10583449
8.7460957 -4.7276192 124.10001 10386070
8.9462862 -4.7085719 123.60001 10386315
9.181715 -4.7085719 123.60001 10188936
9.4552383 -4.7276192 124.10001 10188421
9.6916189 -4.7276192 124.10001 10188421
9.9279995 -4.7276192 124.10001 10122369
10.123428 -4.7085719 123.60001 10056576
10.358857 -4.7085719 123.60001 10056830
10.594286 -4.7085719 123.60001 9925244
10.829715 -4.7085719 123.60001 9858427
11.065144 -4.7085719 123.60001 9924220
11.346286 -4.7276192 124.10001 10054777
11.582666 -4.7276192 124.10001 9988984
11.819048 -4.7276192 124.10001 10054261
12.055429 -4.7276192 124.10001 10120054
12.291811 -4.7276192 124.10001 10054511
12.477715 -4.7085719 123.60001 10054511
12.713143 -4.7085719 123.60001 9922923
12.948572 -4.7085719 123.60001 9922923
13.184001 -4.7085719 123.60001 9988196
13.419429 -4.7085719 123.60001 9856610
13.710096 -4.7276192 124.10001 9922146
13.946477 -4.7276192 124.10001 9922146
14.182858 -4.7276192 124.10001 10052967
14.465714 -4.742857 124.5 10052967
14.702858 -4.742857 124.5 10118496
14.94 -4.742857 124.5 10052703
15.177143 -4.742857 124.5 10117724
15.414286 -4.742857 124.5 10183517
15.651428 -4.742857 124.5 10117724
15.888572 -4.742857 124.5 10117724
16.125715 -4.742857 124.5 10052444
16.362856 -4.742857 124.5 10052444
16.599998 -4.742857 124.5 10052440
16.783049 -4.7276192 124.10001 10118233
17.01943 -4.7276192 124.10001 10118237
17.311428 -4.742857 124.5 10052444
17.492191 -4.7276192 124.10001 9987162
6.1013336 -4.4586673 123.20001 11376572
6.3360004 -4.4586673 123.20001 11310779
6.8274288 -4.4731431 123.60001 11178423
7.0628576 -4.4731431 123.60001 11045551
7.2982864 -4.4731431 123.60001 11045551
7.5337148 -4.4731431 123.60001 11045540
7.7691426 -4.4731431 123.60001 11045540
8.0045719 -4.4731431 123.60001 10519198
8.2399998 -4.4731431 123.60001 10387612
8.4754286 -4.4731431 123.60001 10386070
8.7108574 -4.4731431 123.60001 10320277
8.9462862 -4.4731431 123.60001 10254729
9.181715 -4.4731431 123.60001 10188936
9.4171438 -4.4731431 123.60001 10188425
9.6525717 -4.4731431 123.60001 10122632
9.8880005 -4.4731431 123.60001 10122117
10.123428 -4.4731431 123.60001 10056324
10.358857 -4.4731431 123.60001 10056578
10.594286 -4.4731431 123.60001 10122371
10.829715 -4.4731431 123.60001 10056315
11.065144 -4.4731431 123.60001 9924729
11.300572 -4.4731431 123.60001 10054777
11.536 -4.4731431 123.60001 9923191
11.771429 -4.4731431 123.60001 9988725
12.006857 -4.4731431 123.60001 9988725
12.242286 -4.4731431 123.60001 10054511
12.437334 -4.4586673 123.20001 9922925
12.672001 -4.4586673 123.20001 9922412
12.906669 -4.4586673 123.20001 9856619
13.184001 -4.4731431 123.60001 9922396
13.419429 -4.4731431 123.60001 9922396
13.654858 -4.4731431 123.60001 9856610
13.890285 -4.4731431 123.60001 9922403
14.182858 -4.4912381 124.10001 9987687
14.419238 -4.4912381 124.10001 9987687
14.65562 -4.4912381 124.10001 10053471
14.892001 -4.4912381 124.10001 9921885
15.177143 -4.5057144 124.5 10052703
15.414286 -4.5057144 124.5 10052703
15.601143 -4.4912381 124.10001 10118237
15.837524 -4.4912381 124.10001 10052444
16.073904 -4.4912381 124.10001 9986908
16.310287 -4.4912381 124.10001 9986908
16.546667 -4.4912381 124.10001 10052953
16.715429 -4.4731431 123.60001 10052953
16.950857 -4.4731431 123.60001 9986651
17.186287 -4.4731431 123.60001 9986651
6.5706673 -4.2240005 123.20001 11112630
6.8053341 -4.2240005 123.20001 11112630
7.0400009 -4.2240005 123.20001 11045551
7.2746677 -4.2240005 123.20001 11045551
7.5093336 -4.2240005 123.20001 11046053
7.744 -4.2240005 123.20001 10914467
7.9786673 -4.2240005 123.20001 10584480
8.2133341 -4.2240005 123.20001 10518687
8.4480009 -4.2240005 123.20001 10451863
8.6826677 -4.2240005 123.20001 10386070
8.9173346 -4.2240005 123.20001 10385550
9.1520004 -4.2240005 123.20001 10319757
9.3866673 -4.2240005 123.20001 10254727
9.6213341 -4.2240005 123.20001 10188934
9.8560009 -4.2240005 123.20001 10253955
10.090668 -4.2240005 123.20001 10253955
10.325335 -4.2240005 123.20001 10056576
10.560001 -4.2240005 123.20001 10122369
10.794667 -4.2240005 123.20001 10122108
11.029334 -4.2240005 123.20001 9990522
11.264001 -4.2240005 123.20001 9924472
11.498668 -4.2240005 123.20001 9792886
11.733335 -4.2240005 123.20001 9922932
11.968001 -4.2240005 123.20001 9988725
12.202667 -4.2240005 123.20001 10120043
12.386858 -4.2068577 122.70001 9988457
12.620571 -4.2068577 122.70001 9987944
12.906669 -4.2240005 123.20001 9987944
13.141335 -4.2240005 123.20001 9922144
13.376 -4.2240005 123.20001 9987937
13.610668 -4.2240005 123.20001 9922403
13.890285 -4.2377143 123.60001 9922403
14.125715 -4.2377143 123.60001 9987687
14.361143 -4.2377143 123.60001 9987687
14.596573 -4.2377143 123.60001 9922144
14.832001 -4.2377143 123.60001 9922144
15.06743 -4.2377143 123.60001 9921631
15.302857 -4.2377143 123.60001 10053217
15.538285 -4.2377143 123.60001 10053217
15.773715 -4.2377143 123.60001 10053217
16.009144 -4.2377143 123.60001 9987678
16.244572 -4.2377143 123.60001 9987678
16.48 -4.2377143 123.60001 9922137
16.715429 -4.2377143 123.60001 9922137
16.950857 -4.2377143 123.60001 9986908
17.186287 -4.2377143 123.60001 9986908
17.421715 -4.2377143 123.60001 9921631
17.657143 -4.2377143 123.60001 9921631
5.8238096 -3.9601903 122.3 11639744
6.0567617 -3.9601903 122.3 11376574
6.3102856 -3.9731431 122.70001 11442367
6.5440006 -3.9731431 122.70001 11243446
6.7777147 -3.9731431 122.70001 11046067
7.0114293 -3.9731431 122.70001 10979758
7.2451434 -3.9731431 122.70001 10979758
7.5093336 -3.9893336 123.20001 10980258
7.744 -3.9893336 123.20001 10980258
7.9786673 -3.9893336 123.20001 10584737
8.2133341 -3.9893336 123.20001 10518944
8.4137154 -3.9731431 122.70001 10387097
8.6474304 -3.9731431 122.70001 10387097
8.8811436 -3.9731431 122.70001 10385811
9.1148577 -3.9731431 122.70001 10320018
9.3485718 -3.9731431 122.70001 10320007
9.5822859 -3.9731431 122.70001 10254214
9.8160009 -3.9731431 122.70001 10320259
10.049715 -3.9731431 122.70001 10320259
10.28343 -3.9731431 122.70001 10253696
10.517143 -3.9731431 122.70001 10122110
10.750857 -3.9731431 122.70001 10318203
10.984572 -3.9731431 122.70001 10252410
11.218287 -3.9731431 122.70001 10120822
11.452001 -3.9731431 122.70001 10120822
11.647619 -3.9601903 122.3 10054768
11.880571 -3.9601903 122.3 9988975
12.113523 -3.9601903 122.3 10120043
12.346477 -3.9601903 122.3 9988457
12.579428 -3.9601903 122.3 9922664
12.854287 -3.9731431 122.70001 9922664
13.088001 -3.9731431 122.70001 9988196
13.321714 -3.9731431 122.70001 9922403
13.555429 -3.9731431 122.70001 9922403
13.845333 -3.9893336 123.20001 9922403
14.080002 -3.9893336 123.20001 9922403
14.361143 -4.002286 123.60001 9856610
14.549335 -3.9893336 123.20001 9922144
14.784 -3.9893336 123.20001 9922144
15.06743 -4.002286 123.60001 9921631
15.302857 -4.002286 123.60001 10053217
15.538285 -4.002286 123.60001 10053221
15.773715 -4.002286 123.60001 10053221
16.009144 -4.002286 123.60001 9922142
16.244572 -4.002286 123.60001 9922142
16.426668 -3.9893336 123.20001 9921885
16.661335 -3.9893336 123.20001 9987678
5.5725718 -3.7150481 121.90001 11837123
5.8047624 -3.7150481 121.90001 11837123
6.036953 -3.7150481 121.90001 11442367
6.2691436 -3.7150481 121.90001 11376574
6.5013342 -3.7150481 121.90001 11112373
6.7335238 -3.7150481 121.90001 10980787
6.9657145 -3.7150481 121.90001 11111342
7.2215242 -3.7272382 122.3 11111342
7.478858 -3.739429 122.70001 10980260
7.7125721 -3.739429 122.70001 10848674
7.9462862 -3.739429 122.70001 10519455
8.1800003 -3.739429 122.70001 10519455
8.4137154 -3.739429 122.70001 10387097
8.6474304 -3.739429 122.70001 10321304
8.8811436 -3.739429 122.70001 10386320
9.0851431 -3.7272382 122.3 10386320
9.3180952 -3.7272382 122.3 10188936
9.5510473 -3.7272382 122.3 10057350
9.7840004 -3.7272382 122.3 10253955
10.049715 -3.739429 122.70001 10253955
10.28343 -3.739429 122.70001 10449794
10.517143 -3.739429 122.70001 10449794
10.71581 -3.7272382 122.3 10383485
10.948762 -3.7272382 122.3 10251899
11.181714 -3.7272382 122.3 10186615
11.414667 -3.7272382 122.3 10186615
11.647619 -3.7272382 122.3 10054768
11.880571 -3.7272382 122.3 9988975
12.113523 -3.7272382 122.3 10054250
12.346477 -3.7272382 122.3 9988457
12.579428 -3.7272382 122.3 9988457
12.812381 -3.7272382 122.3 9988457
13.045335 -3.7272382 122.3 9988196
13.278286 -3.7272382 122.3 9856610
13.511239 -3.7272382 122.3 9922403
13.789145 -3.739429 122.70001 9856610
14.022859 -3.739429 122.70001 9922403
14.256573 -3.739429 122.70001 9790817
14.490287 -3.739429 122.70001 9856351
14.724001 -3.739429 122.70001 9724765
14.957716 -3.739429 122.70001 9855838
15.19143 -3.739429 122.70001 9921631
15.425144 -3.739429 122.70001 9921633
15.658858 -3.739429 122.70001 9987426
15.840761 -3.7272382 122.3 9922144
16.073713 -3.7272382 122.3 9922144
16.306667 -3.7272382 122.3 9855840
16.539618 -3.7272382 122.3 9921633
16.772572 -3.7272382 122.3 9856351
5.7809529 -3.4685717 121.40001 11837123
6.0121908 -3.4685717 121.40001 11441597
6.2434292 -3.4685717 121.40001 11244218
6.4746675 -3.4685717 121.40001 11111349
6.705905 -3.4685717 121.40001 11111349
6.9657145 -3.4828572 121.90001 11046062
7.1979055 -3.4828572 121.90001 11111855
7.4300961 -3.4828572 121.90001 11045538
7.6622868 -3.4828572 121.90001 10650780
7.8944764 -3.4828572 121.90001 10650271
8.1533337 -3.4942858 122.3 10650271
8.3588581 -3.4828572 121.90001 10452890
8.5910482 -3.4828572 121.90001 10255511
8.8232384 -3.4828572 121.90001 10386320
9.0554285 -3.4828572 121.90001 10386320
9.2876196 -3.4828572 121.90001 10188936
9.5198107 -3.4828572 121.90001 10057350
9.7520008 -3.4828572 121.90001 10253955
9.9841909 -3.4828572 121.90001 10188162
10.216382 -3.4828572 121.90001 10187903
10.448572 -3.4828572 121.90001 10056317
10.680762 -3.4828572 121.90001 10317692
10.912952 -3.4828572 121.90001 10186106
11.145144 -3.4828572 121.90001 10251895
11.377335 -3.4828572 121.90001 10120309
11.609525 -3.4828572 121.90001 10185836
11.841715 -3.4828572 121.90001 10120043
12.073906 -3.4828572 121.90001 10119784
12.306096 -3.4828572 121.90001 10053991
12.538287 -3.4828572 121.90001 10119271
12.770477 -3.4828572 121.90001 10053478
12.949335 -3.4685717 121.40001 10053730
13.180572 -3.4685717 121.40001 9987937
