# .PCD v.7 - Point Cloud Data file format
FIELDS x y z rgb imX imY
SIZE 4 4 4 4 4 4
TYPE F F F F F F
COUNT 1 1 1 1 1 1
WIDTH 833
HEIGHT 1
VIEWPOINT 0 0 0 1 0 0 0
POINTS 833
DATA ascii
-0.028740639 0.68300003 -0 1.1711013e-38 296 240
-0.027502786 0.68199998 -0 1.1803208e-38 297 240
-0.026229866 0.68000001 -0 1.2078351e-38 298 240
-0.025037598 0.68000001 -0 1.1893958e-38 299 240
-0.023810266 0.67900002 -0 1.161881e-38 300 240
-0.022619752 0.67900002 -0 1.1250388e-38 301 240
-0.021429239 0.67900002 -0 1.1248936e-38 302 240
-0.020208918 0.67799997 -0 1.032734e-38 303 240
-0.019020159 0.67799997 -0 9.5004463e-39 304 240
-0.0178314 0.67799997 -0 9.6848389e-39 305 240
-0.016593546 0.676 -0 1.0144368e-38 306 240
-0.015408293 0.676 -0 9.2227706e-39 307 240
-0.014202001 0.67500001 -0 8.9461655e-39 308 240
-0.012999214 0.67400002 -0 8.4848272e-39 309 240
-0.011817466 0.67400002 -0 7.2898839e-39 310 240
-0.010604159 0.67199999 -0 8.4884271e-39 311 240
-0.0094259195 0.67199999 -0 1.0142946e-38 312 240
-0.00824768 0.67199999 -0 1.0603923e-38 313 240
-0.0070694401 0.67199999 -0 1.0603572e-38 314 240
-0.0058911997 0.67199999 -0 1.0787965e-38 315 240
-0.0047129598 0.67199999 -0 1.1154926e-38 316 240
-0.00353472 0.67199999 -0 1.0878699e-38 317 240
-0.0023564799 0.67199999 -0 1.0048522e-38 318 240
-0.0011782399 0.67199999 -0 9.1265644e-39 319 240
0 0.67199999 -0 8.7602468e-39 320 240
0.0011782399 0.67199999 -0 8.4836627e-39 321 240
0.0023564799 0.67199999 -0 7.8404555e-39 322 240
0.00354524 0.67400002 -0 7.656067e-39 323 240
0.0047269869 0.67400002 -0 6.8295476e-39 324 240
0.0059087332 0.67400002 -0 6.6451591e-39 325 240
0.0070904801 0.67400002 -0 6.3689352e-39 326 240
0.0082844999 0.67500001 -0 6.2767409e-39 327 240
0.0094679995 0.67500001 -0 6.6441067e-39 328 240
0.01066728 0.676 -0 8.1188767e-39 329 240
0.011852534 0.676 -0 9.6790614e-39 330 240
0.013076359 0.67799997 -0 1.0047484e-38 331 240
0.014265119 0.67799997 -0 1.0229732e-38 332 240
0.015476674 0.67900002 -0 1.0044982e-38 333 240
0.016667187 0.67900002 -0 9.2155819e-39 334 240
0.017857701 0.67900002 -0 8.8464392e-39 335 240
0.019076265 0.68000001 -0 8.3851164e-39 336 240
0.020328145 0.68199998 -0 8.3851164e-39 337 240
0.02155548 0.68300003 -0 8.2021713e-39 338 240
0.022786319 0.68400002 -0 8.5705936e-39 339 240
0.024125867 0.68800002 -0 8.3872786e-39 340 240
0.025405798 0.69 -0 7.8344635e-39 341 240
0.026615599 0.69 -0 9.1234045e-39 342 240
0.027865725 0.69099998 -0 1.1797078e-38 343 240
-0.0367148 0.69800001 -0.0012238267 1.1985805e-38 290 241
-0.035389278 0.69599998 -0.0012203199 7.5604144e-39 291 241
-0.034021679 0.69300002 -0.00121506 4.148823e-39 292 241
-0.032664597 0.69 -0.0012097999 5.071138e-39 293 241
-0.031318039 0.68699998 -0.0012045399 5.8123058e-39 294 241
-0.029982001 0.68400002 -0.00119928 7.1030446e-39 295 241
-0.02878272 0.68400002 -0.00119928 8.485979e-39 296 241
-0.027502786 0.68199998 -0.0011957732 9.9611105e-39 297 241
-0.026307013 0.68199998 -0.0011957732 1.1433703e-38 298 241
-0.025037598 0.68000001 -0.0011922666 1.1618094e-38 299 241
-0.023845334 0.68000001 -0.0011922666 1.180284e-38 300 241
-0.022653066 0.68000001 -0.0011922666 1.1341502e-38 301 241
-0.0214608 0.68000001 -0.0011922666 7.3814111e-39 302 241
-0.020238725 0.67900002 -0.0011905134 3.6013903e-39 303 241
-0.019020159 0.67799997 -0.0011887599 4.5233536e-39 304 241
-0.0178314 0.67799997 -0.0011887599 6.1825148e-39 305 241
-0.016642639 0.67799997 -0.0011887599 1.0050768e-38 306 241
-0.015408293 0.676 -0.0011852533 1.106492e-38 307 241
-0.014223038 0.676 -0.0011852533 1.1800675e-38 308 241
-0.0130185 0.67500001 -0.0011834999 1.1616284e-38 309 241
-0.011817466 0.67400002 -0.0011817467 1.1523362e-38 310 241
-0.01063572 0.67400002 -0.0011817467 1.115458e-38 311 241
-0.0094259195 0.67199999 -0.0011782399 1.0601053e-38 312 241
-0.00824768 0.67199999 -0.0011782399 1.041666e-38 313 241
-0.0070694401 0.67199999 -0.0011782399 1.0785447e-38 314 241
-0.0058911997 0.67199999 -0.0011782399 1.1153871e-38 315 241
-0.0047129598 0.67199999 -0.0011782399 1.097163e-38 316 241
-0.00353472 0.67199999 -0.0011782399 1.0879435e-38 317 241
-0.0023564799 0.67199999 -0.0011782399 1.087797e-38 318 241
-0.0011782399 0.67199999 -0.0011782399 1.0416992e-38 319 241
0 0.67400002 -0.0011817467 1.0417303e-38 320 241
0.0011817467 0.67400002 -0.0011817467 9.4031527e-39 321 241
0.0023634934 0.67400002 -0.0011817467 8.2067227e-39 322 241
0.00354524 0.67400002 -0.0011817467 7.9301386e-39 323 241
0.0047269869 0.67400002 -0.0011817467 6.9217418e-39 324 241
0.0059174998 0.67500001 -0.0011834999 6.7373533e-39 325 241
0.0071010003 0.67500001 -0.0011834999 6.8284714e-39 326 241
0.0082844999 0.67500001 -0.0011834999 7.1972525e-39 327 241
0.0094679995 0.67500001 -0.0011834999 8.4851649e-39 328 241
0.01066728 0.676 -0.0011852533 9.4071212e-39 329 241
0.011852534 0.676 -0.0011852533 1.0231526e-38 330 241
0.013076359 0.67799997 -0.0011887599 1.0139329e-38 331 241
0.014265119 0.67799997 -0.0011887599 1.013826e-38 332 241
0.015476674 0.67900002 -0.0011905134 9.7691186e-39 333 241
0.016667187 0.67900002 -0.0011905134 9.033357e-39 334 241
0.017857701 0.67900002 -0.0011905134 8.4801833e-39 335 241
0.019076265 0.68000001 -0.0011922666 8.3854807e-39 336 241
0.020328145 0.68199998 -0.0011957732 8.2014482e-39 337 241
0.02158704 0.68400002 -0.00119928 8.2943697e-39 338 241
0.022852944 0.68599999 -0.0012027866 8.3865653e-39 339 241
0.024125867 0.68800002 -0.0012062934 8.4780323e-39 340 241
0.025405798 0.69 -0.0012097999 7.4638803e-39 341 241
0.026615599 0.69 -0.0012097999 8.2947172e-39 342 241
0.027865725 0.69099998 -0.0012115532 1.1705956e-38 343 241
0.029161438 0.69300002 -0.00121506 1.4012294e-38 344 241
-0.0367148 0.69800001 -0.0024476533 1.1985082e-38 290 242
-0.035389278 0.69599998 -0.0024406398 7.9284738e-39 291 242
-0.034070771 0.69400001 -0.0024336267 4.608362e-39 292 242
-0.03280662 0.69300002 -0.00243012 5.7143508e-39 293 242
-0.031454802 0.69 -0.0024195998 5.0718709e-39 294 242
-0.030113498 0.68699998 -0.0024090798 4.2424689e-39 295 242
-0.02886688 0.68599999 -0.0024055731 4.4318993e-39 296 242
-0.027543113 0.68300003 -0.0023950534 6.3680075e-39 297 242
-0.026345588 0.68300003 -0.0023950534 9.585847e-39 298 242
-0.025111238 0.68199998 -0.0023915465 9.9546295e-39 299 242
-0.023845334 0.68000001 -0.0023845332 1.0047531e-38 300 242
-0.022653066 0.68000001 -0.0023845332 9.4943576e-39 301 242
-0.0214608 0.68000001 -0.0023845332 4.7106287e-39 302 242
-0.020268533 0.68000001 -0.0023845332 1.2071934e-39 303 242
-0.019048214 0.67900002 -0.0023810267 3.6900182e-39 304 242
-0.0178314 0.67799997 -0.0023775198 4.5197789e-39 305 242
-0.016642639 0.67799997 -0.0023775198 5.9052287e-39 306 242
-0.015408293 0.676 -0.0023705065 9.5008568e-39 307 242
-0.014223038 0.676 -0.0023705065 1.1524826e-38 308 242
-0.0130185 0.67500001 -0.0023669999 1.1617022e-38 309 242
-0.011835 0.67500001 -0.0023669999 1.1708489e-38 310 242
-0.0106515 0.67500001 -0.0023669999 1.0049326e-38 311 242
-0.0094259195 0.67199999 -0.0023564799 8.392319e-39 312 242
-0.00824768 0.67199999 -0.0023564799 8.0235379e-39 313 242
-0.0070694401 0.67199999 -0.0023564799 9.0394877e-39 314 242
-0.0058911997 0.67199999 -0.0023564799 1.0422422e-38 315 242
-0.0047129598 0.67199999 -0.0023564799 1.143046e-38 316 242
-0.00353472 0.67199999 -0.0023564799 1.1246069e-38 317 242
-0.0023634934 0.67400002 -0.0023634934 1.115458e-38 318 242
-0.0011817467 0.67400002 -0.0023634934 1.0785797e-38 319 242
0 0.67400002 -0.0023634934 1.0878318e-38 320 242
0.0011817467 0.67400002 -0.0023634934 1.0140753e-38 321 242
0.0023634934 0.67400002 -0.0023634934 9.2194635e-39 322 242
0.00354524 0.67400002 -0.0023634934 8.6662911e-39 323 242
0.0047269869 0.67400002 -0.0023634934 8.9428556e-39 324 242
0.0059174998 0.67500001 -0.0023669999 8.5744318e-39 325 242
0.0071115191 0.676 -0.0023705065 8.0234412e-39 326 242
0.0082967728 0.676 -0.0023705065 8.7610063e-39 327 242
0.0094820261 0.676 -0.0023705065 9.587579e-39 328 242
0.01066728 0.676 -0.0023705065 1.0140753e-38 329 242
0.011887599 0.67799997 -0.0023775198 1.050704e-38 330 242
0.013076359 0.67799997 -0.0023775198 1.0414844e-38 331 242
0.01428616 0.67900002 -0.0023810267 1.013826e-38 332 242
0.015476674 0.67900002 -0.0023810267 9.861673e-39 333 242
0.016691733 0.68000001 -0.0023845332 9.2166665e-39 334 242
0.017883999 0.68000001 -0.0023845332 8.7560471e-39 335 242
0.019132372 0.68199998 -0.0023915465 8.6606285e-39 336 242
0.020357953 0.68300003 -0.0023950534 8.5684314e-39 337 242
0.021650158 0.68599999 -0.0024055731 8.2010951e-39 338 242
0.022886258 0.68699998 -0.0024090798 8.3854863e-39 339 242
0.024125867 0.68800002 -0.0024125867 8.3858338e-39 340 242
0.025405798 0.69 -0.0024195998 7.9248557e-39 341 242
0.026615599 0.69 -0.0024195998 9.3985438e-39 342 242
0.027865725 0.69099998 -0.0024231065 1.2256608e-38 343 242
0.029161438 0.69300002 -0.00243012 1.4288521e-38 344 242
-0.038047329 0.69999999 -0.0036819996 1.5395947e-38 289 243
-0.0367148 0.69800001 -0.0036714801 1.2997785e-38 290 243
-0.035389278 0.69599998 -0.0036609597 8.4801987e-39 291 243
-0.034070771 0.69400001 -0.0036504399 5.4359478e-39 292 243
-0.03280662 0.69300002 -0.0036451798 6.7266866e-39 293 243
-0.031454802 0.69 -0.0036293997 5.254816e-39 294 243
-0.030113498 0.68699998 -0.0036136196 3.5031004e-39 295 243
-0.02886688 0.68599999 -0.00360836 2.8634974e-39 296 243
-0.027583439 0.68400002 -0.00359784 3.6928993e-39 297 243
-0.026345588 0.68300003 -0.0035925799 5.2540971e-39 298 243
-0.025111238 0.68199998 -0.00358732 5.3462928e-39 299 243
-0.023845334 0.68000001 -0.0035767998 5.6203559e-39 300 243
-0.022653066 0.68000001 -0.0035767998 5.8047472e-39 301 243
-0.0214608 0.68000001 -0.0035767998 4.2413899e-39 302 243
-0.020268533 0.68000001 -0.0035767998 3.5034662e-39 303 243
-0.019048214 0.67900002 -0.0035715401 4.9800508e-39 304 243
-0.0178314 0.67799997 -0.0035662798 5.0722464e-39 305 243
-0.016642639 0.67799997 -0.0035662798 3.5092339e-39 306 243
-0.015453878 0.67799997 -0.0035662798 7.1970577e-39 307 243
-0.014223038 0.676 -0.0035557596 1.0789062e-38 308 243
-0.0130185 0.67500001 -0.0035505001 1.1342236e-38 309 243
-0.011835 0.67500001 -0.0035505001 1.1616296e-38 310 243
-0.01066728 0.676 -0.0035557596 9.4039599e-39 311 243
-0.0094679995 0.67500001 -0.0035505001 6.8246444e-39 312 243
-0.0082844999 0.67500001 -0.0035505001 6.7324488e-39 313 243
-0.0070904801 0.67400002 -0.00354524 8.393768e-39 314 243
-0.0059087332 0.67400002 -0.00354524 1.0329876e-38 315 243
-0.0047269869 0.67400002 -0.00354524 1.1430463e-38 316 243
-0.00354524 0.67400002 -0.00354524 1.0877289e-38 317 243
-0.0023669999 0.67500001 -0.0035505001 1.0877993e-38 318 243
-0.0011834999 0.67500001 -0.0035505001 1.0785797e-38 319 243
0 0.67500001 -0.0035505001 1.0695024e-38 320 243
0.0011834999 0.67500001 -0.0035505001 1.0326241e-38 321 243
0.0023669999 0.67500001 -0.0035505001 1.0047837e-38 322 243
0.0035505001 0.67500001 -0.0035505001 9.9556412e-39 323 243
0.0047339997 0.67500001 -0.0035505001 1.0138935e-38 324 243
0.0059262668 0.676 -0.0035557596 9.7705115e-39 325 243
0.0071115191 0.676 -0.0035557596 8.9447165e-39 326 243
0.0082967728 0.676 -0.0035557596 9.4975316e-39 327 243
0.0094820261 0.676 -0.0035557596 1.0231526e-38 328 243
0.010698839 0.67799997 -0.0035662798 1.0231526e-38 329 243
0.011887599 0.67799997 -0.0035662798 1.0506321e-38 330 243
0.013095647 0.67900002 -0.0035715401 1.0506321e-38 331 243
0.01428616 0.67900002 -0.0035715401 1.0046061e-38 332 243
0.015499466 0.68000001 -0.0035767998 9.7694745e-39 333 243
0.016691733 0.68000001 -0.0035767998 9.0326382e-39 334 243
0.017936599 0.68199998 -0.00358732 8.5712999e-39 335 243
0.019160427 0.68300003 -0.0035925799 8.201451e-39 336 243
0.020387759 0.68400002 -0.00359784 8.1092554e-39 337 243
0.021681719 0.68699998 -0.0036136196 8.0167066e-39 338 243
0.022886258 0.68699998 -0.0036136196 8.1089022e-39 339 243
0.024125867 0.68800002 -0.0036188802 8.3865653e-39 340 243
0.025405798 0.69 -0.0036293997 8.9397391e-39 341 243
0.026615599 0.69 -0.0036293997 1.0596737e-38 342 243
0.027946379 0.69300002 -0.0036451798 1.2440289e-38 343 243
0.029161438 0.69300002 -0.0036451798 1.4380716e-38 344 243
-0.038047329 0.69999999 -0.0049093333 1.5948399e-38 289 244
-0.0367148 0.69800001 -0.0048953067 1.4378555e-38 290 244
-0.035389278 0.69599998 -0.0048812795 1.0413785e-38 291 244
-0.034070771 0.69400001 -0.0048672534 6.9089115e-39 292 244
-0.03280662 0.69300002 -0.00486024 7.2776926e-39 293 244
-0.031500384 0.69099998 -0.0048462129 4.4257658e-39 294 244
-0.030157333 0.68800002 -0.0048251734 4.1488202e-39 295 244
-0.02886688 0.68599999 -0.0048111463 4.7041603e-39 296 244
-0.027583439 0.68400002 -0.0047971201 4.4279336e-39 297 244
-0.026345588 0.68300003 -0.0047901068 3.4145019e-39 298 244
-0.025111238 0.68199998 -0.004783093 4.3364568e-39 299 244
-0.023915464 0.68199998 -0.004783093 5.1611798e-39 300 244
-0.022719691 0.68199998 -0.004783093 5.1611798e-39 301 244
-0.0214608 0.68000001 -0.0047690663 5.0668318e-39 302 244
-0.020268533 0.68000001 -0.0047690663 4.8824405e-39 303 244
-0.019076265 0.68000001 -0.0047690663 5.7161697e-39 304 244
-0.017857701 0.67900002 -0.0047620535 5.6239741e-39 305 244
-0.016667187 0.67900002 -0.0047620535 4.7934917e-39 306 244
-0.015476674 0.67900002 -0.0047620535 6.9139912e-39 307 244
-0.014265119 0.67799997 -0.0047550397 8.3005032e-39 308 244
-0.013037786 0.676 -0.0047410131 8.1157518e-39 309 244
-0.011852534 0.676 -0.0047410131 9.2170589e-39 310 244
-0.01066728 0.676 -0.0047410131 9.4018089e-39 311 244
-0.0094820261 0.676 -0.0047410131 8.2961816e-39 312 244
-0.0082967728 0.676 -0.0047410131 8.2039845e-39 313 244
-0.0071010003 0.67500001 -0.0047339997 8.8493511e-39 314 244
-0.0059174998 0.67500001 -0.0047339997 9.4947206e-39 315 244
-0.0047339997 0.67500001 -0.0047339997 9.6776699e-39 316 244
-0.0035505001 0.67500001 -0.0047339997 9.4932786e-39 317 244
-0.0023669999 0.67500001 -0.0047339997 9.4050276e-39 318 244
-0.0011834999 0.67500001 -0.0047339997 1.0142593e-38 319 244
0 0.67500001 -0.0047339997 1.0876192e-38 320 244
0.0011834999 0.67500001 -0.0047339997 1.0876192e-38 321 244
0.0023669999 0.67500001 -0.0047339997 1.0416642e-38 322 244
0.0035505001 0.67500001 -0.0047339997 1.0324446e-38 323 244
0.0047339997 0.67500001 -0.0047339997 1.0783257e-38 324 244
0.0059262668 0.676 -0.0047410131 1.0506671e-38 325 244
0.0071115191 0.676 -0.0047410131 9.8638184e-39 326 244
0.0082967728 0.676 -0.0047410131 1.0140405e-38 327 244
0.0094820261 0.676 -0.0047410131 1.0414844e-38 328 244
0.010698839 0.67799997 -0.0047550397 1.050704e-38 329 244
0.011887599 0.67799997 -0.0047550397 1.0506324e-38 330 244
0.013095647 0.67900002 -0.0047620535 1.0413768e-38 331 244
0.01428616 0.67900002 -0.0047620535 1.0046783e-38 332 244
0.015499466 0.68000001 -0.0047690663 9.4936107e-39 333 244
0.016740825 0.68199998 -0.004783093 8.755338e-39 334 244
0.017936599 0.68199998 -0.004783093 7.7415462e-39 335 244
0.019160427 0.68300003 -0.0047901068 7.8319594e-39 336 244
0.020387759 0.68400002 -0.0047971201 7.8319594e-39 337 244
0.021681719 0.68699998 -0.0048181596 7.7415588e-39 338 244
0.022886258 0.68699998 -0.0048181596 7.9263102e-39 339 244
0.024125867 0.68800002 -0.0048251734 8.2014482e-39 340 244
0.025405798 0.69 -0.0048391996 8.754622e-39 341 244
0.026654173 0.69099998 -0.0048462129 1.0321945e-38 342 244
0.027946379 0.69300002 -0.00486024 1.2258053e-38 343 244
0.029161438 0.69300002 -0.00486024 1.4564746e-38 344 244
-0.038047329 0.69999999 -0.0061366665 1.6406854e-38 289 245
-0.0367148 0.69800001 -0.006119133 1.5206148e-38 290 245
-0.035389278 0.69599998 -0.0061015999 1.2624671e-38 291 245
-0.034070771 0.69400001 -0.0060840664 9.8588017e-39 292 245
-0.03280662 0.69300002 -0.0060753003 7.9226935e-39 293 245
-0.031591557 0.69300002 -0.0060753003 3.6892699e-39 294 245
-0.030157333 0.68800002 -0.0060314666 3.6892699e-39 295 245
-0.028908957 0.68699998 -0.0060226996 5.0722198e-39 296 245
-0.027664091 0.68599999 -0.0060139326 4.611243e-39 297 245
-0.02638416 0.68400002 -0.0059964 4.2424661e-39 298 245
-0.025111238 0.68199998 -0.005978866 4.7034443e-39 299 245
-0.023915464 0.68199998 -0.005978866 4.797065e-39 300 245
-0.022719691 0.68199998 -0.005978866 5.4420757e-39 301 245
-0.021523919 0.68199998 -0.005978866 5.6203559e-39 302 245
-0.020328145 0.68199998 -0.005978866 4.4218127e-39 303 245
-0.019132372 0.68199998 -0.005978866 4.0577344e-39 304 245
-0.017883999 0.68000001 -0.0059613334 3.9655387e-39 305 245
-0.016691733 0.68000001 -0.0059613334 4.8856845e-39 306 245
-0.015476674 0.67900002 -0.0059525664 6.3611734e-39 307 245
-0.01428616 0.67900002 -0.0059525664 6.5451863e-39 308 245
-0.013076359 0.67799997 -0.0059437994 5.1622518e-39 309 245
-0.011887599 0.67799997 -0.0059437994 5.1633448e-39 310 245
-0.010698839 0.67799997 -0.0059437994 6.4540823e-39 311 245
-0.0094820261 0.676 -0.0059262668 7.6504618e-39 312 245
-0.0082967728 0.676 -0.0059262668 7.5582648e-39 313 245
-0.0071115191 0.676 -0.0059262668 7.4664167e-39 314 245
-0.0059174998 0.67500001 -0.0059174998 7.5586123e-39 315 245
-0.0047339997 0.67500001 -0.0059174998 7.0054427e-39 316 245
-0.0035505001 0.67500001 -0.0059174998 5.8068996e-39 317 245
-0.0023705065 0.676 -0.0059262668 6.9179162e-39 318 245
-0.0011852533 0.676 -0.0059262668 8.9462201e-39 319 245
0 0.676 -0.0059262668 1.0601053e-38 320 245
0.0011852533 0.676 -0.0059262668 1.041666e-38 321 245
0.0023705065 0.676 -0.0059262668 1.1059857e-38 322 245
0.0035557596 0.676 -0.0059262668 1.096766e-38 323 245
0.0047410131 0.676 -0.0059262668 1.105914e-38 324 245
0.0059262668 0.676 -0.0059262668 1.0966944e-38 325 245
0.0071115191 0.676 -0.0059262668 1.0782197e-38 326 245
0.0082967728 0.676 -0.0059262668 1.0690002e-38 327 245
0.0094820261 0.676 -0.0059262668 1.0506686e-38 328 245
0.010698839 0.67799997 -0.0059437994 1.0414491e-38 329 245
0.011887599 0.67799997 -0.0059437994 1.0414491e-38 330 245
0.013095647 0.67900002 -0.0059525664 1.0414491e-38 331 245
0.014307199 0.68000001 -0.0059613334 1.004678e-38 332 245
0.015499466 0.68000001 -0.0059613334 9.4014109e-39 333 245
0.016740825 0.68199998 -0.005978866 8.6606257e-39 334 245
0.017962901 0.68300003 -0.0059876335 8.0152563e-39 335 245
0.01918848 0.68400002 -0.0059964 7.4631769e-39 336 245
0.020447372 0.68599999 -0.0060139326 7.7397638e-39 337 245
0.021681719 0.68699998 -0.0060226996 7.466051e-39 338 245
0.022919573 0.68800002 -0.0060314666 7.8344747e-39 339 245
0.024125867 0.68800002 -0.0060314666 8.2025244e-39 340 245
0.025405798 0.69 -0.0060489997 8.1099686e-39 341 245
0.02673132 0.69300002 -0.0060753003 9.7687683e-39 342 245
0.027986705 0.69400001 -0.0060840664 1.2258049e-38 343 245
0.029203519 0.69400001 -0.0060840664 1.5023919e-38 344 245
-0.0367148 0.69800001 -0.0073429602 1.5666052e-38 290 246
-0.035287585 0.69400001 -0.0073008798 1.3913974e-38 291 246
-0.034070771 0.69400001 -0.0073008798 1.2256977e-38 292 246
-0.03280662 0.69300002 -0.0072903596 9.768055e-39 293 246
-0.031591557 0.69300002 -0.0072903596 2.9531468e-39 294 246
-0.030244999 0.69 -0.0072587994 2.9531468e-39 295 246
-0.028951041 0.68800002 -0.0072377604 4.7055953e-39 296 246
-0.027664091 0.68599999 -0.0072167199 4.6133996e-39 297 246
-0.02638416 0.68400002 -0.0071956799 4.4236148e-39 298 246
-0.02514806 0.68300003 -0.0071851597 4.3314192e-39 299 246
-0.023950534 0.68300003 -0.0071851597 3.4198927e-39 300 246
-0.022753006 0.68300003 -0.0071851597 5.5403922e-39 301 246
-0.021523919 0.68199998 -0.00717464 6.3600916e-39 302 246
-0.020328145 0.68199998 -0.00717464 3.4098314e-39 303 246
-0.019132372 0.68199998 -0.00717464 2.3063775e-39 304 246
-0.017936599 0.68199998 -0.00717464 2.4907688e-39 305 246
-0.016691733 0.68000001 -0.0071535995 6.9150604e-39 306 246
-0.015499466 0.68000001 -0.0071535995 7.9295725e-39 307 246
-0.01428616 0.67900002 -0.0071430802 7.4660692e-39 308 246
-0.013076359 0.67799997 -0.0071325595 6.1753304e-39 309 246
-0.011887599 0.67799997 -0.0071325595 2.8634974e-39 310 246
-0.010698839 0.67799997 -0.0071325595 2.0337367e-39 311 246
-0.0095100794 0.67799997 -0.0071325595 3.6860624e-39 312 246
-0.0082967728 0.676 -0.0071115191 3.4098342e-39 313 246
-0.0071115191 0.676 -0.0071115191 3.1343207e-39 314 246
-0.0059262668 0.676 -0.0071115191 3.6874945e-39 315 246
-0.0047410131 0.676 -0.0071115191 3.4159453e-39 316 246
-0.0035557596 0.676 -0.0071115191 2.586186e-39 317 246
-0.0023705065 0.676 -0.0071115191 4.3386078e-39 318 246
-0.0011852533 0.676 -0.0071115191 7.6576505e-39 319 246
0 0.676 -0.0071115191 1.0786166e-38 320 246
0.0011852533 0.676 -0.0071115191 1.069397e-38 321 246
0.0023705065 0.676 -0.0071115191 1.0876914e-38 322 246
0.0035557596 0.676 -0.0071115191 1.0784718e-38 323 246
0.0047410131 0.676 -0.0071115191 1.0967311e-38 324 246
0.0059262668 0.676 -0.0071115191 1.0783279e-38 325 246
0.0071115191 0.676 -0.0071115191 1.07822e-38 326 246
0.0082967728 0.676 -0.0071115191 1.07822e-38 327 246
0.0095100794 0.67799997 -0.0071325595 1.0505614e-38 328 246
0.010698839 0.67799997 -0.0071325595 1.0690004e-38 329 246
0.011905133 0.67900002 -0.0071430802 1.0323374e-38 330 246
0.013095647 0.67900002 -0.0071430802 1.0231179e-38 331 246
0.014307199 0.68000001 -0.0071535995 9.8634708e-39 332 246
0.015545053 0.68199998 -0.00717464 9.1259058e-39 333 246
0.016740825 0.68199998 -0.00717464 8.2954389e-39 334 246
0.017962901 0.68300003 -0.0071851597 7.281287e-39 335 246
0.01918848 0.68400002 -0.0071956799 7.1883907e-39 336 246
0.020447372 0.68599999 -0.0072167199 7.1883907e-39 337 246
0.021681719 0.68699998 -0.0072272392 7.9248767e-39 338 246
0.022919573 0.68800002 -0.0072377604 7.9248767e-39 339 246
0.024125867 0.68800002 -0.0072377604 8.2014482e-39 340 246
0.025405798 0.69 -0.0072587994 8.0170569e-39 341 246
0.02673132 0.69300002 -0.0072903596 9.0315564e-39 342 246
0.027986705 0.69400001 -0.0073008798 1.2258402e-38 343 246
0.029203519 0.69400001 -0.0073008798 1.5666402e-38 344 246
-0.0367148 0.69800001 -0.0085667865 1.5205795e-38 290 247
-0.035287585 0.69400001 -0.0085176928 1.3730665e-38 291 247
-0.034070771 0.69400001 -0.0085176928 1.1524454e-38 292 247
-0.03280662 0.69300002 -0.0085054198 1.0879084e-38 293 247
-0.031591557 0.69300002 -0.0085054198 8.0192247e-39 294 247
-0.030244999 0.69 -0.0084686 5.8061695e-39 295 247
-0.028951041 0.68800002 -0.0084440531 6.72813e-39 296 247
-0.027704418 0.68699998 -0.0084317802 6.0827606e-39 297 247
-0.026461305 0.68599999 -0.0084195063 3.8733081e-39 298 247
-0.025184879 0.68400002 -0.0083949603 3.5045255e-39 299 247
-0.023915464 0.68199998 -0.0083704125 4.8867593e-39 300 247
-0.022719691 0.68199998 -0.0083704125 7.9292165e-39 301 247
-0.021523919 0.68199998 -0.0083704125 7.0991055e-39 302 247
-0.020328145 0.68199998 -0.0083704125 3.6878658e-39 303 247
-0.019132372 0.68199998 -0.0083704125 2.7691535e-39 304 247
-0.017936599 0.68199998 -0.0083704125 3.5067186e-39 305 247
-0.016691733 0.68000001 -0.0083458666 7.2838499e-39 306 247
-0.015499466 0.68000001 -0.0083458666 8.4823931e-39 307 247
-0.01428616 0.67900002 -0.0083335936 7.6511835e-39 308 247
-0.013095647 0.67900002 -0.0083335936 5.9916622e-39 309 247
-0.011887599 0.67799997 -0.0083213197 2.952463e-39 310 247
-0.010698839 0.67799997 -0.0083213197 2.4918436e-39 311 247
-0.0095100794 0.67799997 -0.0083213197 3.0435922e-39 312 247
-0.0083213197 0.67799997 -0.0083213197 3.0435922e-39 313 247
-0.0071115191 0.676 -0.0082967728 3.5020495e-39 314 247
-0.0059262668 0.676 -0.0082967728 4.3318101e-39 315 247
-0.0047410131 0.676 -0.0082967728 4.7949365e-39 316 247
-0.0035557596 0.676 -0.0082967728 3.9651758e-39 317 247
-0.0023705065 0.676 -0.0082967728 4.337889e-39 318 247
-0.0011852533 0.676 -0.0082967728 7.2877904e-39 319 247
0 0.676 -0.0082967728 1.0785091e-38 320 247
0.0011852533 0.676 -0.0082967728 1.06007e-38 321 247
0.0023705065 0.676 -0.0082967728 1.0876917e-38 322 247
0.0035557596 0.676 -0.0082967728 1.0784362e-38 323 247
0.0047410131 0.676 -0.0082967728 1.1059144e-38 324 247
0.0059262668 0.676 -0.0082967728 1.0874393e-38 325 247
0.0071115191 0.676 -0.0082967728 1.0874393e-38 326 247
0.0082967728 0.676 -0.0082967728 1.0782197e-38 327 247
0.0095100794 0.67799997 -0.0083213197 1.0598885e-38 328 247
0.010698839 0.67799997 -0.0083213197 1.0506689e-38 329 247
0.011905133 0.67900002 -0.0083335936 1.0506324e-38 330 247
0.013095647 0.67900002 -0.0083335936 1.0506324e-38 331 247
0.014307199 0.68000001 -0.0083458666 1.0046417e-38 332 247
0.015545053 0.68199998 -0.0083704125 9.4932436e-39 333 247
0.016765373 0.68300003 -0.0083826864 8.660976e-39 334 247
0.0179892 0.68400002 -0.0083949603 8.1078022e-39 335 247
0.019244585 0.68599999 -0.0084195063 7.4635328e-39 336 247
0.020477179 0.68699998 -0.0084317802 7.5557299e-39 337 247
0.021681719 0.68699998 -0.0084317802 7.3734994e-39 338 247
0.022919573 0.68800002 -0.0084440531 7.7422805e-39 339 247
0.024195999 0.69 -0.0084686 8.1092526e-39 340 247
0.025442619 0.69099998 -0.008480873 7.5560788e-39 341 247
0.02673132 0.69300002 -0.0085054198 9.3049021e-39 342 247
0.027986705 0.69400001 -0.0085176928 1.2808336e-38 343 247
0.029203519 0.69400001 -0.0085176928 1.5758228e-38 344 247
-0.034070771 0.69400001 -0.0097345067 1.0326992e-38 292 248
-0.03280662 0.69300002 -0.0097204801 1.0511023e-38 293 248
-0.031591557 0.69300002 -0.0097204801 1.152338e-38 294 248
-0.030288832 0.69099998 -0.0096924258 1.0878011e-38 295 248
-0.028951041 0.68800002 -0.0096503468 9.9542582e-39 296 248
-0.027704418 0.68699998 -0.0096363192 7.9259543e-39 297 248
-0.026461305 0.68599999 -0.0096222926 5.9005231e-39 298 248
-0.025184879 0.68400002 -0.0095942402 5.439545e-39 299 248
-0.023915464 0.68199998 -0.009566186 6.5405199e-39 300 248
-0.022719691 0.68199998 -0.009566186 8.8454121e-39 301 248
-0.021523919 0.68199998 -0.009566186 6.2725847e-39 302 248
-0.020328145 0.68199998 -0.009566186 3.4145201e-39 303 248
-0.019132372 0.68199998 -0.009566186 3.9669709e-39 304 248
-0.017936599 0.68199998 -0.009566186 4.6123403e-39 305 248
-0.016740825 0.68199998 -0.009566186 6.8221487e-39 306 248
-0.015499466 0.68000001 -0.0095381327 7.2827667e-39 307 248
-0.01428616 0.67900002 -0.009524107 6.4504893e-39 308 248
-0.013095647 0.67900002 -0.009524107 4.975718e-39 309 248
-0.011905133 0.67900002 -0.009524107 3.5956674e-39 310 248
-0.010714619 0.67900002 -0.009524107 3.5956674e-39 311 248
-0.0095100794 0.67799997 -0.0095100794 3.5956646e-39 312 248
-0.0083213197 0.67799997 -0.0095100794 3.5956646e-39 313 248
-0.0071325595 0.67799997 -0.0095100794 4.5143783e-39 314 248
-0.0059262668 0.676 -0.0094820261 5.2519433e-39 315 248
-0.0047410131 0.676 -0.0094820261 5.9009127e-39 316 248
-0.0035557596 0.676 -0.0094820261 5.2555433e-39 317 248
-0.0023705065 0.676 -0.0094820261 4.9818206e-39 318 248
-0.0011852533 0.676 -0.0094820261 7.2870701e-39 319 248
0 0.676 -0.0094820261 1.0785091e-38 320 248
0.0011852533 0.676 -0.0094820261 1.0692895e-38 321 248
0.0023705065 0.676 -0.0094820261 1.0968393e-38 322 248
0.0035557596 0.676 -0.0094820261 1.0876198e-38 323 248
0.0047410131 0.676 -0.0094820261 1.0783279e-38 324 248
0.0059262668 0.676 -0.0094820261 1.0783279e-38 325 248
0.0071115191 0.676 -0.0094820261 1.07822e-38 326 248
0.0082967728 0.676 -0.0094820261 1.07822e-38 327 248
0.0095100794 0.67799997 -0.0095100794 1.0690002e-38 328 248
0.010698839 0.67799997 -0.0095100794 1.0690002e-38 329 248
0.011905133 0.67900002 -0.009524107 1.0505968e-38 330 248
0.013114933 0.68000001 -0.0095381327 1.0505968e-38 331 248
0.01434928 0.68199998 -0.009566186 9.8631149e-39 332 248
0.015545053 0.68199998 -0.009566186 9.2177455e-39 333 248
0.016765373 0.68300003 -0.0095802136 8.3869156e-39 334 248
0.0179892 0.68400002 -0.0095942402 7.7415462e-39 335 248
0.019244585 0.68599999 -0.0096222926 7.3734896e-39 336 248
0.020447372 0.68599999 -0.0096222926 7.6497163e-39 337 248
0.021681719 0.68699998 -0.0096363192 7.7411959e-39 338 248
0.022919573 0.68800002 -0.0096503468 7.925227e-39 339 248
0.024195999 0.69 -0.0096783992 8.200372e-39 340 248
0.025442619 0.69099998 -0.0096924258 7.8315909e-39 341 248
0.02673132 0.69300002 -0.0097204801 9.6744048e-39 342 248
0.027946379 0.69300002 -0.0097204801 1.2901252e-38 343 248
0.029161438 0.69300002 -0.0097204801 1.5482361e-38 344 248
-0.034218054 0.69700003 -0.01099866 9.1273674e-39 292 249
-0.032853961 0.69400001 -0.01095132 9.7727368e-39 293 249
-0.031591557 0.69300002 -0.010935539 1.1432984e-38 294 249
-0.030288832 0.69099998 -0.01090398 1.152518e-38 295 249
-0.029035198 0.69 -0.010888199 1.1430463e-38 296 249
-0.027704418 0.68699998 -0.010840859 9.5865504e-39 297 249
-0.026461305 0.68599999 -0.010825079 6.7295523e-39 298 249
-0.025258519 0.68599999 -0.010825079 5.4388135e-39 299 249
-0.0239856 0.68400002 -0.01079352 5.4402652e-39 300 249
-0.022786319 0.68400002 -0.01079352 7.2841764e-39 301 249
-0.021523919 0.68199998 -0.010761959 6.1767793e-39 302 249
-0.020328145 0.68199998 -0.010761959 3.7796929e-39 303 249
-0.019160427 0.68300003 -0.01077774 5.5321288e-39 304 249
-0.017936599 0.68199998 -0.010761959 5.9931083e-39 305 249
-0.016740825 0.68199998 -0.010761959 5.1658644e-39 306 249
-0.015545053 0.68199998 -0.010761959 4.4282993e-39 307 249
-0.01434928 0.68199998 -0.010761959 5.1579582e-39 308 249
-0.013153506 0.68199998 -0.010761959 5.1579582e-39 309 249
-0.011922667 0.68000001 -0.0107304 3.9648101e-39 310 249
-0.010714619 0.67900002 -0.010714619 3.5034718e-39 311 249
-0.009524107 0.67900002 -0.010714619 3.5027501e-39 312 249
-0.0083335936 0.67900002 -0.010714619 3.5949457e-39 313 249
-0.0071325595 0.67799997 -0.010698839 3.8708096e-39 314 249
-0.0059437994 0.67799997 -0.010698839 4.7927673e-39 315 249
-0.0047550397 0.67799997 -0.010698839 5.533205e-39 316 249
-0.0035662798 0.67799997 -0.010698839 4.8878355e-39 317 249
-0.0023775198 0.67799997 -0.010698839 4.9814577e-39 318 249
-0.0011887599 0.67799997 -0.010698839 7.2859883e-39 319 249
0 0.67799997 -0.010698839 1.0876207e-38 320 249
0.0011887599 0.67799997 -0.010698839 1.0599981e-38 321 249
0.0023775198 0.67799997 -0.010698839 1.0783646e-38 322 249
0.0035662798 0.67799997 -0.010698839 1.0783646e-38 323 249
0.0047550397 0.67799997 -0.010698839 1.0966594e-38 324 249
0.0059437994 0.67799997 -0.010698839 1.0966594e-38 325 249
0.0071325595 0.67799997 -0.010698839 1.07822e-38 326 249
0.0083213197 0.67799997 -0.010698839 1.0690004e-38 327 249
0.009524107 0.67900002 -0.010714619 1.0690004e-38 328 249
0.0107304 0.68000001 -0.0107304 1.0505614e-38 329 249
0.011957732 0.68199998 -0.010761959 1.050597e-38 330 249
0.013153506 0.68199998 -0.010761959 1.0413775e-38 331 249
0.01434928 0.68199998 -0.010761959 1.0046783e-38 332 249
0.015567848 0.68300003 -0.01077774 9.4014137e-39 333 249
0.016789921 0.68400002 -0.01079352 8.2950731e-39 334 249
0.0179892 0.68400002 -0.01079352 7.6497037e-39 335 249
0.019244585 0.68599999 -0.010825079 7.5575207e-39 336 249
0.020447372 0.68599999 -0.010825079 7.6497163e-39 337 249
0.021681719 0.68699998 -0.010840859 7.7419148e-39 338 249
0.022919573 0.68800002 -0.010856641 7.7419148e-39 339 249
0.024195999 0.69 -0.010888199 7.9255774e-39 340 249
0.02551626 0.69300002 -0.010935539 8.3869156e-39 341 249
0.026769891 0.69400001 -0.01095132 1.0503803e-38 342 249
0.027986705 0.69400001 -0.01095132 1.3269311e-38 343 249
-0.034414422 0.70099998 -0.012290866 9.5876252e-39 292 250
-0.032948639 0.69599998 -0.0122032 9.3106796e-39 293 250
-0.031637147 0.69400001 -0.012168133 1.0696138e-38 294 250
-0.030288832 0.69099998 -0.012115533 1.1157117e-38 295 250
-0.029035198 0.69 -0.012097999 1.1984709e-38 296 250
-0.027744746 0.68800002 -0.012062933 1.0140796e-38 297 250
-0.026499879 0.68699998 -0.012045399 6.5473092e-39 298 250
-0.025258519 0.68599999 -0.012027865 6.0866898e-39 299 250
-0.024055731 0.68599999 -0.012027865 6.6387888e-39 300 250
-0.022852944 0.68599999 -0.012027865 6.3622019e-39 301 250
-0.02158704 0.68400002 -0.0119928 4.6115836e-39 302 250
-0.020357953 0.68300003 -0.011975267 4.6115836e-39 303 250
-0.019160427 0.68300003 -0.011975267 7.1898368e-39 304 250
-0.017936599 0.68199998 -0.011957732 7.4660636e-39 305 250
-0.016740825 0.68199998 -0.011957732 5.2558936e-39 306 250
-0.015545053 0.68199998 -0.011957732 3.3197854e-39 307 250
-0.01434928 0.68199998 -0.011957732 4.05304e-39 308 250
-0.013153506 0.68199998 -0.011957732 4.6984094e-39 309 250
-0.011922667 0.68000001 -0.011922667 3.7786111e-39 310 250
-0.010714619 0.67900002 -0.011905133 2.857015e-39 311 250
-0.009524107 0.67900002 -0.011905133 2.9506511e-39 312 250
-0.0083335936 0.67900002 -0.011905133 3.0428467e-39 313 250
-0.0071430802 0.67900002 -0.011905133 3.4091083e-39 314 250
-0.0059437994 0.67799997 -0.011887599 4.7920428e-39 315 250
-0.0047550397 0.67799997 -0.011887599 5.9001826e-39 316 250
-0.0035662798 0.67799997 -0.011887599 5.4395646e-39 317 250
-0.0023775198 0.67799997 -0.011887599 4.8892551e-39 318 250
-0.0011887599 0.67799997 -0.011887599 7.0101147e-39 319 250
0 0.67799997 -0.011887599 1.0600334e-38 320 250
0.0011887599 0.67799997 -0.011887599 1.0876561e-38 321 250
0.0023775198 0.67799997 -0.011887599 1.0784002e-38 322 250
0.0035662798 0.67799997 -0.011887599 1.0784002e-38 323 250
0.0047550397 0.67799997 -0.011887599 1.0966594e-38 324 250
0.0059437994 0.67799997 -0.011887599 1.0874398e-38 325 250
0.0071325595 0.67799997 -0.011887599 1.0874396e-38 326 250
0.0083213197 0.67799997 -0.011887599 1.07822e-38 327 250
0.009524107 0.67900002 -0.011905133 1.041414e-38 328 250
0.0107304 0.68000001 -0.011922667 1.041414e-38 329 250
0.011957732 0.68199998 -0.011957732 1.0321942e-38 330 250
0.013153506 0.68199998 -0.011957732 1.0321942e-38 331 250
0.014370319 0.68300003 -0.011975267 9.8631149e-39 332 250
0.015567848 0.68300003 -0.011975267 9.2177455e-39 333 250
0.016789921 0.68400002 -0.0119928 8.3869128e-39 334 250
0.018041799 0.68599999 -0.012027865 7.7415434e-39 335 250
0.019244585 0.68599999 -0.012027865 7.6489975e-39 336 250
0.020477179 0.68699998 -0.012045399 7.9252242e-39 337 250
0.021713281 0.68800002 -0.012062933 8.0174199e-39 338 250
0.022986198 0.69 -0.012097999 8.2021713e-39 339 250
0.024231065 0.69099998 -0.012115533 8.2954389e-39 340 250
0.025553079 0.69400001 -0.012168133 9.0330039e-39 341 250
0.026847038 0.69599998 -0.0122032 1.0965144e-38 342 250
0.028067358 0.69599998 -0.0122032 1.3270393e-38 343 250
-0.034561705 0.704 -0.013577812 1.1338265e-38 292 251
-0.033043321 0.69800001 -0.013462093 9.5869064e-39 293 251
-0.031728316 0.69599998 -0.013423519 7.655847e-39 294 251
-0.0303765 0.69300002 -0.01336566 8.8543902e-39 295 251
-0.029077278 0.69099998 -0.013327086 1.0415588e-38 296 251
-0.027744746 0.68800002 -0.013269227 8.940458e-39 297 251
-0.026499879 0.68699998 -0.013249939 6.088852e-39 298 251
-0.025295338 0.68699998 -0.013249939 8.6703297e-39 299 251
-0.024090799 0.68699998 -0.013249939 1.0323021e-38 300 251
-0.022886258 0.68699998 -0.013249939 8.570944e-39 301 251
-0.021650158 0.68599999 -0.013230653 6.1806973e-39 302 251
-0.020387759 0.68400002 -0.01319208 6.9186211e-39 303 251
-0.019160427 0.68300003 -0.013172794 9.0340997e-39 304 251
-0.017962901 0.68300003 -0.013172794 9.4950765e-39 305 251
-0.016740825 0.68199998 -0.013153506 8.6649627e-39 306 251
-0.015545053 0.68199998 -0.013153506 7.7430078e-39 307 251
-0.01434928 0.68199998 -0.013153506 7.0061644e-39 308 251
-0.013153506 0.68199998 -0.013153506 6.7295775e-39 309 251
-0.011922667 0.68000001 -0.013114933 6.4522718e-39 310 251
-0.010714619 0.67900002 -0.013095647 5.7147067e-39 311 251
-0.009524107 0.67900002 -0.013095647 5.4395618e-39 312 251
-0.0083335936 0.67900002 -0.013095647 5.4395618e-39 313 251
-0.0071430802 0.67900002 -0.013095647 5.2551691e-39 314 251
-0.0059437994 0.67799997 -0.013076359 5.9927342e-39 315 251
-0.0047550397 0.67799997 -0.013076359 6.823571e-39 316 251
-0.0035662798 0.67799997 -0.013076359 6.4547885e-39 317 251
-0.0023775198 0.67799997 -0.013076359 5.444947e-39 318 251
-0.0011887599 0.67799997 -0.013076359 6.5516547e-39 319 251
0 0.67799997 -0.013076359 9.9556861e-39 320 251
0.0011887599 0.67799997 -0.013076359 1.0601055e-38 321 251
0.0023775198 0.67799997 -0.013076359 1.0784002e-38 322 251
0.0035662798 0.67799997 -0.013076359 1.0876198e-38 323 251
0.0047550397 0.67799997 -0.013076359 1.1059144e-38 324 251
0.0059525664 0.67900002 -0.013095647 1.0966947e-38 325 251
0.0071430802 0.67900002 -0.013095647 1.0782197e-38 326 251
0.0083335936 0.67900002 -0.013095647 1.050597e-38 327 251
0.0095381327 0.68000001 -0.013114933 1.0505614e-38 328 251
0.010761959 0.68199998 -0.013153506 1.0505614e-38 329 251
0.011957732 0.68199998 -0.013153506 1.0321942e-38 330 251
0.013172794 0.68300003 -0.013172794 1.013791e-38 331 251
0.014370319 0.68300003 -0.013172794 9.8620359e-39 332 251
0.01559064 0.68400002 -0.01319208 9.4014165e-39 333 251
0.016789921 0.68400002 -0.01319208 8.5723789e-39 334 251
0.018041799 0.68599999 -0.013230653 8.0192065e-39 335 251
0.019272638 0.68699998 -0.013249939 7.7422679e-39 336 251
0.020477179 0.68699998 -0.013249939 7.7422679e-39 337 251
0.021713281 0.68800002 -0.013269227 8.2021685e-39 338 251
0.023019511 0.69099998 -0.013327086 8.2943641e-39 339 251
0.024336265 0.69400001 -0.013384946 8.755694e-39 340 251
0.025553079 0.69400001 -0.013384946 9.4932604e-39 341 251
0.026847038 0.69599998 -0.013423519 1.0782553e-38 342 251
0.028067358 0.69599998 -0.013423519 1.2903053e-38 343 251
-0.034512613 0.70300001 -0.014791119 1.1800325e-38 292 252
-0.033043321 0.69800001 -0.01468592 1.0601421e-38 293 252
-0.031728316 0.69599998 -0.014643839 7.931708e-39 294 252
-0.030420333 0.69400001 -0.01460176 8.0242624e-39 295 252
-0.029077278 0.69099998 -0.014538639 9.1284393e-39 296 252
-0.027825398 0.69 -0.014517599 8.0220918e-39 297 252
-0.026538454 0.68800002 -0.014475521 6.4594352e-39 298 252
-0.02533216 0.68800002 -0.014475521 9.3175011e-39 299 252
-0.024090799 0.68699998 -0.014454478 1.1429015e-38 300 252
-0.022886258 0.68699998 -0.014454478 1.004608e-38 301 252
-0.021681719 0.68699998 -0.014454478 7.6543981e-39 302 252
-0.020447372 0.68599999 -0.01443344 7.8391495e-39 303 252
-0.01918848 0.68400002 -0.01439136 9.5894371e-39 304 252
-0.017962901 0.68300003 -0.014370319 1.0511754e-38 305 252
-0.016765373 0.68300003 -0.014370319 1.0877658e-38 306 252
-0.015567848 0.68300003 -0.014370319 1.106205e-38 307 252
-0.01434928 0.68199998 -0.01434928 1.0047175e-38 308 252
-0.013153506 0.68199998 -0.01434928 9.7705872e-39 309 252
-0.011957732 0.68199998 -0.01434928 9.4943548e-39 310 252
-0.0107304 0.68000001 -0.014307199 8.941181e-39 311 252
-0.0095381327 0.68000001 -0.014307199 8.7575086e-39 312 252
-0.0083458666 0.68000001 -0.014307199 8.665313e-39 313 252
-0.0071430802 0.67900002 -0.01428616 8.0217415e-39 314 252
-0.0059525664 0.67900002 -0.01428616 8.2983298e-39 315 252
-0.0047550397 0.67799997 -0.014265119 8.7585904e-39 316 252
-0.0035662798 0.67799997 -0.014265119 8.4816448e-39 317 252
-0.0023775198 0.67799997 -0.014265119 8.1146574e-39 318 252
-0.0011887599 0.67799997 -0.014265119 8.206853e-39 319 252
0 0.67900002 -0.01428616 1.0231194e-38 320 252
0.0011905134 0.67900002 -0.01428616 1.0968759e-38 321 252
0.0023810267 0.67900002 -0.01428616 1.023227e-38 322 252
0.0035715401 0.67900002 -0.01428616 1.023227e-38 323 252
0.0047620535 0.67900002 -0.01428616 1.07822e-38 324 252
0.0059525664 0.67900002 -0.01428616 1.0690004e-38 325 252
0.0071535995 0.68000001 -0.014307199 1.0230825e-38 326 252
0.0083458666 0.68000001 -0.014307199 1.013863e-38 327 252
0.009566186 0.68199998 -0.01434928 1.0138633e-38 328 252
0.010761959 0.68199998 -0.01434928 1.0138633e-38 329 252
0.011975267 0.68300003 -0.014370319 9.770569e-39 330 252
0.013172794 0.68300003 -0.014370319 9.6783733e-39 331 252
0.014370319 0.68300003 -0.014370319 9.4028598e-39 332 252
0.01559064 0.68400002 -0.01439136 9.1262715e-39 333 252
0.016789921 0.68400002 -0.01439136 8.7556912e-39 334 252
0.018068098 0.68699998 -0.014454478 8.2950731e-39 335 252
0.019272638 0.68699998 -0.014454478 8.1092526e-39 336 252
0.020506985 0.68800002 -0.014475521 8.2014482e-39 337 252
0.021776399 0.69 -0.014517599 7.9266592e-39 338 252
0.023019511 0.69099998 -0.014538639 8.2950829e-39 339 252
0.024336265 0.69400001 -0.01460176 8.6642284e-39 340 252
0.025553079 0.69400001 -0.01460176 9.2170421e-39 341 252
0.026769891 0.69400001 -0.01460176 1.0506333e-38 342 252
-0.034414422 0.70099998 -0.015978126 1.2168031e-38 292 253
-0.033043321 0.69800001 -0.015909746 1.1430466e-38 293 253
-0.03177391 0.69700003 -0.015886955 9.3146481e-39 294 253
-0.030420333 0.69400001 -0.015818574 8.3926932e-39 295 253
-0.029161438 0.69300002 -0.015795778 8.5770774e-39 296 253
-0.027865725 0.69099998 -0.015750192 8.116458e-39 297 253
-0.026615599 0.69 -0.015727401 7.6561973e-39 298 253
-0.02533216 0.68800002 -0.015681813 9.6848599e-39 299 253
-0.024125867 0.68800002 -0.015681813 1.1153873e-38 300 253
-0.022919573 0.68800002 -0.015681813 1.0139721e-38 301 253
-0.021681719 0.68699998 -0.015659019 7.4685523e-39 302 253
-0.020447372 0.68599999 -0.015636226 7.099411e-39 303 253
-0.019244585 0.68599999 -0.015636226 7.9331402e-39 304 253
-0.0179892 0.68400002 -0.01559064 8.4863139e-39 305 253
-0.016765373 0.68300003 -0.015567848 9.3121314e-39 306 253
-0.015567848 0.68300003 -0.015567848 9.4965226e-39 307 253
-0.014370319 0.68300003 -0.015567848 9.5869162e-39 308 253
-0.013153506 0.68199998 -0.015545053 1.0417037e-38 309 253
-0.011957732 0.68199998 -0.015545053 1.1428665e-38 310 253
-0.010761959 0.68199998 -0.015545053 1.1428665e-38 311 253
-0.0095381327 0.68000001 -0.015499466 1.1428665e-38 312 253
-0.0083458666 0.68000001 -0.015499466 1.1889642e-38 313 253
-0.0071535995 0.68000001 -0.015499466 1.1063476e-38 314 253
-0.0059525664 0.67900002 -0.015476674 1.0879084e-38 315 253
-0.0047620535 0.67900002 -0.015476674 1.0878361e-38 316 253
-0.0035715401 0.67900002 -0.015476674 1.0786166e-38 317 253
-0.0023810267 0.67900002 -0.015476674 1.0877642e-38 318 253
-0.0011905134 0.67900002 -0.015476674 1.0601055e-38 319 253
0 0.67900002 -0.015476674 1.1059154e-38 320 253
0.0011905134 0.67900002 -0.015476674 1.0598535e-38 321 253
0.0023810267 0.67900002 -0.015476674 9.6776545e-39 322 253
0.0035715401 0.67900002 -0.015476674 8.8478938e-39 323 253
0.0047690663 0.68000001 -0.015499466 8.753543e-39 324 253
0.0059613334 0.68000001 -0.015499466 9.0301299e-39 325 253
0.0071535995 0.68000001 -0.015499466 9.5829505e-39 326 253
0.0083458666 0.68000001 -0.015499466 9.7677019e-39 327 253
0.009566186 0.68199998 -0.015545053 9.6773013e-39 328 253
0.01077774 0.68300003 -0.015567848 9.6773013e-39 329 253
0.011975267 0.68300003 -0.015567848 9.8616856e-39 330 253
0.013172794 0.68300003 -0.015567848 9.6776545e-39 331 253
0.014370319 0.68300003 -0.015567848 9.3095922e-39 332 253
0.01559064 0.68400002 -0.01559064 8.9408083e-39 333 253
0.016839013 0.68599999 -0.015636226 8.8482567e-39 334 253
0.018068098 0.68699998 -0.015659019 8.2028873e-39 335 253
0.019300694 0.68800002 -0.015681813 8.1088994e-39 336 253
0.020566599 0.69 -0.015727401 8.0167038e-39 337 253
0.021807959 0.69099998 -0.015750192 8.2018153e-39 338 253
0.02308614 0.69300002 -0.015795778 8.2943697e-39 339 253
0.024336265 0.69400001 -0.015818574 8.6645787e-39 340 253
0.025553079 0.69400001 -0.015818574 8.8486099e-39 341 253
0.026769891 0.69400001 -0.015818574 9.5858064e-39 342 253
-0.034414422 0.70099998 -0.017207211 1.180069e-38 292 254
-0.033043321 0.69800001 -0.017133573 1.1247517e-38 293 254
-0.03177391 0.69700003 -0.017109027 9.3153754e-39 294 254
-0.030507999 0.69599998 -0.017084479 8.670006e-39 295 254
-0.029161438 0.69300002 -0.01701084 8.6692759e-39 296 254
-0.027865725 0.69099998 -0.016961746 8.5770803e-39 297 254
-0.026654173 0.69099998 -0.016961746 7.5661681e-39 298 254
-0.025405798 0.69 -0.0169372 7.9353108e-39 299 254
-0.024125867 0.68800002 -0.016888106 9.3121244e-39 300 254
-0.022919573 0.68800002 -0.016888106 8.2983326e-39 301 254
-0.021681719 0.68699998 -0.01686356 6.825701e-39 302 254
-0.020477179 0.68699998 -0.01686356 6.5491141e-39 303 254
-0.019244585 0.68599999 -0.016839013 7.6562002e-39 304 254
-0.0179892 0.68400002 -0.016789921 7.8405914e-39 305 254
-0.016789921 0.68400002 -0.016789921 8.297276e-39 306 254
-0.015567848 0.68300003 -0.016765373 8.2050804e-39 307 254
-0.014370319 0.68300003 -0.016765373 9.1245101e-39 308 254
-0.013172794 0.68300003 -0.016765373 9.585847e-39 309 254
-0.011957732 0.68199998 -0.016740825 1.0138295e-38 310 254
-0.010761959 0.68199998 -0.016740825 9.8617094e-39 311 254
-0.009566186 0.68199998 -0.016740825 8.9440677e-39 312 254
-0.0083704125 0.68199998 -0.016740825 9.7738284e-39 313 254
-0.0071535995 0.68000001 -0.016691733 1.0326992e-38 314 254
-0.0059613334 0.68000001 -0.016691733 9.9578497e-39 315 254
-0.0047620535 0.67900002 -0.016667187 9.9581972e-39 316 254
-0.0035715401 0.67900002 -0.016667187 1.0050753e-38 317 254
-0.0023810267 0.67900002 -0.016667187 1.0326258e-38 318 254
-0.0011905134 0.67900002 -0.016667187 1.0234062e-38 319 254
0 0.67900002 -0.016667187 9.770569e-39 320 254
0.0011905134 0.67900002 -0.016667187 9.1251995e-39 321 254
0.0023810267 0.67900002 -0.016667187 8.204688e-39 322 254
0.0035767998 0.68000001 -0.016691733 7.6515142e-39 323 254
0.0047690663 0.68000001 -0.016691733 7.7415588e-39 324 254
0.0059613334 0.68000001 -0.016691733 7.7415588e-39 325 254
0.00717464 0.68199998 -0.016740825 7.6511681e-39 326 254
0.0083704125 0.68199998 -0.016740825 8.2039817e-39 327 254
0.0095802136 0.68300003 -0.016765373 8.2972536e-39 328 254
0.01077774 0.68300003 -0.016765373 8.6663948e-39 329 254
0.0119928 0.68400002 -0.016789921 9.1255681e-39 330 254
0.01319208 0.68400002 -0.016789921 9.2177651e-39 331 254
0.01439136 0.68400002 -0.016789921 8.6667451e-39 332 254
0.015636226 0.68599999 -0.016839013 8.4819951e-39 333 254
0.01686356 0.68699998 -0.01686356 8.5720286e-39 334 254
0.0180944 0.68800002 -0.016888106 8.2028873e-39 335 254
0.019300694 0.68800002 -0.016888106 8.2922117e-39 336 254
0.020566599 0.69 -0.0169372 8.1078204e-39 337 254
0.021807959 0.69099998 -0.016961746 7.7415616e-39 338 254
0.02308614 0.69300002 -0.01701084 7.8337573e-39 339 254
0.024336265 0.69400001 -0.017035386 7.6515114e-39 340 254
0.025626717 0.69599998 -0.017084479 7.1908934e-39 341 254
0.026847038 0.69599998 -0.017084479 9.0315564e-39 342 254
0.028067358 0.69599998 -0.017084479 1.2350599e-38 343 254
-0.035643511 0.70099998 -0.018436298 1.4007972e-38 291 255
-0.034414422 0.70099998 -0.018436298 1.1432634e-38 292 255
-0.033137999 0.69999999 -0.018409999 1.087946e-38 293 255
-0.031819493 0.69800001 -0.0183574 9.4079395e-39 294 255
-0.030507999 0.69599998 -0.018304799 9.2235483e-39 295 255
-0.029203519 0.69400001 -0.0182522 8.8558378e-39 296 255
-0.027865725 0.69099998 -0.0181733 8.7636421e-39 297 255
-0.026654173 0.69099998 -0.0181733 7.6590938e-39 298 255
-0.025405798 0.69 -0.018146999 6.0917667e-39 299 255
-0.024125867 0.68800002 -0.0180944 5.0747253e-39 300 255
-0.022919573 0.68800002 -0.0180944 4.5215515e-39 301 255
-0.021681719 0.68699998 -0.018068098 5.7197262e-39 302 255
-0.020477179 0.68699998 -0.018068098 7.1026606e-39 303 255
-0.019244585 0.68599999 -0.018041799 8.0253414e-39 304 255
-0.018041799 0.68599999 -0.018041799 7.7483958e-39 305 255
-0.016789921 0.68400002 -0.0179892 7.8359279e-39 306 255
-0.01559064 0.68400002 -0.0179892 7.2827541e-39 307 255
-0.014370319 0.68300003 -0.017962901 7.1898396e-39 308 255
-0.013172794 0.68300003 -0.017962901 7.4660664e-39 309 255
-0.011975267 0.68300003 -0.017962901 7.097644e-39 310 255
-0.010761959 0.68199998 -0.017936599 6.1753276e-39 311 255
-0.009566186 0.68199998 -0.017936599 4.615915e-39 312 255
-0.0083704125 0.68199998 -0.017936599 5.9988494e-39 313 255
-0.00717464 0.68199998 -0.017936599 7.92992e-39 314 255
-0.005978866 0.68199998 -0.017936599 8.4830938e-39 315 255
-0.004783093 0.68199998 -0.017936599 9.1266611e-39 316 255
-0.0035767998 0.68000001 -0.017883999 9.5876393e-39 317 255
-0.0023845332 0.68000001 -0.017883999 9.7716676e-39 318 255
-0.0011922666 0.68000001 -0.017883999 9.4947206e-39 319 255
0 0.68000001 -0.017883999 8.0206723e-39 320 255
0.0011922666 0.68000001 -0.017883999 7.3753029e-39 321 255
0.0023915465 0.68199998 -0.017936599 6.2700413e-39 322 255
0.00358732 0.68199998 -0.017936599 5.6246719e-39 323 255
0.004783093 0.68199998 -0.017936599 5.807624e-39 324 255
