# .PCD v.7 - Point Cloud Data file format
FIELDS x y z rgb imX imY
SIZE 4 4 4 4 4 4
TYPE F F F F F F
COUNT 1 1 1 1 1 1
WIDTH 830
HEIGHT 1
VIEWPOINT 0 0 0 1 0 0 0
POINTS 830
DATA ascii
-0.030244999 0.69 0.0024195998 9.8667078e-39 295 238
-0.029035198 0.69 0.0024195998 8.3004429e-39 296 238
-0.027825398 0.69 0.0024195998 7.6550735e-39 297 238
-0.026538454 0.68800002 0.0024125867 8.4844418e-39 298 238
-0.02533216 0.68800002 0.0024125867 9.1298112e-39 299 238
-0.024125867 0.68800002 0.0024125867 8.394016e-39 300 238
-0.022919573 0.68800002 0.0024125867 8.1177893e-39 301 238
-0.021776399 0.69 0.0024195998 7.1997958e-39 302 238
-0.020566599 0.69 0.0024195998 7.6607726e-39 303 238
-0.019356798 0.69 0.0024195998 8.7610637e-39 304 238
-0.018146999 0.69 0.0024195998 8.5766725e-39 305 238
-0.0169372 0.69 0.0024195998 4.6119465e-39 306 238
-0.015750192 0.69099998 0.0024231065 2.7683926e-39 307 238
-0.014538639 0.69099998 0.0024231065 1.9447626e-39 308 238
-0.013327086 0.69099998 0.0024231065 3.9730665e-39 309 238
-0.012115533 0.69099998 0.0024231065 8.2075845e-39 310 238
-0.01090398 0.69099998 0.0024231065 9.7745514e-39 311 238
-0.0096924258 0.69099998 0.0024231065 1.1427592e-38 312 238
-0.0085054198 0.69300002 0.00243012 7.5553767e-39 313 238
-0.0073008798 0.69400001 0.0024336267 4.8856845e-39 314 238
-0.0060840664 0.69400001 0.0024336267 4.9778802e-39 315 238
-0.0048812795 0.69599998 0.0024406398 5.5310568e-39 316 238
-0.00366622 0.69700003 0.0024441467 6.8217956e-39 317 238
-0.0024476533 0.69800001 0.0024476533 7.1894893e-39 318 238
-0.0012238267 0.69800001 0.0024476533 6.4515655e-39 319 238
0 0.69800001 0.0024476533 5.8015326e-39 320 238
0.0012273333 0.69999999 0.0024546667 5.9859238e-39 321 238
0.0024581731 0.70099998 0.0024581731 5.8994848e-39 322 238
0.0036872597 0.70099998 0.0024581731 5.8994848e-39 323 238
0.0049514128 0.70599997 0.0024757064 6.2671729e-39 324 238
0.0061892662 0.70599997 0.0024757064 6.728151e-39 325 238
0.0074376399 0.70700002 0.0024792133 6.6398874e-39 326 238
-0.057828441 0.71700001 0.00125714 1.4937137e-38 274 239
-0.056492399 0.71600002 0.0012553866 1.5305919e-38 275 239
-0.05508272 0.71399999 0.00125188 1.4015904e-38 276 239
-0.053604662 0.71100003 0.00124662 1.2632969e-38 277 239
-0.052284397 0.70999998 0.0012448666 1.0879823e-38 278 239
-0.050823875 0.70700002 0.0012396066 9.589084e-39 279 239
-0.04951413 0.70599997 0.0012378532 9.4986932e-39 280 239
-0.048139516 0.704 0.0012343467 9.4061375e-39 281 239
-0.046838548 0.70300001 0.0012325933 9.4986904e-39 282 239
-0.045476202 0.70099998 0.0012290865 9.8671128e-39 283 239
-0.044183996 0.69999999 0.0012273333 1.0419918e-38 284 239
-0.042772565 0.69700003 0.0012220733 1.0604668e-38 285 239
-0.041550495 0.69700003 0.0012220733 1.0695785e-38 286 239
-0.040270556 0.69599998 0.0012203199 1.0695785e-38 287 239
-0.038938027 0.69400001 0.0012168133 1.0971653e-38 288 239
-0.037721213 0.69400001 0.0012168133 1.1248238e-38 289 239
-0.036451802 0.69300002 0.00121506 1.1341507e-38 290 239
-0.035236739 0.69300002 0.00121506 1.1157117e-38 291 239
-0.034021679 0.69300002 0.00121506 1.0789763e-38 292 239
-0.032711938 0.69099998 0.0012115532 1.0605371e-38 293 239
-0.031500384 0.69099998 0.0012115532 1.0880514e-38 294 239
-0.030288832 0.69099998 0.0012115532 1.0880514e-38 295 239
-0.029035198 0.69 0.0012097999 9.7727214e-39 296 239
-0.027825398 0.69 0.0012097999 9.3113831e-39 297 239
-0.026615599 0.69 0.0012097999 1.0139682e-38 298 239
-0.025405798 0.69 0.0012097999 1.0692856e-38 299 239
-0.024195999 0.69 0.0012097999 9.4971266e-39 300 239
-0.022986198 0.69 0.0012097999 8.1141921e-39 301 239
-0.021807959 0.69099998 0.0012115532 6.8309937e-39 302 239
-0.020596405 0.69099998 0.0012115532 7.6607544e-39 303 239
-0.019384852 0.69099998 0.0012115532 1.0327301e-38 304 239
-0.0181733 0.69099998 0.0012115532 1.097267e-38 305 239
-0.016961746 0.69099998 0.0012115532 9.8588143e-39 306 239
-0.015795778 0.69300002 0.00121506 6.5397717e-39 307 239
-0.014538639 0.69099998 0.0012115532 5.8951351e-39 308 239
-0.013327086 0.69099998 0.0012115532 7.5542963e-39 309 239
-0.012150601 0.69300002 0.00121506 8.1092666e-39 310 239
-0.010935539 0.69300002 0.00121506 7.0032777e-39 311 239
-0.0097204801 0.69300002 0.00121506 7.1844348e-39 312 239
-0.0085054198 0.69300002 0.00121506 6.2628386e-39 313 239
-0.0073008798 0.69400001 0.0012168133 4.7916897e-39 314 239
-0.0061015999 0.69599998 0.0012203199 4.8838853e-39 315 239
-0.0048812795 0.69599998 0.0012203199 3.7825796e-39 316 239
-0.00366622 0.69700003 0.0012220733 4.3357534e-39 317 239
-0.0024476533 0.69800001 0.0012238267 6.0863787e-39 318 239
-0.0012238267 0.69800001 0.0012238267 6.3626055e-39 319 239
0 0.69800001 0.0012238267 6.1739052e-39 320 239
0.0012273333 0.69999999 0.0012273333 5.804764e-39 321 239
0.0024581731 0.70099998 0.0012290865 5.9005624e-39 322 239
0.0037030398 0.704 0.0012343467 5.8083667e-39 323 239
0.0049514128 0.70599997 0.0012378532 6.2657281e-39 324 239
0.0062067998 0.708 0.00124136 6.9110975e-39 325 239
0.0074481601 0.708 0.00124136 8.0167038e-39 326 239
0.0087140659 0.70999998 0.0012448666 9.7684208e-39 327 239
-0.057828441 0.71700001 -0 1.466055e-38 274 240
-0.056492399 0.71600002 -0 1.4752746e-38 275 240
-0.05508272 0.71399999 -0 1.4382165e-38 276 240
-0.053755447 0.713 -0 1.3183622e-38 277 240
-0.052284397 0.70999998 -0 1.1432634e-38 278 240
-0.050895758 0.708 -0 9.9571448e-39 279 240
-0.04951413 0.70599997 -0 9.6805636e-39 280 240
-0.048139516 0.704 -0 9.9571504e-39 281 240
-0.046838548 0.70300001 -0 9.2231811e-39 282 240
-0.045476202 0.70099998 -0 9.5916049e-39 283 240
-0.044183996 0.69999999 -0 1.0051144e-38 284 240
-0.042833932 0.69800001 -0 1.014334e-38 285 240
-0.041550495 0.69700003 -0 9.8671184e-39 286 240
-0.040270556 0.69599998 -0 9.4983373e-39 287 240
-0.038938027 0.69400001 -0 9.8656807e-39 288 240
-0.037721213 0.69400001 -0 1.0141907e-38 289 240
-0.036451802 0.69300002 -0 1.0327005e-38 290 240
-0.035236739 0.69300002 -0 1.0419201e-38 291 240
-0.034021679 0.69300002 -0 1.0235162e-38 292 240
-0.032711938 0.69099998 -0 1.0419554e-38 293 240
-0.031500384 0.69099998 -0 1.1616296e-38 294 240
-0.030288832 0.69099998 -0 1.1708492e-38 295 240
-0.029077278 0.69099998 -0 9.8663841e-39 296 240
-0.027825398 0.69 -0 9.2210147e-39 297 240
-0.026615599 0.69 -0 1.0785091e-38 298 240
-0.025405798 0.69 -0 1.143046e-38 299 240
-0.024195999 0.69 -0 1.087936e-38 300 240
-0.023019511 0.69099998 -0 8.2056871e-39 301 240
-0.021871079 0.69300002 -0 6.7380722e-39 302 240
-0.020596405 0.69099998 -0 7.8444198e-39 303 240
-0.019384852 0.69099998 -0 1.0603882e-38 304 240
-0.0181733 0.69099998 -0 1.1710588e-38 305 240
-0.016961746 0.69099998 -0 9.8606164e-39 306 240
-0.015795778 0.69300002 -0 7.0947475e-39 307 240
-0.014580719 0.69300002 -0 6.0802424e-39 308 240
-0.01336566 0.69300002 -0 7.2787856e-39 309 240
-0.012150601 0.69300002 -0 6.9110793e-39 310 240
-0.010935539 0.69300002 -0 5.8047318e-39 311 240
-0.0097204801 0.69300002 -0 5.0650311e-39 312 240
-0.0085054198 0.69300002 -0 4.788803e-39 313 240
-0.0073008798 0.69400001 -0 4.6051516e-39 314 240
-0.0061103669 0.69700003 -0 4.6051516e-39 315 240
-0.0048882933 0.69700003 -0 3.6875099e-39 316 240
-0.0036714801 0.69800001 -0 3.3190875e-39 317 240
-0.0024476533 0.69800001 -0 5.531054e-39 318 240
-0.0012238267 0.69800001 -0 7.1905739e-39 319 240
0 0.69999999 -0 6.0809879e-39 320 240
0.0012273333 0.69999999 -0 6.0809879e-39 321 240
0.0024686933 0.704 -0 5.9920293e-39 322 240
0.0037030398 0.704 -0 6.1767793e-39 323 240
0.0049584266 0.70700002 -0 7.0036463e-39 324 240
0.0062067998 0.708 -0 6.9110919e-39 325 240
0.0074481601 0.708 -0 7.0983418e-39 326 240
0.0087140659 0.70999998 -0 9.1266457e-39 327 240
0.0099589331 0.70999998 -0 1.1431888e-38 328 240
-0.057828441 0.71700001 -0.00125714 1.4474717e-38 274 241
-0.056492399 0.71600002 -0.0012553866 1.4474717e-38 275 241
-0.05508272 0.71399999 -0.00125188 1.3828991e-38 276 241
-0.053755447 0.713 -0.0012501266 1.3091426e-38 277 241
-0.052284397 0.70999998 -0.0012448666 1.1708142e-38 278 241
-0.050895758 0.708 -0.00124136 1.0417403e-38 279 241
-0.04951413 0.70599997 -0.0012378532 9.4986932e-39 280 241
-0.048139516 0.704 -0.0012343467 9.3139418e-39 281 241
-0.046838548 0.70300001 -0.0012325933 9.3135887e-39 282 241
-0.045476202 0.70099998 -0.0012290865 9.4061431e-39 283 241
-0.044183996 0.69999999 -0.0012273333 9.6830845e-39 284 241
-0.042833932 0.69800001 -0.0012238267 9.8671156e-39 285 241
-0.041550495 0.69700003 -0.0012220733 9.8663939e-39 286 241
-0.040328421 0.69700003 -0.0012220733 9.7741983e-39 287 241
-0.039106347 0.69700003 -0.0012220733 9.8645947e-39 288 241
-0.037884273 0.69700003 -0.0012220733 9.8645947e-39 289 241
-0.036504399 0.69400001 -0.0012168133 9.0377123e-39 290 241
-0.035236739 0.69300002 -0.00121506 8.9455167e-39 291 241
-0.034021679 0.69300002 -0.00121506 1.0139024e-38 292 241
-0.032711938 0.69099998 -0.0012115532 1.0692197e-38 293 241
-0.031500384 0.69099998 -0.0012115532 1.1154968e-38 294 241
-0.030288832 0.69099998 -0.0012115532 1.152375e-38 295 241
-0.029077278 0.69099998 -0.0012115532 9.6823558e-39 296 241
-0.027865725 0.69099998 -0.0012115532 9.3135733e-39 297 241
-0.026654173 0.69099998 -0.0012115532 1.0325557e-38 298 241
-0.025442619 0.69099998 -0.0012115532 1.1800687e-38 299 241
-0.024231065 0.69099998 -0.0012115532 1.1615883e-38 300 241
-0.023019511 0.69099998 -0.0012115532 9.6801334e-39 301 241
-0.021871079 0.69300002 -0.00121506 8.6706281e-39 302 241
-0.020656019 0.69300002 -0.00121506 9.1312476e-39 303 241
-0.01944096 0.69300002 -0.00121506 1.0419866e-38 304 241
-0.0181733 0.69099998 -0.0012115532 1.1065236e-38 305 241
-0.016961746 0.69099998 -0.0012115532 9.2177623e-39 306 241
-0.015795778 0.69300002 -0.00121506 6.728839e-39 307 241
-0.014580719 0.69300002 -0.00121506 5.2533558e-39 308 241
-0.01336566 0.69300002 -0.00121506 6.8206815e-39 309 241
-0.012150601 0.69300002 -0.00121506 7.646129e-39 310 241
-0.01095132 0.69400001 -0.0012168133 7.0007596e-39 311 241
-0.0097345067 0.69400001 -0.0012168133 4.6991227e-39 312 241
-0.0085176928 0.69400001 -0.0012168133 4.3306989e-39 313 241
-0.0073219193 0.69599998 -0.0012203199 4.3289136e-39 314 241
-0.0061103669 0.69700003 -0.0012220733 4.5136636e-39 315 241
-0.0048953067 0.69800001 -0.0012238267 4.0552036e-39 316 241
-0.0036714801 0.69800001 -0.0012238267 4.3314318e-39 317 241
-0.0024546667 0.69999999 -0.0012273333 5.6210874e-39 318 241
-0.0012273333 0.69999999 -0.0012273333 6.0817068e-39 319 241
0 0.69999999 -0.0012273333 5.8040465e-39 320 241
0.0012273333 0.69999999 -0.0012273333 5.7118509e-39 321 241
0.0024686933 0.704 -0.0012343467 6.5441199e-39 322 241
0.0037030398 0.704 -0.0012343467 7.1894893e-39 323 241
0.0049584266 0.70700002 -0.0012396066 8.4755113e-39 324 241
0.0062067998 0.708 -0.00124136 8.3833157e-39 325 241
0.0074691991 0.70999998 -0.0012448666 7.0979621e-39 326 241
0.0087140659 0.70999998 -0.0012448666 8.3887009e-39 327 241
0.0099589331 0.70999998 -0.0012448666 1.0969109e-38 328 241
-0.0563346 0.71399999 -0.0025037599 1.4382521e-38 275 242
-0.055005573 0.713 -0.0025002533 1.3829347e-38 276 242
-0.053755447 0.713 -0.0025002533 1.3091782e-38 277 242
-0.052358042 0.71100003 -0.0024932399 1.1432631e-38 278 242
-0.051039528 0.70999998 -0.0024897333 1.0326283e-38 279 242
-0.049584266 0.70700002 -0.0024792133 9.4965352e-39 280 242
-0.048276275 0.70599997 -0.0024757064 9.5890896e-39 281 242
-0.046905171 0.704 -0.0024686933 9.0380808e-39 282 242
-0.045476202 0.70099998 -0.0024581731 9.2224721e-39 283 242
-0.044183996 0.69999999 -0.0024546667 9.4994121e-39 284 242
-0.042833932 0.69800001 -0.0024476533 9.6838034e-39 285 242
-0.041550495 0.69700003 -0.0024441467 9.7741983e-39 286 242
-0.040328421 0.69700003 -0.0024441467 9.4057745e-39 287 242
-0.039106347 0.69700003 -0.0024441467 9.3132258e-39 288 242
-0.037884273 0.69700003 -0.0024441467 9.3132258e-39 289 242
-0.036504399 0.69400001 -0.0024336267 9.5890896e-39 290 242
-0.035287585 0.69400001 -0.0024336267 9.4965352e-39 291 242
-0.034070771 0.69400001 -0.0024336267 9.497973e-39 292 242
-0.03280662 0.69300002 -0.00243012 9.7742011e-39 293 242
-0.031591557 0.69300002 -0.00243012 1.0512835e-38 294 242
-0.0303765 0.69300002 -0.00243012 1.0605031e-38 295 242
-0.029161438 0.69300002 -0.00243012 1.0141895e-38 296 242
-0.027865725 0.69099998 -0.0024231065 9.5887211e-39 297 242
-0.026654173 0.69099998 -0.0024231065 1.0324841e-38 298 242
-0.025442619 0.69099998 -0.0024231065 1.1707776e-38 299 242
-0.024231065 0.69099998 -0.0024231065 1.1892495e-38 300 242
-0.023019511 0.69099998 -0.0024231065 1.0878343e-38 301 242
-0.021871079 0.69300002 -0.00243012 1.0603176e-38 302 242
-0.020656019 0.69300002 -0.00243012 1.0419145e-38 303 242
-0.01944096 0.69300002 -0.00243012 1.0695024e-38 304 242
-0.0182522 0.69400001 -0.0024336267 1.0971611e-38 305 242
-0.017035386 0.69400001 -0.0024336267 9.1266457e-39 306 242
-0.015818574 0.69400001 -0.0024336267 6.8217535e-39 307 242
-0.01460176 0.69400001 -0.0024336267 5.5285106e-39 308 242
-0.013384946 0.69400001 -0.0024336267 6.5430213e-39 309 242
-0.012168133 0.69400001 -0.0024336267 6.4511886e-39 310 242
-0.01095132 0.69400001 -0.0024336267 5.9905706e-39 311 242
-0.0097625591 0.69599998 -0.0024406398 4.6991283e-39 312 242
-0.0085422397 0.69599998 -0.0024406398 4.2381501e-39 313 242
-0.00733244 0.69700003 -0.0024441467 4.1456014e-39 314 242
-0.006119133 0.69800001 -0.0024476533 4.3299926e-39 315 242
-0.0048953067 0.69800001 -0.0024476533 4.6991283e-39 316 242
-0.0036819996 0.69999999 -0.0024546667 5.1597477e-39 317 242
-0.0024546667 0.69999999 -0.0024546667 5.0689968e-39 318 242
-0.0012273333 0.69999999 -0.0024546667 4.7927701e-39 319 242
0 0.70099998 -0.0024581731 5.251593e-39 320 242
0.0012290865 0.70099998 -0.0024581731 6.4501362e-39 321 242
0.0024686933 0.704 -0.0024686933 8.3862122e-39 322 242
0.0037030398 0.704 -0.0024686933 8.8471903e-39 323 242
0.0049584266 0.70700002 -0.0024792133 9.5836385e-39 324 242
0.0062067998 0.708 -0.00248272 9.3992473e-39 325 242
0.0074691991 0.70999998 -0.0024897333 8.664199e-39 326 242
0.0087263398 0.71100003 -0.0024932399 7.6500485e-39 327 242
0.0099729598 0.71100003 -0.0024932399 1.0783276e-38 328 242
0.01121958 0.71100003 -0.0024932399 1.5024275e-38 329 242
-0.0563346 0.71399999 -0.0037556398 1.4567631e-38 275 243
-0.055005573 0.713 -0.0037503797 1.4197771e-38 276 243
-0.053755447 0.713 -0.0037503797 1.3276174e-38 277 243
-0.052505318 0.713 -0.0037503797 1.1340079e-38 278 243
-0.051039528 0.70999998 -0.0037345996 1.023409e-38 279 243
-0.049654398 0.708 -0.00372408 9.2203085e-39 280 243
-0.048276275 0.70599997 -0.0037135598 9.4965352e-39 281 243
-0.046905171 0.704 -0.0037030398 9.0377179e-39 282 243
-0.045476202 0.70099998 -0.0036872597 9.221749e-39 283 243
-0.044183996 0.69999999 -0.0036819996 9.4986932e-39 284 243
-0.042833932 0.69800001 -0.0036714801 9.4986932e-39 285 243
-0.041610107 0.69800001 -0.0036714801 9.3132258e-39 286 243
-0.040328421 0.69700003 -0.00366622 8.8522476e-39 287 243
-0.039106347 0.69700003 -0.00366622 8.8522476e-39 288 243
-0.037884273 0.69700003 -0.00366622 9.2210301e-39 289 243
-0.036662199 0.69700003 -0.00366622 9.4057717e-39 290 243
-0.035389278 0.69599998 -0.0036609597 9.3135761e-39 291 243
-0.034070771 0.69400001 -0.0036504399 9.2220993e-39 292 243
-0.032853961 0.69400001 -0.0036504399 9.2220993e-39 293 243
-0.031591557 0.69300002 -0.0036451798 1.0419198e-38 294 243
-0.0303765 0.69300002 -0.0036451798 1.0695785e-38 295 243
-0.029161438 0.69300002 -0.0036451798 1.04174e-38 296 243
-0.027946379 0.69300002 -0.0036451798 9.7720305e-39 297 243
-0.026654173 0.69099998 -0.0036346598 9.9567749e-39 298 243
-0.025442619 0.69099998 -0.0036346598 1.1155318e-38 299 243
-0.024231065 0.69099998 -0.0036346598 1.1616281e-38 300 243
-0.023019511 0.69099998 -0.0036346598 1.1155303e-38 301 243
-0.021902639 0.69400001 -0.0036504399 1.1339324e-38 302 243
-0.020685827 0.69400001 -0.0036504399 1.1154573e-38 303 243
-0.019469013 0.69400001 -0.0036504399 1.0971258e-38 304 243
-0.0182522 0.69400001 -0.0036504399 1.1063813e-38 305 243
-0.017035386 0.69400001 -0.0036504399 9.3099608e-39 306 243
-0.015818574 0.69400001 -0.0036504399 7.1894613e-39 307 243
-0.01460176 0.69400001 -0.0036504399 5.2497755e-39 308 243
-0.013384946 0.69400001 -0.0036504399 6.0798949e-39 309 243
-0.012168133 0.69400001 -0.0036504399 5.80475e-39 310 243
-0.010982879 0.69599998 -0.0036609597 5.80475e-39 311 243
-0.0097625591 0.69599998 -0.0036609597 4.7931232e-39 312 243
-0.0085422397 0.69599998 -0.0036609597 4.0555567e-39 313 243
-0.0073429602 0.69800001 -0.0036714801 4.0534029e-39 314 243
-0.0061366665 0.69999999 -0.0036819996 4.5143811e-39 315 243
-0.0049093333 0.69999999 -0.0036819996 5.2522965e-39 316 243
-0.0036819996 0.69999999 -0.0036819996 6.0824159e-39 317 243
-0.0024546667 0.69999999 -0.0036819996 5.8051199e-39 318 243
-0.0012273333 0.69999999 -0.0036819996 4.6987724e-39 319 243
0 0.70099998 -0.0036872597 5.6236027e-39 320 243
0.0012290865 0.70099998 -0.0036872597 7.6519066e-39 321 243
0.0024757064 0.70599997 -0.0037135598 1.0321945e-38 322 243
0.0037135598 0.70599997 -0.0037135598 1.0321945e-38 323 243
0.0049584266 0.70700002 -0.0037188199 9.8623736e-39 324 243
0.0062067998 0.708 -0.00372408 9.4935911e-39 325 243
0.0074691991 0.70999998 -0.0037345996 9.2166511e-39 326 243
0.0087263398 0.71100003 -0.0037398601 7.7415196e-39 327 243
0.0099729598 0.71100003 -0.0037398601 1.1059507e-38 328 243
0.01121958 0.71100003 -0.0037398601 1.5669289e-38 329 243
0.0124662 0.71100003 -0.0037398601 1.5302677e-38 330 243
-0.05508272 0.71399999 -0.0050075199 1.4659831e-38 276 244
-0.053830836 0.71399999 -0.0050075199 1.3461288e-38 277 244
-0.052578956 0.71399999 -0.0050075199 1.1708139e-38 278 244
-0.051111419 0.71100003 -0.0049864799 1.04174e-38 279 244
-0.049794663 0.70999998 -0.0049794666 9.2203057e-39 280 244
-0.048413038 0.708 -0.0049654399 9.4968912e-39 281 244
-0.047038425 0.70599997 -0.0049514128 9.0377151e-39 282 244
-0.045670826 0.704 -0.0049373866 9.3139418e-39 283 244
-0.044183996 0.69999999 -0.0049093333 9.3139418e-39 284 244
-0.042833932 0.69800001 -0.0048953067 9.2217462e-39 285 244
-0.041610107 0.69800001 -0.0048953067 8.8518945e-39 286 244
-0.040386278 0.69800001 -0.0048953067 8.0221338e-39 287 244
-0.039106347 0.69700003 -0.0048882933 7.8373866e-39 288 244
-0.037884273 0.69700003 -0.0048882933 7.8373866e-39 289 244
-0.036662199 0.69700003 -0.0048882933 7.8406124e-39 290 244
-0.035440128 0.69700003 -0.0048882933 8.0250051e-39 291 244
-0.034070771 0.69400001 -0.0048672534 8.5774558e-39 292 244
-0.032853961 0.69400001 -0.0048672534 8.9462383e-39 293 244
-0.031591557 0.69300002 -0.00486024 1.0327005e-38 294 244
-0.0303765 0.69300002 -0.00486024 1.0511398e-38 295 244
-0.029161438 0.69300002 -0.00486024 1.0142611e-38 296 244
-0.027946379 0.69300002 -0.00486024 9.4050459e-39 297 244
-0.02673132 0.69300002 -0.00486024 9.6812698e-39 298 244
-0.02551626 0.69300002 -0.00486024 1.0972009e-38 299 244
-0.024301201 0.69300002 -0.00486024 1.1340783e-38 300 244
-0.02308614 0.69300002 -0.00486024 1.0972359e-38 301 244
-0.021902639 0.69400001 -0.0048672534 1.1338618e-38 302 244
-0.020685827 0.69400001 -0.0048672534 1.1246422e-38 303 244
-0.019469013 0.69400001 -0.0048672534 1.1246775e-38 304 244
-0.0182522 0.69400001 -0.0048672534 1.1338971e-38 305 244
-0.017035386 0.69400001 -0.0048672534 9.4025095e-39 306 244
-0.015818574 0.69400001 -0.0048672534 7.0972586e-39 307 244
-0.01460176 0.69400001 -0.0048672534 3.6838847e-39 308 244
-0.013384946 0.69400001 -0.0048672534 4.4214498e-39 309 244
-0.0122032 0.69599998 -0.0048812795 4.5143811e-39 310 244
-0.010982879 0.69599998 -0.0048812795 4.8835223e-39 311 244
-0.0097625591 0.69599998 -0.0048812795 4.2410368e-39 312 244
-0.0085545136 0.69700003 -0.0048882933 3.3194406e-39 313 244
-0.0073429602 0.69800001 -0.0048953067 3.9651604e-39 314 244
-0.0061366665 0.69999999 -0.0049093333 5.0711478e-39 315 244
-0.0049093333 0.69999999 -0.0049093333 7.0054456e-39 316 244
-0.0036819996 0.69999999 -0.0049093333 8.2039873e-39 317 244
-0.0024546667 0.69999999 -0.0049093333 8.569893e-39 318 244
-0.0012273333 0.69999999 -0.0049093333 8.2011119e-39 319 244
0 0.70099998 -0.0049163462 8.8511532e-39 320 244
0.0012290865 0.70099998 -0.0049163462 9.404327e-39 321 244
0.0024686933 0.704 -0.0049373866 1.0415573e-38 322 244
0.0037135598 0.70599997 -0.0049514128 1.0138627e-38 323 244
0.0049654399 0.708 -0.0049654399 9.7698221e-39 324 244
0.0062243328 0.70999998 -0.0049794666 9.3092026e-39 325 244
0.0074691991 0.70999998 -0.0049794666 7.8383984e-39 326 244
0.0087263398 0.71100003 -0.0049864799 7.377779e-39 327 244
0.0099729598 0.71100003 -0.0049864799 1.1427569e-38 328 244
0.01121958 0.71100003 -0.0049864799 1.5945155e-38 329 244
0.0124662 0.71100003 -0.0049864799 1.6404338e-38 330 244
-0.055237014 0.71600002 -0.0062769335 1.5029339e-38 276 245
-0.053981625 0.71600002 -0.0062769335 1.3646045e-38 277 245
-0.052578956 0.71399999 -0.0062593995 1.2169117e-38 278 245
-0.051255193 0.713 -0.0062506334 1.0970574e-38 279 245
-0.049864799 0.71100003 -0.0062330998 9.589084e-39 280 245
-0.048413038 0.708 -0.0062067998 9.4046927e-39 281 245
-0.047038425 0.70599997 -0.0061892662 9.038078e-39 282 245
-0.045670826 0.704 -0.0061717331 9.038078e-39 283 245
-0.044247117 0.70099998 -0.0061454331 9.1306324e-39 284 245
-0.042956665 0.69999999 -0.0061366665 8.9458824e-39 285 245
-0.041610107 0.69800001 -0.006119133 8.9430139e-39 286 245
-0.040386278 0.69800001 -0.006119133 7.6522751e-39 287 245
-0.039106347 0.69700003 -0.0061103669 7.3767826e-39 288 245
-0.037884273 0.69700003 -0.0061103669 7.0080015e-39 289 245
-0.036662199 0.69700003 -0.0061103669 6.7332125e-39 290 245
-0.035440128 0.69700003 -0.0061103669 6.8254081e-39 291 245
-0.034168959 0.69599998 -0.0061015999 8.2990907e-39 292 245
-0.032853961 0.69400001 -0.0060840664 8.7600674e-39 293 245
-0.031637147 0.69400001 -0.0060840664 1.0602161e-38 294 245
-0.030420333 0.69400001 -0.0060840664 1.0879107e-38 295 245
-0.029203519 0.69400001 -0.0060840664 1.0234809e-38 296 245
-0.027946379 0.69300002 -0.0060753003 9.4046899e-39 297 245
-0.02673132 0.69300002 -0.0060753003 9.7723864e-39 298 245
-0.02551626 0.69300002 -0.0060753003 1.097093e-38 299 245
-0.024301201 0.69300002 -0.0060753003 1.0788684e-38 300 245
-0.02308614 0.69300002 -0.0060753003 1.0788684e-38 301 245
-0.021902639 0.69400001 -0.0060840664 1.1338618e-38 302 245
-0.020685827 0.69400001 -0.0060840664 1.1246422e-38 303 245
-0.019469013 0.69400001 -0.0060840664 1.1154575e-38 304 245
-0.0182522 0.69400001 -0.0060840664 1.106238e-38 305 245
-0.017035386 0.69400001 -0.0060840664 9.7709193e-39 306 245
-0.015818574 0.69400001 -0.0060840664 7.5582242e-39 307 245
-0.01460176 0.69400001 -0.0060840664 4.7902225e-39 308 245
-0.013423519 0.69599998 -0.0061015999 4.1448531e-39 309 245
-0.0122032 0.69599998 -0.0061015999 3.7793398e-39 310 245
-0.01099866 0.69700003 -0.0061103669 4.4247092e-39 311 245
-0.0097765867 0.69700003 -0.0061103669 4.7012905e-39 312 245
-0.0085667865 0.69800001 -0.006119133 4.7934861e-39 313 245
-0.0073429602 0.69800001 -0.006119133 6.3600733e-39 314 245
-0.0061366665 0.69999999 -0.0061366665 7.5586151e-39 315 245
-0.0049093333 0.69999999 -0.0061366665 8.8479064e-39 316 245
-0.0036819996 0.69999999 -0.0061366665 9.5854714e-39 317 245
-0.0024581731 0.70099998 -0.0061454331 9.7702158e-39 318 245
-0.0012290865 0.70099998 -0.0061454331 1.0415585e-38 319 245
0 0.70300001 -0.0061629666 1.0141147e-38 320 245
0.0012343467 0.704 -0.0061717331 1.0048951e-38 321 245
0.0024686933 0.704 -0.0061717331 9.9560196e-39 322 245
0.0037135598 0.70599997 -0.0061892662 9.5868783e-39 323 245
0.0049654399 0.708 -0.0062067998 9.1266191e-39 324 245
0.0062243328 0.70999998 -0.0062243328 8.389054e-39 325 245
0.0074797203 0.71100003 -0.0062330998 7.2859575e-39 326 245
0.0087263398 0.71100003 -0.0062330998 7.8391299e-39 327 245
0.0099729598 0.71100003 -0.0062330998 1.1612311e-38 328 245
0.01121958 0.71100003 -0.0062330998 1.5761474e-38 329 245
0.0124662 0.71100003 -0.0062330998 1.6587638e-38 330 245
-0.055237014 0.71600002 -0.00753232 1.5211929e-38 276 246
-0.053981625 0.71600002 -0.00753232 1.3828994e-38 277 246
-0.052578956 0.71399999 -0.0075112795 1.2721568e-38 278 246
-0.051255193 0.713 -0.0075007593 1.1799971e-38 279 246
-0.049864799 0.71100003 -0.0074797203 1.0509598e-38 280 246
-0.048413038 0.708 -0.0074481601 9.7720333e-39 281 246
-0.047038425 0.70599997 -0.0074271196 9.0387969e-39 282 246
-0.045670826 0.704 -0.0074060797 8.6703745e-39 283 246
-0.044436477 0.704 -0.0074060797 8.9458852e-39 284 246
-0.043018032 0.70099998 -0.0073745195 8.8536896e-39 285 246
-0.041729331 0.69999999 -0.0073639993 8.207967e-39 286 246
-0.040386278 0.69800001 -0.0073429602 7.6547932e-39 287 246
-0.039162453 0.69800001 -0.0073429602 7.1009062e-39 288 246
-0.037938625 0.69800001 -0.0073429602 7.0083518e-39 289 246
-0.036662199 0.69700003 -0.00733244 7.4668147e-39 290 246
-0.035440128 0.69700003 -0.00733244 7.6512059e-39 291 246
-0.034218054 0.69700003 -0.00733244 8.6639061e-39 292 246
-0.032948639 0.69599998 -0.0073219193 9.7706138e-39 293 246
-0.031728316 0.69599998 -0.0073219193 1.0417406e-38 294 246
-0.030420333 0.69400001 -0.0073008798 1.0878025e-38 295 246
-0.029203519 0.69400001 -0.0073008798 1.0142614e-38 296 246
-0.027986705 0.69400001 -0.0073008798 9.6816355e-39 297 246
-0.026769891 0.69400001 -0.0073008798 9.6816327e-39 298 246
-0.02551626 0.69300002 -0.0072903596 1.0695785e-38 299 246
-0.024301201 0.69300002 -0.0072903596 1.1063478e-38 300 246
-0.02308614 0.69300002 -0.0072903596 1.1063478e-38 301 246
-0.021902639 0.69400001 -0.0073008798 1.1062754e-38 302 246
-0.020685827 0.69400001 -0.0073008798 1.1062754e-38 303 246
-0.019525118 0.69599998 -0.0073219193 1.106311e-38 304 246
-0.018304799 0.69599998 -0.0073219193 1.106311e-38 305 246
-0.017084479 0.69599998 -0.0073219193 1.0691449e-38 306 246
-0.015864158 0.69599998 -0.0073219193 9.4929073e-39 307 246
-0.014643839 0.69599998 -0.0073219193 9.2127289e-39 308 246
-0.013423519 0.69599998 -0.0073219193 9.5811526e-39 309 246
-0.012220734 0.69700003 -0.00733244 8.8493539e-39 310 246
-0.01099866 0.69700003 -0.00733244 9.4025277e-39 311 246
-0.0097906133 0.69800001 -0.0073429602 9.954977e-39 312 246
-0.0085667865 0.69800001 -0.0073429602 9.954977e-39 313 246
-0.0073429602 0.69800001 -0.0073429602 1.0414866e-38 314 246
-0.0061366665 0.69999999 -0.0073639993 1.0322671e-38 315 246
-0.0049093333 0.69999999 -0.0073639993 9.8609695e-39 316 246
-0.0036819996 0.69999999 -0.0073639993 9.3999914e-39 317 246
-0.0024581731 0.70099998 -0.0073745195 8.9426062e-39 318 246
-0.0012325933 0.70300001 -0.0073955595 9.6801726e-39 319 246
0 0.704 -0.0074060797 9.7712878e-39 320 246
0.0012343467 0.704 -0.0074060797 9.4025067e-39 321 246
0.0024757064 0.70599997 -0.0074271196 9.5858064e-39 322 246
0.0037188199 0.70700002 -0.0074376399 9.3092181e-39 323 246
0.0049654399 0.708 -0.0074481601 8.4826832e-39 324 246
0.0062243328 0.70999998 -0.0074691991 8.0213449e-39 325 246
0.0074691991 0.70999998 -0.0074691991 7.0100853e-39 326 246
0.0087263398 0.71100003 -0.0074797203 8.2089886e-39 327 246
0.0099729598 0.71100003 -0.0074797203 1.2072936e-38 328 246
0.01121958 0.71100003 -0.0074797203 1.5761121e-38 329 246
0.0124662 0.71100003 -0.0074797203 1.6770584e-38 330 246
0.01371282 0.71100003 -0.0074797203 1.6585834e-38 331 246
-0.054057021 0.71700001 -0.0087999795 1.5293675e-38 277 247
-0.052726239 0.71600002 -0.0087877065 1.2629006e-38 278 247
-0.051255193 0.713 -0.0087508867 1.2536811e-38 279 247
-0.049864799 0.71100003 -0.0087263398 1.0326652e-38 280 247
-0.048413038 0.708 -0.008689519 9.4968912e-39 281 247
-0.047038425 0.70599997 -0.0086649731 9.0362858e-39 282 247
-0.04580057 0.70599997 -0.0086649731 9.0362858e-39 283 247
-0.044436477 0.704 -0.0086404262 8.9451663e-39 284 247
-0.043140765 0.70300001 -0.0086281532 8.7607737e-39 285 247
-0.041729331 0.69999999 -0.0085913334 8.7586199e-39 286 247
-0.040502001 0.69999999 -0.0085913334 7.7448267e-39 287 247
-0.039162453 0.69800001 -0.0085667865 7.5597292e-39 288 247
-0.037938625 0.69800001 -0.0085667865 7.190948e-39 289 247
-0.036662199 0.69700003 -0.0085545136 7.0083546e-39 290 247
-0.035440128 0.69700003 -0.0085545136 7.0083546e-39 291 247
-0.034218054 0.69700003 -0.0085545136 8.1150483e-39 292 247
-0.03299598 0.69700003 -0.0085545136 9.0373648e-39 293 247
-0.031728316 0.69599998 -0.0085422397 1.0051141e-38 294 247
-0.030507999 0.69599998 -0.0085422397 1.0327728e-38 295 247
-0.029287677 0.69599998 -0.0085422397 1.0051141e-38 296 247
-0.028067358 0.69599998 -0.0085422397 9.4979674e-39 297 247
-0.026769891 0.69400001 -0.0085176928 9.5894371e-39 298 247
-0.025553079 0.69400001 -0.0085176928 1.0511754e-38 299 247
-0.024336265 0.69400001 -0.0085176928 1.1063478e-38 300 247
-0.023119451 0.69400001 -0.0085176928 1.0970924e-38 301 247
-0.021965759 0.69599998 -0.0085422397 1.0971277e-38 302 247
-0.020745439 0.69599998 -0.0085422397 1.0879082e-38 303 247
-0.019525118 0.69599998 -0.0085422397 1.0878358e-38 304 247
-0.018304799 0.69599998 -0.0085422397 1.0786163e-38 305 247
-0.017084479 0.69599998 -0.0085422397 1.0601416e-38 306 247
-0.015864158 0.69599998 -0.0085422397 9.956405e-39 307 247
-0.014643839 0.69599998 -0.0085422397 9.7698627e-39 308 247
-0.013423519 0.69599998 -0.0085422397 1.0415232e-38 309 247
-0.012220734 0.69700003 -0.0085545136 1.0601772e-38 310 247
-0.01099866 0.69700003 -0.0085545136 1.041774e-38 311 247
-0.0097906133 0.69800001 -0.0085667865 1.0784718e-38 312 247
-0.0085667865 0.69800001 -0.0085667865 1.0784718e-38 313 247
-0.0073639993 0.69999999 -0.0085913334 1.0599251e-38 314 247
-0.0061366665 0.69999999 -0.0085913334 9.4007074e-39 315 247
-0.0049093333 0.69999999 -0.0085913334 8.754636e-39 316 247
-0.0036872597 0.70099998 -0.0086036054 7.9248739e-39 317 247
-0.0024651866 0.70300001 -0.0086281532 7.5600641e-39 318 247
-0.0012325933 0.70300001 -0.0086281532 8.1132378e-39 319 247
0 0.704 -0.0086404262 8.3887429e-39 320 247
0.0012343467 0.704 -0.0086404262 8.2965473e-39 321 247
0.0024757064 0.70599997 -0.0086649731 8.4819951e-39 322 247
0.0037135598 0.70599997 -0.0086649731 8.5745495e-39 323 247
0.0049584266 0.70700002 -0.008677247 8.3905058e-39 324 247
0.0062067998 0.708 -0.008689519 7.7451364e-39 325 247
0.0074691991 0.70999998 -0.0087140659 7.6543855e-39 326 247
0.0087263398 0.71100003 -0.0087263398 9.0373199e-39 327 247
0.0099729598 0.71100003 -0.0087263398 1.2256964e-38 328 247
0.011251139 0.713 -0.0087508867 1.5852235e-38 329 247
0.012501267 0.713 -0.0087508867 1.6862777e-38 330 247
-0.054057021 0.71700001 -0.01005712 1.4915532e-38 277 248
-0.052726239 0.71600002 -0.010043093 1.2074037e-38 278 248
-0.05132708 0.71399999 -0.01001504 1.2626851e-38 279 248
-0.049864799 0.71100003 -0.0099729598 1.0511044e-38 280 248
-0.048413038 0.708 -0.0099308798 9.6812824e-39 281 248
-0.047105055 0.70700002 -0.0099168532 8.8536896e-39 282 248
-0.04580057 0.70599997 -0.0099028256 8.5771027e-39 283 248
-0.044562716 0.70599997 -0.0099028256 8.6696584e-39 284 248
-0.043202132 0.704 -0.0098747732 8.6696584e-39 285 248
-0.041788943 0.70099998 -0.0098326923 8.2994438e-39 286 248
-0.040502001 0.69999999 -0.0098186666 7.6540744e-39 287 248
-0.039274666 0.69999999 -0.0098186666 7.4675279e-39 288 248
-0.037938625 0.69800001 -0.0097906133 7.2834968e-39 289 248
-0.0367148 0.69800001 -0.0097906133 7.0994685e-39 290 248
-0.035490975 0.69800001 -0.0097906133 7.1920228e-39 291 248
-0.034218054 0.69700003 -0.0097765867 7.9306599e-39 292 248
-0.03299598 0.69700003 -0.0097765867 9.0370088e-39 293 248
-0.03177391 0.69700003 -0.0097765867 1.0142258e-38 294 248
-0.030507999 0.69599998 -0.0097625591 1.0419205e-38 295 248
-0.029287677 0.69599998 -0.0097625591 9.8667471e-39 296 248
-0.028067358 0.69599998 -0.0097625591 9.3135733e-39 297 248
-0.026769891 0.69400001 -0.0097345067 9.4972443e-39 298 248
-0.025553079 0.69400001 -0.0097345067 1.0142614e-38 299 248
-0.024336265 0.69400001 -0.0097345067 1.0144046e-38 300 248
-0.023119451 0.69400001 -0.0097345067 1.0328077e-38 301 248
-0.021965759 0.69599998 -0.0097625591 1.0510668e-38 302 248
-0.020745439 0.69599998 -0.0097625591 1.0326636e-38 303 248
-0.019553173 0.69700003 -0.0097765867 1.0692895e-38 304 248
-0.018331099 0.69700003 -0.0097765867 1.0692895e-38 305 248
-0.017109027 0.69700003 -0.0097765867 1.0325192e-38 306 248
-0.015886955 0.69700003 -0.0097765867 9.4950709e-39 307 248
-0.01466488 0.69700003 -0.0097765867 9.0340969e-39 308 248
-0.013462093 0.69800001 -0.0097906133 9.402878e-39 309 248
-0.012238266 0.69800001 -0.0097906133 9.957128e-39 310 248
-0.01101444 0.69800001 -0.0097906133 1.0049324e-38 311 248
-0.0097906133 0.69800001 -0.0097906133 1.0231547e-38 312 248
-0.0085913334 0.69999999 -0.0098186666 9.9549616e-39 313 248
-0.0073639993 0.69999999 -0.0098186666 9.0319319e-39 314 248
-0.0061454331 0.70099998 -0.0098326923 7.4646048e-39 315 248
-0.0049163462 0.70099998 -0.0098326923 6.5444646e-39 316 248
-0.0036872597 0.70099998 -0.0098326923 6.8210501e-39 317 248
-0.0024651866 0.70300001 -0.0098607466 7.6479409e-39 318 248
-0.0012343467 0.704 -0.0098747732 7.7401365e-39 319 248
0 0.704 -0.0098747732 8.0142053e-39 320 248
0.0012343467 0.704 -0.0098747732 8.4748233e-39 321 248
0.0024686933 0.704 -0.0098747732 8.5720454e-39 322 248
0.0037135598 0.70599997 -0.0099028256 8.8486323e-39 323 248
0.0049584266 0.70700002 -0.0099168532 7.9291773e-39 324 248
0.0062067998 0.708 -0.0099308798 7.6522317e-39 325 248
0.0074691991 0.70999998 -0.0099589331 8.7549723e-39 326 248
0.0087263398 0.71100003 -0.0099729598 1.0598885e-38 327 248
0.010001013 0.713 -0.010001013 1.2440274e-38 328 248
0.011251139 0.713 -0.010001013 1.5759675e-38 329 248
0.012518799 0.71399999 -0.01001504 1.6861698e-38 330 248
0.01377068 0.71399999 -0.01001504 1.6677666e-38 331 248
-0.055545598 0.72000003 -0.011361601 1.5093077e-38 276 249
-0.054057021 0.71700001 -0.01131426 1.5369304e-38 277 249
-0.052726239 0.71600002 -0.01129848 1.1976803e-38 278 249
-0.05132708 0.71399999 -0.011266919 1.2161194e-38 279 249
-0.049864799 0.71100003 -0.01121958 1.0141539e-38 280 249
-0.048413038 0.708 -0.01117224 9.5883651e-39 281 249
-0.047105055 0.70700002 -0.011156459 8.7604177e-39 282 249
-0.04580057 0.70599997 -0.011140679 8.6682221e-39 283 249
-0.044562716 0.70599997 -0.011140679 8.3930772e-39 284 249
-0.043202132 0.704 -0.011109119 8.4852728e-39 285 249
-0.041908171 0.70300001 -0.01109334 8.0246548e-39 286 249
-0.040559858 0.70099998 -0.011061779 7.471481e-39 287 249
-0.039274666 0.69999999 -0.011045999 7.6529982e-39 288 249
-0.038047329 0.69999999 -0.011045999 7.3764113e-39 289 249
-0.0367148 0.69800001 -0.01101444 7.0083518e-39 290 249
-0.035490975 0.69800001 -0.01101444 7.0083518e-39 291 249
-0.034267146 0.69800001 -0.01101444 7.5636766e-39 292 249
-0.03299598 0.69700003 -0.01099866 8.7622198e-39 293 249
-0.03177391 0.69700003 -0.01099866 9.9596672e-39 294 249
-0.030551834 0.69700003 -0.01099866 9.9596672e-39 295 249
-0.02932976 0.69700003 -0.01099866 9.866031e-39 296 249
-0.028067358 0.69599998 -0.010982879 9.4968884e-39 297 249
-0.026847038 0.69599998 -0.010982879 9.3135761e-39 298 249
-0.025553079 0.69400001 -0.01095132 9.6823586e-39 299 249
-0.024336265 0.69400001 -0.01095132 9.4997596e-39 300 249
-0.023186078 0.69599998 -0.010982879 9.6841509e-39 301 249
-0.02199732 0.69700003 -0.01099866 1.0142608e-38 302 249
-0.020775247 0.69700003 -0.01099866 1.0050412e-38 303 249
-0.019553173 0.69700003 -0.01099866 1.0233362e-38 304 249
-0.018331099 0.69700003 -0.01099866 1.0049329e-38 305 249
-0.017109027 0.69700003 -0.01099866 9.5879896e-39 306 249
-0.015886955 0.69700003 -0.01099866 8.9426202e-39 307 249
-0.01468592 0.69800001 -0.01101444 7.8352034e-39 308 249
-0.013462093 0.69800001 -0.01101444 7.8352034e-39 309 249
-0.012238266 0.69800001 -0.01101444 8.6617201e-39 310 249
-0.01101444 0.69800001 -0.01101444 8.6617201e-39 311 249
-0.0098186666 0.69999999 -0.011045999 8.3869184e-39 312 249
-0.0085913334 0.69999999 -0.011045999 8.2943641e-39 313 249
-0.0073745195 0.70099998 -0.011061779 8.1092666e-39 314 249
-0.0061454331 0.70099998 -0.011061779 7.2795045e-39 315 249
-0.0049163462 0.70099998 -0.011061779 7.095486e-39 316 249
-0.0036977797 0.70300001 -0.01109334 7.6486598e-39 317 249
-0.0024651866 0.70300001 -0.01109334 7.5586179e-39 318 249
-0.0012343467 0.704 -0.011109119 7.650815e-39 319 249
0 0.704 -0.011109119 7.3753029e-39 320 249
0.0012343467 0.704 -0.011109119 7.7437267e-39 321 249
0.0024686933 0.704 -0.011109119 7.8380803e-39 322 249
0.0037135598 0.70599997 -0.011140679 7.4689376e-39 323 249
0.0049584266 0.70700002 -0.011156459 5.9970375e-39 324 249
0.0062067998 0.708 -0.01117224 5.7200919e-39 325 249
0.0074797203 0.71100003 -0.01121958 8.8460917e-39 326 249
0.0087508867 0.713 -0.011251139 1.1335374e-38 327 249
0.01001504 0.71399999 -0.011266919 1.2993082e-38 328 249
0.011266919 0.71399999 -0.011266919 1.5943341e-38 329 249
0.012518799 0.71399999 -0.011266919 1.6678383e-38 330 249
0.01377068 0.71399999 -0.011266919 1.6678383e-38 331 249
-0.055545598 0.72000003 -0.012624 1.4903997e-38 276 250
-0.054207806 0.71899998 -0.012606465 1.5917789e-38 277 250
-0.052799881 0.71700001 -0.0125714 1.1328912e-38 278 250
-0.051470853 0.71600002 -0.012553867 1.0683543e-38 279 250
-0.049864799 0.71100003 -0.0124662 9.0355599e-39 280 250
-0.048413038 0.708 -0.0124136 8.8511686e-39 281 250
-0.047105055 0.70700002 -0.012396066 8.3001655e-39 282 250
-0.04580057 0.70599997 -0.012378532 8.3001655e-39 283 250
-0.044562716 0.70599997 -0.012378532 7.9339011e-39 284 250
-0.043202132 0.704 -0.012343466 8.1186511e-39 285 250
-0.041908171 0.70300001 -0.012325933 7.8413425e-39 286 250
-0.040559858 0.70099998 -0.012290866 7.5643955e-39 287 250
-0.039274666 0.69999999 -0.012273333 7.6540744e-39 288 250
-0.038047329 0.69999999 -0.012273333 7.4696817e-39 289 250
-0.0367148 0.69800001 -0.012238266 7.2852905e-39 290 250
-0.035490975 0.69800001 -0.012238266 7.3774861e-39 291 250
-0.034267146 0.69800001 -0.012238266 8.0232058e-39 292 250
-0.03299598 0.69700003 -0.012220734 8.8529679e-39 293 250
-0.03177391 0.69700003 -0.012220734 1.0327005e-38 294 250
-0.030551834 0.69700003 -0.012220734 1.0511398e-38 295 250
-0.02932976 0.69700003 -0.012220734 9.8667471e-39 296 250
-0.028107686 0.69700003 -0.012220734 9.6823558e-39 297 250
-0.026847038 0.69599998 -0.0122032 9.1317016e-39 298 250
-0.025626717 0.69599998 -0.0122032 9.1317016e-39 299 250
-0.0244064 0.69599998 -0.0122032 9.3153754e-39 300 250
-0.023186078 0.69599998 -0.0122032 9.4994065e-39 301 250
-0.02199732 0.69700003 -0.012220734 9.5912392e-39 302 250
-0.020775247 0.69700003 -0.012220734 9.4990436e-39 303 250
-0.019553173 0.69700003 -0.012220734 9.6816327e-39 304 250
-0.018331099 0.69700003 -0.012220734 9.4972415e-39 305 250
-0.017109027 0.69700003 -0.012220734 9.2199343e-39 306 250
-0.015886955 0.69700003 -0.012220734 8.2057838e-39 307 250
-0.01468592 0.69800001 -0.012238266 7.2802374e-39 308 250
-0.013462093 0.69800001 -0.012238266 6.634868e-39 309 250
-0.012238266 0.69800001 -0.012238266 6.4483187e-39 310 250
-0.01101444 0.69800001 -0.012238266 6.3561231e-39 311 250
-0.0098186666 0.69999999 -0.012273333 6.4508256e-39 312 250
-0.0085913334 0.69999999 -0.012273333 7.0036407e-39 313 250
-0.0073745195 0.70099998 -0.012290866 7.2795073e-39 314 250
-0.0061454331 0.70099998 -0.012290866 7.5560956e-39 315 250
-0.0049163462 0.70099998 -0.012290866 7.4667726e-39 316 250
-0.0036977797 0.70300001 -0.012325933 8.0195877e-39 317 250
-0.0024651866 0.70300001 -0.012325933 7.8384236e-39 318 250
-0.0012343467 0.704 -0.012343466 8.1150105e-39 319 250
0 0.704 -0.012343466 7.9316982e-39 320 250
0.0012343467 0.704 -0.012343466 7.8391439e-39 321 250
0.0024757064 0.70599997 -0.012378532 7.5611333e-39 322 250
0.0037135598 0.70599997 -0.012378532 6.2703944e-39 323 250
0.0049584266 0.70700002 -0.012396066 4.7959902e-39 324 250
0.0062067998 0.708 -0.0124136 4.7037946e-39 325 250
0.0074797203 0.71100003 -0.0124662 8.3847604e-39 326 250
0.0087508867 0.713 -0.012501267 1.1703805e-38 327 250
0.01001504 0.71399999 -0.012518799 1.3729565e-38 328 250
0.011266919 0.71399999 -0.012518799 1.612701e-38 329 250
0.012518799 0.71399999 -0.012518799 1.6770935e-38 330 250
-0.055468451 0.71899998 -0.013867113 1.5182748e-38 276 251
-0.054207806 0.71899998 -0.013867113 1.5828117e-38 277 251
-0.052799881 0.71700001 -0.013828539 1.1514743e-38 278 251
-0.051470853 0.71600002 -0.013809253 1.03162e-38 279 251
-0.050075196 0.71399999 -0.01377068 8.206881e-39 280 251
-0.048549797 0.70999998 -0.013693533 8.022131e-39 281 251
-0.047171678 0.708 -0.013654959 7.932106e-39 282 251
-0.045865446 0.70700002 -0.013635674 7.932106e-39 283 251
-0.044562716 0.70599997 -0.013616386 7.8417054e-39 284 251
-0.043202132 0.704 -0.013577812 8.0264554e-39 285 251
-0.041967787 0.704 -0.013577812 7.8413425e-39 286 251
-0.040559858 0.70099998 -0.013519952 7.6565911e-39 287 251
-0.039330769 0.70099998 -0.013519952 7.7466259e-39 288 251
-0.038047329 0.69999999 -0.013500666 7.6544303e-39 289 251
-0.036819998 0.69999999 -0.013500666 7.6544275e-39 290 251
-0.035490975 0.69800001 -0.013462093 7.7466231e-39 291 251
-0.034267146 0.69800001 -0.013462093 8.3912667e-39 292 251
-0.033043321 0.69800001 -0.013462093 9.1288317e-39 293 251
-0.031819493 0.69800001 -0.013462093 1.0602513e-38 294 251
-0.030551834 0.69700003 -0.013442807 1.0787264e-38 295 251
-0.02932976 0.69700003 -0.013442807 9.6841565e-39 296 251
-0.028107686 0.69700003 -0.013442807 9.3153754e-39 297 251
-0.026885614 0.69700003 -0.013442807 9.03915e-39 298 251
-0.025626717 0.69599998 -0.013423519 9.03915e-39 299 251
-0.0244064 0.69599998 -0.013423519 9.0384311e-39 300 251
-0.023186078 0.69599998 -0.013423519 9.2231811e-39 301 251
-0.02199732 0.69700003 -0.013442807 9.2231811e-39 302 251
-0.020775247 0.69700003 -0.013442807 9.1306268e-39 303 251
-0.019553173 0.69700003 -0.013442807 9.2220965e-39 304 251
-0.018331099 0.69700003 -0.013442807 8.9458698e-39 305 251
-0.017133573 0.69800001 -0.013462093 8.7596764e-39 306 251
-0.015909746 0.69800001 -0.013462093 7.9302759e-39 307 251
-0.01468592 0.69800001 -0.013462093 7.3738707e-39 308 251
-0.013462093 0.69800001 -0.013462093 7.0050896e-39 309 251
-0.012238266 0.69800001 -0.013462093 6.9146919e-39 310 251
-0.01101444 0.69800001 -0.013462093 7.0068875e-39 311 251
-0.0098186666 0.69999999 -0.013500666 7.4689348e-39 312 251
-0.0085913334 0.69999999 -0.013500666 7.5611305e-39 313 251
-0.0073745195 0.70099998 -0.013519952 7.5607647e-39 314 251
-0.0061454331 0.70099998 -0.013519952 7.8373502e-39 315 251
-0.0049303733 0.70300001 -0.013558527 7.7469496e-39 316 251
-0.0036977797 0.70300001 -0.013558527 7.9313423e-39 317 251
-0.0024686933 0.704 -0.013577812 8.2072089e-39 318 251
-0.0012343467 0.704 -0.013577812 8.2072089e-39 319 251
0 0.704 -0.013577812 8.391603e-39 320 251
0.0012343467 0.704 -0.013577812 7.8384292e-39 321 251
0.0024757064 0.70599997 -0.013616386 6.3615181e-39 322 251
0.0037135598 0.70599997 -0.013616386 5.623953e-39 323 251
0.0049654399 0.708 -0.013654959 5.3426956e-39 324 251
0.0062067998 0.708 -0.013654959 5.0664689e-39 325 251
0.0075007593 0.713 -0.013751393 7.3716903e-39 326 251
0.0087631596 0.71399999 -0.01377068 1.1704526e-38 327 251
0.010043093 0.71600002 -0.013809253 1.3822119e-38 328 251
0.01129848 0.71600002 -0.013809253 1.6311041e-38 329 251
0.0125714 0.71700001 -0.013828539 1.6678739e-38 330 251
0.013828539 0.71700001 -0.013828539 1.6586542e-38 331 251
-0.055468451 0.71899998 -0.01512776 1.5281425e-38 276 252
-0.054057021 0.71700001 -0.015085679 1.5466175e-38 277 252
-0.052799881 0.71700001 -0.015085679 1.1793485e-38 278 252
-0.051470853 0.71600002 -0.01506464 1.0502746e-38 279 252
-0.050075196 0.71399999 -0.015022559 8.4827406e-39 280 252
-0.048754938 0.713 -0.015001519 8.1139567e-39 281 252
-0.047304932 0.70999998 -0.014938398 7.5640424e-39 282 252
-0.045930319 0.708 -0.01489632 7.5640424e-39 283 252
-0.044625837 0.70700002 -0.01487528 7.2903337e-39 284 252
-0.043202132 0.704 -0.014812159 7.5665605e-39 285 252
-0.041967787 0.704 -0.014812159 7.7487909e-39 286 252
-0.040675577 0.70300001 -0.014791119 7.3796483e-39 287 252
-0.039330769 0.70099998 -0.014749039 7.3782106e-39 288 252
-0.038101684 0.70099998 -0.014749039 7.2860149e-39 289 252
-0.036819998 0.69999999 -0.014727999 7.2870897e-39 290 252
-0.035592664 0.69999999 -0.014727999 7.3792854e-39 291 252
-0.034365334 0.69999999 -0.014727999 8.3901933e-39 292 252
-0.033043321 0.69800001 -0.01468592 9.0355627e-39 293 252
-0.031819493 0.69800001 -0.01468592 1.0602161e-38 294 252
-0.030595668 0.69800001 -0.01468592 1.0879107e-38 295 252
-0.029371841 0.69800001 -0.01468592 9.5004855e-39 296 252
-0.028107686 0.69700003 -0.01466488 9.1317016e-39 297 252
-0.026885614 0.69700003 -0.01466488 8.4877783e-39 298 252
-0.025663542 0.69700003 -0.01466488 8.4877783e-39 299 252
-0.024441468 0.69700003 -0.01466488 8.6710934e-39 300 252
-0.023219392 0.69700003 -0.01466488 8.6710934e-39 301 252
-0.02202888 0.69800001 -0.01468592 8.6710906e-39 302 252
-0.020805053 0.69800001 -0.01468592 8.4870594e-39 303 252
-0.019581227 0.69800001 -0.01468592 8.578532e-39 304 252
-0.0183574 0.69800001 -0.01468592 8.3937806e-39 305 252
-0.017133573 0.69800001 -0.01468592 8.3004976e-39 306 252
-0.015909746 0.69800001 -0.01468592 8.0239093e-39 307 252
-0.01468592 0.69800001 -0.01468592 7.6536792e-39 308 252
-0.013462093 0.69800001 -0.01468592 7.5614836e-39 309 252
-0.012238266 0.69800001 -0.01468592 7.5643548e-39 310 252
-0.011045999 0.69999999 -0.014727999 7.8413005e-39 311 252
-0.0098186666 0.69999999 -0.014727999 8.0256917e-39 312 252
-0.0086036054 0.70099998 -0.014749039 7.8413005e-39 313 252
-0.0073745195 0.70099998 -0.014749039 7.7480272e-39 314 252
-0.0061629666 0.70300001 -0.014791119 8.0246127e-39 315 252
-0.0049303733 0.70300001 -0.014791119 8.0242596e-39 316 252
-0.0037030398 0.704 -0.014812159 7.932064e-39 317 252
-0.0024686933 0.704 -0.014812159 8.0235435e-39 318 252
-0.0012343467 0.704 -0.014812159 7.9309892e-39 319 252
0 0.70599997 -0.014854239 8.2065027e-39 320 252
0.0012378532 0.70599997 -0.014854239 7.5611333e-39 321 252
0.0024757064 0.70599997 -0.014854239 4.9793081e-39 322 252
0.0037188199 0.70700002 -0.01487528 4.5183314e-39 323 252
0.0049654399 0.708 -0.01489632 5.1600994e-39 324 252
0.0062243328 0.70999998 -0.014938398 5.6214377e-39 325 252
0.0075112795 0.71399999 -0.015022559 8.1049338e-39 326 252
0.0087877065 0.71600002 -0.01506464 1.2345933e-38 327 252
0.01005712 0.71700001 -0.015085679 1.3638448e-38 328 252
0.01131426 0.71700001 -0.015085679 1.6035533e-38 329 252
0.0125714 0.71700001 -0.015085679 1.6586542e-38 330 252
0.013867113 0.71899998 -0.01512776 1.6586542e-38 331 252
0.01512776 0.71899998 -0.01512776 1.6678739e-38 332 252
-0.055468451 0.71899998 -0.016388407 1.6398575e-38 276 253
-0.054057021 0.71700001 -0.016342819 1.5200032e-38 277 253
-0.052799881 0.71700001 -0.016342819 1.2531769e-38 278 253
-0.051470853 0.71600002 -0.016320027 1.1702008e-38 279 253
-0.050215468 0.71600002 -0.016320027 9.7720361e-39 280 253
-0.048823316 0.71399999 -0.016274439 9.1266667e-39 281 253
-0.047371563 0.71100003 -0.01620606 7.4739991e-39 282 253
-0.045930319 0.708 -0.01613768 7.1974108e-39 283 253
-0.044688959 0.708 -0.01613768 7.3807301e-39 284 253
-0.043324865 0.70599997 -0.016092092 7.6569583e-39 285 253
-0.041967787 0.704 -0.016046507 7.6569611e-39 286 253
-0.040733438 0.704 -0.016046507 7.1959829e-39 287 253
-0.039442986 0.70300001 -0.016023712 7.0090707e-39 288 253
-0.038101684 0.70099998 -0.015978126 7.1016251e-39 289 253
-0.036872596 0.70099998 -0.015978126 7.2842185e-39 290 253
-0.035592664 0.69999999 -0.015955333 7.2842185e-39 291 253
-0.034365334 0.69999999 -0.015955333 8.3862402e-39 292 253
-0.033137999 0.69999999 -0.015955333 9.4007523e-39 293 253
-0.031819493 0.69800001 -0.015909746 1.0327372e-38 294 253
-0.030595668 0.69800001 -0.015909746 1.0419568e-38 295 253
-0.029371841 0.69800001 -0.015909746 9.3157411e-39 296 253
-0.028107686 0.69700003 -0.015886955 8.8551217e-39 297 253
-0.026885614 0.69700003 -0.015886955 8.4867063e-39 298 253
-0.025663542 0.69700003 -0.015886955 8.3945107e-39 299 253
