# .PCD v.7 - Point Cloud Data file format
FIELDS x y z rgb imX imY
SIZE 4 4 4 4 4 4
TYPE F F F F F F
COUNT 1 1 1 1 1 1
WIDTH 849
HEIGHT 1
VIEWPOINT 0 0 0 1 0 0 0
POINTS 849
DATA ascii
-0.01394426 0.72299999 0.01140894 1.2733678e-38 309 231
-0.012676599 0.72299999 0.01140894 1.2366319e-38 310 231
-0.01140894 0.72299999 0.01140894 1.2366319e-38 311 231
-0.010127253 0.722 0.01139316 1.1449425e-38 312 231
-0.0088245263 0.71899998 0.01134582 1.1449425e-38 313 231
-0.0075638802 0.71899998 0.01134582 1.0988467e-38 314 231
-0.0063120001 0.72000003 0.011361601 1.0711881e-38 315 231
0.01394426 0.72299999 0.01140894 1.0706454e-38 331 231
0.015211919 0.72299999 0.01140894 9.9731603e-39 332 231
0.01647958 0.72299999 0.01140894 9.788769e-39 333 231
0.017747238 0.72299999 0.01140894 9.2391714e-39 334 231
0.019014901 0.72299999 0.01140894 8.8703902e-39 335 231
0.020282559 0.72299999 0.01140894 8.3197402e-39 336 231
0.021550218 0.72299999 0.01140894 8.0427932e-39 337 231
0.02281788 0.72299999 0.01140894 8.3158278e-39 338 231
0.024085538 0.72299999 0.01140894 9.0533942e-39 339 231
0.025423333 0.72500002 0.0114405 1.0061103e-38 340 231
0.026694499 0.72500002 0.0114405 9.6001248e-39 341 231
0.028042812 0.727 0.01147206 1.0518501e-38 342 231
0.029438468 0.73000002 0.011519399 1.134862e-38 343 231
0.030844638 0.73299998 0.011566739 1.2543605e-38 344 231
0.032129832 0.73299998 0.011566739 1.226702e-38 345 231
0.03815604 0.83700001 0.013207859 1.5856191e-38 346 231
-0.024418673 0.73299998 0.010281546 1.2177033e-38 301 232
-0.023133477 0.73299998 0.010281546 1.0710145e-38 302 232
-0.021848286 0.73299998 0.010281546 1.0802341e-38 303 232
-0.020506985 0.73100001 0.010253493 1.1174362e-38 304 232
-0.019199001 0.73000002 0.010239467 1.1819731e-38 305 232
-0.017919067 0.73000002 0.010239467 1.411849e-38 306 232
-0.016593546 0.72799999 0.010211413 1.3565316e-38 307 232
-0.01531712 0.72799999 0.010211413 1.273442e-38 308 232
-0.013982833 0.72500002 0.010169334 1.2642225e-38 309 232
-0.012676599 0.72299999 0.01014128 1.2643269e-38 310 232
-0.01140894 0.72299999 0.01014128 1.2274126e-38 311 232
-0.010127253 0.722 0.010127253 1.1907883e-38 312 232
-0.0088367993 0.72000003 0.010099201 1.1815687e-38 313 232
-0.0075743999 0.72000003 0.010099201 1.0714028e-38 314 232
-0.0063120001 0.72000003 0.010099201 1.0345246e-38 315 232
0.01139316 0.722 0.010127253 9.5143738e-39 329 232
0.012659066 0.722 0.010127253 1.0064633e-38 330 232
0.01394426 0.72299999 0.01014128 9.788046e-39 331 232
0.015211919 0.72299999 0.01014128 8.6859878e-39 332 232
0.01647958 0.72299999 0.01014128 8.8700175e-39 333 232
0.017747238 0.72299999 0.01014128 8.6859878e-39 334 232
0.019014901 0.72299999 0.01014128 8.4090463e-39 335 232
0.020282559 0.72299999 0.01014128 7.8569614e-39 336 232
0.021550218 0.72299999 0.01014128 7.7647643e-39 337 232
0.02281788 0.72299999 0.01014128 7.6704598e-39 338 232
0.024218792 0.727 0.010197386 8.0392409e-39 339 232
0.025493465 0.727 0.010197386 9.2327814e-39 340 232
0.026804959 0.72799999 0.010211413 9.5097285e-39 341 232
0.028274251 0.73299998 0.010281546 1.088729e-38 342 232
0.029599773 0.73400003 0.010295574 1.1716691e-38 343 232
0.030970879 0.736 0.010323626 1.2266672e-38 344 232
0.032392833 0.73900002 0.010365707 1.1713499e-38 345 232
-0.024418673 0.73299998 0.0089963535 1.2083781e-38 301 233
-0.023133477 0.73299998 0.0089963535 1.1260798e-38 302 233
-0.021878093 0.73400003 0.0090086265 1.0338483e-38 303 233
-0.020563092 0.73299998 0.0089963535 9.2403849e-39 304 233
-0.019225299 0.73100001 0.0089718066 1.0531124e-38 305 233
-0.017919067 0.73000002 0.0089595336 1.2555853e-38 306 233
-0.016593546 0.72799999 0.0089349858 1.2463657e-38 307 233
-0.01531712 0.72799999 0.0089349858 1.2093039e-38 308 233
-0.014021406 0.727 0.0089227129 1.2185235e-38 309 233
-0.012711667 0.72500002 0.0088981669 1.3104258e-38 310 233
-0.01140894 0.72299999 0.0088736191 1.2551086e-38 311 233
-0.01014128 0.72299999 0.0088736191 1.2457445e-38 312 233
-0.0088613462 0.722 0.0088613462 1.2641835e-38 313 233
-0.0075954394 0.722 0.0088613462 1.227342e-38 314 233
-0.0063295332 0.722 0.0088613462 1.18128e-38 315 233
-0.0050636264 0.722 0.0088613462 1.0436302e-38 316 233
-0.0037872 0.72000003 0.0088367993 9.883487e-39 317 233
-0.0025248001 0.72000003 0.0088367993 9.3320704e-39 318 233
-0.0012624001 0.72000003 0.0088367993 9.4242675e-39 319 233
0.0076059597 0.72299999 0.0088736191 9.7901717e-39 326 233
0.0088736191 0.72299999 0.0088736191 9.4217493e-39 327 233
0.01014128 0.72299999 0.0088736191 9.3299222e-39 328 233
0.01139316 0.722 0.0088613462 9.4221179e-39 329 233
0.012659066 0.722 0.0088613462 8.6870962e-39 330 233
0.01394426 0.72299999 0.0088736191 8.5945418e-39 331 233
0.015211919 0.72299999 0.0088736191 8.1346385e-39 332 233
0.01647958 0.72299999 0.0088736191 8.0424428e-39 333 233
0.017747238 0.72299999 0.0088736191 7.8573327e-39 334 233
0.019014901 0.72299999 0.0088736191 7.8573327e-39 335 233
0.020338668 0.72500002 0.0088981669 8.2225349e-39 336 233
0.021669446 0.727 0.0089227129 8.0385038e-39 337 233
0.022975679 0.72799999 0.0089349858 8.1289198e-39 338 233
0.024252106 0.72799999 0.0089349858 8.313311e-39 339 233
0.025528532 0.72799999 0.0089349858 9.3238855e-39 340 233
0.026878599 0.73000002 0.0089595336 1.0430232e-38 341 233
0.028389972 0.736 0.0090331733 1.1531229e-38 342 233
0.029761078 0.73799998 0.0090577193 1.2268795e-38 343 233
0.031055039 0.73799998 0.0090577193 1.2816975e-38 344 233
0.032392833 0.73900002 0.0090699932 1.1986854e-38 345 233
0.033688545 0.73900002 0.0090699932 1.6224263e-38 346 233
-0.025738932 0.73400003 0.0077216802 1.0512861e-38 300 234
-0.024451986 0.73400003 0.0077216802 1.1803599e-38 301 234
-0.023165042 0.73400003 0.0077216802 1.1994787e-38 302 234
-0.021878093 0.73400003 0.0077216802 1.2547961e-38 303 234
-0.020591147 0.73400003 0.0077216802 1.0065824e-38 304 234
-0.019277899 0.73299998 0.0077111595 9.9736283e-39 305 234
-0.017943613 0.73100001 0.00769012 9.2443506e-39 306 234
-0.016639132 0.73000002 0.0076795998 9.9819156e-39 307 234
-0.0153592 0.73000002 0.0076795998 1.1908332e-38 308 234
-0.014040692 0.72799999 0.0076585598 1.2830289e-38 309 234
-0.012746733 0.727 0.0076480396 1.3750781e-38 310 234
-0.0114405 0.72500002 0.0076270006 1.3013216e-38 311 234
-0.010169334 0.72500002 0.0076270006 1.3378331e-38 312 234
-0.0088736191 0.72299999 0.0076059597 1.2456016e-38 313 234
-0.0076059597 0.72299999 0.0076059597 1.2365192e-38 314 234
-0.0063382997 0.72299999 0.0076059597 1.1903854e-38 315 234
-0.0050636264 0.722 0.0075954394 1.0986902e-38 316 234
-0.0037872 0.72000003 0.0075743999 1.0618479e-38 317 234
-0.0025248001 0.72000003 0.0075743999 9.7012005e-39 318 234
-0.0012624001 0.72000003 0.0075743999 9.3324236e-39 319 234
0 0.72299999 0.0076059597 9.1487526e-39 320 234
0.0025318132 0.722 0.0075954394 8.8721699e-39 322 234
0.0037977197 0.722 0.0075954394 8.8721699e-39 323 234
0.0050706398 0.72299999 0.0076059597 9.2384525e-39 324 234
0.0063382997 0.72299999 0.0076059597 9.3306481e-39 325 234
0.0076059597 0.72299999 0.0076059597 9.7894529e-39 326 234
0.0088736191 0.72299999 0.0076059597 9.6050616e-39 327 234
0.01014128 0.72299999 0.0076059597 9.2370007e-39 328 234
0.01140894 0.72299999 0.0076059597 9.1448065e-39 329 234
0.012676599 0.72299999 0.0076059597 8.7767471e-39 330 234
0.01394426 0.72299999 0.0076059597 8.6845528e-39 331 234
0.015254001 0.72500002 0.0076270006 8.4083359e-39 332 234
0.016525166 0.72500002 0.0076270006 8.2239446e-39 333 234
0.017796334 0.72500002 0.0076270006 8.3150711e-39 334 234
0.0190675 0.72500002 0.0076270006 8.1303197e-39 335 234
0.020338668 0.72500002 0.0076270006 8.4058374e-39 336 234
0.021699252 0.72799999 0.0076585598 8.4058374e-39 337 234
0.022975679 0.72799999 0.0076585598 8.4040577e-39 338 234
0.024252106 0.72799999 0.0076585598 9.5104053e-39 339 234
0.025528532 0.72799999 0.0076585598 1.1346448e-38 340 234
0.026878599 0.73000002 0.0076795998 1.1715229e-38 341 234
0.028505694 0.73900002 0.0077742799 1.2083346e-38 342 234
0.029801406 0.73900002 0.0077742799 1.3005304e-38 343 234
0.03109712 0.73900002 0.0077742799 1.309213e-38 344 234
0.032480497 0.741 0.0077953199 1.1801391e-38 345 234
0.033779722 0.741 0.0077953199 1.686963e-38 346 234
-0.024451986 0.73400003 0.006434733 9.9650818e-39 301 235
-0.023165042 0.73400003 0.006434733 1.2453262e-38 302 235
-0.021878093 0.73400003 0.006434733 1.4020589e-38 303 235
-0.020591147 0.73400003 0.006434733 1.2457521e-38 304 235
-0.019277899 0.73299998 0.0064259665 1.1812152e-38 305 235
-0.017992707 0.73299998 0.0064259665 1.1726793e-38 306 235
-0.016661927 0.73100001 0.006408433 1.2372162e-38 307 235
-0.0153592 0.73000002 0.0063996664 1.2555152e-38 308 235
-0.014079267 0.73000002 0.0063996664 1.2462598e-38 309 235
-0.012764266 0.72799999 0.0063821329 1.2646619e-38 310 235
-0.01147206 0.727 0.0063733663 1.2462588e-38 311 235
-0.010197386 0.727 0.0063733663 1.3748199e-38 312 235
-0.0088981669 0.72500002 0.0063558333 1.2365265e-38 313 235
-0.0076270006 0.72500002 0.0063558333 1.2456647e-38 314 235
-0.0063558333 0.72500002 0.0063558333 1.2087504e-38 315 235
-0.0050706398 0.72299999 0.0063382997 1.1354957e-38 316 235
-0.0038029798 0.72299999 0.0063382997 1.117021e-38 317 235
-0.0025318132 0.722 0.0063295332 1.0527002e-38 318 235
-0.0012659066 0.722 0.0063295332 1.0434808e-38 319 235
0 0.72299999 0.0063382997 9.6079301e-39 320 235
0.0012711667 0.72500002 0.0063558333 9.884154e-39 321 235
0.0025318132 0.722 0.0063295332 1.0433393e-38 322 235
0.0037977197 0.722 0.0063295332 1.0617784e-38 323 235
0.0050706398 0.72299999 0.0063382997 1.1535429e-38 324 235
0.0063382997 0.72299999 0.0063382997 1.0982255e-38 325 235
0.0076059597 0.72299999 0.0063382997 1.043158e-38 326 235
0.0088736191 0.72299999 0.0063382997 9.8784143e-39 327 235
0.01014128 0.72299999 0.0063382997 9.052971e-39 328 235
0.01140894 0.72299999 0.0063382997 8.7767471e-39 329 235
0.012711667 0.72500002 0.0063558333 8.2253754e-39 330 235
0.013982833 0.72500002 0.0063558333 8.1331811e-39 331 235
0.015296079 0.727 0.0063733663 8.0402764e-39 332 235
0.016570752 0.727 0.0063733663 8.0402764e-39 333 235
0.017845426 0.727 0.0063733663 8.1303197e-39 334 235
0.019120099 0.727 0.0063733663 8.1303197e-39 335 235
0.020394772 0.727 0.0063733663 8.1296162e-39 336 235
0.021699252 0.72799999 0.0063821329 8.3143676e-39 337 235
0.023038799 0.73000002 0.0063996664 8.8646856e-39 338 235
0.024352046 0.73100001 0.006408433 9.8788389e-39 339 235
0.025633732 0.73100001 0.006408433 1.1531214e-38 340 235
0.027209979 0.73900002 0.0064785667 1.1623409e-38 341 235
0.028505694 0.73900002 0.0064785667 1.1989728e-38 342 235
0.029801406 0.73900002 0.0064785667 1.2358512e-38 343 235
0.03109712 0.73900002 0.0064785667 1.2262019e-38 344 235
0.032480497 0.741 0.0064960998 1.1708845e-38 345 235
0.033779722 0.741 0.0064960998 1.7330252e-38 346 235
-0.026440267 0.75400001 0.0052880533 1.0794489e-38 300 236
-0.025118252 0.75400001 0.0052880533 9.872533e-39 301 236
-0.023165042 0.73400003 0.0051477868 1.2267822e-38 302 236
-0.021878093 0.73400003 0.0051477868 1.420393e-38 303 236
-0.020591147 0.73400003 0.0051477868 1.3561052e-38 304 236
-0.019304199 0.73400003 0.0051477868 1.3377021e-38 305 236
-0.018017253 0.73400003 0.0051477868 1.4301491e-38 306 236
-0.016707512 0.73299998 0.005140773 1.4393687e-38 307 236
-0.015422319 0.73299998 0.005140773 1.3934861e-38 308 236
-0.014098554 0.73100001 0.0051267464 1.2551926e-38 309 236
-0.012799333 0.73000002 0.0051197335 1.0621547e-38 310 236
-0.01148784 0.72799999 0.0051057064 1.1174362e-38 311 236
-0.010197386 0.727 0.0050986931 1.3012847e-38 312 236
-0.0089227129 0.727 0.0050986931 1.2828454e-38 313 236
-0.0076270006 0.72500002 0.0050846669 1.3010622e-38 314 236
-0.0063558333 0.72500002 0.0050846669 1.2180861e-38 315 236
-0.0050846669 0.72500002 0.0050846669 1.1723047e-38 316 236
-0.0038135003 0.72500002 0.0050846669 1.1261709e-38 317 236
-0.0025353199 0.72299999 0.0050706398 1.0709956e-38 318 236
-0.0012676599 0.72299999 0.0050706398 1.0341538e-38 319 236
0 0.72500002 0.0050846669 9.9742169e-39 320 236
0.0012711667 0.72500002 0.0050846669 1.0711782e-38 321 236
0.0025353199 0.72299999 0.0050706398 1.1905343e-38 322 236
0.0038029798 0.72299999 0.0050706398 1.1905343e-38 323 236
0.0050706398 0.72299999 0.0050706398 1.2454892e-38 324 236
0.0063382997 0.72299999 0.0050706398 1.1348184e-38 325 236
0.0076270006 0.72500002 0.0050846669 9.5121485e-39 326 236
0.0088981669 0.72500002 0.0050846669 9.1433716e-39 327 236
0.010169334 0.72500002 0.0050846669 8.9611355e-39 328 236
0.0114405 0.72500002 0.0050846669 8.6845528e-39 329 236
0.012746733 0.727 0.0050986931 8.5930761e-39 330 236
0.014021406 0.727 0.0050986931 8.4090463e-39 331 236
0.015296079 0.727 0.0050986931 8.4994469e-39 332 236
0.016570752 0.727 0.0050986931 8.4072527e-39 333 236
0.017845426 0.727 0.0050986931 8.223223e-39 334 236
0.0191464 0.72799999 0.0051057064 8.1310287e-39 335 236
0.020422826 0.72799999 0.0051057064 8.038501e-39 336 236
0.021758866 0.73000002 0.0051197335 8.4072821e-39 337 236
0.02307036 0.73100001 0.0051267464 9.9685332e-39 338 236
0.024418673 0.73299998 0.005140773 1.0613903e-38 339 236
0.025809066 0.736 0.005161813 1.1438324e-38 340 236
0.027209979 0.73900002 0.0051828534 1.1162098e-38 341 236
0.028505694 0.73900002 0.0051828534 1.1067794e-38 342 236
0.029882059 0.741 0.0051968796 1.0514621e-38 343 236
0.03118128 0.741 0.0051968796 1.0787259e-38 344 236
0.032524332 0.74199998 0.0052038929 1.2077997e-38 345 236
0.033825304 0.74199998 0.0052038929 1.7882708e-38 346 236
-0.026440267 0.75400001 0.00396604 1.3186185e-38 300 237
-0.025118252 0.75400001 0.00396604 1.0604707e-38 301 237
-0.02379624 0.75400001 0.00396604 1.0610111e-38 302 237
-0.022474226 0.75400001 0.00396604 1.2177797e-38 303 237
-0.021011947 0.74900001 0.0039397399 1.2731684e-38 304 237
-0.019304199 0.73400003 0.0038608401 1.3469249e-38 305 237
-0.018017253 0.73400003 0.0038608401 1.4024927e-38 306 237
-0.016730307 0.73400003 0.0038608401 1.3932731e-38 307 237
-0.015422319 0.73299998 0.0038555798 1.3750838e-38 308 237
-0.014137126 0.73299998 0.0038555798 1.3105469e-38 309 237
-0.012816866 0.73100001 0.00384506 1.2000162e-38 310 237
-0.011519399 0.73000002 0.0038397999 1.098565e-38 311 237
-0.010211413 0.72799999 0.0038292799 1.0160896e-38 312 237
-0.0089349858 0.72799999 0.0038292799 1.071407e-38 313 237
-0.0076480396 0.727 0.0038240198 1.2183783e-38 314 237
-0.0063733663 0.727 0.0038240198 1.2183783e-38 315 237
-0.0050986931 0.727 0.0038240198 1.273548e-38 316 237
-0.0038240198 0.727 0.0038240198 1.2458533e-38 317 237
-0.0025493465 0.727 0.0038240198 1.2181192e-38 318 237
-0.0012746733 0.727 0.0038240198 1.1443627e-38 319 237
0 0.72799999 0.0038292799 1.089082e-38 320 237
0.0012746733 0.727 0.0038240198 1.1443993e-38 321 237
0.0025493465 0.727 0.0038240198 1.1720949e-38 322 237
0.0038240198 0.727 0.0038240198 1.126033e-38 323 237
0.0050846669 0.72500002 0.0038135003 1.0066062e-38 324 237
0.0063558333 0.72500002 0.0038135003 9.2363015e-39 325 237
0.0076480396 0.727 0.0038240198 9.1448065e-39 326 237
0.0089227129 0.727 0.0038240198 8.9600593e-39 327 237
0.010197386 0.727 0.0038240198 8.6845528e-39 328 237
0.01147206 0.727 0.0038240198 8.7767471e-39 329 237
0.012746733 0.727 0.0038240198 9.052971e-39 330 237
0.014040692 0.72799999 0.0038292799 9.1451652e-39 331 237
0.01531712 0.72799999 0.0038292799 8.8675064e-39 332 237
0.016593546 0.72799999 0.0038292799 8.5912824e-39 333 237
0.017869972 0.72799999 0.0038292799 8.223223e-39 334 237
0.0191464 0.72799999 0.0038292799 8.1310287e-39 335 237
0.020422826 0.72799999 0.0038292799 8.0385066e-39 336 237
0.021758866 0.73000002 0.0038397999 8.4991246e-39 337 237
0.02307036 0.73100001 0.00384506 1.0335539e-38 338 237
0.024518613 0.736 0.0038713599 1.070432e-38 339 237
0.025914267 0.73900002 0.00388714 1.1069211e-38 340 237
0.027283618 0.741 0.0038976599 9.7784723e-39 341 237
0.028582839 0.741 0.0038976599 9.8717847e-39 342 237
0.029922385 0.74199998 0.0039029196 9.7795891e-39 343 237
0.031223357 0.74199998 0.0039029196 1.180069e-38 344 237
0.032524332 0.74199998 0.0039029196 1.327582e-38 345 237
0.033825304 0.74199998 0.0039029196 1.7974905e-38 346 237
-0.025118252 0.75400001 0.0026440267 1.1618855e-38 301 238
-0.02379624 0.75400001 0.0026440267 1.0423201e-38 302 238
-0.022474226 0.75400001 0.0026440267 1.1437355e-38 303 238
-0.021011947 0.74900001 0.0026264933 1.1442042e-38 304 238
-0.019619798 0.74599999 0.0026159731 1.3285955e-38 305 238
-0.018066347 0.736 0.0025809065 1.3933104e-38 306 238
-0.016775893 0.736 0.0025809065 1.3656517e-38 307 238
-0.015485439 0.736 0.0025809065 1.3381708e-38 308 238
-0.014156413 0.73400003 0.0025738934 1.3381708e-38 309 238
-0.012869466 0.73400003 0.0025738934 1.3105787e-38 310 238
-0.011566739 0.73299998 0.0025703865 1.1077483e-38 311 238
-0.010239467 0.73000002 0.0025598668 8.9644762e-39 312 238
-0.0089595336 0.73000002 0.0025598668 9.2414218e-39 313 238
-0.0076585598 0.72799999 0.0025528532 1.0714053e-38 314 238
-0.0063821329 0.72799999 0.0025528532 1.1635651e-38 315 238
-0.0051057064 0.72799999 0.0025528532 1.273628e-38 316 238
-0.0038292799 0.72799999 0.0025528532 1.3012507e-38 317 238
-0.0025528532 0.72799999 0.0025528532 1.3378751e-38 318 238
-0.0012764266 0.72799999 0.0025528532 1.2641186e-38 319 238
0 0.72799999 0.0025528532 1.1627687e-38 320 238
0.0012764266 0.72799999 0.0025528532 1.0982318e-38 321 238
0.0025528532 0.72799999 0.0025528532 1.1075528e-38 322 238
0.0038292799 0.72799999 0.0025528532 1.0798583e-38 323 238
0.0051057064 0.72799999 0.0025528532 9.2380769e-39 324 238
0.0063821329 0.72799999 0.0025528532 8.7774645e-39 325 238
0.0076585598 0.72799999 0.0025528532 9.3281188e-39 326 238
0.0089349858 0.72799999 0.0025528532 9.2359245e-39 327 238
0.010211413 0.72799999 0.0025528532 9.32776e-39 328 238
0.01148784 0.72799999 0.0025528532 9.6043427e-39 329 238
0.012764266 0.72799999 0.0025528532 9.8798562e-39 330 238
0.014040692 0.72799999 0.0025528532 9.6029106e-39 331 238
0.01531712 0.72799999 0.0025528532 8.9597006e-39 332 238
0.016639132 0.73000002 0.0025598668 8.4987295e-39 333 238
0.017919067 0.73000002 0.0025598668 8.039559e-39 334 238
0.019199001 0.73000002 0.0025598668 8.039559e-39 335 238
0.020478934 0.73000002 0.0025598668 8.2218343e-39 336 238
0.021788673 0.73100001 0.0025633732 8.6831726e-39 337 238
0.023322839 0.73900002 0.0025914267 1.0609999e-38 338 238
0.024618553 0.73900002 0.0025914267 1.1163172e-38 339 238
0.025984399 0.741 0.0025984398 1.1342233e-38 340 238
0.027320439 0.74199998 0.0026019465 9.1291792e-39 341 238
0.028621411 0.74199998 0.0026019465 9.4079395e-39 342 238
0.029922385 0.74199998 0.0026019465 1.0606483e-38 343 238
0.031223357 0.74199998 0.0026019465 1.2629375e-38 344 238
0.032524332 0.74199998 0.0026019465 1.4104505e-38 345 238
0.033825304 0.74199998 0.0026019465 1.8067104e-38 346 238
-0.026440267 0.75400001 0.0013220133 1.3559282e-38 300 239
-0.025118252 0.75400001 0.0013220133 1.2913913e-38 301 239
-0.02379624 0.75400001 0.0013220133 1.2631934e-38 302 239
-0.022474226 0.75400001 0.0013220133 1.1709979e-38 303 239
-0.02104 0.75 0.001315 8.0351225e-39 304 239
-0.019646099 0.74699998 0.0013097399 9.8786763e-39 305 239
-0.018115439 0.73799998 0.0012939599 1.2919327e-38 306 239
-0.016821479 0.73799998 0.0012939599 1.3748728e-38 307 239
-0.015485439 0.736 0.0012904532 1.365687e-38 308 239
-0.014194986 0.736 0.0012904532 1.3288087e-38 309 239
-0.012904533 0.736 0.0012904532 1.3195847e-38 310 239
-0.011582521 0.73400003 0.0012869467 1.2182055e-38 311 239
-0.010253493 0.73100001 0.0012816866 1.089735e-38 312 239
-0.0089718066 0.73100001 0.0012816866 9.2374702e-39 313 239
-0.0076795998 0.73000002 0.0012799334 8.3227039e-39 314 239
-0.0063996664 0.73000002 0.0012799334 8.6914851e-39 315 239
-0.0051197335 0.73000002 0.0012799334 9.2418324e-39 316 239
-0.0038292799 0.72799999 0.0012764266 1.0071594e-38 317 239
-0.0025528532 0.72799999 0.0012764266 1.2461138e-38 318 239
-0.0012799334 0.73000002 0.0012799334 1.282956e-38 319 239
0 0.73000002 0.0012799334 1.3654247e-38 320 239
0.0012799334 0.73000002 0.0012799334 1.2363508e-38 321 239
0.0025528532 0.72799999 0.0012764266 1.0800778e-38 322 239
0.0038292799 0.72799999 0.0012764266 9.7862663e-39 323 239
0.0051057064 0.72799999 0.0012764266 8.9604181e-39 324 239
0.0063821329 0.72799999 0.0012764266 8.4994469e-39 325 239
0.0076795998 0.73000002 0.0012799334 8.5012406e-39 326 239
0.0089595336 0.73000002 0.0012799334 9.515031e-39 327 239
0.010239467 0.73000002 0.0012799334 1.0891159e-38 328 239
0.011519399 0.73000002 0.0012799334 1.1259583e-38 329 239
0.012799333 0.73000002 0.0012799334 1.0430901e-38 330 239
0.014079267 0.73000002 0.0012799334 9.4163894e-39 331 239
0.0153592 0.73000002 0.0012799334 8.5905818e-39 332 239
0.016639132 0.73000002 0.0012799334 8.3136347e-39 333 239
0.017943613 0.73100001 0.0012816866 7.9463068e-39 334 239
0.019225299 0.73100001 0.0012816866 7.8541111e-39 335 239
0.020506985 0.73100001 0.0012816866 8.2204302e-39 336 239
0.02208674 0.741 0.0012992199 9.6955603e-39 337 239
0.023385961 0.741 0.0012992199 1.2265239e-38 338 239
0.024685178 0.741 0.0012992199 1.3095001e-38 339 239
0.026019465 0.74199998 0.0013009732 1.2997808e-38 340 239
0.027320439 0.74199998 0.0013009732 9.6787657e-39 341 239
0.028621411 0.74199998 0.0013009732 9.497617e-39 342 239
0.029922385 0.74199998 0.0013009732 1.134153e-38 343 239
0.031307522 0.74400002 0.00130448 1.2906685e-38 344 239
0.032612 0.74400002 0.00130448 1.4381815e-38 345 239
0.033916477 0.74400002 0.00130448 1.8066748e-38 346 239
-0.025118252 0.75400001 -0 1.3193023e-38 301 240
-0.02379624 0.75400001 -0 1.3648608e-38 302 240
-0.022474226 0.75400001 -0 1.1896531e-38 303 240
-0.021096105 0.75199997 -0 8.2148446e-39 304 240
-0.0196987 0.74900001 -0 7.4772796e-39 305 240
-0.018189078 0.741 -0 1.0428984e-38 306 240
-0.016844273 0.73900002 -0 1.2549484e-38 307 240
-0.01554856 0.73900002 -0 1.374764e-38 308 240
-0.014233559 0.73799998 -0 1.4116421e-38 309 240
-0.012939599 0.73799998 -0 1.4116025e-38 310 240
-0.01161408 0.736 -0 1.3562851e-38 311 240
-0.010295574 0.73400003 -0 1.200227e-38 312 240
-0.0090086265 0.73400003 -0 9.6048234e-39 313 240
-0.0077111595 0.73299998 -0 9.5161702e-39 314 240
-0.0064259665 0.73299998 -0 9.1470276e-39 315 240
-0.0051267464 0.73100001 -0 7.5854948e-39 316 240
-0.0038397999 0.73000002 -0 8.2308642e-39 317 240
-0.0025598668 0.73000002 -0 1.0253461e-38 318 240
-0.0012816866 0.73100001 -0 1.1267614e-38 319 240
0 0.73000002 -0 1.3196906e-38 320 240
0.0012799334 0.73000002 -0 1.2551537e-38 321 240
0.0025598668 0.73000002 -0 1.1445855e-38 322 240
0.0038397999 0.73000002 -0 1.0247312e-38 323 240
0.0051197335 0.73000002 -0 9.5122046e-39 324 240
0.0063996664 0.73000002 -0 9.6044002e-39 325 240
0.00769012 0.73100001 -0 1.134928e-38 326 240
0.0089718066 0.73100001 -0 1.1902453e-38 327 240
0.010253493 0.73100001 -0 1.126033e-38 328 240
0.01153518 0.73100001 -0 1.0338015e-38 329 240
0.012816866 0.73100001 -0 8.9586566e-39 330 240
0.014098554 0.73100001 -0 8.0367017e-39 331 240
0.01538024 0.73100001 -0 7.8548146e-39 332 240
0.016661927 0.73100001 -0 7.9470102e-39 333 240
0.017943613 0.73100001 -0 8.7724745e-39 334 240
0.019304199 0.73400003 -0 8.9568658e-39 335 240
0.020787518 0.741 -0 9.9678508e-39 336 240
0.02208674 0.741 -0 1.1350785e-38 337 240
0.023385961 0.741 -0 1.2725518e-38 338 240
0.024685178 0.741 -0 1.3278692e-38 339 240
0.026019465 0.74199998 -0 1.2817733e-38 340 240
0.027320439 0.74199998 -0 9.5908861e-39 341 240
0.02869856 0.74400002 -0 1.0875154e-38 342 240
0.030003037 0.74400002 -0 1.2811262e-38 343 240
0.031307522 0.74400002 -0 1.3276543e-38 344 240
0.032612 0.74400002 -0 1.4567282e-38 345 240
-0.025118252 0.75400001 -0.0013220133 1.2640933e-38 301 241
-0.023733119 0.75199997 -0.0013185065 1.2638415e-38 302 241
-0.022414612 0.75199997 -0.0013185065 1.1993045e-38 303 241
-0.021096105 0.75199997 -0.0013185065 9.6881586e-39 304 241
-0.019724999 0.75 -0.001315 8.3052241e-39 305 241
-0.018385453 0.74900001 -0.0013132467 7.9400528e-39 306 241
-0.017026618 0.74699998 -0.0013097399 9.4151843e-39 307 241
-0.015611678 0.74199998 -0.0013009732 1.1074338e-38 308 241
-0.014252847 0.73900002 -0.0012957134 1.2641664e-38 309 241
-0.012957133 0.73900002 -0.0012957134 1.4022058e-38 310 241
-0.011645639 0.73799998 -0.0012939599 1.4298646e-38 311 241
-0.010351679 0.73799998 -0.0012939599 1.3930898e-38 312 241
-0.0090331733 0.736 -0.0012904532 1.2363212e-38 313 241
-0.0077216802 0.73400003 -0.0012869467 1.1077836e-38 314 241
-0.006434733 0.73400003 -0.0012869467 1.0985282e-38 315 241
-0.005140773 0.73299998 -0.0012851933 9.3322274e-39 316 241
-0.00384506 0.73100001 -0.0012816866 9.3322274e-39 317 241
-0.0025633732 0.73100001 -0.0012816866 8.7790564e-39 318 241
-0.0012816866 0.73100001 -0.0012816866 8.7790564e-39 319 241
0 0.73299998 -0.0012851933 1.0066938e-38 320 241
0.0012851933 0.73299998 -0.0012851933 1.0897057e-38 321 241
0.0025703865 0.73299998 -0.0012851933 1.2457916e-38 322 241
0.0038555798 0.73299998 -0.0012851933 1.2734143e-38 323 241
0.005140773 0.73299998 -0.0012851933 1.3101115e-38 324 241
0.0064259665 0.73299998 -0.0012851933 1.3469897e-38 325 241
0.0077111595 0.73299998 -0.0012851933 1.438678e-38 326 241
0.0089963535 0.73299998 -0.0012851933 1.2911291e-38 327 241
0.010281546 0.73299998 -0.0012851933 1.0522775e-38 328 241
0.011566739 0.73299998 -0.0012851933 8.7714179e-39 329 241
0.012851933 0.73299998 -0.0012851933 7.4867678e-39 330 241
0.014137126 0.73299998 -0.0012851933 7.671159e-39 331 241
0.015422319 0.73299998 -0.0012851933 7.670478e-39 332 241
0.016707512 0.73299998 -0.0012851933 8.5002386e-39 333 241
0.018017253 0.73400003 -0.0012869467 1.0153704e-38 334 241
0.019409399 0.73799998 -0.0012939599 1.0799073e-38 335 241
0.020787518 0.741 -0.0012992199 1.2083373e-38 336 241
0.022116546 0.74199998 -0.0013009732 1.2451795e-38 337 241
0.023417519 0.74199998 -0.0013009732 1.272624e-38 338 241
0.024718491 0.74199998 -0.0013009732 1.2910632e-38 339 241
0.026019465 0.74199998 -0.0013009732 1.2633338e-38 340 241
0.027394081 0.74400002 -0.00130448 1.1066372e-38 341 241
0.02869856 0.74400002 -0.00130448 1.1800709e-38 342 241
0.030003037 0.74400002 -0.00130448 1.2538275e-38 343 241
0.031307522 0.74400002 -0.00130448 1.3368742e-38 344 241
-0.025051624 0.75199997 -0.0026370131 1.2640935e-38 301 242
-0.023733119 0.75199997 -0.0026370131 1.2640214e-38 302 242
-0.022414612 0.75199997 -0.0026370131 1.2548018e-38 303 242
-0.021096105 0.75199997 -0.0026370131 1.1533143e-38 304 242
-0.019724999 0.75 -0.00263 9.7814262e-39 305 242
-0.018385453 0.74900001 -0.0026264933 9.2311391e-39 306 242
-0.017072206 0.74900001 -0.0026264933 8.9549124e-39 307 242
-0.015695838 0.74599999 -0.0026159731 9.2279077e-39 308 242
-0.01434928 0.74400002 -0.00260896 1.0333897e-38 309 242
-0.0129922 0.741 -0.0025984398 1.1622473e-38 310 242
-0.01169298 0.741 -0.0025984398 1.2452235e-38 311 242
-0.010365707 0.73900002 -0.0025914267 1.3001789e-38 312 242
-0.0090699932 0.73900002 -0.0025914267 1.0420312e-38 313 242
-0.0077637597 0.73799998 -0.0025879198 8.1319466e-39 314 242
-0.0064522666 0.736 -0.0025809065 9.3304898e-39 315 242
-0.0051477868 0.73400003 -0.0025738934 1.0433575e-38 316 242
-0.0038555798 0.73299998 -0.0025703865 1.0894553e-38 317 242
-0.0025703865 0.73299998 -0.0025703865 1.1443389e-38 318 242
-0.0012869467 0.73400003 -0.0025738934 1.1166802e-38 319 242
0 0.73400003 -0.0025738934 1.0892751e-38 320 242
0.0012869467 0.73400003 -0.0025738934 1.1630316e-38 321 242
0.0025738934 0.73400003 -0.0025738934 1.254978e-38 322 242
0.0038608401 0.73400003 -0.0025738934 1.3102595e-38 323 242
0.0051477868 0.73400003 -0.0025738934 1.3562135e-38 324 242
0.006434733 0.73400003 -0.0025738934 1.3562135e-38 325 242
0.0077216802 0.73400003 -0.0025738934 1.4571932e-38 326 242
0.0090086265 0.73400003 -0.0025738934 1.3096802e-38 327 242
0.010295574 0.73400003 -0.0025738934 1.1533379e-38 328 242
0.011582521 0.73400003 -0.0025738934 1.0888009e-38 329 242
0.012904533 0.736 -0.0025809065 1.0336611e-38 330 242
0.014156413 0.73400003 -0.0025738934 1.0336611e-38 331 242
0.01544336 0.73400003 -0.0025738934 1.0703991e-38 332 242
0.016775893 0.736 -0.0025809065 1.134936e-38 333 242
0.018139986 0.73900002 -0.0025914267 1.2176285e-38 334 242
0.019488299 0.741 -0.0025984398 1.2268839e-38 335 242
0.02087168 0.74400002 -0.00260896 1.2818434e-38 336 242
0.022176161 0.74400002 -0.00260896 1.2818434e-38 337 242
0.023480639 0.74400002 -0.00260896 1.272624e-38 338 242
0.02478512 0.74400002 -0.00260896 1.2818437e-38 339 242
0.026089599 0.74400002 -0.00260896 1.2725889e-38 340 242
0.027504537 0.74699998 -0.0026194798 1.1619543e-38 341 242
0.028814279 0.74699998 -0.0026194798 1.1894703e-38 342 242
0.030124018 0.74699998 -0.0026194798 1.1802508e-38 343 242
0.031770397 0.755 -0.0026475333 1.2264915e-38 344 242
-0.024984999 0.75 -0.003945 1.2274311e-38 301 243
-0.023669999 0.75 -0.003945 1.2642017e-38 302 243
-0.022355 0.75 -0.003945 1.2826048e-38 303 243
-0.021096105 0.75199997 -0.0039555198 1.3101193e-38 304 243
-0.019724999 0.75 -0.003945 1.2824608e-38 305 243
-0.018409999 0.75 -0.003945 1.2270708e-38 306 243
-0.017072206 0.74900001 -0.0039397399 1.0795578e-38 307 243
-0.015716879 0.74699998 -0.0039292197 8.8565959e-39 308 243
-0.014387853 0.74599999 -0.0039239596 8.5803691e-39 309 243
-0.0130448 0.74400002 -0.0039134403 8.7640527e-39 310 243
-0.01170876 0.74199998 -0.0039029196 9.4094221e-39 311 243
-0.010407786 0.74199998 -0.0039029196 1.0506801e-38 312 243
-0.009106813 0.74199998 -0.0039029196 5.7129873e-39 313 243
-0.0077953199 0.741 -0.0038976599 3.7102264e-39 314 243
-0.0064785667 0.73900002 -0.00388714 6.291704e-39 315 243
-0.0051758396 0.73799998 -0.0038818798 9.0507009e-39 316 243
-0.0038713599 0.736 -0.0038713599 1.0802058e-38 317 243
-0.0025809065 0.736 -0.0038713599 1.3467437e-38 318 243
-0.0012904532 0.736 -0.0038713599 1.3836579e-38 319 243
0 0.736 -0.0038713599 1.3836577e-38 320 243
0.0012869467 0.73400003 -0.0038608401 1.355963e-38 321 243
0.0025738934 0.73400003 -0.0038608401 1.1535647e-38 322 243
0.0038608401 0.73400003 -0.0038608401 1.172004e-38 323 243
0.005161813 0.736 -0.0038713599 1.3376317e-38 324 243
0.0064522666 0.736 -0.0038713599 1.3652903e-38 325 243
0.0077427197 0.736 -0.0038713599 1.4203537e-38 326 243
0.0090331733 0.736 -0.0038713599 1.3742561e-38 327 243
0.010323626 0.736 -0.0038713599 1.3283008e-38 328 243
0.01161408 0.736 -0.0038713599 1.3190812e-38 329 243
0.012904533 0.736 -0.0038713599 1.3096814e-38 330 243
0.014233559 0.73799998 -0.0038818798 1.2728392e-38 331 243
0.015527519 0.73799998 -0.0038818798 1.3189014e-38 332 243
0.016889861 0.741 -0.0038976599 1.328121e-38 333 243
0.018213626 0.74199998 -0.0039029196 1.3371253e-38 334 243
0.0195146 0.74199998 -0.0039029196 1.3186862e-38 335 243
0.02087168 0.74400002 -0.0039134403 1.2819158e-38 336 243
0.022235774 0.74599999 -0.0039239596 1.2726604e-38 337 243
0.023575317 0.74699998 -0.0039292197 1.2818083e-38 338 243
0.024885058 0.74699998 -0.0039292197 1.2725886e-38 339 243
0.026194798 0.74699998 -0.0039292197 1.2540426e-38 340 243
0.027578179 0.74900001 -0.0039397399 1.1710307e-38 341 243
0.029084291 0.75400001 -0.00396604 1.1709956e-38 342 243
0.030446632 0.755 -0.0039712996 1.1156782e-38 343 243
0.031770397 0.755 -0.0039712996 1.1896126e-38 344 243
0.033094164 0.755 -0.0039712996 1.4016625e-38 345 243
-0.024984999 0.75 -0.00526 1.070518e-38 301 244
-0.023669999 0.75 -0.00526 1.1261964e-38 302 244
-0.022355 0.75 -0.00526 1.2092083e-38 303 244
-0.021096105 0.75199997 -0.0052740262 1.2641661e-38 304 244
-0.019724999 0.75 -0.00526 1.2826051e-38 305 244
-0.018409999 0.75 -0.00526 1.3652198e-38 306 244
-0.017072206 0.74900001 -0.0052529867 1.2361459e-38 307 244
-0.01575896 0.74900001 -0.0052529867 1.106819e-38 308 244
-0.014387853 0.74599999 -0.0052319462 9.9614819e-39 309 244
-0.0130448 0.74400002 -0.0052179201 9.41012e-39 310 244
-0.011740319 0.74400002 -0.0052179201 1.1162197e-38 311 244
-0.010407786 0.74199998 -0.0052038929 1.1894411e-38 312 244
-0.009106813 0.74199998 -0.0052038929 5.8091402e-39 313 244
-0.0077953199 0.741 -0.0051968796 4.8083175e-39 314 244
-0.0064960998 0.741 -0.0051968796 6.2834475e-39 315 244
-0.0051828534 0.73900002 -0.0051828534 5.9207537e-39 316 244
-0.0038818798 0.73799998 -0.0051758396 8.1334488e-39 317 244
-0.0025879198 0.73799998 -0.0051758396 1.1351643e-38 318 244
-0.0012904532 0.736 -0.005161813 1.1628588e-38 319 244
0 0.736 -0.005161813 1.3096872e-38 320 244
0.0012904532 0.736 -0.005161813 1.2728449e-38 321 244
0.0025809065 0.736 -0.005161813 9.9694132e-39 322 244
0.0038713599 0.736 -0.005161813 9.9694132e-39 323 244
0.005161813 0.736 -0.005161813 1.2267827e-38 324 244
0.0064522666 0.736 -0.005161813 1.2636251e-38 325 244
0.0077427197 0.736 -0.005161813 1.2819902e-38 326 244
0.0090331733 0.736 -0.005161813 1.2451121e-38 327 244
0.010323626 0.736 -0.005161813 1.2362511e-38 328 244
0.011645639 0.73799998 -0.0051758396 1.2915685e-38 329 244
0.012939599 0.73799998 -0.0051758396 1.309756e-38 330 244
0.014252847 0.73900002 -0.0051828534 1.2913169e-38 331 244
0.01559064 0.741 -0.0051968796 1.2913166e-38 332 244
0.016958239 0.74400002 -0.0052179201 1.2913166e-38 333 244
0.01826272 0.74400002 -0.0052179201 1.3003918e-38 334 244
0.019567199 0.74400002 -0.0052179201 1.2819887e-38 335 244
0.020927785 0.74599999 -0.0052319462 1.2726609e-38 336 244
0.022265578 0.74699998 -0.0052389596 1.2542218e-38 337 244
0.023575317 0.74699998 -0.0052389596 1.2542218e-38 338 244
0.024885058 0.74699998 -0.0052389596 1.2265631e-38 339 244
0.0263 0.75 -0.00526 1.2355676e-38 340 244
0.027615 0.75 -0.00526 1.1895057e-38 341 244
0.029122867 0.755 -0.0052950666 1.1434446e-38 342 244
0.030446632 0.755 -0.0052950666 1.0696879e-38 343 244
0.031770397 0.755 -0.0052950666 1.2540411e-38 344 244
-0.025051624 0.75199997 -0.0065925326 9.7792584e-39 301 245
-0.023733119 0.75199997 -0.0065925326 1.0889944e-38 302 245
-0.022414612 0.75199997 -0.0065925326 1.2826051e-38 303 245
-0.021096105 0.75199997 -0.0065925326 1.1997734e-38 304 245
-0.0197776 0.75199997 -0.0065925326 1.144456e-38 305 245
-0.018409999 0.75 -0.006575 1.3378488e-38 306 245
-0.017095 0.75 -0.006575 1.3009345e-38 307 245
-0.01575896 0.74900001 -0.0065662335 1.2268149e-38 308 245
-0.014407139 0.74699998 -0.0065486995 1.1530583e-38 309 245
-0.013079867 0.74599999 -0.0065399334 1.033421e-38 310 245
-0.011740319 0.74400002 -0.0065223998 1.2270319e-38 311 245
-0.01043584 0.74400002 -0.0065223998 1.181155e-38 312 245
-0.0091313599 0.74400002 -0.0065223998 5.7266388e-39 313 245
-0.0078268806 0.74400002 -0.0065223998 6.183336e-39 314 245
-0.0065048663 0.74199998 -0.0065048663 6.5521199e-39 315 245
-0.0051968796 0.741 -0.0064960998 5.091e-39 316 245
-0.0038976599 0.741 -0.0064960998 8.0409e-39 317 245
-0.0025984398 0.741 -0.0064960998 1.0519367e-38 318 245
-0.0012957134 0.73900002 -0.0064785667 9.8739974e-39 319 245
0 0.73900002 -0.0064785667 1.0516843e-38 320 245
0.0012904532 0.736 -0.0064522666 1.0609039e-38 321 245
0.0025809065 0.736 -0.0064522666 8.4946587e-39 322 245
0.0038713599 0.736 -0.0064522666 8.1255174e-39 323 245
0.0051758396 0.73799998 -0.0064697997 8.953483e-39 324 245
0.0064697997 0.73799998 -0.0064697997 9.4148199e-39 325 245
0.0077637597 0.73799998 -0.0064697997 1.0700143e-38 326 245
0.0090577193 0.73799998 -0.0064697997 9.9625763e-39 327 245
0.010351679 0.73799998 -0.0064697997 1.0794842e-38 328 245
0.01166142 0.73900002 -0.0064785667 1.2730951e-38 329 245
0.0129922 0.741 -0.0064960998 1.3097563e-38 330 245
0.014310705 0.74199998 -0.0065048663 1.2912813e-38 331 245
0.015611678 0.74199998 -0.0065048663 1.2912445e-38 332 245
0.017003827 0.74599999 -0.0065399334 1.282025e-38 333 245
0.018311813 0.74599999 -0.0065399334 1.2819531e-38 334 245
0.019646099 0.74699998 -0.0065486995 1.263514e-38 335 245
0.020955838 0.74699998 -0.0065486995 1.2450388e-38 336 245
0.022325192 0.74900001 -0.0065662335 1.2358193e-38 337 245
0.02363844 0.74900001 -0.0065662335 1.2174164e-38 338 245
0.024984999 0.75 -0.006575 1.1897219e-38 339 245
0.026475333 0.755 -0.0066188332 1.1805022e-38 340 245
0.027946379 0.759 -0.0066538998 1.1528795e-38 341 245
0.029277159 0.759 -0.0066538998 1.0884498e-38 342 245
0.030688593 0.76099998 -0.0066714329 1.0054378e-38 343 245
-0.02379624 0.75400001 -0.00793208 1.1440594e-38 302 246
-0.022474226 0.75400001 -0.00793208 1.3008279e-38 303 246
-0.021488851 0.76599997 -0.0080583189 1.0434728e-38 304 246
-0.020093199 0.764 -0.0080372803 1.0342531e-38 305 246
-0.018508185 0.75400001 -0.00793208 1.2643804e-38 306 246
-0.017140586 0.75199997 -0.0079110395 1.227538e-38 307 246
-0.01578 0.75 -0.00789 1.2363942e-38 308 246
-0.014445714 0.74900001 -0.0078794798 1.2732723e-38 309 246
-0.013097399 0.74699998 -0.0078584393 1.2271396e-38 310 246
-0.011787659 0.74699998 -0.0078584393 1.1810058e-38 311 246
-0.010463892 0.74599999 -0.0078479191 1.0430035e-38 312 246
-0.0091559067 0.74599999 -0.0078479191 6.1893966e-39 313 246
-0.0078268806 0.74400002 -0.0078268806 8.8530253e-39 314 246
-0.0065223998 0.74400002 -0.0078268806 8.2998516e-39 315 246
-0.0052038929 0.74199998 -0.0078058392 7.7549398e-39 316 246
-0.0039029196 0.74199998 -0.0078058392 1.0520809e-38 317 246
-0.0026019465 0.74199998 -0.0078058392 9.8718296e-39 318 246
-0.0012992199 0.741 -0.0077953199 8.6732864e-39 319 246
0 0.741 -0.0077953199 4.3451491e-39 320 246
0.0012992199 0.741 -0.0077953199 4.4373447e-39 321 246
0.0025984398 0.741 -0.0077953199 4.3466134e-39 322 246
0.0038976599 0.741 -0.0077953199 3.8856353e-39 323 246
0.0051828534 0.73900002 -0.0077742799 1.9610303e-39 324 246
0.0064785667 0.73900002 -0.0077742799 4.542508e-39 325 246
0.0077742799 0.73900002 -0.0077742799 9.0438822e-39 326 246
0.0090945391 0.741 -0.0077953199 7.2921666e-39 327 246
0.010407786 0.74199998 -0.0078058392 8.7730252e-39 328 246
0.01170876 0.74199998 -0.0078058392 1.1815122e-38 329 246
0.0130448 0.74400002 -0.0078268806 1.3281957e-38 330 246
0.014387853 0.74599999 -0.0078479191 1.3005011e-38 331 246
0.015695838 0.74599999 -0.0078479191 1.3005364e-38 332 246
0.017026618 0.74699998 -0.0078584393 1.263694e-38 333 246
0.018336359 0.74699998 -0.0078584393 1.2818452e-38 334 246
0.0196987 0.74900001 -0.0078794798 1.2542224e-38 335 246
0.021011947 0.74900001 -0.0078794798 1.2357477e-38 336 246
0.022325192 0.74900001 -0.0078794798 1.2265281e-38 337 246
0.023733119 0.75199997 -0.0079110395 1.2172732e-38 338 246
0.025151566 0.755 -0.0079425992 1.1896505e-38 339 246
0.026685731 0.76099998 -0.0080057196 1.1253297e-38 340 246
0.028020019 0.76099998 -0.0080057196 1.1161101e-38 341 246
0.029392879 0.76200002 -0.0080162399 1.1066738e-38 342 246
-0.024111839 0.764 -0.0093768267 1.2175992e-38 302 247
-0.022772292 0.764 -0.0093768267 1.3743677e-38 303 247
-0.021488851 0.76599997 -0.0094013726 1.0801356e-38 304 247
-0.020093199 0.764 -0.0093768267 1.0525128e-38 305 247
-0.018680012 0.76099998 -0.0093400059 1.1996998e-38 306 247
-0.017300138 0.759 -0.00931546 1.1996998e-38 307 247
-0.015885198 0.755 -0.0092663663 1.245686e-38 308 247
-0.014503572 0.75199997 -0.0092295464 1.2917838e-38 309 247
-0.013132467 0.74900001 -0.0091927266 1.3377021e-38 310 247
-0.01181922 0.74900001 -0.0091927266 1.2086282e-38 311 247
-0.010477919 0.74699998 -0.0091681797 9.1414294e-39 312 247
-0.0091681797 0.74699998 -0.0091681797 9.5102119e-39 313 247
-0.0078584393 0.74699998 -0.0091681797 1.0886351e-38 314 247
-0.0065486995 0.74699998 -0.0091681797 9.0424389e-39 315 247
-0.0052319462 0.74599999 -0.0091559067 7.1156899e-39 316 247
-0.0039239596 0.74599999 -0.0091559067 9.0517981e-39 317 247
-0.00260896 0.74400002 -0.0091313599 1.0055495e-38 318 247
-0.0013009732 0.74199998 -0.009106813 8.9491474e-39 319 247
0 0.74199998 -0.009106813 6.1843926e-39 320 247
0.0013009732 0.74199998 -0.009106813 4.6170668e-39 321 247
0.0026019465 0.74199998 -0.009106813 2.6892781e-39 322 247
0.0039029196 0.74199998 -0.009106813 1.9517131e-39 323 247
0.0052038929 0.74199998 -0.009106813 4.0613917e-39 324 247
0.0065048663 0.74199998 -0.009106813 8.7637276e-39 325 247
0.0078058392 0.74199998 -0.009106813 1.0331729e-38 326 247
0.0091559067 0.74599999 -0.0091559067 9.1335457e-39 327 247
0.010463892 0.74599999 -0.0091559067 1.0608299e-38 328 247
0.011771879 0.74599999 -0.0091559067 1.3281973e-38 329 247
0.013097399 0.74699998 -0.0091681797 1.3373073e-38 330 247
0.014407139 0.74699998 -0.0091681797 1.28199e-38 331 247
0.015716879 0.74699998 -0.0091681797 1.2634784e-38 332 247
0.017072206 0.74900001 -0.0091927266 1.2450391e-38 333 247
0.018385453 0.74900001 -0.0091927266 1.2081969e-38 334 247
0.0196987 0.74900001 -0.0091927266 1.1897219e-38 335 247
0.02104 0.75 -0.0092049995 1.1621361e-38 336 247
0.022355 0.75 -0.0092049995 1.1436609e-38 337 247
0.02379624 0.75400001 -0.0092540924 1.0977436e-38 338 247
0.025284819 0.759 -0.00931546 1.0977436e-38 339 247
0.026685731 0.76099998 -0.0093400059 1.0977789e-38 340 247
0.028056841 0.76200002 -0.0093522798 1.116182e-38 341 247
0.029547172 0.76599997 -0.0094013726 1.1437303e-38 342 247
-0.024111839 0.764 -0.010716373 1.2178144e-38 302 248
-0.022772292 0.764 -0.010716373 1.3468883e-38 303 248
-0.021488851 0.76599997 -0.010744425 1.0891386e-38 304 248
-0.020145798 0.76599997 -0.010744425 9.0478325e-39 305 248
-0.018753653 0.764 -0.010716373 9.230779e-39 306 248
-0.017345725 0.76099998 -0.010674292 1.0244572e-38 307 248
-0.016011439 0.76099998 -0.010674292 1.1445251e-38 308 248
-0.014600007 0.75700003 -0.010618187 1.1353054e-38 309 248
-0.01315 0.75 -0.01052 1.1258333e-38 310 248
-0.01181922 0.74900001 -0.010505973 1.107394e-38 311 248
-0.010505973 0.74900001 -0.010505973 1.0615836e-38 312 248
-0.0091927266 0.74900001 -0.010505973 1.1537794e-38 313 248
-0.0078794798 0.74900001 -0.010505973 1.2458327e-38 314 248
-0.0065662335 0.74900001 -0.010505973 1.1997349e-38 315 248
-0.0052529867 0.74900001 -0.010505973 1.1350197e-38 316 248
-0.0039292197 0.74699998 -0.010477919 1.107397e-38 317 248
-0.0026159731 0.74599999 -0.010463892 1.1437708e-38 318 248
-0.0013079866 0.74599999 -0.010463892 1.0884534e-38 319 248
0 0.74599999 -0.010463892 9.9622245e-39 320 248
0.00130448 0.74400002 -0.01043584 9.8700275e-39 321 248
0.00260896 0.74400002 -0.01043584 8.491786e-39 322 248
0.0039134403 0.74400002 -0.01043584 8.3073934e-39 323 248
0.0052179201 0.74400002 -0.01043584 7.8471355e-39 324 248
0.0065223998 0.74400002 -0.01043584 1.0060189e-38 325 248
0.0078268806 0.74400002 -0.01043584 1.2448986e-38 326 248
0.0091681797 0.74699998 -0.010477919 1.1342997e-38 327 248
0.010477919 0.74699998 -0.010477919 1.1806839e-38 328 248
0.01181922 0.74900001 -0.010505973 1.2821351e-38 329 248
0.013132467 0.74900001 -0.010505973 1.2358926e-38 330 248
0.014445714 0.74900001 -0.010505973 1.1621361e-38 331 248
0.01575896 0.74900001 -0.010505973 1.0699044e-38 332 248
0.017072206 0.74900001 -0.010505973 1.0330622e-38 333 248
0.018385453 0.74900001 -0.010505973 1.005548e-38 334 248
0.019724999 0.75 -0.01052 1.0147675e-38 335 248
0.02104 0.75 -0.01052 1.0515379e-38 336 248
0.022414612 0.75199997 -0.010548052 1.0700129e-38 337 248
0.02389092 0.75700003 -0.010618187 1.0608293e-38 338 248
0.025351444 0.76099998 -0.010674292 1.0793045e-38 339 248
0.026685731 0.76099998 -0.010674292 1.1253653e-38 340 248
0.028056841 0.76200002 -0.01068832 1.1622077e-38 341 248
0.029392879 0.76200002 -0.01068832 1.2450373e-38 342 248
-0.022831906 0.76599997 -0.012087479 1.2641626e-38 303 249
-0.021488851 0.76599997 -0.012087479 1.2085964e-38 304 249
-0.020172099 0.76700002 -0.01210326 1.0149856e-38 305 249
-0.018802745 0.76599997 -0.012087479 6.6521852e-39 306 249
-0.01736852 0.76200002 -0.01202436 6.9287721e-39 307 249
-0.01603248 0.76200002 -0.01202436 9.0456661e-39 308 249
-0.014677152 0.76099998 -0.012008579 9.5984797e-39 309 249
-0.013185065 0.75199997 -0.011866559 8.9577598e-39 310 249
-0.011835 0.75 -0.011835 9.6953248e-39 311 249
-0.01052 0.75 -0.011835 1.0341045e-38 312 249
-0.0092049995 0.75 -0.011835 1.1263002e-38 313 249
-0.00789 0.75 -0.011835 1.1814755e-38 314 249
-0.006575 0.75 -0.011835 1.0984994e-38 315 249
-0.00526 0.75 -0.011835 1.0981421e-38 316 249
-0.0039397399 0.74900001 -0.01181922 1.1073617e-38 317 249
-0.0026264933 0.74900001 -0.01181922 1.2085241e-38 318 249
-0.0013097399 0.74699998 -0.011787659 1.2085241e-38 319 249
0 0.74699998 -0.011787659 1.2451139e-38 320 249
0.0013132467 0.74900001 -0.01181922 1.1990161e-38 321 249
0.0026194798 0.74699998 -0.011787659 1.1622105e-38 322 249
0.0039239596 0.74599999 -0.011771879 1.1622105e-38 323 249
0.0052319462 0.74599999 -0.011771879 1.0888856e-38 324 249
0.0065486995 0.74699998 -0.011787659 1.1902649e-38 325 249
0.0078794798 0.74900001 -0.01181922 1.3004308e-38 326 249
0.0091927266 0.74900001 -0.01181922 1.2358938e-38 327 249
0.010505973 0.74900001 -0.01181922 1.2080909e-38 328 249
0.011835 0.75 -0.011835 1.1804322e-38 329 249
0.013185065 0.75199997 -0.011866559 1.0883085e-38 330 249
0.014503572 0.75199997 -0.011866559 1.014552e-38 331 249
0.01578 0.75 -0.011835 8.9473467e-39 332 249
0.017095 0.75 -0.011835 7.9335536e-39 333 249
0.018409999 0.75 -0.011835 7.3872195e-39 334 249
0.0197776 0.75199997 -0.011866559 8.3088171e-39 335 249
0.021152213 0.75400001 -0.01189812 1.0054771e-38 336 249
0.022563647 0.75700003 -0.01194546 1.0147325e-38 337 249
0.024017159 0.76099998 -0.012008579 9.50554e-39 338 249
0.02538476 0.76200002 -0.01202436 1.0427855e-38 339 249
0.0267208 0.76200002 -0.01202436 1.2264915e-38 340 249
0.028056841 0.76200002 -0.01202436 1.2357111e-38 341 249
0.029392879 0.76200002 -0.01202436 1.2175571e-38 342 249
-0.02298094 0.77100003 -0.013518199 1.208915e-38 303 250
-0.021629119 0.77100003 -0.013518199 1.2638765e-38 304 250
-0.0202247 0.76899999 -0.013483133 1.144058e-38 305 250
-0.018876385 0.76899999 -0.013483133 6.5581945e-39 306 250
-0.017459691 0.76599997 -0.013430533 4.9908688e-39 307 250
-0.016074561 0.764 -0.013395466 5.4514938e-39 308 250
-0.01469644 0.76200002 -0.0133604 5.8202764e-39 309 250
-0.0133604 0.76200002 -0.0133604 5.8281671e-39 310 250
-0.011866559 0.75199997 -0.013185065 8.4096447e-39 311 250
-0.010548052 0.75199997 -0.013185065 1.0709131e-38 312 250
-0.0092049995 0.75 -0.01315 1.1446696e-38 313 250
-0.00789 0.75 -0.01315 1.0986453e-38 314 250
-0.0065925326 0.75199997 -0.013185065 9.6957144e-39 315 250
-0.0052740262 0.75199997 -0.013185065 9.3247865e-39 316 250
-0.003945 0.75 -0.01315 9.6935676e-39 317 250
-0.00263 0.75 -0.01315 1.0798828e-38 318 250
-0.001315 0.75 -0.01315 1.1075055e-38 319 250
0 0.75 -0.01315 1.190085e-38 320 250
0.001315 0.75 -0.01315 1.1624623e-38 321 250
0.0026264933 0.74900001 -0.013132467 1.1807935e-38 322 250
0.0039397399 0.74900001 -0.013132467 1.1992326e-38 323 250
0.00526 0.75 -0.01315 1.2177794e-38 324 250
0.006575 0.75 -0.01315 1.2269989e-38 325 250
0.0079110395 0.75199997 -0.013185065 1.2544051e-38 326 250
0.0092295464 0.75199997 -0.013185065 1.2175629e-38 327 250
0.010548052 0.75199997 -0.013185065 1.1160764e-38 328 250
0.01189812 0.75400001 -0.013220133 9.5016023e-39 329 250
0.013220133 0.75400001 -0.013220133 8.3041465e-39 330 250
0.014542146 0.75400001 -0.013220133 7.3825504e-39 331 250
0.015822079 0.75199997 -0.013185065 6.8275942e-39 332 250
0.017140586 0.75199997 -0.013185065 6.2744204e-39 333 250
0.018459093 0.75199997 -0.013185065 6.0060997e-39 334 250
0.0198565 0.755 -0.013237666 7.7574566e-39 335 250
0.021348584 0.76099998 -0.013342866 9.5033974e-39 336 250
0.02271268 0.76200002 -0.0133604 9.5033974e-39 337 250
0.024111839 0.764 -0.013395466 9.229309e-39 338 250
0.025518013 0.76599997 -0.013430533 1.0520048e-38 339 250
0.026861066 0.76599997 -0.013430533 1.2174865e-38 340 250
0.02824094 0.76700002 -0.013448066 1.1898278e-38 341 250
-0.02298094 0.77100003 -0.01487002 1.2088773e-38 303 251
-0.021629119 0.77100003 -0.01487002 1.2180648e-38 304 251
-0.020277301 0.77100003 -0.01487002 1.1903703e-38 305 251
-0.018876385 0.76899999 -0.014831445 1.0239889e-38 306 251
-0.017482487 0.76700002 -0.014792874 8.3037808e-39 307 251
-0.016116638 0.76599997 -0.014773586 6.3720026e-39 308 251
-0.014735013 0.764 -0.014735013 5.450405e-39 309 251
-0.013395466 0.764 -0.014735013 4.1697373e-39 310 251
