# .PCD v.7 - Point Cloud Data file format
FIELDS x y z rgb imX imY
SIZE 4 4 4 4 4 4
TYPE F F F F F F
COUNT 1 1 1 1 1 1
WIDTH 846
HEIGHT 1
VIEWPOINT 0 0 0 1 0 0 0
POINTS 846
DATA ascii
0.021520413 0.722 0.012659066 9.1441605e-39 337 230
0.022723202 0.72000003 0.012624 9.6955e-39 338 230
0.0239856 0.72000003 0.012624 1.0064283e-38 339 230
0.025318133 0.722 0.012659066 1.1165627e-38 340 230
0.026620859 0.72299999 0.012676599 1.1165627e-38 341 230
0.02788852 0.72299999 0.012676599 1.1899287e-38 342 230
0.029236834 0.72500002 0.012711667 1.2176233e-38 343 230
0.030592158 0.727 0.012746733 1.2634726e-38 344 230
0.031910665 0.72799999 0.012764266 1.2634726e-38 345 230
0.033187091 0.72799999 0.012764266 1.355454e-38 346 230
-0.030124018 0.74699998 0.011787659 1.7331702e-38 297 231
-0.028775707 0.74599999 0.011771879 1.6044583e-38 298 231
-0.027467718 0.74599999 0.011771879 1.5583605e-38 299 231
-0.025984399 0.741 0.01169298 1.4940769e-38 300 231
-0.024352046 0.73100001 0.01153518 1.4756376e-38 301 231
-0.023038799 0.73000002 0.011519399 1.3652201e-38 302 231
-0.021758866 0.73000002 0.011519399 1.3006831e-38 303 231
-0.020506985 0.73100001 0.01153518 1.3374888e-38 304 231
-0.019199001 0.73000002 0.011519399 1.3282692e-38 305 231
-0.017919067 0.73000002 0.011519399 1.2361399e-38 306 231
-0.016593546 0.72799999 0.01148784 1.1716029e-38 307 231
-0.015296079 0.727 0.01147206 1.080083e-38 308 231
-0.013982833 0.72500002 0.0114405 1.0340211e-38 309 231
-0.012676599 0.72299999 0.01140894 9.4236047e-39 310 231
-0.01140894 0.72299999 0.01140894 9.4236047e-39 311 231
-0.010127253 0.722 0.01139316 9.4250438e-39 312 231
-0.0088613462 0.722 0.01139316 9.4250438e-39 313 231
-0.0075954394 0.722 0.01139316 9.2417287e-39 314 231
-0.0063295332 0.722 0.01139316 9.2417287e-39 315 231
-0.00376616 0.71600002 0.01129848 1.0343783e-38 317 231
-0.0025107733 0.71600002 0.01129848 1.0983798e-38 318 231
0.013924973 0.722 0.01139316 1.0705754e-38 331 231
0.015190879 0.722 0.01139316 9.2370456e-39 332 231
0.016456785 0.722 0.01139316 9.0522956e-39 333 231
0.017722692 0.722 0.01139316 8.8711119e-39 334 231
0.0189886 0.722 0.01139316 8.9633075e-39 335 231
0.020254506 0.722 0.01139316 9.330295e-39 336 231
0.021520413 0.722 0.01139316 9.5143275e-39 337 231
0.02281788 0.72299999 0.01140894 1.0156122e-38 338 231
0.024085538 0.72299999 0.01140894 1.0433069e-38 339 231
0.025353199 0.72299999 0.01140894 1.1533337e-38 340 231
0.026694499 0.72500002 0.0114405 1.1441141e-38 341 231
0.027965667 0.72500002 0.0114405 1.1807823e-38 342 231
0.029317487 0.727 0.01147206 1.2268442e-38 343 231
0.030634239 0.72799999 0.01148784 1.2726943e-38 344 231
0.031998333 0.73000002 0.011519399 1.3003531e-38 345 231
-0.03156 0.75 0.01052 1.7516817e-38 296 232
-0.030204674 0.74900001 0.010505973 1.7148034e-38 297 232
-0.028775707 0.74599999 0.010463892 1.6411565e-38 298 232
-0.027467718 0.74599999 0.010463892 1.5950585e-38 299 232
-0.026089599 0.74400002 0.01043584 1.5399229e-38 300 232
-0.024618553 0.73900002 0.010365707 1.475386e-38 301 232
-0.023133477 0.73299998 0.010281546 1.3007557e-38 302 232
-0.021848286 0.73299998 0.010281546 1.2638415e-38 303 232
-0.020563092 0.73299998 0.010281546 1.273133e-38 304 232
-0.019225299 0.73100001 0.010253493 1.291608e-38 305 232
-0.017919067 0.73000002 0.010239467 1.1902957e-38 306 232
-0.016593546 0.72799999 0.010211413 1.1257588e-38 307 232
-0.01531712 0.72799999 0.010211413 1.0156928e-38 308 232
-0.013982833 0.72500002 0.010169334 1.0156928e-38 309 232
-0.012711667 0.72500002 0.010169334 9.4225705e-39 310 232
-0.01140894 0.72299999 0.01014128 9.4225705e-39 311 232
-0.01014128 0.72299999 0.01014128 9.1477605e-39 312 232
-0.0088613462 0.722 0.010127253 9.2399561e-39 313 232
-0.0075954394 0.722 0.010127253 8.965488e-39 314 232
-0.0063120001 0.72000003 0.010099201 8.7814568e-39 315 232
-0.0050496003 0.72000003 0.010099201 9.6079735e-39 316 232
-0.00376616 0.71600002 0.010043093 9.6079735e-39 317 232
-0.0025107733 0.71600002 0.010043093 9.0559165e-39 318 232
-0.00125714 0.71700001 0.01005712 9.1481122e-39 319 232
0 0.71700001 0.01005712 8.9648265e-39 320 232
0.00125714 0.71700001 0.01005712 8.4120115e-39 321 232
0.01139316 0.722 0.010127253 9.0555802e-39 329 232
0.012659066 0.722 0.010127253 9.5150716e-39 330 232
0.013924973 0.722 0.010127253 9.1466492e-39 331 232
0.015190879 0.722 0.010127253 9.1469589e-39 332 232
0.016456785 0.722 0.010127253 9.1469589e-39 333 232
0.017722692 0.722 0.010127253 9.0551234e-39 334 232
0.0189886 0.722 0.010127253 8.9629292e-39 335 232
0.020282559 0.72299999 0.01014128 9.6039952e-39 336 232
0.021550218 0.72299999 0.01014128 1.0064615e-38 337 232
0.022880999 0.72500002 0.010169334 1.0707508e-38 338 232
0.024218792 0.727 0.010197386 1.0891539e-38 339 232
0.025493465 0.727 0.010197386 1.1991088e-38 340 232
0.026768139 0.727 0.010197386 1.1991088e-38 341 232
0.028042812 0.727 0.010197386 1.1715271e-38 342 232
-0.03156 0.75 0.0092049995 1.7516098e-38 296 233
-0.030244999 0.75 0.0092049995 1.7423901e-38 297 233
-0.028814279 0.74699998 0.0091681797 1.6411565e-38 298 233
-0.027504537 0.74699998 0.0091681797 1.6134977e-38 299 233
-0.026159734 0.74599999 0.0091559067 1.5401024e-38 300 233
-0.024851745 0.74599999 0.0091559067 1.4294678e-38 301 233
-0.023291279 0.73799998 0.0090577193 1.2914278e-38 302 233
-0.021997318 0.73799998 0.0090577193 1.2453302e-38 303 233
-0.020563092 0.73299998 0.0089963535 1.2179238e-38 304 233
-0.019225299 0.73100001 0.0089718066 1.2732412e-38 305 233
-0.017919067 0.73000002 0.0089595336 1.2270313e-38 306 233
-0.016593546 0.72799999 0.0089349858 1.1809695e-38 307 233
-0.01531712 0.72799999 0.0089349858 1.0155874e-38 308 233
-0.014021406 0.727 0.0089227129 9.9714815e-39 309 233
-0.012711667 0.72500002 0.0088981669 9.6966687e-39 310 233
-0.01140894 0.72299999 0.0088736191 9.604473e-39 311 233
-0.01014128 0.72299999 0.0088736191 9.1463269e-39 312 233
-0.0088613462 0.722 0.0088613462 9.3307196e-39 313 233
-0.0075954394 0.722 0.0088613462 9.058387e-39 314 233
-0.0063120001 0.72000003 0.0088367993 8.7821603e-39 315 233
-0.0050496003 0.72000003 0.0088367993 8.9651096e-39 316 233
-0.0037714199 0.71700001 0.0087999795 9.2413364e-39 317 233
-0.0025142799 0.71700001 0.0087999795 8.6896143e-39 318 233
-0.00125714 0.71700001 0.0087999795 8.4126673e-39 319 233
0 0.71700001 0.0087999795 8.320822e-39 320 233
0.00125714 0.71700001 0.0087999795 8.0445952e-39 321 233
0.0025212932 0.71899998 0.0088245263 7.2151849e-39 322 233
0.0037819401 0.71899998 0.0088245263 7.3073791e-39 323 233
0.010127253 0.722 0.0088613462 8.8725342e-39 328 233
0.01139316 0.722 0.0088613462 8.9647299e-39 329 233
0.012659066 0.722 0.0088613462 8.9633047e-39 330 233
0.013924973 0.722 0.0088613462 8.9633047e-39 331 233
0.015190879 0.722 0.0088613462 8.5041104e-39 332 233
0.01647958 0.72299999 0.0088736191 8.4115575e-39 333 233
0.017747238 0.72299999 0.0088736191 8.8689413e-39 334 233
0.019014901 0.72299999 0.0088736191 8.9611383e-39 335 233
0.020282559 0.72299999 0.0088736191 9.4189131e-39 336 233
0.021609833 0.72500002 0.0088981669 1.0156478e-38 337 233
0.022944121 0.727 0.0089227129 1.1441138e-38 338 233
0.024218792 0.727 0.0089227129 1.1441138e-38 339 233
0.025528532 0.72799999 0.0089349858 1.1623409e-38 340 233
0.026878599 0.73000002 0.0089595336 1.1623409e-38 341 233
-0.03156 0.75 0.00789 1.7516819e-38 296 234
-0.030244999 0.75 0.00789 1.7148037e-38 297 234
-0.028891427 0.74900001 0.0078794798 1.6595955e-38 298 234
-0.027578179 0.74900001 0.0078794798 1.6319369e-38 299 234
-0.026194798 0.74699998 0.0078584393 1.5217715e-38 300 234
-0.024885058 0.74699998 0.0078584393 1.4479791e-38 301 234
-0.023291279 0.73799998 0.0077637597 1.3466733e-38 302 234
-0.021997318 0.73799998 0.0077637597 1.2821364e-38 303 234
-0.020591147 0.73400003 0.0077216802 1.2179238e-38 304 234
-0.019277899 0.73299998 0.0077111595 1.2455824e-38 305 234
-0.017992707 0.73299998 0.0077111595 1.2638026e-38 306 234
-0.016639132 0.73000002 0.0076795998 1.2361439e-38 307 234
-0.0153592 0.73000002 0.0076795998 1.1167896e-38 308 234
-0.014040692 0.72799999 0.0076585598 1.0522527e-38 309 234
-0.012746733 0.727 0.0076480396 9.329003e-39 310 234
-0.0114405 0.72500002 0.0076270006 8.9602205e-39 311 234
-0.010169334 0.72500002 0.0076270006 9.2382143e-39 312 234
-0.0088736191 0.72299999 0.0076059597 9.791388e-39 313 234
-0.0076059597 0.72299999 0.0076059597 9.5194353e-39 314 234
-0.0063382997 0.72299999 0.0076059597 9.5194353e-39 315 234
-0.0050636264 0.722 0.0075954394 9.8849303e-39 316 234
-0.0037819401 0.71899998 0.0075638802 9.1473653e-39 317 234
-0.0025212932 0.71899998 0.0075638802 8.5977494e-39 318 234
-0.0012606466 0.71899998 0.0075638802 8.2286082e-39 319 234
0 0.71899998 0.0075638802 8.0460092e-39 320 234
0.0012606466 0.71899998 0.0075638802 7.8616207e-39 321 234
0.0025212932 0.71899998 0.0075638802 7.95238e-39 322 234
0.0037819401 0.71899998 0.0075638802 7.95238e-39 323 234
0.0050496003 0.72000003 0.0075743999 8.3190367e-39 324 234
0.0063120001 0.72000003 0.0075743999 8.6874591e-39 325 234
0.0075954394 0.722 0.0075954394 9.0551669e-39 326 234
0.0088613462 0.722 0.0075954394 8.9629712e-39 327 234
0.010127253 0.722 0.0075954394 8.9633103e-39 328 234
0.01139316 0.722 0.0075954394 8.870756e-39 329 234
0.012676599 0.72299999 0.0076059597 9.0544116e-39 330 234
0.01394426 0.72299999 0.0076059597 8.8696616e-39 331 234
0.015211919 0.72299999 0.0076059597 9.0522536e-39 332 234
0.016525166 0.72500002 0.0076270006 8.7760296e-39 333 234
0.017796334 0.72500002 0.0076270006 9.2337806e-39 334 234
0.0190675 0.72500002 0.0076270006 9.1415849e-39 335 234
0.020338668 0.72500002 0.0076270006 1.0151456e-38 336 234
0.021669446 0.727 0.0076480396 1.0981217e-38 337 234
0.022975679 0.72799999 0.0076585598 1.153227e-38 338 234
0.024252106 0.72799999 0.0076585598 1.153227e-38 339 234
0.025528532 0.72799999 0.0076585598 1.1164223e-38 340 234
0.026878599 0.73000002 0.0076795998 1.1164223e-38 341 234
0.028389972 0.736 0.0077427197 1.0431367e-38 342 234
0.029680425 0.736 0.0077427197 1.1168932e-38 343 234
-0.030244999 0.75 0.006575 1.7148034e-38 297 235
-0.028891427 0.74900001 0.0065662335 1.6411921e-38 298 235
-0.027578179 0.74900001 0.0065662335 1.6134974e-38 299 235
-0.026264934 0.74900001 0.0065662335 1.5583623e-38 300 235
-0.024951685 0.74900001 0.0065662335 1.5122646e-38 301 235
-0.02363844 0.74900001 0.0065662335 1.3926637e-38 302 235
-0.022027127 0.73900002 0.0064785667 1.318907e-38 303 235
-0.020647252 0.736 0.0064522666 1.2363628e-38 304 235
-0.019304199 0.73400003 0.006434733 1.2548021e-38 305 235
-0.017992707 0.73299998 0.0064259665 1.2730948e-38 306 235
-0.016707512 0.73299998 0.0064259665 1.3007535e-38 307 235
-0.01538024 0.73100001 0.006408433 1.1995511e-38 308 235
-0.014079267 0.73000002 0.0063996664 1.0981361e-38 309 235
-0.012764266 0.72799999 0.0063821329 9.6041648e-39 310 235
-0.01147206 0.727 0.0063733663 9.4197721e-39 311 235
-0.010197386 0.727 0.0063733663 8.962719e-39 312 235
-0.0088981669 0.72500002 0.0063558333 9.8850354e-39 313 235
-0.0076270006 0.72500002 0.0063558333 1.0254852e-38 314 235
-0.0063558333 0.72500002 0.0063558333 1.0070101e-38 315 235
-0.0050706398 0.72299999 0.0063382997 1.016189e-38 316 235
-0.0037977197 0.722 0.0063295332 9.2399323e-39 317 235
-0.0025248001 0.72000003 0.0063120001 8.7810673e-39 318 235
-0.0012624001 0.72000003 0.0063120001 8.3200905e-39 319 235
0 0.72000003 0.0063120001 7.4942787e-39 320 235
0.0012624001 0.72000003 0.0063120001 7.4942787e-39 321 235
0.0025248001 0.72000003 0.0063120001 7.4935655e-39 322 235
0.0037872 0.72000003 0.0063120001 7.7701537e-39 323 235
0.0050496003 0.72000003 0.0063120001 8.5048699e-39 324 235
0.0063120001 0.72000003 0.0063120001 8.7814568e-39 325 235
0.0075954394 0.722 0.0063295332 9.5143527e-39 326 235
0.0088613462 0.722 0.0063295332 9.2377659e-39 327 235
0.010127253 0.722 0.0063295332 8.8696896e-39 328 235
0.01140894 0.72299999 0.0063382997 8.777494e-39 329 235
0.012676599 0.72299999 0.0063382997 8.6849284e-39 330 235
0.01394426 0.72299999 0.0063382997 8.5927328e-39 331 235
0.015254001 0.72500002 0.0063558333 8.6831403e-39 332 235
0.016525166 0.72500002 0.0063558333 8.6831403e-39 333 235
0.017845426 0.727 0.0063733663 9.1408969e-39 334 235
0.019120099 0.727 0.0063733663 9.6022352e-39 335 235
0.020394772 0.727 0.0063733663 1.0980166e-38 336 235
0.021669446 0.727 0.0063733663 1.1440785e-38 337 235
0.022975679 0.72799999 0.0063821329 1.1807428e-38 338 235
0.024318734 0.73000002 0.0063996664 1.1622678e-38 339 235
0.025598666 0.73000002 0.0063996664 1.0980911e-38 340 235
0.02702588 0.73400003 0.006434733 1.079652e-38 341 235
0.028389972 0.736 0.0064522666 1.1349378e-38 342 235
0.029882059 0.741 0.0064960998 1.2086943e-38 343 235
0.03118128 0.741 0.0064960998 1.2998865e-38 344 235
-0.028891427 0.74900001 0.0052529867 1.6595952e-38 298 236
-0.027578179 0.74900001 0.0052529867 1.6042778e-38 299 236
-0.026264934 0.74900001 0.0052529867 1.5216277e-38 300 236
-0.024951685 0.74900001 0.0052529867 1.4663462e-38 301 236
-0.02363844 0.74900001 0.0052529867 1.3926637e-38 302 236
-0.02208674 0.741 0.0051968796 1.3281267e-38 303 236
-0.020703359 0.73799998 0.0051758396 1.2363272e-38 304 236
-0.019356798 0.736 0.005161813 1.2363272e-38 305 236
-0.018017253 0.73400003 0.0051477868 1.27306e-38 306 236
-0.016730307 0.73400003 0.0051477868 1.319122e-38 307 236
-0.015422319 0.73299998 0.005140773 1.2547623e-38 308 236
-0.014098554 0.73100001 0.0051267464 1.088846e-38 309 236
-0.012799333 0.73000002 0.0051197335 9.2364598e-39 310 236
-0.01148784 0.72799999 0.0051057064 9.1439055e-39 311 236
-0.010197386 0.727 0.0050986931 9.0545489e-39 312 236
-0.0089227129 0.727 0.0050986931 9.4233314e-39 313 236
-0.0076270006 0.72500002 0.0050846669 9.3332629e-39 314 236
-0.0063558333 0.72500002 0.0050846669 9.2410659e-39 315 236
-0.0050846669 0.72500002 0.0050846669 9.4257753e-39 316 236
-0.0038029798 0.72299999 0.0050706398 9.2410253e-39 317 236
-0.0025318132 0.722 0.0050636264 8.5973991e-39 318 236
-0.0012659066 0.722 0.0050636264 7.859834e-39 319 236
0 0.722 0.0050636264 7.4942787e-39 320 236
0.0012659066 0.722 0.0050636264 7.310249e-39 321 236
0.0025318132 0.722 0.0050636264 7.3099001e-39 322 236
0.0037977197 0.722 0.0050636264 7.8627151e-39 323 236
0.0050636264 0.722 0.0050636264 8.6892794e-39 324 236
0.0063295332 0.722 0.0050636264 8.781475e-39 325 236
0.0076059597 0.72299999 0.0050706398 9.329258e-39 326 236
0.0088736191 0.72299999 0.0050706398 9.0526697e-39 327 236
0.01014128 0.72299999 0.0050706398 8.9600902e-39 328 236
0.01140894 0.72299999 0.0050706398 8.9600902e-39 329 236
0.012676599 0.72299999 0.0050706398 8.9597104e-39 330 236
0.013982833 0.72500002 0.0050846669 8.7756793e-39 331 236
0.015296079 0.727 0.0050986931 8.5902258e-39 332 236
0.016570752 0.727 0.0050986931 9.0512026e-39 333 236
0.017845426 0.727 0.0050986931 9.5082823e-39 334 236
0.0191464 0.72799999 0.0051057064 1.0799021e-38 335 236
0.020422826 0.72799999 0.0051057064 1.2360638e-38 336 236
0.021699252 0.72799999 0.0051057064 1.2176245e-38 337 236
0.023038799 0.73000002 0.0051197335 1.1440817e-38 338 236
0.024318734 0.73000002 0.0051197335 1.0795448e-38 339 236
0.025598666 0.73000002 0.0051197335 1.0429902e-38 340 236
0.02709952 0.736 0.005161813 1.0798683e-38 341 236
0.028467119 0.73799998 0.0051758396 1.2266319e-38 342 236
0.029882059 0.741 0.0051968796 1.2634742e-38 343 236
0.03118128 0.741 0.0051968796 1.2353864e-38 344 236
0.032524332 0.74199998 0.0052038929 1.1892886e-38 345 236
0.033825304 0.74199998 0.0052038929 1.6593418e-38 346 236
-0.023385961 0.741 0.0038976599 1.3190872e-38 302 237
-0.020787518 0.741 0.0038976599 1.2454749e-38 304 237
-0.019409399 0.73799998 0.0038818798 1.2454749e-38 305 237
-0.018066347 0.736 0.0038713599 1.3005755e-38 306 237
-0.016730307 0.73400003 0.0038608401 1.3374538e-38 307 237
-0.01544336 0.73400003 0.0038608401 1.2916415e-38 308 237
-0.014137126 0.73299998 0.0038555798 1.1164338e-38 309 237
-0.012851933 0.73299998 0.0038555798 9.1431922e-39 310 237
-0.011519399 0.73000002 0.0038397999 9.0509966e-39 311 237
-0.010211413 0.72799999 0.0038292799 9.2367948e-39 312 237
-0.0089349858 0.72799999 0.0038292799 9.2367948e-39 313 237
-0.0076480396 0.727 0.0038240198 9.1463718e-39 314 237
-0.0063733663 0.727 0.0038240198 9.0541761e-39 315 237
-0.0050986931 0.727 0.0038240198 8.9651671e-39 316 237
-0.0038240198 0.727 0.0038240198 9.0573627e-39 317 237
-0.0025493465 0.727 0.0038240198 8.4130078e-39 318 237
-0.0012746733 0.727 0.0038240198 7.859834e-39 319 237
0 0.72500002 0.0038135003 7.03546e-39 320 237
0.0012711667 0.72500002 0.0038135003 6.9432657e-39 321 237
0.0025423334 0.72500002 0.0038135003 7.4932095e-39 322 237
0.0038135003 0.72500002 0.0038135003 7.7701565e-39 323 237
0.0050706398 0.72299999 0.0038029798 8.1368091e-39 324 237
0.0063382997 0.72299999 0.0038029798 7.768028e-39 325 237
0.0076270006 0.72500002 0.0038135003 8.7775066e-39 326 237
0.0088981669 0.72500002 0.0038135003 8.5012798e-39 327 237
0.010197386 0.727 0.0038240198 8.6852927e-39 328 237
0.01147206 0.727 0.0038240198 8.5009001e-39 329 237
0.012746733 0.727 0.0038240198 8.5920013e-39 330 237
0.014021406 0.727 0.0038240198 8.4079702e-39 331 237
0.015296079 0.727 0.0038240198 9.2345415e-39 332 237
0.016593546 0.72799999 0.0038292799 9.9721065e-39 333 237
0.017869972 0.72799999 0.0038292799 1.1532309e-38 334 237
0.0191464 0.72799999 0.0038292799 1.2085483e-38 335 237
0.020422826 0.72799999 0.0038292799 1.2085499e-38 336 237
0.021758866 0.73000002 0.0038397999 1.1440129e-38 337 237
0.023038799 0.73000002 0.0038397999 1.0430258e-38 338 237
0.024518613 0.736 0.0038713599 1.0061116e-38 339 237
0.025879199 0.73799998 0.0038818798 9.9710976e-39 340 237
0.027283618 0.741 0.0038976599 1.0800498e-38 341 237
0.028582839 0.741 0.0038976599 1.2446776e-38 342 237
0.029922385 0.74199998 0.0039029196 1.1432984e-38 343 237
0.031223357 0.74199998 0.0039029196 1.0146927e-38 344 237
0.032524332 0.74199998 0.0039029196 1.0884492e-38 345 237
0.033825304 0.74199998 0.0039029196 1.6410825e-38 346 237
-0.020927785 0.74599999 0.0026159731 1.2454749e-38 304 238
-0.019567199 0.74400002 0.00260896 1.2362554e-38 305 238
-0.018115439 0.73799998 0.0025879198 1.263877e-38 306 238
-0.016775893 0.736 0.0025809065 1.2823163e-38 307 238
-0.015485439 0.736 0.0025809065 1.2916781e-38 308 238
-0.014156413 0.73400003 0.0025738934 1.1072868e-38 309 238
-0.012869466 0.73400003 0.0025738934 9.325801e-39 310 238
-0.011566739 0.73299998 0.0025703865 9.325801e-39 311 238
-0.010239467 0.73000002 0.0025598668 9.6941954e-39 312 238
-0.0089595336 0.73000002 0.0025598668 9.6019998e-39 313 238
-0.0076585598 0.72799999 0.0025528532 9.3271925e-39 314 238
-0.0063821329 0.72799999 0.0025528532 9.1424411e-39 315 238
-0.0051057064 0.72799999 0.0025528532 8.6871663e-39 316 238
-0.0038292799 0.72799999 0.0025528532 9.24034e-39 317 238
-0.0025528532 0.72799999 0.0025528532 8.3222569e-39 318 238
-0.0012764266 0.72799999 0.0025528532 7.7690846e-39 319 238
0 0.72799999 0.0025528532 7.2187722e-39 320 238
0.0012746733 0.727 0.0025493465 7.126578e-39 321 238
0.0025493465 0.727 0.0025493465 7.4928466e-39 322 238
0.0038240198 0.727 0.0025493465 7.6772378e-39 323 238
0.0050986931 0.727 0.0025493465 7.7672825e-39 324 238
0.0063733663 0.727 0.0025493465 7.5828912e-39 325 238
0.0076585598 0.72799999 0.0025528532 8.136051e-39 326 238
0.0089349858 0.72799999 0.0025528532 8.136051e-39 327 238
0.010211413 0.72799999 0.0025528532 8.8696588e-39 328 238
0.01148784 0.72799999 0.0025528532 8.8696588e-39 329 238
0.012764266 0.72799999 0.0025528532 8.7745947e-39 330 238
0.014040692 0.72799999 0.0025528532 8.7745947e-39 331 238
0.01531712 0.72799999 0.0025528532 1.033841e-38 332 238
0.016593546 0.72799999 0.0025528532 1.1721345e-38 333 238
0.017869972 0.72799999 0.0025528532 1.2730165e-38 334 238
0.019199001 0.73000002 0.0025598668 1.2361382e-38 335 238
0.020478934 0.73000002 0.0025598668 1.079833e-38 336 238
0.021788673 0.73100001 0.0025633732 9.8767341e-39 337 238
0.023228159 0.736 0.0025809065 1.0153664e-38 338 238
0.024585238 0.73799998 0.0025879198 1.0522807e-38 339 238
0.025914267 0.73900002 0.0025914267 1.0796574e-38 340 238
0.027320439 0.74199998 0.0026019465 1.088877e-38 341 238
0.028621411 0.74199998 0.0026019465 1.1616675e-38 342 238
0.029922385 0.74199998 0.0026019465 1.069436e-38 343 238
0.031223357 0.74199998 0.0026019465 1.0146211e-38 344 238
0.032612 0.74400002 0.00260896 1.1713176e-38 345 238
-0.021011947 0.74900001 0.0013132467 1.2363272e-38 304 239
-0.019646099 0.74699998 0.0013097399 1.2363272e-38 305 239
-0.018139986 0.73900002 0.0012957134 1.2638417e-38 306 239
-0.016821479 0.73799998 0.0012939599 1.2730613e-38 307 239
-0.015485439 0.736 0.0012904532 1.2272862e-38 308 239
-0.014194986 0.736 0.0012904532 1.107432e-38 309 239
-0.012869466 0.73400003 0.0012869467 1.0061215e-38 310 239
-0.011566739 0.73299998 0.0012851933 9.4158457e-39 311 239
-0.010253493 0.73100001 0.0012816866 9.4179784e-39 312 239
-0.0089718066 0.73100001 0.0012816866 9.4179784e-39 313 239
-0.0076795998 0.73000002 0.0012799334 9.0513413e-39 314 239
-0.0063996664 0.73000002 0.0012799334 8.8669486e-39 315 239
-0.0051197335 0.73000002 0.0012799334 8.593886e-39 316 239
-0.0038292799 0.72799999 0.0012764266 8.593886e-39 317 239
-0.0025528532 0.72799999 0.0012764266 8.138216e-39 318 239
-0.0012764266 0.72799999 0.0012764266 7.5850422e-39 319 239
0 0.72799999 0.0012764266 7.2187722e-39 320 239
0.0012764266 0.72799999 0.0012764266 7.126578e-39 321 239
0.0025528532 0.72799999 0.0012764266 7.4928438e-39 322 239
0.0038292799 0.72799999 0.0012764266 7.4928438e-39 323 239
0.0051057064 0.72799999 0.0012764266 7.5832443e-39 324 239
0.0063821329 0.72799999 0.0012764266 7.6754386e-39 325 239
0.0076585598 0.72799999 0.0012764266 8.4115575e-39 326 239
0.0089595336 0.73000002 0.0012799334 8.6885031e-39 327 239
0.010239467 0.73000002 0.0012799334 9.1462541e-39 328 239
0.011519399 0.73000002 0.0012799334 8.8693084e-39 329 239
0.012799333 0.73000002 0.0012799334 8.7739192e-39 330 239
0.014079267 0.73000002 0.0012799334 9.6955168e-39 331 239
0.0153592 0.73000002 0.0012799334 1.2087294e-38 332 239
0.016639132 0.73000002 0.0012799334 1.2640467e-38 333 239
0.017943613 0.73100001 0.0012816866 1.1627783e-38 334 239
0.019225299 0.73100001 0.0012816866 1.0798022e-38 335 239
0.020506985 0.73100001 0.0012816866 1.042957e-38 336 239
0.021937706 0.736 0.0012904532 1.0337375e-38 337 239
0.023322839 0.73900002 0.0012957134 1.1256817e-38 338 239
0.024618553 0.73900002 0.0012957134 1.1809632e-38 339 239
0.026019465 0.74199998 0.0013009732 1.1436221e-38 340 239
0.027320439 0.74199998 0.0013009732 9.5001127e-39 341 239
0.028621411 0.74199998 0.0013009732 1.0146223e-38 342 239
0.029922385 0.74199998 0.0013009732 1.042317e-38 343 239
0.031307522 0.74400002 0.00130448 1.2077997e-38 344 239
-0.022414612 0.75199997 -0 1.2730247e-38 303 240
-0.021096105 0.75199997 -0 1.2179238e-38 304 240
-0.0196987 0.74900001 -0 1.2179238e-38 305 240
-0.01826272 0.74400002 -0 1.2545866e-38 306 240
-0.016844273 0.73900002 -0 1.2822813e-38 307 240
-0.015527519 0.73799998 -0 1.2365425e-38 308 240
-0.014233559 0.73799998 -0 1.1720055e-38 309 240
-0.012904533 0.736 -0 1.1626746e-38 310 240
-0.01161408 0.736 -0 1.0520398e-38 311 240
-0.010295574 0.73400003 -0 9.3268548e-39 312 240
-0.0089963535 0.73299998 -0 9.5112461e-39 313 240
-0.00769012 0.73100001 -0 9.6016438e-39 314 240
-0.006408433 0.73100001 -0 8.7718832e-39 315 240
-0.0051267464 0.73100001 -0 8.6824999e-39 316 240
-0.00384506 0.73100001 -0 8.7746956e-39 317 240
-0.0025598668 0.73000002 -0 7.6772378e-39 318 240
-0.0012799334 0.73000002 -0 7.5850422e-39 319 240
0 0.73000002 -0 7.2180548e-39 320 240
0.0012799334 0.73000002 -0 7.2180548e-39 321 240
0.0025598668 0.73000002 -0 7.7683503e-39 322 240
0.0038397999 0.73000002 -0 7.7683503e-39 323 240
0.0051197335 0.73000002 -0 8.6852759e-39 324 240
0.0063996664 0.73000002 -0 9.1462541e-39 325 240
0.0076795998 0.73000002 -0 9.9724204e-39 326 240
0.0089595336 0.73000002 -0 9.7876704e-39 327 240
0.010253493 0.73100001 -0 9.5118122e-39 328 240
0.01153518 0.73100001 -0 9.4196166e-39 329 240
0.012816866 0.73100001 -0 9.7852392e-39 330 240
0.014098554 0.73100001 -0 1.1075978e-38 331 240
0.01538024 0.73100001 -0 1.3006771e-38 332 240
0.016661927 0.73100001 -0 1.3098967e-38 333 240
0.017992707 0.73299998 -0 1.1623832e-38 334 240
0.019304199 0.73400003 -0 1.107066e-38 335 240
0.020647252 0.736 -0 1.0518193e-38 336 240
0.022027127 0.73900002 -0 1.0979169e-38 337 240
0.023385961 0.741 -0 1.1713161e-38 338 240
0.024685178 0.741 -0 1.1713161e-38 339 240
0.026019465 0.74199998 -0 1.0974189e-38 340 240
0.027320439 0.74199998 -0 9.6834502e-39 341 240
0.02869856 0.74400002 -0 9.7781696e-39 342 240
0.030003037 0.74400002 -0 1.1068908e-38 343 240
-0.022414612 0.75199997 -0.0013185065 1.3189067e-38 303 241
-0.021096105 0.75199997 -0.0013185065 1.2179241e-38 304 241
-0.019724999 0.75 -0.001315 1.2179241e-38 305 241
-0.018336359 0.74699998 -0.0013097399 1.2270361e-38 306 241
-0.016889861 0.741 -0.0012992199 1.291573e-38 307 241
-0.01559064 0.741 -0.0012992199 1.2826048e-38 308 241
-0.014252847 0.73900002 -0.0012957134 1.2918245e-38 309 241
-0.012939599 0.73799998 -0.0012939599 1.3376686e-38 310 241
-0.011645639 0.73799998 -0.0012939599 1.2546925e-38 311 241
-0.010323626 0.736 -0.0012904532 1.1259744e-38 312 241
-0.0090331733 0.736 -0.0012904532 9.9690054e-39 313 241
-0.0077216802 0.73400003 -0.0012869467 9.050991e-39 314 241
-0.006434733 0.73400003 -0.0012869467 8.2212303e-39 315 241
-0.005140773 0.73299998 -0.0012851933 8.3148188e-39 316 241
-0.0038555798 0.73299998 -0.0012851933 8.9601882e-39 317 241
-0.0025633732 0.73100001 -0.0012816866 8.4119667e-39 318 241
-0.0012816866 0.73100001 -0.0012816866 7.8587943e-39 319 241
0 0.73100001 -0.0012816866 7.3098973e-39 320 241
0.0012816866 0.73100001 -0.0012816866 7.3098973e-39 321 241
0.0025598668 0.73000002 -0.0012799334 8.2275544e-39 322 241
0.0038397999 0.73000002 -0.0012799334 8.8729238e-39 323 241
0.0051197335 0.73000002 -0.0012799334 1.0893343e-38 324 241
0.006408433 0.73100001 -0.0012816866 1.0985538e-38 325 241
0.00769012 0.73100001 -0.0012816866 1.024797e-38 326 241
0.0089718066 0.73100001 -0.0012816866 9.4182097e-39 327 241
0.010281546 0.73299998 -0.0012851933 8.3176607e-39 328 241
0.011566739 0.73299998 -0.0012851933 9.8849878e-39 329 241
0.012851933 0.73299998 -0.0012851933 1.2546512e-38 330 241
0.014137126 0.73299998 -0.0012851933 1.2915654e-38 331 241
0.015422319 0.73299998 -0.0012851933 1.3005717e-38 332 241
0.016707512 0.73299998 -0.0012851933 1.2820966e-38 333 241
0.018017253 0.73400003 -0.0012869467 1.1254719e-38 334 241
0.019356798 0.736 -0.0012904532 1.0148732e-38 335 241
0.020731414 0.73900002 -0.0012957134 8.4884972e-39 336 241
0.02208674 0.741 -0.0012992199 8.2122704e-39 337 241
0.023385961 0.741 -0.0012992199 9.5901854e-39 338 241
0.024718491 0.74199998 -0.0013009732 1.0050803e-38 339 241
0.026019465 0.74199998 -0.0013009732 9.1317282e-39 340 241
0.027394081 0.74400002 -0.00130448 9.3157593e-39 341 241
0.028775707 0.74599999 -0.0013079866 1.0790877e-38 342 241
0.03008369 0.74599999 -0.0013079866 1.198942e-38 343 241
-0.023827799 0.755 -0.0026475333 1.4111031e-38 302 242
-0.022474226 0.75400001 -0.0026440267 1.3189073e-38 303 242
-0.021096105 0.75199997 -0.0026370131 1.2086693e-38 304 242
-0.019724999 0.75 -0.00263 1.1994497e-38 305 242
-0.018385453 0.74900001 -0.0026264933 1.1718633e-38 306 242
-0.017026618 0.74699998 -0.0026194798 1.2732784e-38 307 242
-0.015653761 0.74400002 -0.00260896 1.3009728e-38 308 242
-0.01429142 0.741 -0.0025984398 1.3009728e-38 309 242
-0.0129922 0.741 -0.0025984398 1.3285583e-38 310 242
-0.01166142 0.73900002 -0.0025914267 1.3193388e-38 311 242
-0.010365707 0.73900002 -0.0025914267 1.2366832e-38 312 242
-0.0090577193 0.73799998 -0.0025879198 1.1629265e-38 313 242
-0.0077427197 0.736 -0.0025809065 1.171748e-38 314 242
-0.0064522666 0.736 -0.0025809065 1.024235e-38 315 242
-0.0051477868 0.73400003 -0.0025738934 8.959496e-39 316 242
-0.0038608401 0.73400003 -0.0025738934 9.6974198e-39 317 242
-0.0025703865 0.73299998 -0.0025703865 9.3282169e-39 318 242
-0.0012851933 0.73299998 -0.0025703865 8.4988163e-39 319 242
0 0.73299998 -0.0025703865 6.9411526e-39 320 242
0.0012851933 0.73299998 -0.0025703865 7.1255452e-39 321 242
0.0025703865 0.73299998 -0.0025703865 9.6069197e-39 322 242
0.00384506 0.73100001 -0.0025633732 1.0252289e-38 323 242
0.0051267464 0.73100001 -0.0025633732 1.1077751e-38 324 242
0.0064259665 0.73299998 -0.0025703865 1.0432381e-38 325 242
0.0077111595 0.73299998 -0.0025703865 9.696614e-39 326 242
0.0089963535 0.73299998 -0.0025703865 9.5122228e-39 327 242
0.010295574 0.73400003 -0.0025738934 1.0339172e-38 328 242
0.011582521 0.73400003 -0.0025738934 1.1537716e-38 329 242
0.012869466 0.73400003 -0.0025738934 1.2634784e-38 330 242
0.014194986 0.736 -0.0025809065 1.2542588e-38 331 242
0.015485439 0.736 -0.0025809065 1.2729506e-38 332 242
0.016775893 0.736 -0.0025809065 1.3097928e-38 333 242
0.018115439 0.73799998 -0.0025879198 1.1160748e-38 334 242
0.0194357 0.73900002 -0.0025914267 9.685618e-39 335 242
0.020787518 0.741 -0.0025984398 6.7378998e-39 336 242
0.02208674 0.741 -0.0025984398 6.7378998e-39 337 242
0.023417519 0.74199998 -0.0026019465 7.2907205e-39 338 242
0.024718491 0.74199998 -0.0026019465 8.1204812e-39 339 242
0.026089599 0.74400002 -0.00260896 9.867138e-39 340 242
0.027467718 0.74599999 -0.0026159731 1.1157877e-38 341 242
0.028814279 0.74699998 -0.0026194798 1.1344764e-38 342 242
0.030204674 0.74900001 -0.0026264933 1.1529514e-38 343 242
-0.026615599 0.759 -0.0039923396 1.3095784e-38 300 243
-0.025284819 0.759 -0.0039923396 1.3648958e-38 301 243
-0.023827799 0.755 -0.0039712996 1.3465308e-38 302 243
-0.022474226 0.75400001 -0.00396604 1.3096524e-38 303 243
-0.021096105 0.75199997 -0.0039555198 1.1719352e-38 304 243
-0.0197776 0.75199997 -0.0039555198 1.1627156e-38 305 243
-0.018409999 0.75 -0.003945 1.1626437e-38 306 243
-0.017072206 0.74900001 -0.0039397399 1.2640229e-38 307 243
-0.015695838 0.74599999 -0.0039239596 1.3008645e-38 308 243
-0.014387853 0.74599999 -0.0039239596 1.2732059e-38 309 243
-0.0130448 0.74400002 -0.0039134403 1.2640935e-38 310 243
-0.01169298 0.741 -0.0038976599 1.2917881e-38 311 243
-0.010393759 0.741 -0.0038976599 1.2920028e-38 312 243
-0.0090945391 0.741 -0.0038976599 1.3288809e-38 313 243
-0.0077742799 0.73900002 -0.00388714 1.3652184e-38 314 243
-0.0064697997 0.73799998 -0.0038818798 1.2361445e-38 315 243
-0.005161813 0.736 -0.0038713599 1.1720016e-38 316 243
-0.0038713599 0.736 -0.0038713599 1.1443431e-38 317 243
-0.0025738934 0.73400003 -0.0038608401 1.033775e-38 318 243
-0.0012869467 0.73400003 -0.0038608401 8.86262e-39 319 243
0 0.73400003 -0.0038608401 6.9383234e-39 320 243
0.0012869467 0.73400003 -0.0038608401 7.4914971e-39 321 243
0.0025738934 0.73400003 -0.0038608401 1.0709691e-38 322 243
0.0038608401 0.73400003 -0.0038608401 1.0709691e-38 323 243
0.0051477868 0.73400003 -0.0038608401 1.0249069e-38 324 243
0.006434733 0.73400003 -0.0038608401 9.6958952e-39 325 243
0.0077216802 0.73400003 -0.0038608401 8.9627036e-39 326 243
0.0090086265 0.73400003 -0.0038608401 1.0161247e-38 327 243
0.010323626 0.736 -0.0038713599 1.16253e-38 328 243
0.01161408 0.736 -0.0038713599 1.0518953e-38 329 243
0.012939599 0.73799998 -0.0038818798 9.41012e-39 330 243
0.014233559 0.73799998 -0.0038818798 9.1338918e-39 331 243
0.015527519 0.73799998 -0.0038818798 1.1070003e-38 332 243
0.016844273 0.73900002 -0.00388714 1.2268187e-38 333 243
0.018189078 0.741 -0.0038976599 1.0974932e-38 334 243
0.0195146 0.74199998 -0.0039029196 9.0388235e-39 335 243
0.020815572 0.74199998 -0.0039029196 6.277286e-39 336 243
0.022116546 0.74199998 -0.0039029196 6.462036e-39 337 243
0.023417519 0.74199998 -0.0039029196 6.0024942e-39 338 243
0.024718491 0.74199998 -0.0039029196 7.477983e-39 339 243
0.026089599 0.74400002 -0.0039134403 1.1156432e-38 340 243
0.027467718 0.74599999 -0.0039239596 1.2539367e-38 341 243
0.028891427 0.74900001 -0.0039397399 1.1622427e-38 342 243
0.030204674 0.74900001 -0.0039397399 1.0423884e-38 343 243
0.031517919 0.74900001 -0.0039397399 1.005905e-38 344 243
-0.028388219 0.77100003 -0.0054072798 1.4845307e-38 299 244
-0.025284819 0.759 -0.0053231199 1.3370566e-38 301 244
-0.023827799 0.755 -0.0052950666 1.2268563e-38 302 244
-0.022504034 0.755 -0.0052950666 1.2084172e-38 303 244
-0.021152213 0.75400001 -0.0052880533 1.1717555e-38 304 244
-0.019830201 0.75400001 -0.0052880533 1.1809752e-38 305 244
-0.018459093 0.75199997 -0.0052740262 1.2177093e-38 306 244
-0.017095 0.75 -0.00526 1.2914658e-38 307 244
-0.015716879 0.74699998 -0.0052389596 1.2179244e-38 308 244
-0.014407139 0.74699998 -0.0052389596 1.1717906e-38 309 244
-0.013079867 0.74599999 -0.0052319462 1.1809383e-38 310 244
-0.011740319 0.74400002 -0.0052179201 1.2177806e-38 311 244
-0.010407786 0.74199998 -0.0052038929 1.1905171e-38 312 244
-0.009106813 0.74199998 -0.0052038929 1.2457986e-38 313 244
-0.0077953199 0.741 -0.0051968796 1.300791e-38 314 244
-0.0064960998 0.741 -0.0051968796 1.2638768e-38 315 244
-0.0051758396 0.73799998 -0.0051758396 1.3283043e-38 316 244
-0.0038818798 0.73799998 -0.0051758396 1.3283043e-38 317 244
-0.0025809065 0.736 -0.005161813 1.2545092e-38 318 244
-0.0012904532 0.736 -0.005161813 1.0885211e-38 319 244
0 0.736 -0.005161813 9.7852966e-39 320 244
0.0012869467 0.73400003 -0.0051477868 1.0246273e-38 321 244
0.0025738934 0.73400003 -0.0051477868 1.0433846e-38 322 244
0.0038608401 0.73400003 -0.0051477868 9.327498e-39 323 244
0.0051477868 0.73400003 -0.0051477868 8.8679324e-39 324 244
0.0064522666 0.736 -0.005161813 9.3285518e-39 325 244
0.0077427197 0.736 -0.005161813 1.0523578e-38 326 244
0.0090331733 0.736 -0.005161813 1.1814317e-38 327 244
0.010351679 0.73799998 -0.0051758396 9.4169625e-39 328 244
0.011645639 0.73799998 -0.0051758396 5.544746e-39 329 244
0.012939599 0.73799998 -0.0051758396 6.285202e-39 330 244
0.014252847 0.73900002 -0.0051828534 7.7603306e-39 331 244
0.01554856 0.73900002 -0.0051828534 1.0237016e-38 332 244
0.016889861 0.741 -0.0051968796 9.591647e-39 333 244
0.018213626 0.74199998 -0.0052038929 8.5739035e-39 334 244
0.0195146 0.74199998 -0.0052038929 8.0207297e-39 335 244
0.020815572 0.74199998 -0.0052038929 6.6446294e-39 336 244
0.022116546 0.74199998 -0.0052038929 8.3037906e-39 337 244
0.023417519 0.74199998 -0.0052038929 9.6845488e-39 338 244
0.02478512 0.74400002 -0.0052179201 1.0975288e-38 339 244
0.026089599 0.74400002 -0.0052179201 1.152736e-38 340 244
0.027504537 0.74699998 -0.0052389596 1.1804306e-38 341 244
0.028929999 0.75 -0.00526 1.0607199e-38 342 244
0.030728921 0.76200002 -0.0053441599 8.8558406e-39 343 244
0.032064959 0.76200002 -0.0053441599 9.8717847e-39 344 244
-0.029817186 0.773 -0.0067766332 1.6135677e-38 298 245
-0.028388219 0.77100003 -0.0067590997 1.4937493e-38 299 245
-0.026790932 0.764 -0.006697733 1.3925894e-38 300 245
-0.025351444 0.76099998 -0.0066714329 1.3096493e-38 301 245
-0.02389092 0.75700003 -0.0066363667 1.2268559e-38 302 245
-0.022563647 0.75700003 -0.0066363667 1.1899778e-38 303 245
-0.021180267 0.755 -0.0066188332 1.1349493e-38 304 245
-0.0198565 0.755 -0.0066188332 1.1441689e-38 305 245
-0.018508185 0.75400001 -0.0066100666 1.1808676e-38 306 245
-0.017140586 0.75199997 -0.0065925326 1.2730633e-38 307 245
-0.01575896 0.74900001 -0.0065662335 1.1349493e-38 308 245
-0.014407139 0.74699998 -0.0065486995 1.0427897e-38 309 245
-0.013079867 0.74599999 -0.0065399334 1.0888149e-38 310 245
-0.011771879 0.74599999 -0.0065399334 1.1349127e-38 311 245
-0.01043584 0.74400002 -0.0065223998 1.1442039e-38 312 245
-0.0091313599 0.74400002 -0.0065223998 1.1626791e-38 313 245
-0.0078268806 0.74400002 -0.0065223998 1.199485e-38 314 245
-0.0065048663 0.74199998 -0.0065048663 1.2087046e-38 315 245
-0.0051968796 0.741 -0.0064960998 1.3191223e-38 316 245
-0.0038976599 0.741 -0.0064960998 1.4020983e-38 317 245
-0.0025914267 0.73900002 -0.0064785667 1.3558916e-38 318 245
-0.0012939599 0.73799998 -0.0064697997 1.1991232e-38 319 245
0 0.73799998 -0.0064697997 1.1534183e-38 320 245
0.0012904532 0.736 -0.0064522666 1.2087357e-38 321 245
0.0025809065 0.736 -0.0064522666 1.1629893e-38 322 245
0.0038713599 0.736 -0.0064522666 9.970013e-39 323 245
0.005161813 0.736 -0.0064522666 8.4073242e-39 324 245
0.0064522666 0.736 -0.0064522666 9.4211159e-39 325 245
0.0077427197 0.736 -0.0064522666 1.1350477e-38 326 245
0.0090577193 0.73799998 -0.0064697997 1.2733411e-38 327 245
0.010351679 0.73799998 -0.0064697997 9.4159031e-39 328 245
0.01166142 0.73900002 -0.0064785667 3.6075784e-39 329 245
0.012957133 0.73900002 -0.0064785667 6.5553303e-39 330 245
0.01429142 0.741 -0.0064960998 9.7821773e-39 331 245
0.01559064 0.741 -0.0064960998 9.4087004e-39 332 245
0.016912652 0.74199998 -0.0065048663 7.2881996e-39 333 245
0.018213626 0.74199998 -0.0065048663 6.7346741e-39 334 245
0.019567199 0.74400002 -0.0065223998 7.1956508e-39 335 245
0.020927785 0.74599999 -0.0065399334 8.1172428e-39 336 245
0.022176161 0.74400002 -0.0065223998 9.8689583e-39 337 245
0.023480639 0.74400002 -0.0065223998 1.2079111e-38 338 245
0.02478512 0.74400002 -0.0065223998 1.2171307e-38 339 245
0.026685731 0.76099998 -0.0066714329 1.1436599e-38 340 245
0.028020019 0.76099998 -0.0066714329 1.1067457e-38 341 245
0.029354304 0.76099998 -0.0066714329 9.6863243e-39 342 245
0.030728921 0.76200002 -0.0066801999 7.5654647e-39 343 245
0.032064959 0.76200002 -0.0066801999 1.1523747e-38 344 245
-0.029817186 0.773 -0.0081319595 1.659629e-38 298 246
-0.028388219 0.77100003 -0.0081109209 1.4567984e-38 299 246
-0.026790932 0.764 -0.0080372803 1.3283743e-38 300 246
-0.02538476 0.76200002 -0.0080162399 1.3283743e-38 301 246
-0.024017159 0.76099998 -0.0080057196 1.3464935e-38 302 246
-0.02262326 0.759 -0.0079846792 1.2819566e-38 303 246
-0.02129248 0.759 -0.0079846792 1.134949e-38 304 246
-0.0200406 0.76200002 -0.0080162399 1.1257295e-38 305 246
-0.018532733 0.755 -0.0079425992 1.1073985e-38 306 246
-0.017186172 0.75400001 -0.00793208 1.1534605e-38 307 246
-0.01586416 0.75400001 -0.00793208 1.1073266e-38 308 246
-0.014445714 0.74900001 -0.0078794798 1.0058754e-38 309 246
-0.013132467 0.74900001 -0.0078794798 9.32299e-39 310 246
-0.011787659 0.74699998 -0.0078584393 9.5995783e-39 311 246
-0.010477919 0.74699998 -0.0078584393 1.0150231e-38 312 246
-0.0091559067 0.74599999 -0.0078479191 1.0426817e-38 313 246
-0.0078479191 0.74599999 -0.0078479191 9.9705118e-39 314 246
-0.0065223998 0.74400002 -0.0078268806 1.0615881e-38 315 246
-0.0052179201 0.74400002 -0.0078268806 1.2180679e-38 316 246
-0.0039029196 0.74199998 -0.0078058392 1.3010441e-38 317 246
-0.0025984398 0.741 -0.0077953199 1.3008273e-38 318 246
-0.0012992199 0.741 -0.0077953199 1.1533143e-38 319 246
0 0.741 -0.0077953199 1.1902988e-38 320 246
0.0012992199 0.741 -0.0077953199 1.3008977e-38 321 246
0.0025914267 0.73900002 -0.0077742799 1.3379149e-38 322 246
0.00388714 0.73900002 -0.0077742799 1.2180606e-38 323 246
0.0051828534 0.73900002 -0.0077742799 1.1536293e-38 324 246
0.0064785667 0.73900002 -0.0077742799 1.1812521e-38 325 246
0.0077742799 0.73900002 -0.0077742799 1.2638007e-38 326 246
0.0090945391 0.741 -0.0077953199 1.383655e-38 327 246
0.010393759 0.741 -0.0077953199 1.0610844e-38 328 246
0.01170876 0.74199998 -0.0078058392 4.4333762e-39 329 246
0.013009733 0.74199998 -0.0078058392 6.0028754e-39 330 246
0.01434928 0.74400002 -0.0078268806 8.2152117e-39 331 246
0.015653761 0.74400002 -0.0078268806 8.5778636e-39 332 246
0.016958239 0.74400002 -0.0078268806 8.3934723e-39 333 246
0.018311813 0.74599999 -0.0078479191 8.4881763e-39 334 246
0.019619798 0.74599999 -0.0078479191 9.8711107e-39 335 246
0.020955838 0.74699998 -0.0078584393 1.1250796e-38 336 246
0.022265578 0.74699998 -0.0078584393 1.0882372e-38 337 246
0.024174958 0.76599997 -0.0080583189 1.125043e-38 338 246
0.025351444 0.76099998 -0.0080057196 1.1434461e-38 339 246
0.026685731 0.76099998 -0.0080057196 1.0515732e-38 340 246
0.028020019 0.76099998 -0.0080057196 9.6859712e-39 341 246
0.029392879 0.76200002 -0.0080162399 8.7640149e-39 342 246
0.030728921 0.76200002 -0.0080162399 8.487428e-39 343 246
-0.028204117 0.76599997 -0.0094013726 1.456726e-38 299 247
-0.026861066 0.76599997 -0.0094013726 1.291602e-38 300 247
-0.025518013 0.76599997 -0.0094013726 1.3469194e-38 301 247
-0.02404872 0.76200002 -0.0093522798 1.3650033e-38 302 247
-0.022682872 0.76099998 -0.0093400059 1.2635881e-38 303 247
-0.021348584 0.76099998 -0.0093400059 1.1071464e-38 304 247
-0.0200406 0.76200002 -0.0093522798 1.116366e-38 305 247
-0.01863092 0.759 -0.00931546 1.070557e-38 306 247
-0.017254554 0.75700003 -0.0092909131 1.089032e-38 307 247
-0.015885198 0.755 -0.0092663663 1.0798124e-38 308 247
-0.014542146 0.75400001 -0.0092540924 1.0152755e-38 309 247
-0.013185065 0.75199997 -0.0092295464 9.9662084e-39 310 247
-0.01181922 0.74900001 -0.0091927266 9.689623e-39 311 247
-0.010505973 0.74900001 -0.0091927266 9.4141137e-39 312 247
-0.0091681797 0.74699998 -0.0091681797 9.5981462e-39 313 247
-0.0078584393 0.74699998 -0.0091681797 9.3255054e-39 314 247
-0.0065486995 0.74699998 -0.0091681797 1.0247822e-38 315 247
-0.0052389596 0.74699998 -0.0091681797 1.217996e-38 316 247
-0.0039239596 0.74599999 -0.0091559067 1.3378503e-38 317 247
-0.00260896 0.74400002 -0.0091313599 1.2915725e-38 318 247
-0.0013009732 0.74199998 -0.009106813 1.1440594e-38 319 247
0 0.74199998 -0.009106813 1.1534225e-38 320 247
0.0013009732 0.74199998 -0.009106813 1.3193388e-38 321 247
0.0026019465 0.74199998 -0.009106813 1.4020605e-38 322 247
0.0039029196 0.74199998 -0.009106813 1.346779e-38 323 247
0.0052038929 0.74199998 -0.009106813 1.273237e-38 324 247
0.0065048663 0.74199998 -0.009106813 1.273237e-38 325 247
0.0078058392 0.74199998 -0.009106813 1.3282676e-38 326 247
0.009106813 0.74199998 -0.009106813 1.3559264e-38 327 247
0.010407786 0.74199998 -0.009106813 1.0886707e-38 328 247
0.01170876 0.74199998 -0.009106813 5.5390021e-39 329 247
0.013079867 0.74599999 -0.0091559067 4.3469638e-39 330 247
0.014387853 0.74599999 -0.0091559067 5.8220938e-39 331 247
0.015695838 0.74599999 -0.0091559067 7.3875993e-39 332 247
0.017003827 0.74599999 -0.0091559067 8.7705337e-39 333 247
0.018336359 0.74699998 -0.0091681797 1.0883808e-38 334 247
0.019646099 0.74699998 -0.0091681797 1.1252949e-38 335 247
0.021011947 0.74900001 -0.0091927266 1.1619205e-38 336 247
0.022325192 0.74900001 -0.0091927266 1.1434814e-38 337 247
0.024174958 0.76599997 -0.0094013726 1.0883438e-38 338 247
0.02538476 0.76200002 -0.0093522798 1.0883438e-38 339 247
0.0267208 0.76200002 -0.0093522798 1.024094e-38 340 247
0.028056841 0.76200002 -0.0093522798 8.489223e-39 341 247
0.029392879 0.76200002 -0.0093522798 8.4888531e-39 342 247
-0.026861066 0.76599997 -0.010744425 1.3374477e-38 300 248
-0.025518013 0.76599997 -0.010744425 1.374362e-38 301 248
-0.024111839 0.764 -0.010716373 1.365038e-38 302 248
-0.02271268 0.76200002 -0.01068832 1.2359642e-38 303 248
-0.02137664 0.76200002 -0.01068832 1.0242054e-38 304 248
-0.020093199 0.764 -0.010716373 1.0426445e-38 305 248
-0.01870456 0.76200002 -0.01068832 1.0520812e-38 306 248
-0.017345725 0.76099998 -0.010674292 1.098179e-38 307 248
-0.015927281 0.75700003 -0.010618187 1.0890317e-38 308 248
-0.014542146 0.75400001 -0.010576107 1.0152752e-38 309 248
-0.013185065 0.75199997 -0.010548052 9.9665616e-39 310 248
-0.011835 0.75 -0.01052 9.9665616e-39 311 248
-0.010505973 0.74900001 -0.010505973 9.9658427e-39 312 248
-0.0091927266 0.74900001 -0.010505973 9.6888957e-39 313 248
-0.0078794798 0.74900001 -0.010505973 8.8656062e-39 314 248
-0.0065662335 0.74900001 -0.010505973 1.0248541e-38 315 248
-0.0052529867 0.74900001 -0.010505973 1.217996e-38 316 248
-0.0039292197 0.74699998 -0.010477919 1.3286308e-38 317 248
-0.0026194798 0.74699998 -0.010477919 1.2455471e-38 318 248
-0.0013079866 0.74599999 -0.010463892 1.0888505e-38 319 248
0 0.74599999 -0.010463892 1.1259083e-38 320 248
0.0013079866 0.74599999 -0.010463892 1.2826048e-38 321 248
0.0026159731 0.74599999 -0.010463892 1.328449e-38 322 248
0.0039239596 0.74599999 -0.010463892 1.3192295e-38 323 248
0.0052179201 0.74400002 -0.01043584 1.3284122e-38 324 248
0.0065223998 0.74400002 -0.01043584 1.3007535e-38 325 248
0.0078268806 0.74400002 -0.01043584 1.2824218e-38 326 248
0.0091559067 0.74599999 -0.010463892 1.3192642e-38 327 248
0.010463892 0.74599999 -0.010463892 1.1533496e-38 328 248
0.011771879 0.74599999 -0.010463892 9.1364099e-39 329 248
0.013097399 0.74699998 -0.010477919 1.0334603e-38 330 248
0.014407139 0.74699998 -0.010477919 1.1164363e-38 331 248
0.015716879 0.74699998 -0.010477919 1.1624246e-38 332 248
0.017026618 0.74699998 -0.010477919 1.134766e-38 333 248
0.018336359 0.74699998 -0.010477919 1.1346216e-38 334 248
0.0196987 0.74900001 -0.010505973 1.0516454e-38 335 248
0.02104 0.75 -0.01052 1.0606498e-38 336 248
0.022355 0.75 -0.01052 1.0790889e-38 337 248
0.024174958 0.76599997 -0.010744425 1.0608649e-38 338 248
0.025518013 0.76599997 -0.010744425 1.0608649e-38 339 248
0.026896132 0.76700002 -0.010758453 1.0330975e-38 340 248
0.02824094 0.76700002 -0.010758453 9.3164628e-39 341 248
0.029585747 0.76700002 -0.010758453 1.0606466e-38 342 248
-0.025518013 0.76599997 -0.012087479 1.4107361e-38 301 249
-0.024174958 0.76599997 -0.012087479 1.2915317e-38 302 249
-0.022772292 0.764 -0.01205592 1.2177752e-38 303 249
-0.021432746 0.764 -0.01205592 1.1346231e-38 304 249
-0.020145798 0.76599997 -0.012087479 1.11622e-38 305 249
-0.018802745 0.76599997 -0.012087479 1.0795954e-38 306 249
-0.01736852 0.76200002 -0.01202436 1.0888149e-38 307 249
-0.016011439 0.76099998 -0.012008579 1.0521533e-38 308 249
-0.014600007 0.75700003 -0.01194546 1.0060556e-38 309 249
-0.013237666 0.755 -0.011913899 1.0150231e-38 310 249
-0.01189812 0.75400001 -0.01189812 1.0058036e-38 311 249
-0.010548052 0.75199997 -0.011866559 9.9665616e-39 312 249
-0.0092049995 0.75 -0.011835 9.597779e-39 313 249
-0.00789 0.75 -0.011835 9.2333097e-39 314 249
-0.006575 0.75 -0.011835 1.0524049e-38 315 249
-0.00526 0.75 -0.011835 1.2180679e-38 316 249
-0.0039397399 0.74900001 -0.01181922 1.3195191e-38 317 249
-0.0026264933 0.74900001 -0.01181922 1.2087411e-38 318 249
-0.0013132467 0.74900001 -0.01181922 1.0335696e-38 319 249
0 0.74900001 -0.01181922 1.0983582e-38 320 249
0.0013097399 0.74699998 -0.011787659 1.208993e-38 321 249
0.0026194798 0.74699998 -0.011787659 1.2915715e-38 322 249
0.0039292197 0.74699998 -0.011787659 1.2915715e-38 323 249
0.0052319462 0.74599999 -0.011771879 1.3191576e-38 324 249
0.0065399334 0.74599999 -0.011771879 1.2730598e-38 325 249
0.0078479191 0.74599999 -0.011771879 1.2546922e-38 326 249
0.0091681797 0.74699998 -0.011787659 1.2731314e-38 327 249
0.010477919 0.74699998 -0.011787659 1.1350547e-38 328 249
0.01181922 0.74900001 -0.01181922 9.6913844e-39 329 249
0.013132467 0.74900001 -0.01181922 1.1160766e-38 330 249
0.014445714 0.74900001 -0.01181922 1.1622105e-38 331 249
0.01575896 0.74900001 -0.01181922 1.1806836e-38 332 249
0.017072206 0.74900001 -0.01181922 1.1346218e-38 333 249
0.018385453 0.74900001 -0.01181922 1.051825e-38 334 249
0.0197776 0.75199997 -0.011866559 1.0149826e-38 335 249
0.021096105 0.75199997 -0.011866559 1.0423902e-38 336 249
0.022861714 0.76700002 -0.01210326 1.0516098e-38 337 249
0.024206521 0.76700002 -0.01210326 1.0425337e-38 338 249
0.025551327 0.76700002 -0.01210326 1.0425337e-38 339 249
0.026896132 0.76700002 -0.01210326 1.0791593e-38 340 249
0.02824094 0.76700002 -0.01210326 1.0607202e-38 341 249
0.031591557 0.81900001 -0.01292382 1.1160353e-38 342 249
0.033027537 0.81900001 -0.01292382 1.1990474e-38 343 249
-0.021516906 0.76700002 -0.013448066 1.180971e-38 304 250
-0.020172099 0.76700002 -0.013448066 1.1440928e-38 305 250
-0.018802745 0.76599997 -0.013430533 1.0979616e-38 306 250
-0.017414106 0.764 -0.013395466 1.1072171e-38 307 250
-0.01603248 0.76200002 -0.0133604 1.0979269e-38 308 250
-0.014677152 0.76099998 -0.013342866 1.0426095e-38 309 250
-0.013237666 0.755 -0.013237666 1.0149508e-38 310 250
-0.01189812 0.75400001 -0.013220133 1.0149508e-38 311 250
-0.010548052 0.75199997 -0.013185065 9.8736415e-39 312 250
