# .PCD v.7 - Point Cloud Data file format
FIELDS x y z rgb imX imY
SIZE 4 4 4 4 4 4
TYPE F F F F F F
COUNT 1 1 1 1 1 1
WIDTH 852
HEIGHT 1
VIEWPOINT 0 0 0 1 0 0 0
POINTS 852
DATA ascii
0.0033821799 0.64300001 0.077790141 1.5502596e-38 323 171
0.0045095733 0.64300001 0.077790141 1.5409678e-38 324 171
0.0056369668 0.64300001 0.077790141 1.5409678e-38 325 171
0.00675384 0.64200002 0.077669159 1.5500076e-38 326 171
0.0078794798 0.64200002 0.077669159 1.4946902e-38 327 171
0.00900512 0.64200002 0.077669159 1.5129131e-38 328 171
0.01013076 0.64200002 0.077669159 1.4944381e-38 329 171
0.0112564 0.64200002 0.077669159 1.4759976e-38 330 171
0.01238204 0.64200002 0.077669159 1.4483031e-38 331 171
0.01352872 0.64300001 0.077790141 1.4389746e-38 332 171
0.014656113 0.64300001 0.077790141 1.4205355e-38 333 171
0.015808053 0.64399999 0.077911116 1.3743285e-38 334 171
0.016989801 0.64600003 0.078153081 1.3743285e-38 335 171
0.018122453 0.64600003 0.078153081 1.4108825e-38 336 171
0.019314719 0.648 0.078395039 1.3555651e-38 337 171
-0.0045516533 0.64899999 0.077378102 1.2462661e-38 316 172
-0.0034137398 0.64899999 0.077378102 1.5689508e-38 317 172
-0.0022758266 0.64899999 0.077378102 1.6791186e-38 318 172
-0.00113616 0.648 0.077258877 1.6975216e-38 319 172
0 0.64700001 0.077139653 1.6146527e-38 320 172
0.0011326533 0.64600003 0.077020429 1.586958e-38 321 172
0.0022653067 0.64600003 0.077020429 1.5869578e-38 322 172
0.00339796 0.64600003 0.077020429 1.5777382e-38 323 172
0.0045306133 0.64600003 0.077020429 1.5684823e-38 324 172
0.0056632664 0.64600003 0.077020429 1.5500073e-38 325 172
0.0067748795 0.64399999 0.076781973 1.5407876e-38 326 172
0.0079040267 0.64399999 0.076781973 1.49469e-38 327 172
0.0090331733 0.64399999 0.076781973 1.5129849e-38 328 172
0.01016232 0.64399999 0.076781973 1.4945456e-38 329 172
0.011291467 0.64399999 0.076781973 1.4943642e-38 330 172
0.012420613 0.64399999 0.076781973 1.457486e-38 331 172
0.013549759 0.64399999 0.076781973 1.4756727e-38 332 172
0.014724494 0.64600003 0.077020429 1.4572695e-38 333 172
0.015857147 0.64600003 0.077020429 1.4111708e-38 334 172
0.0170161 0.64700001 0.077139653 1.3743285e-38 335 172
0.018150507 0.64700001 0.077139653 1.3832957e-38 336 172
0.019314719 0.648 0.077258877 1.3095392e-38 337 172
-0.0034137398 0.64899999 0.076240189 1.1266974e-38 317 173
-0.0022758266 0.64899999 0.076240189 1.5317858e-38 318 173
-0.00113616 0.648 0.076122716 1.6516397e-38 319 173
0 0.64700001 0.07600525 1.7159246e-38 320 173
0.0011344067 0.64700001 0.07600525 1.6606073e-38 321 173
0.0022688133 0.64700001 0.07600525 1.6146525e-38 322 173
0.0034032199 0.64700001 0.07600525 1.5777382e-38 323 173
0.0045376266 0.64700001 0.07600525 1.5591553e-38 324 173
0.0056632664 0.64600003 0.075887777 1.5591553e-38 325 173
0.00679592 0.64600003 0.075887777 1.5223489e-38 326 173
0.0079285735 0.64600003 0.075887777 1.5131294e-38 327 173
0.0090612266 0.64600003 0.075887777 1.485434e-38 328 173
0.01019388 0.64600003 0.075887777 1.466959e-38 329 173
0.011326533 0.64600003 0.075887777 1.4576305e-38 330 173
0.012459187 0.64600003 0.075887777 1.4391914e-38 331 173
0.013612879 0.64700001 0.07600525 1.4206071e-38 332 173
0.014747286 0.64700001 0.07600525 1.4298267e-38 333 173
0.015881693 0.64700001 0.07600525 1.4111708e-38 334 173
0.0170161 0.64700001 0.07600525 1.3650731e-38 335 173
0.018150507 0.64700001 0.07600525 1.3188308e-38 336 173
-0.0022758266 0.64899999 0.075102277 1.199844e-38 318 174
-0.0011379133 0.64899999 0.075102277 1.4487724e-38 319 174
0 0.64700001 0.07487084 1.6145095e-38 320 174
0.0011344067 0.64700001 0.07487084 1.6606073e-38 321 174
0.0022688133 0.64700001 0.07487084 1.651495e-38 322 174
0.0034032199 0.64700001 0.07487084 1.6053973e-38 323 174
0.0045376266 0.64700001 0.07487084 1.5501871e-38 324 174
0.0056632664 0.64600003 0.074755117 1.531748e-38 325 174
0.00679592 0.64600003 0.074755117 1.5408229e-38 326 174
0.0079285735 0.64600003 0.074755117 1.5131644e-38 327 174
0.0090612266 0.64600003 0.074755117 1.5406066e-38 328 174
0.01019388 0.64600003 0.074755117 1.5037283e-38 329 174
0.011344067 0.64700001 0.07487084 1.4943639e-38 330 174
0.012478473 0.64700001 0.07487084 1.4851443e-38 331 174
0.013612879 0.64700001 0.07487084 1.4849277e-38 332 174
0.014747286 0.64700001 0.07487084 1.411171e-38 333 174
0.015881693 0.64700001 0.07487084 1.2913522e-38 334 174
0.0170424 0.648 0.074986562 1.2544739e-38 335 174
0.01817856 0.648 0.074986562 1.1347268e-38 336 174
-0.0011396665 0.64999998 0.074078329 1.0612243e-38 319 175
0 0.648 0.073850393 1.1904452e-38 320 175
0.0011344067 0.64700001 0.073736429 1.3563615e-38 321 175
0.0022688133 0.64700001 0.073736429 1.5131662e-38 322 175
0.0034032199 0.64700001 0.073736429 1.5684836e-38 323 175
0.0045376266 0.64700001 0.073736429 1.6237638e-38 324 175
0.0056720334 0.64700001 0.073736429 1.6145443e-38 325 175
0.0068064397 0.64700001 0.073736429 1.6235471e-38 326 175
0.0079408465 0.64700001 0.073736429 1.6051079e-38 327 175
0.0090752533 0.64700001 0.073736429 1.5957798e-38 328 175
0.01020966 0.64700001 0.073736429 1.5773048e-38 329 175
0.011344067 0.64700001 0.073736429 1.549429e-38 330 175
0.01249776 0.648 0.073850393 1.4756724e-38 331 175
0.01363392 0.648 0.073850393 1.3926595e-38 332 175
0.014770079 0.648 0.073850393 1.2820606e-38 333 175
0.015906241 0.648 0.073850393 1.107176e-38 334 175
0 0.64899999 0.072826453 1.1071071e-38 320 176
0.0011379133 0.64899999 0.072826453 1.1440212e-38 321 176
0.00227232 0.648 0.072714239 1.2360389e-38 322 176
0.00340848 0.648 0.072714239 1.3005758e-38 323 176
0.00454464 0.648 0.072714239 1.3008273e-38 324 176
0.0056720334 0.64700001 0.072602026 1.3561447e-38 325 176
0.0068064397 0.64700001 0.072602026 1.4572709e-38 326 176
0.0079531204 0.648 0.072714239 1.4572709e-38 327 176
0.0090892799 0.648 0.072714239 1.3835493e-38 328 176
0.010225439 0.648 0.072714239 1.3097928e-38 329 176
0.0113616 0.648 0.072714239 1.2726982e-38 330 176
0.01249776 0.648 0.072714239 1.2081613e-38 331 176
0.01363392 0.648 0.072714239 1.1712107e-38 332 176
0.014770079 0.648 0.072714239 1.1527716e-38 333 176
0.0068379994 0.64999998 0.071798995 1.1251146e-38 326 177
0.0079653924 0.64899999 0.07168854 1.115895e-38 327 177
0.0091033066 0.64899999 0.07168854 9.9632797e-39 328 177
-0.023038799 0.73000002 0.023038799 9.6988211e-39 302 222
-0.024318734 0.73000002 0.021758866 1.0158321e-38 301 223
-0.023038799 0.73000002 0.021758866 9.5151193e-39 302 223
-0.021758866 0.73000002 0.021758866 9.9757387e-39 303 223
-0.025703866 0.73299998 0.020563092 1.2000077e-38 300 224
-0.024318734 0.73000002 0.020478934 1.1170315e-38 301 224
-0.023038799 0.73000002 0.020478934 1.0709687e-38 302 224
-0.021758866 0.73000002 0.020478934 1.0341265e-38 303 224
-0.020478934 0.73000002 0.020478934 1.0524985e-38 304 224
-0.019199001 0.73000002 0.020478934 1.1170354e-38 305 224
-0.025703866 0.73299998 0.019277899 1.1908233e-38 300 225
-0.024318734 0.73000002 0.019199001 1.1355059e-38 301 225
-0.023038799 0.73000002 0.019199001 1.098734e-38 302 225
-0.021758866 0.73000002 0.019199001 1.0894786e-38 303 225
-0.020478934 0.73000002 0.019199001 1.0617874e-38 304 225
-0.0191464 0.72799999 0.0191464 1.0525678e-38 305 225
-0.017869972 0.72799999 0.0191464 1.0801597e-38 306 225
-0.026989058 0.73299998 0.017992707 1.3467711e-38 299 226
-0.025703866 0.73299998 0.017992707 1.199971e-38 300 226
-0.024318734 0.73000002 0.017919067 1.1723123e-38 301 226
-0.023038799 0.73000002 0.017919067 1.1906403e-38 302 226
-0.021699252 0.72799999 0.017869972 1.1906403e-38 303 226
-0.020422826 0.72799999 0.017869972 1.1170647e-38 304 226
-0.0191464 0.72799999 0.017869972 1.0433082e-38 305 226
-0.017869972 0.72799999 0.017869972 9.7909957e-39 306 226
-0.016593546 0.72799999 0.017869972 1.0528561e-38 307 226
-0.026989058 0.73299998 0.016707512 1.3835421e-38 299 227
-0.025703866 0.73299998 0.016707512 1.199971e-38 300 227
-0.024252106 0.72799999 0.016593546 1.1446536e-38 301 227
-0.022975679 0.72799999 0.016593546 1.1816004e-38 302 227
-0.021699252 0.72799999 0.016593546 1.1631611e-38 303 227
-0.020422826 0.72799999 0.016593546 1.0713246e-38 304 227
-0.019120099 0.727 0.016570752 1.0344462e-38 305 227
-0.017845426 0.727 0.016570752 1.0067898e-38 306 227
-0.016570752 0.727 0.016570752 1.0160093e-38 307 227
-0.015296079 0.727 0.016570752 1.0342742e-38 308 227
0.026620859 0.72299999 0.01647958 9.6970064e-39 341 227
0.02788852 0.72299999 0.01647958 1.0339116e-38 342 227
-0.026804959 0.72799999 0.01531712 1.4386442e-38 299 228
-0.025528532 0.72799999 0.01531712 1.2091905e-38 300 228
-0.024252106 0.72799999 0.01531712 1.1630568e-38 301 228
-0.022975679 0.72799999 0.01531712 1.1907469e-38 302 228
-0.021699252 0.72799999 0.01531712 1.1631242e-38 303 228
-0.020422826 0.72799999 0.01531712 1.1080211e-38 304 228
-0.019120099 0.727 0.015296079 1.0803983e-38 305 228
-0.017845426 0.727 0.015296079 1.0069652e-38 306 228
-0.016570752 0.727 0.015296079 9.7008698e-39 307 228
-0.015296079 0.727 0.015296079 9.7916683e-39 308 228
-0.014021406 0.727 0.015296079 1.0344483e-38 309 228
-0.01014128 0.72299999 0.015211919 1.1076401e-38 312 228
-0.0088736191 0.72299999 0.015211919 1.1168597e-38 313 228
-0.0075954394 0.722 0.015190879 1.1901145e-38 314 228
-0.0063295332 0.722 0.015190879 1.1993341e-38 315 228
0.025353199 0.72299999 0.015211919 9.3278063e-39 340 228
0.026620859 0.72299999 0.015211919 9.8809801e-39 341 228
0.02788852 0.72299999 0.015211919 1.0430582e-38 342 228
0.029438468 0.73000002 0.0153592 1.0154355e-38 343 228
-0.025528532 0.72799999 0.014040692 1.2368865e-38 300 229
-0.024252106 0.72799999 0.014040692 1.1262157e-38 301 229
-0.022975679 0.72799999 0.014040692 1.1724507e-38 302 229
-0.021758866 0.73000002 0.014079267 1.1540116e-38 303 229
-0.020422826 0.72799999 0.014040692 1.1355705e-38 304 229
-0.0191464 0.72799999 0.014040692 1.0986924e-38 305 229
-0.017869972 0.72799999 0.014040692 1.0253302e-38 306 229
-0.016593546 0.72799999 0.014040692 1.0161105e-38 307 229
-0.015296079 0.727 0.014021406 9.9767378e-39 308 229
-0.014021406 0.727 0.014021406 1.0068933e-38 309 229
-0.012711667 0.72500002 0.013982833 9.7923844e-39 310 229
-0.0114405 0.72500002 0.013982833 9.7923844e-39 311 229
-0.01014128 0.72299999 0.01394426 9.7920733e-39 312 229
-0.0088736191 0.72299999 0.01394426 1.0345246e-38 313 229
-0.0075954394 0.722 0.013924973 1.1351899e-38 314 229
-0.0063295332 0.722 0.013924973 1.1536291e-38 315 229
0.0050215465 0.71600002 0.013809253 1.2265263e-38 324 229
0.0062769335 0.71600002 0.013809253 1.2634044e-38 325 229
0.022944121 0.727 0.014021406 9.3292454e-39 338 229
0.024218792 0.727 0.014021406 8.9601028e-39 339 229
0.025493465 0.727 0.014021406 9.8802668e-39 340 229
0.026804959 0.72799999 0.014040692 1.0156854e-38 341 229
0.028081384 0.72799999 0.014040692 1.0521706e-38 342 229
0.029438468 0.73000002 0.014079267 1.0337314e-38 343 229
0.030886721 0.73400003 0.014156413 1.0795448e-38 344 229
-0.025528532 0.72799999 0.012764266 1.3472354e-38 300 230
-0.024252106 0.72799999 0.012764266 1.1813193e-38 301 230
-0.022975679 0.72799999 0.012764266 1.2367731e-38 302 230
-0.021758866 0.73000002 0.012799333 1.1998949e-38 303 230
-0.020478934 0.73000002 0.012799333 1.1722691e-38 304 230
-0.019199001 0.73000002 0.012799333 1.1538299e-38 305 230
-0.017919067 0.73000002 0.012799333 1.0621709e-38 306 230
-0.016593546 0.72799999 0.012764266 1.0529514e-38 307 230
-0.01531712 0.72799999 0.012764266 9.9777902e-39 308 230
-0.014021406 0.727 0.012746733 9.9777902e-39 309 230
-0.012711667 0.72500002 0.012711667 9.6093776e-39 310 230
-0.0114405 0.72500002 0.012711667 9.517182e-39 311 230
-0.01014128 0.72299999 0.012676599 9.5175771e-39 312 230
-0.0088613462 0.722 0.012659066 9.9785539e-39 313 230
-0.0075743999 0.72000003 0.012624 1.0160148e-38 314 230
-0.0063120001 0.72000003 0.012624 1.0437095e-38 315 230
0 0.71600002 0.012553867 1.171783e-38 320 230
0.0012553866 0.71600002 0.012553867 1.171783e-38 321 230
0.0025107733 0.71600002 0.012553867 1.208302e-38 322 230
0.00376616 0.71600002 0.012553867 1.208302e-38 323 230
0.0050215465 0.71600002 0.012553867 1.1623835e-38 324 230
0.0062769335 0.71600002 0.012553867 1.1808228e-38 325 230
0.0075428397 0.71700001 0.0125714 1.1625632e-38 326 230
0.0087999795 0.71700001 0.0125714 1.1533436e-38 327 230
0.011361601 0.72000003 0.012624 1.1073533e-38 329 230
0.012624 0.72000003 0.012624 1.1258276e-38 330 230
0.013924973 0.722 0.012659066 1.1258276e-38 331 230
0.015190879 0.722 0.012659066 1.0523562e-38 332 230
0.016456785 0.722 0.012659066 1.0246974e-38 333 230
0.017722692 0.722 0.012659066 9.9724989e-39 334 230
0.0189886 0.722 0.012659066 9.9724989e-39 335 230
0.020254506 0.722 0.012659066 9.8813304e-39 336 230
0.021520413 0.722 0.012659066 9.420711e-39 337 230
0.022944121 0.727 0.012746733 9.7862509e-39 338 230
0.024218792 0.727 0.012746733 9.7862509e-39 339 230
0.025493465 0.727 0.012746733 9.6944434e-39 340 230
0.026804959 0.72799999 0.012764266 1.0063226e-38 341 230
0.028081384 0.72799999 0.012764266 1.0795065e-38 342 230
0.029438468 0.73000002 0.012799333 1.1072012e-38 343 230
0.030886721 0.73400003 0.012869466 1.1254274e-38 344 230
0.032173667 0.73400003 0.012869466 1.1254274e-38 345 230
-0.025879199 0.73799998 0.011645639 1.4391466e-38 300 231
-0.024585238 0.73799998 0.011645639 1.2547553e-38 301 231
-0.02307036 0.73100001 0.01153518 1.2457814e-38 302 231
-0.021788673 0.73100001 0.01153518 1.2550009e-38 303 231
-0.020506985 0.73100001 0.01153518 1.1999302e-38 304 231
-0.019199001 0.73000002 0.011519399 1.1630161e-38 305 231
-0.017919067 0.73000002 0.011519399 1.1081245e-38 306 231
-0.016593546 0.72799999 0.01148784 1.0896856e-38 307 231
-0.01531712 0.72799999 0.01148784 1.0712826e-38 308 231
-0.014021406 0.727 0.01147206 1.0436602e-38 309 231
-0.012746733 0.727 0.01147206 1.034369e-38 310 231
-0.0114405 0.72500002 0.0114405 1.0436243e-38 311 231
-0.01014128 0.72299999 0.01140894 1.0252602e-38 312 231
-0.0088613462 0.722 0.01139316 1.0436993e-38 313 231
-0.0075743999 0.72000003 0.011361601 1.0160836e-38 314 231
-0.0063120001 0.72000003 0.011361601 1.0529617e-38 315 231
-0.0050496003 0.72000003 0.011361601 1.0711184e-38 316 231
-0.0037819401 0.71899998 0.01134582 1.0618629e-38 317 231
-0.0025212932 0.71899998 0.01134582 1.1076739e-38 318 231
-0.0012606466 0.71899998 0.01134582 1.0984542e-38 319 231
0 0.71600002 0.01129848 1.1076736e-38 320 231
0.0012553866 0.71600002 0.01129848 1.0984539e-38 321 231
0.0025107733 0.71600002 0.01129848 1.0980576e-38 322 231
0.00376616 0.71600002 0.01129848 1.0611795e-38 323 231
0.0050215465 0.71600002 0.01129848 1.0428849e-38 324 231
0.0062769335 0.71600002 0.01129848 1.0889827e-38 325 231
0.0075428397 0.71700001 0.01131426 1.0984173e-38 326 231
0.0087999795 0.71700001 0.01131426 1.0615032e-38 327 231
0.010085173 0.71899998 0.01134582 1.0340223e-38 328 231
0.01134582 0.71899998 0.01134582 1.0340223e-38 329 231
0.012606465 0.71899998 0.01134582 1.0616422e-38 330 231
0.0138864 0.72000003 0.011361601 1.0524227e-38 331 231
0.015190879 0.722 0.01139316 9.8809647e-39 332 231
0.016456785 0.722 0.01139316 9.788769e-39 333 231
0.017722692 0.722 0.01139316 9.5135946e-39 334 231
0.0189886 0.722 0.01139316 9.6976258e-39 335 231
0.020254506 0.722 0.01139316 9.5128884e-39 336 231
0.021520413 0.722 0.01139316 9.3284971e-39 337 231
0.022944121 0.727 0.01147206 9.6926329e-39 338 231
0.024252106 0.72799999 0.01148784 9.6004373e-39 339 231
0.025528532 0.72799999 0.01148784 9.7841405e-39 340 231
0.026804959 0.72799999 0.01148784 9.9685332e-39 341 231
0.028081384 0.72799999 0.01148784 1.061105e-38 342 231
0.029438468 0.73000002 0.011519399 1.1072028e-38 343 231
0.030886721 0.73400003 0.011582521 1.1346116e-38 344 231
0.032173667 0.73400003 0.011582521 1.1438312e-38 345 231
-0.025879199 0.73799998 0.010351679 1.5402416e-38 300 232
-0.024585238 0.73799998 0.010351679 1.4295708e-38 301 232
-0.023165042 0.73400003 0.010295574 1.3009937e-38 302 232
-0.021878093 0.73400003 0.010295574 1.254896e-38 303 232
-0.020506985 0.73100001 0.010253493 1.1631245e-38 304 232
-0.019225299 0.73100001 0.010253493 1.1446495e-38 305 232
-0.017919067 0.73000002 0.010239467 1.1356779e-38 306 232
-0.016639132 0.73000002 0.010239467 1.1080192e-38 307 232
-0.01531712 0.72799999 0.010211413 1.0711404e-38 308 232
-0.014040692 0.72799999 0.010211413 1.0711404e-38 309 232
-0.012746733 0.727 0.010197386 1.071211e-38 310 232
-0.0114405 0.72500002 0.010169334 1.0528079e-38 311 232
-0.01014128 0.72299999 0.01014128 1.0528442e-38 312 232
-0.0088613462 0.722 0.010127253 1.0528442e-38 313 232
-0.0075954394 0.722 0.010127253 1.0437738e-38 314 232
-0.0063120001 0.72000003 0.010099201 1.0621769e-38 315 232
-0.0050496003 0.72000003 0.010099201 1.071259e-38 316 232
-0.0037819401 0.71899998 0.010085173 1.071259e-38 317 232
-0.0025212932 0.71899998 0.010085173 1.0895565e-38 318 232
-0.0012606466 0.71899998 0.010085173 1.0711534e-38 319 232
0 0.71700001 0.01005712 1.0987045e-38 320 232
0.00125714 0.71700001 0.01005712 1.0802295e-38 321 232
0.0025107733 0.71600002 0.010043093 1.1075996e-38 322 232
0.00376616 0.71600002 0.010043093 1.0154041e-38 323 232
0.0050215465 0.71600002 0.010043093 1.0338428e-38 324 232
0.0062857 0.71700001 0.01005712 1.0799767e-38 325 232
0.0075428397 0.71700001 0.01005712 1.0616815e-38 326 232
0.0087999795 0.71700001 0.01005712 1.0524619e-38 327 232
0.010085173 0.71899998 0.010085173 1.0433846e-38 328 232
0.01134582 0.71899998 0.010085173 1.0341649e-38 329 232
0.012606465 0.71899998 0.010085173 1.0250491e-38 330 232
0.0138864 0.72000003 0.010099201 9.6973175e-39 331 232
0.015190879 0.722 0.010127253 9.8816555e-39 332 232
0.01647958 0.72299999 0.01014128 9.5125128e-39 333 232
0.017747238 0.72299999 0.01014128 9.5121485e-39 334 232
0.019014901 0.72299999 0.01014128 9.6043427e-39 335 232
0.020282559 0.72299999 0.01014128 9.7869543e-39 336 232
0.021550218 0.72299999 0.01014128 9.6025631e-39 337 232
0.022944121 0.727 0.010197386 9.6000674e-39 338 232
0.024252106 0.72799999 0.010211413 9.6000674e-39 339 232
0.025528532 0.72799999 0.010211413 9.8748886e-39 340 232
0.026804959 0.72799999 0.010211413 1.0059639e-38 341 232
0.028158534 0.73000002 0.010239467 1.0336611e-38 342 232
0.029438468 0.73000002 0.010239467 1.0613199e-38 343 232
0.030970879 0.736 0.010323626 1.1346116e-38 344 232
-0.024618553 0.73900002 0.0090699932 1.5217333e-38 301 233
-0.023228159 0.736 0.0090331733 1.3930108e-38 302 233
-0.021878093 0.73400003 0.0090086265 1.263937e-38 303 233
-0.020563092 0.73299998 0.0089963535 1.1262438e-38 304 233
-0.019225299 0.73100001 0.0089718066 1.1078046e-38 305 233
-0.017943613 0.73100001 0.0089718066 1.1446792e-38 306 233
-0.016639132 0.73000002 0.0089595336 1.1446792e-38 307 233
-0.0153592 0.73000002 0.0089595336 1.052808e-38 308 233
-0.014040692 0.72799999 0.0089349858 1.0896504e-38 309 233
-0.012746733 0.727 0.0089227129 1.1723021e-38 310 233
-0.0114405 0.72500002 0.0088981669 1.1446794e-38 311 233
-0.01014128 0.72299999 0.0088736191 1.1355674e-38 312 233
-0.0088613462 0.722 0.0088613462 1.1447869e-38 313 233
-0.0075954394 0.722 0.0088613462 1.2549579e-38 314 233
-0.0063120001 0.72000003 0.0088367993 1.273397e-38 315 233
-0.0050496003 0.72000003 0.0088367993 1.2365252e-38 316 233
-0.0037872 0.72000003 0.0088367993 1.2457448e-38 317 233
-0.0025248001 0.72000003 0.0088367993 1.2181605e-38 318 233
-0.0012606466 0.71899998 0.0088245263 1.2181605e-38 319 233
0 0.71700001 0.0087999795 1.1630962e-38 320 233
0.00125714 0.71700001 0.0087999795 1.1630962e-38 321 233
0.0025142799 0.71700001 0.0087999795 1.2181615e-38 322 233
0.0037714199 0.71700001 0.0087999795 1.144405e-38 323 233
0.0050285598 0.71700001 0.0087999795 1.1167095e-38 324 233
0.0062857 0.71700001 0.0087999795 1.125929e-38 325 233
0.0075638802 0.71899998 0.0088245263 1.1075978e-38 326 233
0.0088245263 0.71899998 0.0088245263 1.1168174e-38 327 233
0.010099201 0.72000003 0.0088367993 1.1812097e-38 328 233
0.011361601 0.72000003 0.0088367993 1.135112e-38 329 233
0.012624 0.72000003 0.0088367993 1.089082e-38 330 233
0.013924973 0.722 0.0088613462 1.0430201e-38 331 233
0.015211919 0.72299999 0.0088736191 1.0613819e-38 332 233
0.01647958 0.72299999 0.0088736191 1.0337592e-38 333 233
0.017747238 0.72299999 0.0088736191 1.0797128e-38 334 233
0.019014901 0.72299999 0.0088736191 1.0797128e-38 335 233
0.020282559 0.72299999 0.0088736191 1.0795346e-38 336 233
0.021669446 0.727 0.0089227129 1.0518757e-38 337 233
0.022975679 0.72799999 0.0089349858 1.0058174e-38 338 233
0.024318734 0.73000002 0.0089595336 1.0058174e-38 339 233
0.025598666 0.73000002 0.0089595336 9.4164342e-39 340 233
0.026878599 0.73000002 0.0089595336 1.0061804e-38 341 233
0.028158534 0.73000002 0.0089595336 1.1438293e-38 342 233
0.029438468 0.73000002 0.0089595336 1.1438293e-38 343 233
-0.025914267 0.73900002 0.0077742799 1.5586489e-38 300 234
-0.024618553 0.73900002 0.0077742799 1.5678684e-38 301 234
-0.023228159 0.736 0.0077427197 1.5310588e-38 302 234
-0.021937706 0.736 0.0077427197 1.4204241e-38 303 234
-0.020591147 0.73400003 0.0077216802 1.2274559e-38 304 234
-0.019277899 0.73299998 0.0077111595 1.1997972e-38 305 234
-0.017992707 0.73299998 0.0077111595 1.2000123e-38 306 234
-0.016661927 0.73100001 0.00769012 1.2552938e-38 307 234
-0.0153592 0.73000002 0.0076795998 1.2830254e-38 308 234
-0.014040692 0.72799999 0.0076585598 1.2553307e-38 309 234
-0.012764266 0.72799999 0.0076585598 1.2368865e-38 310 234
-0.01147206 0.727 0.0076480396 1.1539104e-38 311 234
-0.010169334 0.72500002 0.0076270006 1.1814926e-38 312 234
-0.0088736191 0.72299999 0.0076059597 1.2091514e-38 313 234
-0.0075954394 0.722 0.0075954394 1.3744218e-38 314 234
-0.0063295332 0.722 0.0075954394 1.3836773e-38 315 234
-0.0050636264 0.722 0.0075954394 1.2826225e-38 316 234
-0.0037872 0.72000003 0.0075743999 1.2457801e-38 317 234
-0.0025248001 0.72000003 0.0075743999 1.2822611e-38 318 234
-0.0012624001 0.72000003 0.0075743999 1.2822611e-38 319 234
0 0.71899998 0.0075638802 1.2180842e-38 320 234
0.0012606466 0.71899998 0.0075638802 1.2364874e-38 321 234
0.0025212932 0.71899998 0.0075638802 1.18117e-38 322 234
0.0037819401 0.71899998 0.0075638802 1.1535472e-38 323 234
0.0050425865 0.71899998 0.0075638802 1.1718066e-38 324 234
0.0063032326 0.71899998 0.0075638802 1.1718066e-38 325 234
0.0075743999 0.72000003 0.0075743999 1.1902123e-38 326 234
0.0088367993 0.72000003 0.0075743999 1.2270904e-38 327 234
0.010099201 0.72000003 0.0075743999 1.2545678e-38 328 234
0.01139316 0.722 0.0075954394 1.143897e-38 329 234
0.012659066 0.722 0.0075954394 1.0797143e-38 330 234
0.013924973 0.722 0.0075954394 1.0704948e-38 331 234
0.015211919 0.72299999 0.0076059597 1.0706727e-38 332 234
0.01647958 0.72299999 0.0076059597 1.0798922e-38 333 234
0.017747238 0.72299999 0.0076059597 1.1165557e-38 334 234
0.0190675 0.72500002 0.0076270006 1.107336e-38 335 234
0.020394772 0.727 0.0076480396 1.0794995e-38 336 234
0.021699252 0.72799999 0.0076585598 1.0518048e-38 337 234
0.022975679 0.72799999 0.0076585598 9.966329e-39 338 234
0.024318734 0.73000002 0.0076795998 9.8741333e-39 339 234
0.025598666 0.73000002 0.0076795998 9.9674402e-39 340 234
0.026915418 0.73100001 0.00769012 1.061281e-38 341 234
0.028197108 0.73100001 0.00769012 1.0886916e-38 342 234
0.029922385 0.74199998 0.0078058392 1.0979112e-38 343 234
0.031223357 0.74199998 0.0078058392 1.2541082e-38 344 234
-0.024518613 0.736 0.0064522666 1.604604e-38 301 235
-0.023228159 0.736 0.0064522666 1.5129106e-38 302 235
-0.021937706 0.736 0.0064522666 1.4114954e-38 303 235
-0.020647252 0.736 0.0064522666 1.337844e-38 304 235
-0.019304199 0.73400003 0.006434733 1.337844e-38 305 235
-0.018017253 0.73400003 0.006434733 1.4023447e-38 306 235
-0.016707512 0.73299998 0.0064259665 1.4299673e-38 307 235
-0.01538024 0.73100001 0.006408433 1.4393671e-38 308 235
-0.014098554 0.73100001 0.006408433 1.420928e-38 309 235
-0.012799333 0.73000002 0.0063996664 1.3841178e-38 310 235
-0.01148784 0.72799999 0.0063821329 1.3011777e-38 311 235
-0.010197386 0.727 0.0063733663 1.2733717e-38 312 235
-0.0088981669 0.72500002 0.0063558333 1.2826271e-38 313 235
-0.0076059597 0.72299999 0.0063382997 1.3561293e-38 314 235
-0.0063382997 0.72299999 0.0063382997 1.3376543e-38 315 235
-0.0050706398 0.72299999 0.0063382997 1.3193921e-38 316 235
-0.0037977197 0.722 0.0063295332 1.2824779e-38 317 235
-0.0025318132 0.722 0.0063295332 1.2547801e-38 318 235
-0.0012624001 0.72000003 0.0063120001 1.2640355e-38 319 235
0 0.72000003 0.0063120001 1.2733975e-38 320 235
0.0012624001 0.72000003 0.0063120001 1.2365192e-38 321 235
0.0025248001 0.72000003 0.0063120001 1.1809867e-38 322 235
0.0037872 0.72000003 0.0063120001 1.2270844e-38 323 235
0.0050496003 0.72000003 0.0063120001 1.2453459e-38 324 235
0.0063120001 0.72000003 0.0063120001 1.2453459e-38 325 235
0.0075743999 0.72000003 0.0063120001 1.2269104e-38 326 235
0.0088613462 0.722 0.0063295332 1.2453495e-38 327 235
0.010127253 0.722 0.0063295332 1.199428e-38 328 235
0.01140894 0.72299999 0.0063382997 1.1072323e-38 329 235
0.012676599 0.72299999 0.0063382997 1.107336e-38 330 235
0.01394426 0.72299999 0.0063382997 1.1165557e-38 331 235
0.015254001 0.72500002 0.0063558333 1.1993167e-38 332 235
0.016570752 0.727 0.0063733663 1.2177198e-38 333 235
0.017845426 0.727 0.0063733663 1.2175765e-38 334 235
0.019120099 0.727 0.0063733663 1.1714428e-38 335 235
0.020394772 0.727 0.0063733663 1.0885396e-38 336 235
0.021699252 0.72799999 0.0063821329 1.079284e-38 337 235
0.023038799 0.73000002 0.0063996664 1.0609197e-38 338 235
0.024352046 0.73100001 0.006408433 1.0793588e-38 339 235
0.025633732 0.73100001 0.006408433 1.0334446e-38 340 235
0.027283618 0.741 0.0064960998 1.1072012e-38 341 235
0.028582839 0.741 0.0064960998 1.1438315e-38 342 235
0.029922385 0.74199998 0.0065048663 1.1898934e-38 343 235
0.031223357 0.74199998 0.0065048663 1.3552735e-38 344 235
0.032612 0.74400002 0.0065223998 1.4566887e-38 345 235
-0.023291279 0.73799998 0.0051758396 1.466958e-38 302 236
-0.021997318 0.73799998 0.0051758396 1.3931656e-38 303 236
-0.020647252 0.736 0.005161813 1.2917137e-38 304 236
-0.019356798 0.736 0.005161813 1.3101528e-38 305 236
-0.018017253 0.73400003 0.0051477868 1.5035836e-38 306 236
-0.016730307 0.73400003 0.0051477868 1.5220227e-38 307 236
-0.015422319 0.73299998 0.005140773 1.4945072e-38 308 236
-0.014137126 0.73299998 0.005140773 1.4945072e-38 309 236
-0.012816866 0.73100001 0.0051267464 1.4761024e-38 310 236
-0.011519399 0.73000002 0.0051197335 1.4576633e-38 311 236
-0.010211413 0.72799999 0.0051057064 1.4392573e-38 312 236
-0.0089227129 0.727 0.0050986931 1.3286585e-38 313 236
-0.0076270006 0.72500002 0.0050846669 1.3102525e-38 314 236
-0.0063382997 0.72299999 0.0050706398 1.2825579e-38 315 236
-0.0050706398 0.72299999 0.0050706398 1.3010682e-38 316 236
-0.0038029798 0.72299999 0.0050706398 1.3010682e-38 317 236
-0.0025318132 0.722 0.0050636264 1.3102522e-38 318 236
-0.0012659066 0.722 0.0050636264 1.3379107e-38 319 236
0 0.722 0.0050636264 1.3287259e-38 320 236
0.0012659066 0.722 0.0050636264 1.2365663e-38 321 236
0.0025318132 0.722 0.0050636264 1.1811037e-38 322 236
0.0037977197 0.722 0.0050636264 1.2364211e-38 323 236
0.0050636264 0.722 0.0050636264 1.3190376e-38 324 236
0.0063295332 0.722 0.0050636264 1.2821952e-38 325 236
0.0075954394 0.722 0.0050636264 1.2637909e-38 326 236
0.0088736191 0.72299999 0.0050706398 1.2361681e-38 327 236
0.01014128 0.72299999 0.0050706398 1.1810984e-38 328 236
0.01140894 0.72299999 0.0050706398 1.1441842e-38 329 236
0.012676599 0.72299999 0.0050706398 1.1533318e-38 330 236
0.01394426 0.72299999 0.0050706398 1.1902099e-38 331 236
0.015254001 0.72500002 0.0050846669 1.3005612e-38 332 236
0.016570752 0.727 0.0050986931 1.2913417e-38 333 236
0.017845426 0.727 0.0050986931 1.2635037e-38 334 236
0.0191464 0.72799999 0.0051057064 1.1989668e-38 335 236
0.020422826 0.72799999 0.0051057064 1.0793628e-38 336 236
0.021758866 0.73000002 0.0051197335 1.0793628e-38 337 236
0.023038799 0.73000002 0.0051197335 1.1070603e-38 338 236
0.024451986 0.73400003 0.0051477868 1.1531579e-38 339 236
0.025738932 0.73400003 0.0051477868 1.1622369e-38 340 236
0.027283618 0.741 0.0051968796 1.1807119e-38 341 236
0.028582839 0.741 0.0051968796 1.2358512e-38 342 236
0.029922385 0.74199998 0.0052038929 1.2819489e-38 343 236
0.031223357 0.74199998 0.0052038929 1.4197401e-38 344 236
0.032612 0.74400002 0.0052179201 1.4658379e-38 345 236
0.034053236 0.74699998 0.0052389596 1.7514283e-38 346 236
-0.02637013 0.75199997 0.0039555198 1.402026e-38 300 237
-0.025051624 0.75199997 0.0039555198 1.5403195e-38 301 237
-0.023733119 0.75199997 0.0039555198 1.5312797e-38 302 237
-0.022176161 0.74400002 0.0039134403 1.4944016e-38 303 237
-0.02087168 0.74400002 0.0039134403 1.0156688e-38 304 237
-0.019356798 0.736 0.0038713599 8.6819184e-39 305 237
-0.018066347 0.736 0.0038713599 1.1814052e-38 306 237
-0.016775893 0.736 0.0038713599 1.310479e-38 307 237
-0.01544336 0.73400003 0.0038608401 1.3288791e-38 308 237
-0.014156413 0.73400003 0.0038608401 1.2827453e-38 309 237
-0.012869466 0.73400003 0.0038608401 1.2184576e-38 310 237
-0.011566739 0.73299998 0.0038555798 1.2184576e-38 311 237
-0.010239467 0.73000002 0.0038397999 1.2368938e-38 312 237
-0.0089349858 0.72799999 0.0038292799 1.1815765e-38 313 237
-0.0076480396 0.727 0.0038240198 1.1907574e-38 314 237
-0.0063558333 0.72500002 0.0038135003 1.1538793e-38 315 237
-0.0050846669 0.72500002 0.0038135003 1.1815026e-38 316 237
-0.0038029798 0.72299999 0.0038029798 1.1999417e-38 317 237
-0.0025353199 0.72299999 0.0038029798 1.1999434e-38 318 237
-0.0012676599 0.72299999 0.0038029798 1.2091629e-38 319 237
0 0.72299999 0.0038029798 1.1908314e-38 320 237
0.0012676599 0.72299999 0.0038029798 1.1170749e-38 321 237
0.0025353199 0.72299999 0.0038029798 1.1077105e-38 322 237
0.0038029798 0.72299999 0.0038029798 1.1722474e-38 323 237
0.0050706398 0.72299999 0.0038029798 1.2640467e-38 324 237
0.0063382997 0.72299999 0.0038029798 1.2640467e-38 325 237
0.0076059597 0.72299999 0.0038029798 1.2823401e-38 326 237
0.0088736191 0.72299999 0.0038029798 1.2546454e-38 327 237
0.010169334 0.72500002 0.0038135003 1.2086883e-38 328 237
0.0114405 0.72500002 0.0038135003 1.1902492e-38 329 237
0.012746733 0.727 0.0038240198 1.208618e-38 330 237
0.014021406 0.727 0.0038240198 1.2362767e-38 331 237
0.015296079 0.727 0.0038240198 1.3006013e-38 332 237
0.016593546 0.72799999 0.0038292799 1.2821262e-38 333 237
0.017869972 0.72799999 0.0038292799 1.2727631e-38 334 237
0.0191464 0.72799999 0.0038292799 1.2635435e-38 335 237
0.020478934 0.73000002 0.0038397999 1.2082259e-38 336 237
0.021758866 0.73000002 0.0038397999 1.2082259e-38 337 237
0.02307036 0.73100001 0.00384506 1.2449982e-38 338 237
0.024518613 0.736 0.0038713599 1.2634732e-38 339 237
0.025984399 0.741 0.0038976599 1.3092851e-38 340 237
0.027320439 0.74199998 0.0039029196 1.3185047e-38 341 237
0.028621411 0.74199998 0.0039029196 1.3002102e-38 342 237
0.029922385 0.74199998 0.0039029196 1.3278689e-38 343 237
0.031391677 0.74599999 0.0039239596 1.401374e-38 344 237
0.032699663 0.74599999 0.0039239596 1.4382521e-38 345 237
0.034053236 0.74699998 0.0039292197 1.7513927e-38 346 237
0.035362978 0.74699998 0.0039292197 1.8435882e-38 347 237
-0.02637013 0.75199997 0.0026370131 1.3189423e-38 300 238
-0.025051624 0.75199997 0.0026370131 1.5217729e-38 301 238
-0.023733119 0.75199997 0.0026370131 1.5404638e-38 302 238
-0.022414612 0.75199997 0.0026370131 1.5589388e-38 303 238
-0.020955838 0.74699998 0.0026194798 9.2372572e-39 304 238
-0.019567199 0.74400002 0.00260896 5.4575951e-39 305 238
-0.018189078 0.741 0.0025984398 1.0521878e-38 306 238
-0.016821479 0.73799998 0.0025879198 1.2089564e-38 307 238
-0.015485439 0.736 0.0025809065 1.2827787e-38 308 238
-0.014194986 0.736 0.0025809065 1.1444853e-38 309 238
-0.012904533 0.736 0.0025809065 1.0157631e-38 310 238
-0.011582521 0.73400003 0.0025738934 9.6044576e-39 311 238
-0.010281546 0.73299998 0.0025703865 9.515464e-39 312 238
-0.0089963535 0.73299998 0.0025703865 9.8842451e-39 313 238
-0.0076795998 0.73000002 0.0025598668 1.006829e-38 314 238
-0.0063996664 0.73000002 0.0025598668 1.006829e-38 315 238
-0.0051057064 0.72799999 0.0025528532 1.0160148e-38 316 238
-0.0038240198 0.727 0.0025493465 1.0252344e-38 317 238
-0.0025423334 0.72500002 0.0025423334 9.7009903e-39 318 238
-0.0012711667 0.72500002 0.0025423334 9.7009903e-39 319 238
0 0.727 0.0025493465 1.0252739e-38 320 238
0.0012764266 0.72799999 0.0025528532 1.0252739e-38 321 238
0.0025528532 0.72799999 0.0025528532 1.1628839e-38 322 238
0.0038292799 0.72799999 0.0025528532 1.1905067e-38 323 238
0.0051057064 0.72799999 0.0025528532 1.1905423e-38 324 238
0.0063733663 0.727 0.0025493465 1.1813226e-38 325 238
0.0076480396 0.727 0.0025493465 1.1905421e-38 326 238
0.0089227129 0.727 0.0025493465 1.1813224e-38 327 238
0.010197386 0.727 0.0025493465 1.1628108e-38 328 238
0.01147206 0.727 0.0025493465 1.1720662e-38 329 238
0.012746733 0.727 0.0025493465 1.1628839e-38 330 238
0.014040692 0.72799999 0.0025528532 1.1628839e-38 331 238
0.01531712 0.72799999 0.0025528532 1.1994763e-38 332 238
0.016593546 0.72799999 0.0025528532 1.1810732e-38 333 238
0.017919067 0.73000002 0.0025598668 1.2268483e-38 334 238
0.019199001 0.73000002 0.0025598668 1.2360679e-38 335 238
0.020478934 0.73000002 0.0025598668 1.2727313e-38 336 238
0.021788673 0.73100001 0.0025633732 1.2819509e-38 337 238
0.023291279 0.73799998 0.0025879198 1.3461651e-38 338 238
0.024618553 0.73900002 0.0025914267 1.3093228e-38 339 238
0.025984399 0.741 0.0025984398 1.2909201e-38 340 238
0.027320439 0.74199998 0.0026019465 1.318579e-38 341 238
0.02869856 0.74400002 0.00260896 1.3186146e-38 342 238
0.03008369 0.74599999 0.0026159731 1.3278341e-38 343 238
0.031433757 0.74699998 0.0026194798 1.3737515e-38 344 238
0.032743499 0.74699998 0.0026194798 1.4106657e-38 345 238
0.034144413 0.74900001 0.0026264933 1.7331336e-38 346 238
-0.02637013 0.75199997 0.0013185065 1.1810086e-38 300 239
-0.025051624 0.75199997 0.0013185065 1.4022422e-38 301 239
-0.023733119 0.75199997 0.0013185065 1.4668874e-38 302 239
-0.022414612 0.75199997 0.0013185065 1.5222047e-38 303 239
-0.021011947 0.74900001 0.0013132467 1.0248172e-38 304 239
-0.019646099 0.74699998 0.0013097399 6.744378e-39 305 239
-0.01826272 0.74400002 0.00130448 1.162427e-38 306 239
-0.016844273 0.73900002 0.0012957134 1.3191235e-38 307 239
-0.015527519 0.73799998 0.0012939599 1.4207504e-38 308 239
-0.014233559 0.73799998 0.0012939599 1.3285547e-38 309 239
-0.012904533 0.736 0.0012904532 1.2364975e-38 310 239
-0.01161408 0.736 0.0012904532 1.1350824e-38 311 239
-0.010295574 0.73400003 0.0012869467 1.0618242e-38 312 239
-0.0090086265 0.73400003 0.0012869467 1.0157264e-38 313 239
-0.0077216802 0.73400003 0.0012869467 8.6900193e-39 314 239
-0.006434733 0.73400003 0.0012869467 8.2293999e-39 315 239
-0.0051267464 0.73100001 0.0012816866 8.2301314e-39 316 239
-0.0038397999 0.73000002 0.0012799334 8.2301314e-39 317 239
-0.0025598668 0.73000002 0.0012799334 7.311108e-39 318 239
-0.0012764266 0.72799999 0.0012764266 8.1412274e-39 319 239
0 0.72799999 0.0012764266 1.0988897e-38 320 239
0.0012799334 0.73000002 0.0012799334 1.1449875e-38 321 239
0.0025598668 0.73000002 0.0012799334 1.3192237e-38 322 239
0.0038292799 0.72799999 0.0012764266 1.2731259e-38 323 239
0.0051057064 0.72799999 0.0012764266 9.8835963e-39 324 239
0.0063821329 0.72799999 0.0012764266 8.5928575e-39 325 239
0.0076585598 0.72799999 0.0012764266 8.4120213e-39 326 239
0.0089349858 0.72799999 0.0012764266 8.4120213e-39 327 239
0.010211413 0.72799999 0.0012764266 8.9644636e-39 328 239
0.01148784 0.72799999 0.0012764266 8.9644636e-39 329 239
0.012764266 0.72799999 0.0012764266 8.8712086e-39 330 239
0.014040692 0.72799999 0.0012764266 8.8712086e-39 331 239
0.01531712 0.72799999 0.0012764266 8.8701548e-39 332 239
0.016639132 0.73000002 0.0012799334 8.8701548e-39 333 239
0.017919067 0.73000002 0.0012799334 9.2357354e-39 334 239
0.019225299 0.73100001 0.0012816866 9.7889092e-39 335 239
0.020506985 0.73100001 0.0012816866 1.1347271e-38 336 239
0.022027127 0.73900002 0.0012957134 1.2084837e-38 337 239
0.023385961 0.741 0.0012992199 1.3000692e-38 338 239
0.024718491 0.74199998 0.0013009732 1.134153e-38 339 239
0.026019465 0.74199998 0.0013009732 1.0243095e-38 340 239
0.027320439 0.74199998 0.0013009732 1.162603e-38 341 239
0.028775707 0.74599999 0.0013079866 1.3277988e-38 342 239
0.03008369 0.74599999 0.0013079866 1.3093597e-38 343 239
0.031433757 0.74699998 0.0013097399 1.2816281e-38 344 239
0.032831166 0.74900001 0.0013132467 1.3646401e-38 345 239
0.034144413 0.74900001 0.0013132467 1.6963277e-38 346 239
-0.028498679 0.77399999 -0 1.3553149e-38 299 240
-0.026440267 0.75400001 -0 1.153314e-38 300 240
-0.025118252 0.75400001 -0 1.3469249e-38 301 240
-0.02379624 0.75400001 -0 1.4116419e-38 302 240
-0.022474226 0.75400001 -0 1.5038735e-38 303 240
-0.021096105 0.75199997 -0 1.0983938e-38 304 240
-0.0196987 0.74900001 -0 7.6648952e-39 305 240
-0.018336359 0.74699998 -0 1.097855e-38 306 240
-0.016889861 0.741 -0 1.2361484e-38 307 240
-0.01559064 0.741 -0 1.3926623e-38 308 240
-0.014252847 0.73900002 -0 1.4110655e-38 309 240
-0.012939599 0.73799998 -0 1.20888e-38 310 240
-0.011645639 0.73799998 -0 1.1351235e-38 311 240
-0.010323626 0.736 -0 1.0803763e-38 312 240
-0.0090331733 0.736 -0 1.0342786e-38 313 240
-0.0077427197 0.736 -0 9.8835262e-39 314 240
-0.0064522666 0.736 -0 9.2381568e-39 315 240
-0.0051477868 0.73400003 -0 8.8708036e-39 316 240
-0.0038555798 0.73299998 -0 9.3314216e-39 317 240
-0.0025633732 0.73100001 -0 9.9772311e-39 318 240
-0.0012816866 0.73100001 -0 1.0806632e-38 319 240
0 0.73100001 -0 1.2642693e-38 320 240
0.0012816866 0.73100001 -0 1.3104031e-38 321 240
0.0025633732 0.73100001 -0 1.3745077e-38 322 240
0.0038397999 0.73000002 -0 1.3376295e-38 323 240
0.0051197335 0.73000002 -0 1.1722459e-38 324 240
0.0063996664 0.73000002 -0 1.0247327e-38 325 240
0.0076795998 0.73000002 -0 9.2381148e-39 326 240
0.0089595336 0.73000002 -0 9.0537235e-39 327 240
0.010239467 0.73000002 -0 8.6881472e-39 328 240
0.011519399 0.73000002 -0 8.8721783e-39 329 240
0.012799333 0.73000002 -0 9.4214116e-39 330 240
0.014079267 0.73000002 -0 9.4214116e-39 331 240
0.01538024 0.73100001 -0 1.0063226e-38 332 240
0.016661927 0.73100001 -0 1.0432369e-38 333 240
0.018066347 0.736 -0 1.1164616e-38 334 240
0.019409399 0.73799998 -0 1.1533397e-38 335 240
0.020731414 0.73900002 -0 1.0885216e-38 336 240
0.02208674 0.741 -0 1.1069609e-38 337 240
0.023417519 0.74199998 -0 1.1894353e-38 338 240
0.024718491 0.74199998 -0 1.0326669e-38 339 240
0.026019465 0.74199998 -0 9.4086612e-39 340 240
0.027394081 0.74400002 -0 1.2266727e-38 341 240
0.028814279 0.74699998 -0 1.3093241e-38 342 240
0.030204674 0.74900001 -0 1.2355676e-38 343 240
0.031517919 0.74900001 -0 1.2172714e-38 344 240
0.032874998 0.75 -0 1.3463453e-38 345 240
0.034189999 0.75 -0 1.7330981e-38 346 240
-0.031212838 0.77399999 -0.0013570799 1.696328e-38 297 241
-0.029855758 0.77399999 -0.0013570799 1.5950232e-38 298 241
-0.028498679 0.77399999 -0.0013570799 1.3645341e-38 299 241
-0.026440267 0.75400001 -0.0013220133 1.1809007e-38 300 241
-0.025118252 0.75400001 -0.0013220133 1.3191941e-38 301 241
-0.023733119 0.75199997 -0.0013185065 1.3472495e-38 302 241
-0.022414612 0.75199997 -0.0013185065 1.4578842e-38 303 241
-0.021096105 0.75199997 -0.0013185065 1.2087765e-38 304 241
-0.019724999 0.75 -0.001315 9.0453101e-39 305 241
-0.018385453 0.74900001 -0.0013132467 9.7807228e-39 306 241
-0.017026618 0.74699998 -0.0013097399 9.6885271e-39 307 241
-0.015653761 0.74400002 -0.00130448 1.0419978e-38 308 241
-0.01429142 0.741 -0.0012992199 9.9590002e-39 309 241
-0.0129922 0.741 -0.0012992199 6.3781221e-39 310 241
-0.01166142 0.73900002 -0.0012957134 6.7465459e-39 311 241
-0.010365707 0.73900002 -0.0012957134 7.0317353e-39 312 241
-0.0090699932 0.73900002 -0.0012957134 9.5206586e-39 313 241
-0.0077637597 0.73799998 -0.0012939599 1.3467039e-38 314 241
-0.0064697997 0.73799998 -0.0012939599 1.2821669e-38 315 241
-0.005161813 0.736 -0.0012904532 1.190437e-38 316 241
-0.0038608401 0.73400003 -0.0012869467 1.1811815e-38 317 241
-0.0025738934 0.73400003 -0.0012869467 1.2826338e-38 318 241
-0.0012851933 0.73299998 -0.0012851933 1.2826338e-38 319 241
0 0.73299998 -0.0012851933 1.2824922e-38 320 241
0.0012851933 0.73299998 -0.0012851933 1.2824922e-38 321 241
0.0025703865 0.73299998 -0.0012851933 1.2824922e-38 322 241
0.00384506 0.73100001 -0.0012816866 1.2732726e-38 323 241
0.0051267464 0.73100001 -0.0012816866 1.3283711e-38 324 241
0.006408433 0.73100001 -0.0012816866 1.2546146e-38 325 241
0.00769012 0.73100001 -0.0012816866 1.135295e-38 326 241
0.0089718066 0.73100001 -0.0012816866 1.0615385e-38 327 241
0.010253493 0.73100001 -0.0012816866 9.4225803e-39 328 241
0.01153518 0.73100001 -0.0012816866 9.6073303e-39 329 241
0.012816866 0.73100001 -0.0012816866 1.0891622e-38 330 241
0.014098554 0.73100001 -0.0012816866 1.1260404e-38 331 241
0.015485439 0.736 -0.0012904532 1.2361385e-38 332 241
0.016821479 0.73799998 -0.0012939599 1.2637613e-38 333 241
0.018115439 0.73799998 -0.0012939599 1.3554918e-38 334 241
0.0194357 0.73900002 -0.0012957134 1.2633322e-38 335 241
0.020731414 0.73900002 -0.0012957134 9.5937755e-39 336 241
0.022116546 0.74199998 -0.0013009732 8.7640149e-39 337 241
0.023417519 0.74199998 -0.0013009732 9.2206924e-39 338 241
0.024718491 0.74199998 -0.0013009732 8.2990963e-39 339 241
0.026089599 0.74400002 -0.00130448 8.8569364e-39 340 241
0.027504537 0.74699998 -0.0013097399 1.1806836e-38 341 241
0.028929999 0.75 -0.001315 1.1528442e-38 342 241
0.030244999 0.75 -0.001315 9.7763647e-39 343 241
0.03156 0.75 -0.001315 1.1252202e-38 344 241
0.032962665 0.75199997 -0.0013185065 1.3649287e-38 345 241
-0.032654081 0.77600002 -0.0027211732 1.7791959e-38 296 242
-0.031212838 0.77399999 -0.0027141599 1.7146589e-38 297 242
-0.029855758 0.77399999 -0.0027141599 1.5674721e-38 298 242
-0.028498679 0.77399999 -0.0027141599 1.3554221e-38 299 242
-0.026440267 0.75400001 -0.0026440267 1.1442027e-38 300 242
-0.025118252 0.75400001 -0.0026440267 1.2732765e-38 301 242
-0.023733119 0.75199997 -0.0026370131 1.3012242e-38 302 242
-0.022414612 0.75199997 -0.0026370131 1.3933839e-38 303 242
-0.021096105 0.75199997 -0.0026370131 1.3283787e-38 304 242
-0.019724999 0.75 -0.00263 1.1163287e-38 305 242
-0.018385453 0.74900001 -0.0026264933 1.0884184e-38 306 242
-0.017072206 0.74900001 -0.0026264933 9.9622274e-39 307 242
-0.01575896 0.74900001 -0.0026264933 7.4772796e-39 308 242
-0.014407139 0.74699998 -0.0026194798 6.9241058e-39 309 242
-0.0129922 0.741 -0.0025984398 4.9927059e-39 310 242
-0.01169298 0.741 -0.0025984398 4.8083147e-39 311 242
-0.010393759 0.741 -0.0025984398 3.805296e-39 312 242
-0.0090945391 0.741 -0.0025984398 9.0604469e-39 313 242
-0.0077742799 0.73900002 -0.0025914267 1.4386526e-38 314 242
-0.0064785667 0.73900002 -0.0025914267 1.3648961e-38 315 242
-0.0051758396 0.73799998 -0.0025879198 1.2638021e-38 316 242
-0.0038713599 0.736 -0.0025809065 1.2361793e-38 317 242
-0.0025809065 0.736 -0.0025809065 1.3378096e-38 318 242
-0.0012869467 0.73400003 -0.0025738934 1.3285541e-38 319 242
0 0.73400003 -0.0025738934 1.300968e-38 320 242
0.0012869467 0.73400003 -0.0025738934 1.300968e-38 321 242
0.0025738934 0.73400003 -0.0025738934 1.2825286e-38 322 242
0.0038608401 0.73400003 -0.0025738934 1.2549058e-38 323 242
0.0051477868 0.73400003 -0.0025738934 1.2916389e-38 324 242
0.0064259665 0.73299998 -0.0025703865 1.2732358e-38 325 242
0.0077111595 0.73299998 -0.0025703865 1.2272076e-38 326 242
0.0090086265 0.73400003 -0.0025738934 1.0428163e-38 327 242
0.010295574 0.73400003 -0.0025738934 9.8771447e-39 328 242
0.01161408 0.736 -0.0025809065 9.8771447e-39 329 242
0.012939599 0.73799998 -0.0025879198 1.0610053e-38 330 242
0.014252847 0.73900002 -0.0025914267 1.1255423e-38 331 242
0.01554856 0.73900002 -0.0025914267 1.2267076e-38 332 242
0.016844273 0.73900002 -0.0025914267 1.1990489e-38 333 242
0.018189078 0.741 -0.0025984398 1.2720514e-38 334 242
0.019488299 0.741 -0.0025984398 1.1521972e-38 335 242
0.020787518 0.741 -0.0025984398 8.3934541e-39 336 242
0.022116546 0.74199998 -0.0026019465 8.3012585e-39 337 242
0.023417519 0.74199998 -0.0026019465 8.9466307e-39 338 242
0.02478512 0.74400002 -0.00260896 9.3150531e-39 339 242
0.0263 0.75 -0.00263 9.5023058e-39 340 242
0.027688639 0.75199997 -0.0026370131 1.088524e-38 341 242
0.029007144 0.75199997 -0.0026370131 1.097347e-38 342 242
0.030325651 0.75199997 -0.0026370131 9.3135887e-39 343 242
0.031644158 0.75199997 -0.0026370131 1.2170196e-38 344 242
0.032962665 0.75199997 -0.0026370131 1.50279e-38 345 242
-0.034014668 0.77600002 -0.0040817601 1.797635e-38 295 243
-0.032569919 0.77399999 -0.0040712398 1.779268e-38 296 243
-0.031212838 0.77399999 -0.0040712398 1.7147311e-38 297 243
-0.029855758 0.77399999 -0.0040712398 1.539993e-38 298 243
-0.028461859 0.773 -0.0040659797 1.3648213e-38 299 243
-0.027106533 0.773 -0.0040659797 1.1901929e-38 300 243
-0.025751207 0.773 -0.0040659797 1.2823885e-38 301 243
-0.02379624 0.75400001 -0.00396604 1.2460154e-38 302 243
-0.022474226 0.75400001 -0.00396604 1.2829295e-38 303 243
-0.021180267 0.755 -0.0039712996 1.3375985e-38 304 243
-0.019830201 0.75400001 -0.00396604 1.2730616e-38 305 243
-0.018459093 0.75199997 -0.0039555198 1.2450783e-38 306 243
-0.017072206 0.74900001 -0.0039397399 1.1160045e-38 307 243
-0.01575896 0.74900001 -0.0039397399 7.0184566e-39 308 243
-0.014445714 0.74900001 -0.0039397399 5.7277178e-39 309 243
-0.013097399 0.74699998 -0.0039292197 6.2776826e-39 310 243
-0.011740319 0.74400002 -0.0039134403 5.8167058e-39 311 243
-0.01043584 0.74400002 -0.0039134403 3.249251e-39 312 243
-0.0091313599 0.74400002 -0.0039134403 7.7668369e-39 313 243
-0.0078268806 0.74400002 -0.0039134403 1.2820663e-38 314 243
-0.0064960998 0.741 -0.0038976599 1.2635913e-38 315 243
-0.0051828534 0.73900002 -0.00388714 1.19916e-38 316 243
-0.00388714 0.73900002 -0.00388714 1.2175992e-38 317 243
-0.0025879198 0.73799998 -0.0038818798 1.3652548e-38 318 243
-0.0012904532 0.736 -0.0038713599 1.4297916e-38 319 243
0 0.736 -0.0038713599 1.393021e-38 320 243
0.0012904532 0.736 -0.0038713599 1.3838014e-38 321 243
0.0025809065 0.736 -0.0038713599 1.3561782e-38 322 243
0.0038713599 0.736 -0.0038713599 1.3377389e-38 323 243
0.005161813 0.736 -0.0038713599 1.3377024e-38 324 243
0.0064522666 0.736 -0.0038713599 1.365325e-38 325 243
0.0077427197 0.736 -0.0038713599 1.3374873e-38 326 243
0.0090331733 0.736 -0.0038713599 9.1335135e-39 327 243
0.010351679 0.73799998 -0.0038818798 7.7541916e-39 328 243
0.01166142 0.73900002 -0.00388714 8.399561e-39 329 243
0.012957133 0.73900002 -0.00388714 8.9487789e-39 330 243
0.01429142 0.741 -0.0038976599 9.7781794e-39 331 243
0.01559064 0.741 -0.0038976599 1.10664e-38 332 243
0.016889861 0.741 -0.0038976599 1.0421031e-38 333 243
0.018213626 0.74199998 -0.0039029196 8.7564941e-39 334 243
0.0195146 0.74199998 -0.0039029196 8.1111247e-39 335 243
0.020815572 0.74199998 -0.0039029196 7.1927781e-39 336 243
0.022176161 0.74400002 -0.0039134403 8.1150932e-39 337 243
0.023543758 0.74599999 -0.0039239596 9.1324625e-39 338 243
0.024951685 0.74900001 -0.0039397399 1.0515397e-38 339 243
0.026440267 0.75400001 -0.00396604 1.1251865e-38 340 243
0.027762281 0.75400001 -0.00396604 1.0422464e-38 341 243
0.029084291 0.75400001 -0.00396604 9.8678415e-39 342 243
0.030406307 0.75400001 -0.00396604 9.3150278e-39 343 243
0.03172832 0.75400001 -0.00396604 1.2815562e-38 344 243
0.033094164 0.755 -0.0039712996 1.539704e-38 345 243
-0.033927001 0.77399999 -0.0054283198 1.8068904e-38 295 244
-0.032569919 0.77399999 -0.0054283198 1.7701564e-38 296 244
-0.031212838 0.77399999 -0.0054283198 1.6871444e-38 297 244
-0.029855758 0.77399999 -0.0054283198 1.5491757e-38 298 244
-0.028461859 0.773 -0.0054213065 1.4201018e-38 299 244
-0.027106533 0.773 -0.0054213065 1.3189423e-38 300 244
-0.025751207 0.773 -0.0054213065 1.3189423e-38 301 244
-0.023827799 0.755 -0.0052950666 1.1631475e-38 302 244
-0.022504034 0.755 -0.0052950666 1.2092095e-38 303 244
-0.021180267 0.755 -0.0052950666 1.2548387e-38 304 244
-0.0198565 0.755 -0.0052950666 1.2087409e-38 305 244
