# .PCD v.7 - Point Cloud Data file format
FIELDS x y z rgb imX imY
SIZE 4 4 4 4 4 4
TYPE F F F F F F
COUNT 1 1 1 1 1 1
WIDTH 842
HEIGHT 1
VIEWPOINT 0 0 0 1 0 0 0
POINTS 842
DATA ascii
-0.034118112 0.671 0.0176473 6.550954e-39 291 225
-0.032941625 0.671 0.0176473 7.1955905e-39 292 225
-0.031765141 0.671 0.0176473 7.4725376e-39 293 225
-0.030543067 0.67000002 0.017620999 7.7480272e-39 294 225
-0.029368332 0.67000002 0.017620999 8.301201e-39 295 225
-0.028193599 0.67000002 0.017620999 8.3001052e-39 296 225
-0.027018867 0.67000002 0.017620999 7.9316828e-39 297 225
-0.025766984 0.66799998 0.017568398 8.4827042e-39 298 225
-0.02459576 0.66799998 0.017568398 8.6670955e-39 299 225
-0.023424532 0.66799998 0.017568398 8.115358e-39 300 225
-0.022319933 0.67000002 0.017620999 7.9313269e-39 301 225
-0.0211452 0.67000002 0.017620999 7.9316772e-39 302 225
-0.019970467 0.67000002 0.017620999 8.2082627e-39 303 225
-0.018795732 0.67000002 0.017620999 9.0387296e-39 304 225
-0.017620999 0.67000002 0.017620999 8.5777515e-39 305 225
-0.016446266 0.67000002 0.017620999 7.7472299e-39 306 225
-0.015271533 0.67000002 0.017620999 7.1018605e-39 307 225
-0.014096799 0.67000002 0.017620999 5.6349841e-39 308 225
-0.012922067 0.67000002 0.017620999 5.4509529e-39 309 225
-0.011747333 0.67000002 0.017620999 6.182065e-39 310 225
-0.01058838 0.671 0.0176473 6.274262e-39 311 225
-0.0094118929 0.671 0.0176473 6.7337982e-39 312 225
-0.00824768 0.67199999 0.017673599 6.7337982e-39 313 225
-0.0070694401 0.67199999 0.017673599 6.550479e-39 314 225
-0.0059087332 0.67400002 0.0177262 6.3660891e-39 315 225
-0.0047269869 0.67400002 0.0177262 6.9163916e-39 316 225
-0.0035505001 0.67500001 0.0177525 7.3773684e-39 317 225
-0.0023705065 0.676 0.017778801 7.6550287e-39 318 225
-0.0011852533 0.676 0.017778801 8.0238112e-39 319 225
0 0.67799997 0.0178314 8.2081842e-39 320 225
0.0011887599 0.67799997 0.0178314 8.1159872e-39 321 225
0.0023810267 0.67900002 0.017857701 7.5660406e-39 322 225
0.0035767998 0.68000001 0.017883999 7.3812906e-39 323 225
0.0047690663 0.68000001 0.017883999 6.830272e-39 324 225
0.005978866 0.68199998 0.017936599 6.830272e-39 325 225
0.0071956799 0.68400002 0.0179892 7.013234e-39 326 225
0.0084195063 0.68599999 0.018041799 7.013234e-39 327 225
0.0096363192 0.68699998 0.018068098 7.0114641e-39 328 225
0.010856641 0.68800002 0.0180944 8.5784297e-39 329 225
0.012062933 0.68800002 0.0180944 1.2908075e-38 330 225
-0.056215372 0.69700003 0.017109027 1.5858367e-38 274 226
-0.054756597 0.69400001 0.017035386 1.6043119e-38 275 226
-0.053462639 0.69300002 0.01701084 1.4201332e-38 276 226
-0.052096792 0.69099998 0.016961746 1.0789735e-38 277 226
-0.050885238 0.69099998 0.016961746 7.4738548e-39 278 226
-0.049386136 0.68699998 0.01686356 6.9210397e-39 279 226
-0.0479712 0.68400002 0.016789921 6.9274815e-39 280 226
-0.04670354 0.68300003 0.016765373 6.6512576e-39 281 226
-0.045439381 0.68199998 0.016740825 6.3714827e-39 282 226
-0.044113863 0.68000001 0.016691733 6.7399051e-39 283 226
-0.042795356 0.67799997 0.016642639 8.2997549e-39 284 226
-0.041483864 0.676 0.016593546 8.760733e-39 285 226
-0.040238999 0.67500001 0.016569 8.3909107e-39 286 226
-0.039055496 0.67500001 0.016569 8.1146826e-39 287 226
-0.037815895 0.67400002 0.016544454 7.8380957e-39 288 226
-0.036525436 0.67199999 0.01649536 7.7455413e-39 289 226
-0.0352946 0.671 0.016470812 7.8362908e-39 290 226
-0.034118112 0.671 0.016470812 7.5600641e-39 291 226
-0.032941625 0.671 0.016470812 7.7426547e-39 292 226
-0.031765141 0.671 0.016470812 8.0192401e-39 293 226
-0.030588651 0.671 0.016470812 8.6649571e-39 294 226
-0.029368332 0.67000002 0.016446266 8.8497071e-39 295 226
-0.028193599 0.67000002 0.016446266 8.9415314e-39 296 226
-0.027018867 0.67000002 0.016446266 8.6649445e-39 297 226
-0.025844134 0.67000002 0.016446266 8.6645913e-39 298 226
-0.02459576 0.66799998 0.016397171 8.5723957e-39 299 226
-0.023424532 0.66799998 0.016397171 8.2043349e-39 300 226
-0.022319933 0.67000002 0.016446266 8.2043349e-39 301 226
-0.0211452 0.67000002 0.016446266 8.0217415e-39 302 226
-0.019970467 0.67000002 0.016446266 8.6671109e-39 303 226
-0.018795732 0.67000002 0.016446266 9.9578343e-39 304 226
-0.017620999 0.67000002 0.016446266 9.8656386e-39 305 226
-0.016446266 0.67000002 0.016446266 7.7479432e-39 306 226
-0.015271533 0.67000002 0.016446266 7.3795208e-39 307 226
-0.014096799 0.67000002 0.016446266 6.4625671e-39 308 226
-0.012922067 0.67000002 0.016446266 6.2778171e-39 309 226
-0.011764866 0.671 0.016470812 6.9181853e-39 310 226
-0.01058838 0.671 0.016470812 7.0103809e-39 311 226
-0.0094259195 0.67199999 0.01649536 7.0093061e-39 312 226
-0.0082722269 0.67400002 0.016544454 6.9171105e-39 313 226
-0.0070904801 0.67400002 0.016544454 6.6416054e-39 314 226
-0.0059174998 0.67500001 0.016569 6.549051e-39 315 226
-0.0047339997 0.67500001 0.016569 6.6408992e-39 316 226
-0.0035505001 0.67500001 0.016569 7.1018773e-39 317 226
-0.0023705065 0.676 0.016593546 7.2884168e-39 318 226
-0.0011852533 0.676 0.016593546 7.5650036e-39 319 226
0 0.67799997 0.016642639 8.2078367e-39 320 226
0.0011887599 0.67799997 0.016642639 8.1156411e-39 321 226
0.0023810267 0.67900002 0.016667187 7.6568013e-39 322 226
0.0035767998 0.68000001 0.016691733 7.3805746e-39 323 226
0.0047690663 0.68000001 0.016691733 7.1968994e-39 324 226
0.0059876335 0.68300003 0.016765373 7.1968994e-39 325 226
0.0071851597 0.68300003 0.016765373 7.0125305e-39 326 226
0.0083949603 0.68400002 0.016789921 7.1047261e-39 327 226
0.0096363192 0.68699998 0.01686356 6.8288833e-39 328 226
0.010856641 0.68800002 0.016888106 7.9348722e-39 329 226
0.012062933 0.68800002 0.016888106 1.2815876e-38 330 226
-0.056215372 0.69700003 0.015886955 1.5766174e-38 274 227
-0.054756597 0.69400001 0.015818574 1.6042763e-38 275 227
-0.053462639 0.69300002 0.015795778 1.4201698e-38 276 227
-0.052096792 0.69099998 0.015750192 1.097485e-38 277 227
-0.050885238 0.69099998 0.015750192 7.7504459e-39 278 227
-0.049673684 0.69099998 0.015750192 7.1050765e-39 279 227
-0.048111461 0.68599999 0.015636226 7.0196757e-39 280 227
-0.04670354 0.68300003 0.015567848 6.6512576e-39 281 227
-0.045439381 0.68199998 0.015545053 5.7272049e-39 282 227
-0.044113863 0.68000001 0.015499466 6.6488025e-39 283 227
-0.042795356 0.67799997 0.015453878 8.5767145e-39 284 227
-0.041483864 0.676 0.015408293 9.1298883e-39 285 227
-0.040298611 0.676 0.015408293 8.5774586e-39 286 227
-0.039055496 0.67500001 0.0153855 8.2083174e-39 287 227
-0.037815895 0.67400002 0.015362706 8.1172007e-39 288 227
-0.036634147 0.67400002 0.015362706 8.0250051e-39 289 227
-0.035347197 0.67199999 0.01531712 8.2079516e-39 290 227
-0.034118112 0.671 0.015294326 8.2079516e-39 291 227
-0.032941625 0.671 0.015294326 7.9324395e-39 292 227
-0.031765141 0.671 0.015294326 7.9324395e-39 293 227
-0.030588651 0.671 0.015294326 8.5752922e-39 294 227
-0.029412165 0.671 0.015294326 8.9437146e-39 295 227
-0.028193599 0.67000002 0.015271533 9.4021746e-39 296 227
-0.027018867 0.67000002 0.015271533 8.9411978e-39 297 227
-0.025844134 0.67000002 0.015271533 8.1121631e-39 298 227
-0.024669399 0.67000002 0.015271533 7.9277704e-39 299 227
-0.023494666 0.67000002 0.015271533 7.8373712e-39 300 227
-0.022353247 0.671 0.015294326 7.9299256e-39 301 227
-0.021176759 0.671 0.015294326 7.8384432e-39 302 227
-0.019970467 0.67000002 0.015271533 8.391617e-39 303 227
-0.018795732 0.67000002 0.015271533 9.5904965e-39 304 227
-0.0176473 0.671 0.015294326 9.4057465e-39 305 227
-0.016470812 0.671 0.015294326 7.2862658e-39 306 227
-0.015294326 0.671 0.015294326 7.1940701e-39 307 227
-0.01411784 0.671 0.015294326 6.6444697e-39 308 227
-0.012941353 0.671 0.015294326 6.4600784e-39 309 227
-0.011782399 0.67199999 0.01531712 7.2833945e-39 310 227
-0.010604159 0.67199999 0.01531712 7.2833945e-39 311 227
-0.0094539737 0.67400002 0.015362706 6.9171259e-39 312 227
-0.0082722269 0.67400002 0.015362706 6.9171259e-39 313 227
-0.0070904801 0.67400002 0.015362706 6.3653885e-39 314 227
-0.0059174998 0.67500001 0.0153855 6.3653885e-39 315 227
-0.0047339997 0.67500001 0.0153855 6.6408992e-39 316 227
-0.0035557596 0.676 0.015408293 7.0093215e-39 317 227
-0.0023705065 0.676 0.015408293 7.6532336e-39 318 227
-0.0011887599 0.67799997 0.015453878 8.0220161e-39 319 227
0 0.67799997 0.015453878 8.2063906e-39 320 227
0.0011905134 0.67900002 0.015476674 8.1138362e-39 321 227
0.0023845332 0.68000001 0.015499466 7.5638896e-39 322 227
0.0035767998 0.68000001 0.015499466 7.471694e-39 323 227
0.004783093 0.68199998 0.015545053 7.012864e-39 324 227
0.0059876335 0.68300003 0.015567848 7.012864e-39 325 227
0.0071851597 0.68300003 0.015567848 6.9210369e-39 326 227
0.0083949603 0.68400002 0.01559064 6.6448102e-39 327 227
0.0096363192 0.68699998 0.015659019 6.5519237e-39 328 227
0.010856641 0.68800002 0.015681813 8.1192508e-39 329 227
0.012097999 0.69 0.015727401 1.254001e-38 330 227
-0.056215372 0.69700003 0.01466488 1.5949844e-38 274 228
-0.054914396 0.69599998 0.014643839 1.6226431e-38 275 228
-0.053462639 0.69300002 0.014580719 1.4568682e-38 276 228
-0.052096792 0.69099998 0.014538639 1.1434391e-38 277 228
-0.050885238 0.69099998 0.014538639 8.3028994e-39 278 228
-0.049673684 0.69099998 0.014538639 7.5653344e-39 279 228
-0.048391998 0.69 0.014517599 7.3873821e-39 280 228
-0.046977058 0.68699998 0.014454478 7.2033509e-39 281 228
-0.045506012 0.68300003 0.014370319 8.119269e-39 282 228
-0.044113863 0.68000001 0.014307199 8.7646384e-39 283 228
-0.042858478 0.67900002 0.01428616 9.1295324e-39 284 228
-0.041606598 0.67799997 0.014265119 9.0373353e-39 285 228
-0.040298611 0.676 0.014223038 8.6682095e-39 286 228
-0.039113361 0.676 0.014223038 8.4834595e-39 287 228
-0.037871998 0.67500001 0.014202001 8.5756579e-39 288 228
-0.036688499 0.67500001 0.014202001 8.6678536e-39 289 228
-0.035452399 0.67400002 0.01418096 8.9440677e-39 290 228
-0.034168959 0.67199999 0.01413888 9.0362633e-39 291 228
-0.03299072 0.67199999 0.01413888 8.9444236e-39 292 228
-0.031765141 0.671 0.01411784 8.8518693e-39 293 228
-0.030588651 0.671 0.01411784 8.9440677e-39 294 228
-0.029412165 0.671 0.01411784 9.1288191e-39 295 228
-0.028235679 0.671 0.01411784 9.4046899e-39 296 228
-0.027018867 0.67000002 0.014096799 8.8518749e-39 297 228
-0.025844134 0.67000002 0.014096799 7.6547778e-39 298 228
-0.024669399 0.67000002 0.014096799 7.7469735e-39 299 228
-0.023494666 0.67000002 0.014096799 8.4820162e-39 300 228
-0.022319933 0.67000002 0.014096799 8.6664088e-39 301 228
-0.021176759 0.671 0.01411784 8.8511504e-39 302 228
-0.020000271 0.671 0.01411784 9.4043242e-39 303 228
-0.018823786 0.671 0.01411784 9.8660016e-39 304 228
-0.0176473 0.671 0.01411784 9.4053836e-39 305 228
-0.016470812 0.671 0.01411784 7.3770181e-39 306 228
-0.015294326 0.671 0.01411784 7.7454418e-39 307 228
-0.01413888 0.67199999 0.01413888 7.3784418e-39 308 228
-0.012960639 0.67199999 0.01413888 7.1018549e-39 309 228
-0.011782399 0.67199999 0.01413888 7.5589052e-39 310 228
-0.010604159 0.67199999 0.01413888 7.5589052e-39 311 228
-0.0094539737 0.67400002 0.01418096 7.1933513e-39 312 228
-0.0082722269 0.67400002 0.01418096 7.1011542e-39 313 228
-0.0070904801 0.67400002 0.01418096 6.916763e-39 314 228
-0.0059174998 0.67500001 0.014202001 6.732013e-39 315 228
-0.0047339997 0.67500001 0.014202001 6.3650353e-39 316 228
-0.0035557596 0.676 0.014223038 6.5490665e-39 317 228
-0.0023705065 0.676 0.014223038 6.8263596e-39 318 228
-0.0011887599 0.67799997 0.014265119 7.011111e-39 319 228
0 0.67799997 0.014265119 7.3769998e-39 320 228
0.0011905134 0.67900002 0.01428616 7.653228e-39 321 228
0.0023845332 0.68000001 0.014307199 7.4713409e-39 322 228
0.00358732 0.68199998 0.01434928 7.4713409e-39 323 228
0.004783093 0.68199998 0.01434928 7.1961791e-39 324 228
0.0059876335 0.68300003 0.014370319 7.2883761e-39 325 228
0.0071956799 0.68400002 0.01439136 7.0128864e-39 326 228
0.0083949603 0.68400002 0.01439136 6.8281351e-39 327 228
0.0096222926 0.68599999 0.01443344 6.7359689e-39 328 228
0.010840859 0.68699998 0.014454478 8.2110989e-39 329 228
-0.058743682 0.69800001 0.013462093 1.5765456e-38 272 229
-0.057519849 0.69800001 0.013462093 1.5857651e-38 273 229
-0.056215372 0.69700003 0.013442807 1.585837e-38 274 229
-0.054914396 0.69599998 0.013423519 1.6042763e-38 275 229
-0.053462639 0.69300002 0.01336566 1.484455e-38 276 229
-0.05224758 0.69300002 0.01336566 1.189429e-38 277 229
-0.050885238 0.69099998 0.013327086 8.5794835e-39 278 229
-0.049601797 0.69 0.0133078 7.9341141e-39 279 229
-0.048251733 0.68800002 0.013269227 7.0193282e-39 280 229
-0.046908677 0.68599999 0.013230653 7.6646976e-39 281 229
-0.045506012 0.68300003 0.013172794 1.0329819e-38 282 229
-0.044243611 0.68199998 0.013153506 1.1067384e-38 283 229
-0.042858478 0.67900002 0.013095647 9.7741843e-39 284 229
-0.041667968 0.67900002 0.013095647 8.8518693e-39 285 229
-0.040298611 0.676 0.013037786 8.1146826e-39 286 229
-0.039113361 0.676 0.013037786 8.022487e-39 287 229
-0.037928104 0.676 0.013037786 8.206881e-39 288 229
-0.036688499 0.67500001 0.0130185 8.7600548e-39 289 229
-0.035452399 0.67400002 0.012999214 8.7607709e-39 290 229
-0.034270655 0.67400002 0.012999214 8.5763796e-39 291 229
-0.03299072 0.67199999 0.012960639 8.6682193e-39 292 229
-0.031812478 0.67199999 0.012960639 8.5760237e-39 293 229
-0.030634239 0.67199999 0.012960639 8.760052e-39 294 229
-0.029412165 0.671 0.012941353 8.8522476e-39 295 229
-0.028235679 0.671 0.012941353 9.1288289e-39 296 229
-0.027059194 0.671 0.012941353 9.0366333e-39 297 229
-0.025882706 0.671 0.012941353 8.9437146e-39 298 229
-0.024669399 0.67000002 0.012922067 8.9437146e-39 299 229
-0.023494666 0.67000002 0.012922067 9.2192155e-39 300 229
-0.022319933 0.67000002 0.012922067 9.4036081e-39 301 229
-0.021176759 0.671 0.012941353 9.4968729e-39 302 229
-0.020000271 0.671 0.012941353 9.8656541e-39 303 229
-0.018823786 0.671 0.012941353 1.0142946e-38 304 229
-0.0176473 0.671 0.012941353 9.4975764e-39 305 229
-0.016470812 0.671 0.012941353 8.2964899e-39 306 229
-0.01531712 0.67199999 0.012960639 8.2964899e-39 307 229
-0.01413888 0.67199999 0.012960639 7.9309373e-39 308 229
-0.012960639 0.67199999 0.012960639 7.7461873e-39 309 229
-0.011782399 0.67199999 0.012960639 7.7433161e-39 310 229
-0.010604159 0.67199999 0.012960639 7.7433161e-39 311 229
-0.0094539737 0.67400002 0.012999214 7.4692277e-39 312 229
-0.0082722269 0.67400002 0.012999214 7.1930009e-39 313 229
-0.0071010003 0.67500001 0.0130185 6.7330948e-39 314 229
-0.0059174998 0.67500001 0.0130185 6.6408992e-39 315 229
-0.0047339997 0.67500001 0.0130185 6.6408992e-39 316 229
-0.0035557596 0.676 0.013037786 6.6408992e-39 317 229
-0.0023775198 0.67799997 0.013076359 6.7345171e-39 318 229
-0.0011887599 0.67799997 0.013076359 6.7345171e-39 319 229
0 0.67799997 0.013076359 7.2848042e-39 320 229
0.0011905134 0.67900002 0.013095647 7.3769998e-39 321 229
0.0023845332 0.68000001 0.013114933 7.3787893e-39 322 229
0.00358732 0.68199998 0.013153506 7.4709849e-39 323 229
0.0047901068 0.68300003 0.013172794 7.0128668e-39 324 229
0.0059876335 0.68300003 0.013172794 7.0128668e-39 325 229
0.0071956799 0.68400002 0.01319208 6.8295686e-39 326 229
0.0084195063 0.68599999 0.013230653 6.6451759e-39 327 229
0.0096222926 0.68599999 0.013230653 6.8270785e-39 328 229
0.010840859 0.68699998 0.013249939 8.7631867e-39 329 229
-0.059967503 0.69800001 0.012238266 1.5765456e-38 271 230
-0.058743682 0.69800001 0.012238266 1.57651e-38 272 230
-0.057519849 0.69800001 0.012238266 1.57651e-38 273 230
-0.056215372 0.69700003 0.012220734 1.5490308e-38 274 230
-0.054914396 0.69599998 0.0122032 1.5951286e-38 275 230
-0.053539783 0.69400001 0.012168133 1.4753434e-38 276 230
-0.05224758 0.69300002 0.012150601 1.2171956e-38 277 230
-0.050885238 0.69099998 0.012115533 8.3968901e-39 278 230
-0.049601797 0.69 0.012097999 7.4749352e-39 279 230
-0.048251733 0.68800002 0.012062933 6.7427427e-39 280 230
-0.046908677 0.68599999 0.012027865 7.3881121e-39 281 230
-0.045506012 0.68300003 0.011975267 1.0514933e-38 282 230
-0.044243611 0.68199998 0.011957732 1.1067747e-38 283 230
-0.042921599 0.68000001 0.011922667 9.1309799e-39 284 230
-0.041667968 0.67900002 0.011905133 6.6416979e-39 285 230
-0.040417835 0.67799997 0.011887599 5.9052343e-39 286 230
-0.039113361 0.676 0.011852534 6.181461e-39 287 230
-0.037928104 0.676 0.011852534 6.6406455e-39 288 230
-0.036688499 0.67500001 0.011835 7.0094266e-39 289 230
-0.035505001 0.67500001 0.011835 7.1023383e-39 290 230
-0.034270655 0.67400002 0.011817466 6.9183072e-39 291 230
-0.03299072 0.67199999 0.011782399 7.2860149e-39 292 230
-0.031812478 0.67199999 0.011782399 7.5626004e-39 293 230
-0.030634239 0.67199999 0.011782399 8.0228527e-39 294 230
-0.029455997 0.67199999 0.011782399 8.8526148e-39 295 230
-0.028235679 0.671 0.011764866 1.0050062e-38 296 230
-0.027059194 0.671 0.011764866 1.0142258e-38 297 230
-0.025882706 0.671 0.011764866 1.0234438e-38 298 230
-0.024706218 0.671 0.011764866 1.0234438e-38 299 230
-0.023529733 0.671 0.011764866 1.0510299e-38 300 230
-0.022353247 0.671 0.011764866 1.0602853e-38 301 230
-0.021176759 0.671 0.011764866 1.0602851e-38 302 230
-0.020000271 0.671 0.011764866 1.0510655e-38 303 230
-0.018823786 0.671 0.011764866 1.0693601e-38 304 230
-0.0176473 0.671 0.011764866 9.9560364e-39 305 230
-0.016470812 0.671 0.011764866 9.403213e-39 306 230
-0.01531712 0.67199999 0.011782399 9.7719941e-39 307 230
-0.01413888 0.67199999 0.011782399 1.0321928e-38 308 230
-0.012960639 0.67199999 0.011782399 9.7687543e-39 309 230
-0.011782399 0.67199999 0.011782399 9.4896408e-39 310 230
-0.010604159 0.67199999 0.011782399 8.9368258e-39 311 230
-0.0094539737 0.67400002 0.011817466 7.9287667e-39 312 230
-0.0082722269 0.67400002 0.011817466 7.6521798e-39 313 230
-0.0071010003 0.67500001 0.011835 6.7338165e-39 314 230
-0.0059174998 0.67500001 0.011835 6.3650353e-39 315 230
-0.0047410131 0.676 0.011852534 6.2728425e-39 316 230
-0.0035557596 0.676 0.011852534 6.3650381e-39 317 230
-0.0023775198 0.67799997 0.011887599 6.3661045e-39 318 230
-0.0011887599 0.67799997 0.011887599 6.4586589e-39 319 230
0 0.67900002 0.011905133 7.1004228e-39 320 230
0.0011922666 0.68000001 0.011922667 7.1929771e-39 321 230
0.0023915465 0.68199998 0.011957732 7.1032828e-39 322 230
0.00358732 0.68199998 0.011957732 7.1954798e-39 323 230
0.0047901068 0.68300003 0.011975267 6.9213901e-39 324 230
0.0059964 0.68400002 0.0119928 7.0135871e-39 325 230
0.0072167199 0.68599999 0.012027865 7.0128808e-39 326 230
0.0084195063 0.68599999 0.012027865 6.9206838e-39 327 230
0.0096363192 0.68699998 0.012045399 7.2869846e-39 328 230
0.010856641 0.68800002 0.012062933 9.1308972e-39 329 230
-0.058743682 0.69800001 0.01101444 1.57651e-38 272 231
-0.057519849 0.69800001 0.01101444 1.5672904e-38 273 231
-0.056215372 0.69700003 0.01099866 1.5673979e-38 274 231
-0.054914396 0.69599998 0.010982879 1.585837e-38 275 231
-0.053539783 0.69400001 0.01095132 1.4753078e-38 276 231
-0.05224758 0.69300002 0.010935539 1.2540381e-38 277 231
-0.051032521 0.69300002 0.010935539 8.5812841e-39 278 231
-0.049673684 0.69099998 0.01090398 7.2905453e-39 279 231
-0.048391998 0.69 0.010888199 6.9264067e-39 280 231
-0.046977058 0.68699998 0.010840859 7.5717761e-39 281 231
-0.045572639 0.68400002 0.01079352 1.0790791e-38 282 231
-0.044243611 0.68199998 0.010761959 1.1067737e-38 283 231
-0.042921599 0.68000001 0.0107304 9.3146481e-39 284 231
-0.041729335 0.68000001 0.0107304 6.7331705e-39 285 231
-0.040477451 0.67900002 0.010714619 5.6282873e-39 286 231
-0.039229076 0.67799997 0.010698839 5.6282873e-39 287 231
-0.037928104 0.676 0.01066728 5.9931237e-39 288 231
-0.036742851 0.676 0.01066728 5.9009281e-39 289 231
-0.035505001 0.67500001 0.0106515 5.9941985e-39 290 231
-0.034321502 0.67500001 0.0106515 5.8101674e-39 291 231
-0.033088908 0.67400002 0.01063572 6.0856753e-39 292 231
-0.03190716 0.67400002 0.01063572 6.0856753e-39 293 231
-0.030634239 0.67199999 0.010604159 7.1009006e-39 294 231
-0.029455997 0.67199999 0.010604159 8.2072482e-39 295 231
-0.02827776 0.67199999 0.010604159 9.4968884e-39 296 231
-0.027099518 0.67199999 0.010604159 9.866031e-39 297 231
-0.025882706 0.671 0.01058838 1.0142245e-38 298 231
-0.024706218 0.671 0.01058838 1.005005e-38 299 231
-0.023529733 0.671 0.01058838 1.0325555e-38 300 231
-0.022353247 0.671 0.01058838 1.0418109e-38 301 231
-0.021208318 0.67199999 0.010604159 1.069397e-38 302 231
-0.020030079 0.67199999 0.010604159 1.0601416e-38 303 231
-0.018823786 0.671 0.01058838 9.7727396e-39 304 231
-0.0176473 0.671 0.01058838 8.7585876e-39 305 231
-0.01649536 0.67199999 0.010604159 9.0366165e-39 306 231
-0.01531712 0.67199999 0.010604159 9.8663785e-39 307 231
-0.01413888 0.67199999 0.010604159 1.0231191e-38 308 231
-0.012960639 0.67199999 0.010604159 9.5858218e-39 309 231
-0.011782399 0.67199999 0.010604159 9.399613e-39 310 231
-0.01063572 0.67400002 0.01063572 8.9389936e-39 311 231
-0.0094539737 0.67400002 0.01063572 8.2964744e-39 312 231
-0.0082722269 0.67400002 0.01063572 7.9276905e-39 313 231
-0.0071010003 0.67500001 0.0106515 6.4561548e-39 314 231
-0.0059262668 0.676 0.01066728 6.5483504e-39 315 231
-0.0047410131 0.676 0.01066728 6.4557988e-39 316 231
-0.0035557596 0.676 0.01066728 6.4557988e-39 317 231
-0.0023775198 0.67799997 0.010698839 6.5494224e-39 318 231
-0.0011887599 0.67799997 0.010698839 6.3653913e-39 319 231
0 0.67900002 0.010714619 6.9163972e-39 320 231
0.0011922666 0.68000001 0.0107304 7.1004284e-39 321 231
0.0023915465 0.68199998 0.010761959 6.6441039e-39 322 231
0.0035925799 0.68300003 0.01077774 6.8281351e-39 323 231
0.0047901068 0.68300003 0.01077774 6.738075e-39 324 231
0.0059964 0.68400002 0.01079352 6.830272e-39 325 231
0.0072167199 0.68599999 0.010825079 7.2890978e-39 326 231
0.0084317802 0.68699998 0.010840859 7.0125109e-39 327 231
0.0096363192 0.68699998 0.010840859 7.8369214e-39 328 231
0.010856641 0.68800002 0.010856641 9.9574209e-39 329 231
-0.05743745 0.69700003 0.0097765867 1.5672904e-38 273 232
-0.056134716 0.69599998 0.0097625591 1.5673979e-38 274 232
-0.054756597 0.69400001 0.0097345067 1.585837e-38 275 232
-0.053539783 0.69400001 0.0097345067 1.4845276e-38 276 232
-0.05224758 0.69300002 0.0097204801 1.2724777e-38 277 232
-0.051032521 0.69300002 0.0097204801 8.580931e-39 278 232
-0.049673684 0.69099998 0.0096924258 7.4745849e-39 279 232
-0.048391998 0.69 0.0096783992 7.4788798e-39 280 232
-0.046977058 0.68699998 0.0096363192 8.677423e-39 281 232
-0.045572639 0.68400002 0.0095942402 1.1527653e-38 282 232
-0.044308487 0.68300003 0.0095802136 1.1435457e-38 283 232
-0.043047838 0.68199998 0.009566186 9.8660282e-39 284 232
-0.041729335 0.68000001 0.0095381327 8.3908967e-39 285 232
-0.040477451 0.67900002 0.009524107 7.6544275e-39 286 232
-0.039229076 0.67799997 0.0095100794 7.6544275e-39 287 232
-0.037928104 0.676 0.0094820261 6.9172282e-39 288 232
-0.036742851 0.676 0.0094820261 6.6410015e-39 289 232
-0.035505001 0.67500001 0.0094679995 6.6410015e-39 290 232
-0.034321502 0.67500001 0.0094679995 6.4562501e-39 291 232
-0.033137999 0.67500001 0.0094679995 6.5466534e-39 292 232
-0.031954501 0.67500001 0.0094679995 5.9934796e-39 293 232
-0.030725412 0.67400002 0.0094539737 6.178238e-39 294 232
-0.029543666 0.67400002 0.0094539737 5.5328686e-39 295 232
-0.02827776 0.67199999 0.0094259195 4.9836409e-39 296 232
-0.027099518 0.67199999 0.0094259195 4.707054e-39 297 232
-0.025921278 0.67199999 0.0094259195 5.5321231e-39 298 232
-0.024743039 0.67199999 0.0094259195 5.2558964e-39 299 232
-0.023529733 0.671 0.0094118929 5.7154256e-39 300 232
-0.022353247 0.671 0.0094118929 5.8076212e-39 301 232
-0.021208318 0.67199999 0.0094259195 5.8972959e-39 302 232
-0.020030079 0.67199999 0.0094259195 5.8051003e-39 303 232
-0.018851839 0.67199999 0.0094259195 5.5285134e-39 304 232
-0.017673599 0.67199999 0.0094259195 5.9898517e-39 305 232
-0.01649536 0.67199999 0.0094259195 7.1955905e-39 306 232
-0.01531712 0.67199999 0.0094259195 7.933157e-39 307 232
-0.01413888 0.67199999 0.0094259195 9.2166917e-39 308 232
-0.012999214 0.67400002 0.0094539737 8.6635193e-39 309 232
-0.011817466 0.67400002 0.0094539737 8.1117735e-39 310 232
-0.01063572 0.67400002 0.0094539737 8.3880002e-39 311 232
-0.0094539737 0.67400002 0.0094539737 9.6743922e-39 312 232
-0.0082844999 0.67500001 0.0094679995 8.8442714e-39 313 232
-0.0071010003 0.67500001 0.0094679995 7.1919233e-39 314 232
-0.0059262668 0.676 0.0094820261 6.9153379e-39 315 232
-0.0047410131 0.676 0.0094820261 6.3646878e-39 316 232
-0.0035557596 0.676 0.0094820261 6.2724922e-39 317 232
-0.0023775198 0.67799997 0.0095100794 6.5476343e-39 318 232
-0.0011905134 0.67900002 0.009524107 6.5476343e-39 319 232
0 0.67900002 0.009524107 7.0071607e-39 320 232
0.0011922666 0.68000001 0.0095381327 7.0071607e-39 321 232
0.0023915465 0.68199998 0.009566186 6.7352178e-39 322 232
0.0035925799 0.68300003 0.0095802136 6.8277721e-39 323 232
0.0047901068 0.68300003 0.0095802136 7.012864e-39 324 232
0.0059964 0.68400002 0.0095942402 7.2894509e-39 325 232
0.0072167199 0.68599999 0.0096222926 7.4734919e-39 326 232
0.0084317802 0.68699998 0.0096363192 7.3812962e-39 327 232
0.0096503468 0.68800002 0.0096503468 8.114953e-39 328 232
0.010888199 0.69 0.0096783992 9.9588656e-39 329 232
-0.05743745 0.69700003 0.0085545136 1.5765456e-38 273 233
-0.056134716 0.69599998 0.0085422397 1.5765809e-38 274 233
-0.054756597 0.69400001 0.0085176928 1.6134232e-38 275 233
-0.053539783 0.69400001 0.0085176928 1.5214054e-38 276 233
-0.05224758 0.69300002 0.0085054198 1.3093555e-38 277 233
-0.051032521 0.69300002 0.0085054198 8.4876634e-39 278 233
-0.049673684 0.69099998 0.008480873 7.4731513e-39 279 233
-0.048391998 0.69 0.0084686 8.3057889e-39 280 233
-0.046977058 0.68699998 0.0084317802 9.873116e-39 281 233
-0.045705888 0.68599999 0.0084195063 1.1897177e-38 282 233
-0.044308487 0.68300003 0.0083826864 1.1344003e-38 283 233
-0.043047838 0.68199998 0.0083704125 9.8671128e-39 284 233
-0.041729335 0.68000001 0.0083458666 8.3001472e-39 285 233
-0.040477451 0.67900002 0.0083335936 8.3901933e-39 286 233
-0.039286941 0.67900002 0.0083335936 8.3901933e-39 287 233
-0.038040318 0.67799997 0.0083213197 8.0228401e-39 288 233
-0.036742851 0.676 0.0082967728 8.1150357e-39 289 233
-0.035557602 0.676 0.0082967728 8.2979794e-39 290 233
-0.034321502 0.67500001 0.0082844999 8.2057838e-39 291 233
-0.033137999 0.67500001 0.0082844999 8.111433e-39 292 233
-0.031954501 0.67500001 0.0082844999 7.8352062e-39 293 233
-0.030725412 0.67400002 0.0082722269 6.6392022e-39 294 233
-0.029543666 0.67400002 0.0082722269 6.0860284e-39 295 233
-0.02836192 0.67400002 0.0082722269 5.7183347e-39 296 233
-0.027099518 0.67199999 0.00824768 6.3637041e-39 297 233
-0.025921278 0.67199999 0.00824768 7.469316e-39 298 233
-0.024743039 0.67199999 0.00824768 7.1923704e-39 299 233
-0.023564799 0.67199999 0.00824768 7.5582648e-39 300 233
-0.022386558 0.67199999 0.00824768 7.0972881e-39 301 233
-0.021208318 0.67199999 0.00824768 6.4508382e-39 302 233
-0.020030079 0.67199999 0.00824768 5.9898615e-39 303 233
-0.018851839 0.67199999 0.00824768 6.0824257e-39 304 233
-0.017673599 0.67199999 0.00824768 6.7277951e-39 305 233
-0.01649536 0.67199999 0.00824768 7.2838527e-39 306 233
-0.01531712 0.67199999 0.00824768 7.7444707e-39 307 233
-0.01413888 0.67199999 0.00824768 8.573137e-39 308 233
-0.012999214 0.67400002 0.0082722269 8.4809414e-39 309 233
-0.011835 0.67500001 0.0082844999 8.4812791e-39 310 233
-0.01063572 0.67400002 0.0082722269 8.9422558e-39 311 233
-0.0094539737 0.67400002 0.0082722269 1.0596714e-38 312 233
-0.0082844999 0.67500001 0.0082844999 9.0293886e-39 313 233
-0.0071010003 0.67500001 0.0082844999 7.2834127e-39 314 233
-0.0059262668 0.676 0.0082967728 7.0990215e-39 315 233
-0.0047410131 0.676 0.0082967728 6.822436e-39 316 233
-0.0035662798 0.67799997 0.0083213197 6.7302403e-39 317 233
-0.0023775198 0.67799997 0.0083213197 6.7313095e-39 318 233
-0.0011905134 0.67900002 0.0083335936 6.7313095e-39 319 233
0 0.67900002 0.0083335936 6.73165e-39 320 233
0.0011922666 0.68000001 0.0083458666 6.9160413e-39 321 233
0.0023915465 0.68199998 0.0083704125 6.4604287e-39 322 233
0.0035925799 0.68300003 0.0083826864 6.64482e-39 323 233
0.0047971201 0.68400002 0.0083949603 6.7384393e-39 324 233
0.0059964 0.68400002 0.0083949603 6.9231893e-39 325 233
0.0072167199 0.68599999 0.0084195063 7.4731387e-39 326 233
0.0084440531 0.68800002 0.0084440531 7.65753e-39 327 233
0.0096783992 0.69 0.0084686 8.4823062e-39 328 233
0.010888199 0.69 0.0084686 9.4046227e-39 329 233
0.012150601 0.69300002 0.0085054198 1.2447116e-38 330 233
-0.056296028 0.69800001 0.0073429602 1.5857648e-38 274 234
-0.054993302 0.69700003 0.00733244 1.6226431e-38 275 234
-0.053694077 0.69599998 0.0073219193 1.5673963e-38 276 234
-0.052322973 0.69400001 0.0073008798 1.3737855e-38 277 234
-0.051032521 0.69300002 0.0072903596 8.7631769e-39 278 234
-0.049673684 0.69099998 0.0072693196 7.2876881e-39 279 234
-0.048391998 0.69 0.0072587994 8.3057889e-39 280 234
-0.047045439 0.68800002 0.0072377604 9.9653116e-39 281 234
-0.045772515 0.68699998 0.0072272392 1.1989378e-38 282 234
-0.04437336 0.68400002 0.0071956799 1.1067423e-38 283 234
-0.043110959 0.68300003 0.0071851597 9.3157411e-39 284 234
-0.041852064 0.68199998 0.00717464 7.3796329e-39 285 234
-0.040537067 0.68000001 0.0071535995 7.9281389e-39 286 234
-0.039286941 0.67900002 0.0071430802 8.1125316e-39 287 234
-0.038040318 0.67799997 0.0071325595 8.205802e-39 288 234
-0.036742851 0.676 0.0071115191 8.5745859e-39 289 234
-0.035557602 0.676 0.0071115191 8.5774558e-39 290 234
-0.034372345 0.676 0.0071115191 8.4852602e-39 291 234
-0.033137999 0.67500001 0.0071010003 8.7593233e-39 292 234
-0.031954501 0.67500001 0.0071010003 8.851519e-39 293 234
-0.030771 0.67500001 0.0071010003 8.8515218e-39 294 234
-0.0295875 0.67500001 0.0071010003 8.2061523e-39 295 234
-0.02836192 0.67400002 0.0070904801 8.1128819e-39 296 234
-0.027180174 0.67400002 0.0070904801 9.6805664e-39 297 234
-0.025998428 0.67400002 0.0070904801 1.1063125e-38 298 234
-0.024743039 0.67199999 0.0070694401 1.1155321e-38 299 234
-0.023564799 0.67199999 0.0070694401 1.152158e-38 300 234
-0.022386558 0.67199999 0.0070694401 1.0968406e-38 301 234
-0.021271439 0.67400002 0.0070904801 9.7673516e-39 302 234
-0.020089693 0.67400002 0.0070904801 8.9372308e-39 303 234
-0.018907947 0.67400002 0.0070904801 7.3781839e-39 304 234
-0.0177262 0.67400002 0.0070904801 7.4707383e-39 305 234
-0.016544454 0.67400002 0.0070904801 7.3796231e-39 306 234
-0.015362706 0.67400002 0.0070904801 7.6558498e-39 307 234
-0.01418096 0.67400002 0.0070904801 8.5745593e-39 308 234
-0.012999214 0.67400002 0.0070904801 8.6667549e-39 309 234
-0.011835 0.67500001 0.0071010003 8.7571429e-39 310 234
-0.01063572 0.67400002 0.0070904801 8.9415342e-39 311 234
-0.0094539737 0.67400002 0.0070904801 1.0319774e-38 312 234
-0.0082844999 0.67500001 0.0071010003 9.1212311e-39 313 234
-0.0071115191 0.676 0.0071115191 7.2834155e-39 314 234
-0.0059262668 0.676 0.0071115191 7.1912199e-39 315 234
-0.0047410131 0.676 0.0071115191 7.005751e-39 316 234
-0.0035662798 0.67799997 0.0071325595 6.9135554e-39 317 234
-0.0023810267 0.67900002 0.0071430802 6.5472812e-39 318 234
-0.0011905134 0.67900002 0.0071430802 6.823508e-39 319 234
0 0.68000001 0.0071535995 6.5487035e-39 320 234
0.0011957732 0.68199998 0.00717464 6.5487035e-39 321 234
0.0023950534 0.68300003 0.0071851597 6.4604287e-39 322 234
0.0035925799 0.68300003 0.0071851597 6.5526244e-39 323 234
0.0047971201 0.68400002 0.0071956799 7.0135871e-39 324 234
0.0060139326 0.68599999 0.0072167199 7.1979784e-39 325 234
0.0072272392 0.68699998 0.0072272392 7.8408492e-39 326 234
0.0084440531 0.68800002 0.0072377604 7.8408492e-39 327 234
0.0096783992 0.69 0.0072587994 7.5592779e-39 328 234
0.01090398 0.69099998 0.0072693196 6.729876e-39 329 234
0.012150601 0.69300002 0.0072903596 1.124822e-38 330 234
-0.056296028 0.69800001 0.006119133 1.5673979e-38 274 235
-0.054993302 0.69700003 0.0061103669 1.5950567e-38 275 235
-0.053694077 0.69599998 0.0061015999 1.5397744e-38 276 235
-0.052322973 0.69400001 0.0060840664 1.3738221e-38 277 235
-0.051032521 0.69300002 0.0060753003 9.4085561e-39 278 235
-0.049673684 0.69099998 0.0060577663 7.1962211e-39 279 235
-0.04846213 0.69099998 0.0060577663 7.8451835e-39 280 235
-0.047182199 0.69 0.0060489997 9.965683e-39 281 235
-0.045772515 0.68699998 0.0060226996 1.2171971e-38 282 235
-0.04437336 0.68400002 0.0059964 1.1526602e-38 283 235
-0.043110959 0.68300003 0.0059876335 9.6834376e-39 284 235
-0.041852064 0.68199998 0.005978866 7.7473294e-39 285 235
-0.040537067 0.68000001 0.0059613334 7.1923732e-39 286 235
-0.039344799 0.68000001 0.0059613334 7.4689601e-39 287 235
-0.038096428 0.67900002 0.0059525664 7.4693272e-39 288 235
-0.036851559 0.67799997 0.0059437994 7.6540772e-39 289 235
-0.035557602 0.676 0.0059262668 8.0250079e-39 290 235
-0.034372345 0.676 0.0059262668 8.4856259e-39 291 235
-0.033187091 0.676 0.0059262668 9.1295352e-39 292 235
-0.032001842 0.676 0.0059262668 9.7749046e-39 293 235
-0.030771 0.67500001 0.0059174998 9.9596518e-39 294 235
-0.0295875 0.67500001 0.0059174998 9.7749018e-39 295 235
-0.028404001 0.67500001 0.0059174998 1.014009e-38 296 235
-0.027220501 0.67500001 0.0059174998 1.0693264e-38 297 235
-0.025998428 0.67400002 0.0059087332 1.1429737e-38 298 235
-0.024816679 0.67400002 0.0059087332 1.1429737e-38 299 235
-0.023634933 0.67400002 0.0059087332 1.1430085e-38 300 235
-0.022453187 0.67400002 0.0059087332 1.1153857e-38 301 235
-0.021271439 0.67400002 0.0059087332 1.0600337e-38 302 235
-0.020089693 0.67400002 0.0059087332 1.032339e-38 303 235
-0.018907947 0.67400002 0.0059087332 9.8627842e-39 304 235
-0.0177262 0.67400002 0.0059087332 9.4018061e-39 305 235
-0.016544454 0.67400002 0.0059087332 8.4805728e-39 306 235
-0.015362706 0.67400002 0.0059087332 8.4805728e-39 307 235
-0.014202001 0.67500001 0.0059174998 8.5745593e-39 308 235
-0.0130185 0.67500001 0.0059174998 8.5745593e-39 309 235
-0.011852534 0.676 0.0059262668 9.1230486e-39 310 235
-0.01066728 0.676 0.0059262668 9.1230486e-39 311 235
-0.0094820261 0.676 0.0059262668 9.8598709e-39 312 235
-0.0082967728 0.676 0.0059262668 9.3066985e-39 313 235
-0.0071115191 0.676 0.0059262668 7.5582045e-39 314 235
-0.0059262668 0.676 0.0059262668 7.0972278e-39 315 235
-0.0047550397 0.67799997 0.0059437994 7.0975837e-39 316 235
-0.0035662798 0.67799997 0.0059437994 7.0053881e-39 317 235
-0.0023810267 0.67900002 0.0059525664 6.7313151e-39 318 235
-0.0011922666 0.68000001 0.0059613334 6.7313151e-39 319 235
0 0.68000001 0.0059613334 6.5476315e-39 320 235
0.0011957732 0.68199998 0.005978866 6.7316627e-39 321 235
0.0023950534 0.68300003 0.0059876335 6.6423187e-39 322 235
0.0035925799 0.68300003 0.0059876335 6.8270687e-39 323 235
0.0047971201 0.68400002 0.0059964 7.0121676e-39 324 235
0.0060139326 0.68599999 0.0060139326 7.38059e-39 325 235
0.0072272392 0.68699998 0.0060226996 7.4731569e-39 326 235
0.0084686 0.69 0.0060489997 7.565354e-39 327 235
0.0096924258 0.69099998 0.0060577663 7.7429503e-39 328 235
0.010935539 0.69300002 0.0060753003 6.8209926e-39 329 235
0.012150601 0.69300002 0.0060753003 1.1704877e-38 330 235
0.013384946 0.69400001 0.0060840664 1.5946234e-38 331 235
-0.056296028 0.69800001 0.0048953067 1.5489589e-38 274 236
-0.054993302 0.69700003 0.0048882933 1.585837e-38 275 236
-0.053694077 0.69599998 0.0048812795 1.5213354e-38 276 236
-0.052473757 0.69599998 0.0048812795 1.3737865e-38 277 236
-0.051032521 0.69300002 0.00486024 1.0513484e-38 278 236
-0.049673684 0.69099998 0.0048462129 8.4851803e-39 279 236
-0.04846213 0.69099998 0.0048462129 8.396579e-39 280 236
-0.047182199 0.69 0.0048391996 1.024049e-38 281 236
-0.045772515 0.68699998 0.0048181596 1.1987224e-38 282 236
-0.044503104 0.68599999 0.0048111463 1.143405e-38 283 236
-0.043174081 0.68400002 0.0047971201 1.0142261e-38 284 236
-0.041913435 0.68300003 0.0047901068 8.2061523e-39 285 236
-0.040656291 0.68199998 0.004783093 7.3767672e-39 286 236
-0.039344799 0.68000001 0.0047690663 7.4689629e-39 287 236
-0.038096428 0.67900002 0.0047620535 7.5600823e-39 288 236
-0.036905911 0.67900002 0.0047620535 7.6522779e-39 289 236
-0.0356628 0.67799997 0.0047550397 7.3796483e-39 290 236
-0.034474038 0.67799997 0.0047550397 7.7487909e-39 291 236
-0.033187091 0.676 0.0047410131 8.9433643e-39 292 236
-0.032001842 0.676 0.0047410131 9.8656807e-39 293 236
-0.030816587 0.676 0.0047410131 9.8678219e-39 294 236
-0.029631332 0.676 0.0047410131 1.0052213e-38 295 236
-0.028404001 0.67500001 0.0047339997 1.1062404e-38 296 236
-0.027220501 0.67500001 0.0047339997 1.1062404e-38 297 236
-0.026037 0.67500001 0.0047339997 1.1153873e-38 298 236
-0.024816679 0.67400002 0.0047269869 1.1153873e-38 299 236
-0.023634933 0.67400002 0.0047269869 1.1062757e-38 300 236
-0.022453187 0.67400002 0.0047269869 1.078581e-38 301 236
-0.021303 0.67500001 0.0047339997 1.0971277e-38 302 236
-0.020119499 0.67500001 0.0047339997 1.1248223e-38 303 236
-0.018935999 0.67500001 0.0047339997 1.1521577e-38 304 236
-0.0177525 0.67500001 0.0047339997 1.0230838e-38 305 236
-0.016569 0.67500001 0.0047339997 8.6649599e-39 306 236
-0.0153855 0.67500001 0.0047339997 8.3887331e-39 307 236
-0.014202001 0.67500001 0.0047339997 8.6663948e-39 308 236
-0.0130185 0.67500001 0.0047339997 8.5738405e-39 309 236
-0.011852534 0.676 0.0047410131 9.1230514e-39 310 236
-0.01066728 0.676 0.0047410131 9.215247e-39 311 236
-0.0094820261 0.676 0.0047410131 1.0136475e-38 312 236
-0.0083213197 0.67799997 0.0047550397 9.5836596e-39 313 236
-0.0071325595 0.67799997 0.0047550397 7.9259123e-39 314 236
-0.0059437994 0.67799997 0.0047550397 7.1883472e-39 315 236
-0.0047550397 0.67799997 0.0047550397 7.2816121e-39 316 236
-0.0035662798 0.67799997 0.0047550397 7.0975809e-39 317 236
-0.0023810267 0.67900002 0.0047620535 6.7313151e-39 318 236
-0.0011922666 0.68000001 0.0047690663 6.7313151e-39 319 236
0 0.68000001 0.0047690663 6.7313095e-39 320 236
0.0011957732 0.68199998 0.004783093 6.7313095e-39 321 236
0.0023950534 0.68300003 0.0047901068 7.0089586e-39 322 236
0.0035925799 0.68300003 0.0047901068 7.1011542e-39 323 236
0.0048111463 0.68599999 0.0048111463 7.4695654e-39 324 236
0.0060226996 0.68699998 0.0048181596 7.7457922e-39 325 236
0.0072377604 0.68800002 0.0048251734 7.5642806e-39 326 236
0.0084686 0.69 0.0048391996 7.6564776e-39 327 236
0.0097204801 0.69300002 0.00486024 8.1110098e-39 328 236
0.010935539 0.69300002 0.00486024 7.7418671e-39 329 236
0.012150601 0.69300002 0.00486024 1.1982541e-38 330 236
0.013384946 0.69400001 0.0048672534 1.5854757e-38 331 236
-0.056296028 0.69800001 0.0036714801 1.5672904e-38 274 237
-0.0550722 0.69800001 0.0036714801 1.5857654e-38 275 237
-0.053771228 0.69700003 0.00366622 1.5212635e-38 276 237
-0.052473757 0.69599998 0.0036609597 1.38297e-38 277 237
-0.051106159 0.69400001 0.0036504399 1.1709533e-38 278 237
-0.049817458 0.69300002 0.0036451798 1.0695021e-38 279 237
-0.04846213 0.69099998 0.0036346598 1.0880487e-38 280 237
-0.047182199 0.69 0.0036293997 1.1710249e-38 281 237
-0.045839146 0.68800002 0.0036188802 1.1987227e-38 282 237
-0.044567976 0.68699998 0.0036136196 1.1341858e-38 283 237
-0.043300316 0.68599999 0.00360836 1.0234453e-38 284 237
-0.041974798 0.68400002 0.00359784 7.9299228e-39 285 237
-0.040656291 0.68199998 0.00358732 7.2863667e-39 286 237
-0.039344799 0.68000001 0.0035767998 7.5625948e-39 287 237
-0.038152531 0.68000001 0.0035767998 7.5625976e-39 288 237
-0.036905911 0.67900002 0.0035715401 7.5625976e-39 289 237
-0.0356628 0.67799997 0.0035662798 7.6547932e-39 290 237
-0.034474038 0.67799997 0.0035662798 7.8395432e-39 291 237
-0.033187091 0.676 0.0035557596 8.4823931e-39 292 237
-0.032001842 0.676 0.0035557596 8.7586199e-39 293 237
-0.030816587 0.676 0.0035557596 9.5865729e-39 294 237
-0.029631332 0.676 0.0035557596 9.5865729e-39 295 237
-0.028404001 0.67500001 0.0035505001 9.0362661e-39 296 237
-0.027220501 0.67500001 0.0035505001 8.8518749e-39 297 237
-0.026037 0.67500001 0.0035505001 8.8511504e-39 298 237
-0.0248535 0.67500001 0.0035505001 8.7589548e-39 299 237
-0.023669999 0.67500001 0.0035505001 9.4036081e-39 300 237
-0.022486499 0.67500001 0.0035505001 9.4036081e-39 301 237
-0.021303 0.67500001 0.0035505001 8.9437048e-39 302 237
-0.020119499 0.67500001 0.0035505001 8.5745621e-39 303 237
-0.018935999 0.67500001 0.0035505001 8.7571555e-39 304 237
-0.0177525 0.67500001 0.0035505001 8.7571555e-39 305 237
-0.016569 0.67500001 0.0035505001 8.4794938e-39 306 237
-0.0153855 0.67500001 0.0035505001 8.6642438e-39 307 237
-0.014223038 0.676 0.0035557596 8.9408279e-39 308 237
-0.013037786 0.676 0.0035557596 8.8486323e-39 309 237
-0.011852534 0.676 0.0035557596 9.1230514e-39 310 237
-0.01066728 0.676 0.0035557596 9.3996382e-39 311 237
-0.0095100794 0.67799997 0.0035662798 1.0137556e-38 312 237
-0.0083213197 0.67799997 0.0035662798 9.6762195e-39 313 237
-0.0071325595 0.67799997 0.0035662798 8.4769365e-39 314 237
-0.0059437994 0.67799997 0.0035662798 7.9237627e-39 315 237
-0.0047550397 0.67799997 0.0035662798 7.4660089e-39 316 237
-0.0035715401 0.67900002 0.0035715401 7.2816177e-39 317 237
-0.0023845332 0.68000001 0.0035767998 6.7302431e-39 318 237
-0.0011922666 0.68000001 0.0035767998 6.8224388e-39 319 237
0 0.68199998 0.00358732 6.3625354e-39 320 237
0.0011957732 0.68199998 0.00358732 6.8231548e-39 321 237
0.0023950534 0.68300003 0.0035925799 7.2837658e-39 322 237
0.0035925799 0.68300003 0.0035925799 7.3759629e-39 323 237
0.0048111463 0.68599999 0.00360836 7.2844693e-39 324 237
0.0060314666 0.68800002 0.0036188802 7.5610576e-39 325 237
0.0072587994 0.69 0.0036293997 7.6550441e-39 326 237
0.008480873 0.69099998 0.0036346598 7.8397955e-39 327 237
0.0097204801 0.69300002 0.0036451798 8.2042942e-39 328 237
0.010935539 0.69300002 0.0036451798 7.8358704e-39 329 237
0.012150601 0.69300002 0.0036451798 1.1982191e-38 330 237
0.013384946 0.69400001 0.0036504399 1.5485626e-38 331 237
-0.0550722 0.69800001 0.0024476533 1.5765818e-38 275 238
-0.053694077 0.69599998 0.0024406398 1.5028609e-38 276 238
-0.052473757 0.69599998 0.0024406398 1.3737871e-38 277 238
-0.051032521 0.69300002 0.00243012 1.2353493e-38 278 238
-0.049817458 0.69300002 0.00243012 1.1984709e-38 279 238
-0.04846213 0.69099998 0.0024231065 1.1985785e-38 280 238
-0.047182199 0.69 0.0024195998 1.2262013e-38 281 238
-0.045839146 0.68800002 0.0024125867 1.2169467e-38 282 238
-0.044567976 0.68699998 0.0024090798 1.1616293e-38 283 238
-0.043300316 0.68599999 0.0024055731 1.0602869e-38 284 238
-0.041974798 0.68400002 0.0023985601 9.12738e-39 285 238
-0.040715907 0.68300003 0.0023950534 8.2057964e-39 286 238
-0.039460517 0.68199998 0.0023915465 8.2983508e-39 287 238
-0.038152531 0.68000001 0.0023845332 8.2979976e-39 288 238
-0.036905911 0.67900002 0.0023810267 8.2979976e-39 289 238
-0.035715401 0.67900002 0.0023810267 8.3901933e-39 290 238
-0.034474038 0.67799997 0.0023775198 8.3901933e-39 291 238
-0.033285279 0.67799997 0.0023775198 8.4813127e-39 292 238
-0.03209652 0.67799997 0.0023775198 8.4813127e-39 293 238
-0.030816587 0.676 0.0023705065 9.4029047e-39 294 238
-0.029631332 0.676 0.0023705065 9.5869358e-39 295 238
-0.028446076 0.676 0.0023705065 9.2188623e-39 296 238
-0.027220501 0.67500001 0.0023669999 9.0341123e-39 297 238
-0.026037 0.67500001 0.0023669999 8.7578856e-39 298 238
-0.0248535 0.67500001 0.0023669999 8.5734929e-39 299 238
-0.023669999 0.67500001 0.0023669999 8.6656858e-39 300 238
-0.022486499 0.67500001 0.0023669999 9.1266639e-39 301 238
-0.021334561 0.676 0.0023705065 8.6631718e-39 302 238
-0.020149305 0.676 0.0023705065 7.1880403e-39 303 238
-0.018964052 0.676 0.0023705065 7.0976538e-39 304 238
-0.017778801 0.676 0.0023705065 7.7430232e-39 305 238
-0.016593546 0.676 0.0023705065 8.478426e-39 306 238
-0.015408293 0.676 0.0023705065 8.5706231e-39 307 238
-0.014223038 0.676 0.0023705065 8.9397517e-39 308 238
-0.013037786 0.676 0.0023705065 9.0319473e-39 309 238
-0.011852534 0.676 0.0023705065 9.1230514e-39 310 238
-0.01066728 0.676 0.0023705065 9.3996382e-39 311 238
-0.0095100794 0.67799997 0.0023775198 9.953884e-39 312 238
-0.0083213197 0.67799997 0.0023775198 9.4007102e-39 313 238
-0.0071325595 0.67799997 0.0023775198 8.4776637e-39 314 238
-0.0059437994 0.67799997 0.0023775198 8.1085211e-39 315 238
-0.0047550397 0.67799997 0.0023775198 8.0163086e-39 316 238
-0.0035715401 0.67900002 0.0023810267 7.8319174e-39 317 238
-0.0023845332 0.68000001 0.0023845332 7.6489554e-39 318 238
-0.0011957732 0.68199998 0.0023915465 7.6489554e-39 319 238
0 0.68199998 0.0023915465 7.5563941e-39 320 238
0.0011975267 0.68300003 0.0023950534 8.0170121e-39 321 238
0.0023950534 0.68300003 0.0023950534 8.5701831e-39 322 238
0.00359784 0.68400002 0.0023985601 8.2939563e-39 323 238
0.0048181596 0.68699998 0.0024090798 8.3857736e-39 324 238
0.0060314666 0.68800002 0.0024125867 8.938946e-39 325 238
0.0072587994 0.69 0.0024195998 8.3904329e-39 326 238
0.008480873 0.69099998 0.0024231065 8.3904329e-39 327 238
0.0097204801 0.69300002 0.00243012 8.6641808e-39 328 238
0.010935539 0.69300002 0.00243012 8.1113657e-39 329 238
0.012150601 0.69300002 0.00243012 1.1797078e-38 330 238
-0.0550722 0.69800001 0.0012238267 1.5672541e-38 275 239
-0.053694077 0.69599998 0.0012203199 1.4844219e-38 276 239
-0.052473757 0.69599998 0.0012203199 1.3553481e-38 277 239
-0.051032521 0.69300002 0.00121506 1.2445691e-38 278 239
-0.049817458 0.69300002 0.00121506 1.2353496e-38 279 239
-0.04846213 0.69099998 0.0012115532 1.1711363e-38 280 239
-0.047182199 0.69 0.0012097999 1.1711363e-38 281 239
-0.045839146 0.68800002 0.0012062934 1.1618094e-38 282 239
-0.044567976 0.68699998 0.0012045399 1.1341507e-38 283 239
-0.043300316 0.68599999 0.0012027866 1.1338636e-38 284 239
-0.041974798 0.68400002 0.00119928 1.0232288e-38 285 239
-0.040715907 0.68300003 0.0011975267 9.1263108e-39 286 239
-0.039460517 0.68199998 0.0011957732 9.0341151e-39 287 239
-0.038152531 0.68000001 0.0011922666 8.5749419e-39 288 239
-0.036960267 0.68000001 0.0011922666 8.4827462e-39 289 239
-0.035715401 0.67900002 0.0011905134 8.3930645e-39 290 239
-0.034524884 0.67900002 0.0011905134 8.3930645e-39 291 239
-0.033285279 0.67799997 0.0011887599 8.3905464e-39 292 239
-0.03209652 0.67799997 0.0011887599 8.4827434e-39 293 239
-0.030907756 0.67799997 0.0011887599 1.10617e-38 294 239
-0.029631332 0.676 0.0011852533 1.1430481e-38 295 239
-0.028446076 0.676 0.0011852533 1.1612703e-38 296 239
-0.027260827 0.676 0.0011852533 1.1612703e-38 297 239
-0.026075572 0.676 0.0011852533 1.1520508e-38 298 239
-0.0248535 0.67500001 0.0011834999 1.1243919e-38 299 239
-0.023669999 0.67500001 0.0011834999 1.032556e-38 300 239
-0.022486499 0.67500001 0.0011834999 1.0417756e-38 301 239
-0.021334561 0.676 0.0011852533 1.0135421e-38 302 239
-0.020149305 0.676 0.0011852533 8.2915082e-39 303 239
-0.018964052 0.676 0.0011852533 7.4671496e-39 304 239
-0.017778801 0.676 0.0011852533 8.020322e-39 305 239
-0.016593546 0.676 0.0011852533 8.1128721e-39 306 239
-0.015408293 0.676 0.0011852533 8.1128721e-39 307 239
-0.014223038 0.676 0.0011852533 9.0323005e-39 308 239
-0.013037786 0.676 0.0011852533 9.1244961e-39 309 239
-0.011852534 0.676 0.0011852533 9.3074426e-39 310 239
-0.01066728 0.676 0.0011852533 9.4918339e-39 311 239
-0.0095100794 0.67799997 0.0011887599 9.7712906e-39 312 239
-0.0083213197 0.67799997 0.0011887599 9.1259212e-39 313 239
-0.0071325595 0.67799997 0.0011887599 8.7528213e-39 314 239
-0.0059437994 0.67799997 0.0011887599 8.6606257e-39 315 239
-0.0047550397 0.67799997 0.0011887599 8.2017985e-39 316 239
-0.0035715401 0.67900002 0.0011905134 8.1096029e-39 317 239
-0.0023845332 0.68000001 0.0011922666 7.7433189e-39 318 239
-0.0011957732 0.68199998 0.0011957732 8.0202645e-39 319 239
0 0.68199998 0.0011957732 7.9287849e-39 320 239
0.0011975267 0.68300003 0.0011975267 8.6663514e-39 321 239
0.0023985601 0.68400002 0.00119928 9.6761873e-39 322 239
0.00359784 0.68400002 0.00119928 9.3074034e-39 323 239
0.0048251734 0.68800002 0.0012062934 9.2148364e-39 324 239
0.0060489997 0.69 0.0012097999 1.0321184e-38 325 239
0.0072587994 0.69 0.0012097999 9.9534552e-39 326 239
0.008480873 0.69099998 0.0012115532 9.2158902e-39 327 239
0.0097204801 0.69300002 0.00121506 8.9403949e-39 328 239
0.010935539 0.69300002 0.00121506 7.9266031e-39 329 239
