# .PCD v.7 - Point Cloud Data file format
FIELDS x y z rgb imX imY
SIZE 4 4 4 4 4 4
TYPE F F F F F F
COUNT 1 1 1 1 1 1
WIDTH 858
HEIGHT 1
VIEWPOINT 0 0 0 1 0 0 0
POINTS 858
DATA ascii
0.0079285735 0.64600003 0.12798983 1.3275079e-38 327 127
0.0090752533 0.64700001 0.12818795 1.3365473e-38 328 127
0.01020966 0.64700001 0.12818795 1.3273277e-38 329 127
0.011344067 0.64700001 0.12818795 1.3181081e-38 330 127
0.012478473 0.64700001 0.12818795 1.3181081e-38 331 127
0.013612879 0.64700001 0.12818795 1.2720106e-38 332 127
0.014770079 0.648 0.12838608 1.2996694e-38 333 127
0.015906241 0.648 0.12838608 1.5580696e-38 334 127
-0.016028972 0.653 0.12823178 1.595057e-38 306 128
-0.014861252 0.65200001 0.12803541 1.5858014e-38 307 128
-0.013675999 0.64999998 0.12764266 1.5582506e-38 308 128
-0.012536332 0.64999998 0.12764266 1.5490311e-38 309 128
-0.011379133 0.64899999 0.12744628 1.5305919e-38 310 128
-0.010225439 0.648 0.12724993 1.5305919e-38 311 128
-0.0090892799 0.648 0.12724993 1.5030053e-38 312 128
-0.0079408465 0.64700001 0.12705354 1.4937856e-38 313 128
-0.0068064397 0.64700001 0.12705354 1.4844941e-38 314 128
-0.0056632664 0.64600003 0.12685718 1.466055e-38 315 128
-0.0045306133 0.64600003 0.12685718 1.4659831e-38 316 128
-0.0033874398 0.64399999 0.12646443 1.4567635e-38 317 128
-0.0022582933 0.64399999 0.12646443 1.4384316e-38 318 128
-0.0011273933 0.64300001 0.12626804 1.4199925e-38 319 128
0 0.64300001 0.12626804 1.4107726e-38 320 128
0.0011291467 0.64399999 0.12646443 1.3739303e-38 321 128
0.0022582933 0.64399999 0.12646443 1.3829344e-38 322 128
0.0033874398 0.64399999 0.12646443 1.3644953e-38 323 128
0.0045165867 0.64399999 0.12646443 1.3552755e-38 324 128
0.0056457333 0.64399999 0.12646443 1.3460558e-38 325 128
0.00679592 0.64600003 0.12685718 1.3642788e-38 326 128
0.0079285735 0.64600003 0.12685718 1.3550234e-38 327 128
0.0090752533 0.64700001 0.12705354 1.3640988e-38 328 128
0.01020966 0.64700001 0.12705354 1.3364401e-38 329 128
0.011344067 0.64700001 0.12705354 1.3272558e-38 330 128
0.01249776 0.648 0.12724993 1.3272558e-38 331 128
0.01363392 0.648 0.12724993 1.2995968e-38 332 128
0.014770079 0.648 0.12724993 1.318036e-38 333 128
-0.014861252 0.65200001 0.12689224 1.5674702e-38 307 129
-0.01371808 0.65200001 0.12689224 1.5582506e-38 308 129
-0.012574906 0.65200001 0.12689224 1.5398115e-38 309 129
-0.011396666 0.64999998 0.12650299 1.5122248e-38 310 129
-0.01024122 0.64899999 0.12630838 1.5030053e-38 311 129
-0.0091033066 0.64899999 0.12630838 1.5030053e-38 312 129
-0.0079531204 0.648 0.12611376 1.4937856e-38 313 129
-0.0068064397 0.64700001 0.12591913 1.5028253e-38 314 129
-0.0056720334 0.64700001 0.12591913 1.4752027e-38 315 129
-0.0045306133 0.64600003 0.12572452 1.4660547e-38 316 129
-0.0033874398 0.64399999 0.12533528 1.4384319e-38 317 129
-0.0022582933 0.64399999 0.12533528 1.4200641e-38 318 129
-0.0011291467 0.64399999 0.12533528 1.401661e-38 319 129
0 0.64399999 0.12533528 1.4107005e-38 320 129
0.0011291467 0.64399999 0.12533528 1.3922612e-38 321 129
0.0022582933 0.64399999 0.12533528 1.3737865e-38 322 129
0.0033874398 0.64399999 0.12533528 1.3553834e-38 323 129
0.0045165867 0.64399999 0.12533528 1.364495e-38 324 129
0.0056632664 0.64600003 0.12572452 1.3460558e-38 325 129
0.00679592 0.64600003 0.12572452 1.3643504e-38 326 129
0.0079285735 0.64600003 0.12572452 1.3274723e-38 327 129
0.0090752533 0.64700001 0.12591913 1.327328e-38 328 129
0.010225439 0.648 0.12611376 1.327328e-38 329 129
0.0113616 0.648 0.12611376 1.3272561e-38 330 129
0.01249776 0.648 0.12611376 1.3272561e-38 331 129
0.01363392 0.648 0.12611376 1.2902697e-38 332 129
0.014770079 0.648 0.12611376 1.3179644e-38 333 129
-0.014884046 0.653 0.12594193 1.5766174e-38 307 130
-0.01371808 0.65200001 0.12574907 1.5490308e-38 308 130
-0.012574906 0.65200001 0.12574907 1.5305916e-38 309 130
-0.011431733 0.65200001 0.12574907 1.4937856e-38 310 130
-0.010256999 0.64999998 0.12536334 1.4937856e-38 311 130
-0.0091033066 0.64899999 0.12517045 1.493786e-38 312 130
-0.0079531204 0.648 0.1249776 1.4661273e-38 313 130
-0.0068169599 0.648 0.1249776 1.4569077e-38 314 130
-0.0056720334 0.64700001 0.12478472 1.4476882e-38 315 130
-0.0045306133 0.64600003 0.12459187 1.447616e-38 316 130
-0.00339796 0.64600003 0.12459187 1.4383964e-38 317 130
-0.0022653067 0.64600003 0.12459187 1.4200644e-38 318 130
-0.0011326533 0.64600003 0.12459187 1.4016613e-38 319 130
0 0.64600003 0.12459187 1.38315e-38 320 130
0.0011326533 0.64600003 0.12459187 1.3739303e-38 321 130
0.0022653067 0.64600003 0.12459187 1.3737868e-38 322 130
0.00339796 0.64600003 0.12459187 1.3553837e-38 323 130
0.0045306133 0.64600003 0.12459187 1.3552755e-38 324 130
0.0056632664 0.64600003 0.12459187 1.3460558e-38 325 130
0.00679592 0.64600003 0.12459187 1.3642785e-38 326 130
0.0079285735 0.64600003 0.12459187 1.3274004e-38 327 130
0.0090752533 0.64700001 0.12478472 1.3180728e-38 328 130
0.010225439 0.648 0.1249776 1.2996697e-38 329 130
0.0113616 0.648 0.1249776 1.2996694e-38 330 130
0.012517046 0.64899999 0.12517045 1.2996694e-38 331 130
0.013654959 0.64899999 0.12517045 1.2810504e-38 332 130
0.014792874 0.64899999 0.12517045 1.3455873e-38 333 130
-0.01612716 0.65700001 0.12556146 1.5767255e-38 306 131
-0.014929632 0.65499997 0.12517922 1.5582862e-38 307 131
-0.013739119 0.653 0.12479701 1.52148e-38 308 131
-0.012574906 0.65200001 0.12460589 1.4938212e-38 309 131
-0.011431733 0.65200001 0.12460589 1.484566e-38 310 131
-0.010256999 0.64999998 0.12422366 1.484566e-38 311 131
-0.0091033066 0.64899999 0.12403254 1.4662348e-38 312 131
-0.0079531204 0.648 0.12384144 1.4570152e-38 313 131
-0.0068169599 0.648 0.12384144 1.4476882e-38 314 131
-0.0056720334 0.64700001 0.12365033 1.429249e-38 315 131
-0.0045376266 0.64700001 0.12365033 1.4291767e-38 316 131
-0.00339796 0.64600003 0.12345921 1.4291767e-38 317 131
-0.0022653067 0.64600003 0.12345921 1.4199925e-38 318 131
-0.0011326533 0.64600003 0.12345921 1.4107729e-38 319 131
0 0.64600003 0.12345921 1.4015531e-38 320 131
0.0011326533 0.64600003 0.12345921 1.3646748e-38 321 131
0.0022653067 0.64600003 0.12345921 1.3737149e-38 322 131
0.00339796 0.64600003 0.12345921 1.3644953e-38 323 131
0.0045306133 0.64600003 0.12345921 1.3552035e-38 324 131
0.0056632664 0.64600003 0.12345921 1.3459839e-38 325 131
0.0068064397 0.64700001 0.12365033 1.3550234e-38 326 131
0.0079408465 0.64700001 0.12365033 1.318181e-38 327 131
0.0090752533 0.64700001 0.12365033 1.2996697e-38 328 131
0.010225439 0.648 0.12384144 1.2904502e-38 329 131
0.011379133 0.64899999 0.12403254 1.2812303e-38 330 131
0.012517046 0.64899999 0.12403254 1.2812303e-38 331 131
0.013654959 0.64899999 0.12403254 1.2810504e-38 332 131
0.014815666 0.64999998 0.12422366 1.3825016e-38 333 131
-0.01612716 0.65700001 0.12440952 1.6135311e-38 306 132
-0.014929632 0.65499997 0.12403079 1.5766169e-38 307 132
-0.013781199 0.65499997 0.12403079 1.5121883e-38 308 132
-0.012594193 0.653 0.12365208 1.493749e-38 309 132
-0.011431733 0.65200001 0.12346271 1.4937137e-38 310 132
-0.010256999 0.64999998 0.12308399 1.4844941e-38 311 132
-0.0091173323 0.64999998 0.12308399 1.4569077e-38 312 132
-0.0079531204 0.648 0.12270528 1.4384686e-38 313 132
-0.0068169599 0.648 0.12270528 1.4383967e-38 314 132
-0.0056720334 0.64700001 0.12251592 1.429177e-38 315 132
-0.0045376266 0.64700001 0.12251592 1.4200293e-38 316 132
-0.00339796 0.64600003 0.12232657 1.4015904e-38 317 132
-0.0022653067 0.64600003 0.12232657 1.3924061e-38 318 132
-0.0011326533 0.64600003 0.12232657 1.3831865e-38 319 132
0 0.64600003 0.12232657 1.3646751e-38 320 132
0.0011344067 0.64700001 0.12251592 1.3554555e-38 321 132
0.0022653067 0.64600003 0.12232657 1.3461641e-38 322 132
0.00339796 0.64600003 0.12232657 1.3276891e-38 323 132
0.0045306133 0.64600003 0.12232657 1.3643151e-38 324 132
0.0056632664 0.64600003 0.12232657 1.3366924e-38 325 132
0.0068064397 0.64700001 0.12251592 1.3458394e-38 326 132
0.0079408465 0.64700001 0.12251592 1.3089612e-38 327 132
0.0090752533 0.64700001 0.12251592 1.2996694e-38 328 132
0.010225439 0.648 0.12270528 1.2904499e-38 329 132
0.011379133 0.64899999 0.12289463 1.2628991e-38 330 132
0.012536332 0.64999998 0.12308399 1.2628991e-38 331 132
0.013675999 0.64999998 0.12308399 1.2903418e-38 332 132
0.014815666 0.64999998 0.12308399 1.391793e-38 333 132
-0.014929632 0.65499997 0.12288236 1.5767255e-38 307 133
-0.013760159 0.65399998 0.12269475 1.5765456e-38 308 133
-0.012594193 0.653 0.12250715 1.5580706e-38 309 133
-0.011431733 0.65200001 0.12231954 1.4937856e-38 310 133
-0.01028856 0.65200001 0.12231954 1.4661629e-38 311 133
-0.0091173323 0.64999998 0.12194432 1.4476884e-38 312 133
-0.0079653924 0.64899999 0.12175673 1.4384689e-38 313 133
-0.0068169599 0.648 0.12156911 1.4199937e-38 314 133
-0.0056720334 0.64700001 0.12138151 1.3923711e-38 315 133
-0.0045376266 0.64700001 0.12138151 1.3831512e-38 316 133
-0.0034032199 0.64700001 0.12138151 1.3831512e-38 317 133
-0.0022688133 0.64700001 0.12138151 1.401518e-38 318 133
-0.0011344067 0.64700001 0.12138151 1.3646398e-38 319 133
0 0.64700001 0.12138151 1.3737871e-38 320 133
0.0011344067 0.64700001 0.12138151 1.3461285e-38 321 133
0.0022653067 0.64600003 0.12119391 1.3552758e-38 322 133
0.00339796 0.64600003 0.12119391 1.3460562e-38 323 133
0.0045306133 0.64600003 0.12119391 1.3367287e-38 324 133
0.0056632664 0.64600003 0.12119391 1.3275092e-38 325 133
0.0068064397 0.64700001 0.12138151 1.318181e-38 326 133
0.0079408465 0.64700001 0.12138151 1.3089614e-38 327 133
0.0090752533 0.64700001 0.12138151 1.2904502e-38 328 133
0.010225439 0.648 0.12156911 1.2904502e-38 329 133
0.011396666 0.64999998 0.12194432 1.2628991e-38 330 133
0.012536332 0.64999998 0.12194432 1.2813022e-38 331 133
0.013675999 0.64999998 0.12194432 1.2996697e-38 332 133
0.014861252 0.65200001 0.12231954 1.3826098e-38 333 133
-0.016078066 0.65499997 0.12173393 1.5951286e-38 306 134
-0.014929632 0.65499997 0.12173393 1.5675058e-38 307 134
-0.013760159 0.65399998 0.12154807 1.5305195e-38 308 134
-0.012594193 0.653 0.12136222 1.5397749e-38 309 134
-0.011449266 0.653 0.12136222 1.4661629e-38 310 134
-0.01028856 0.65200001 0.12117637 1.4569433e-38 311 134
-0.0091173323 0.64999998 0.12080465 1.4476882e-38 312 134
-0.0079653924 0.64899999 0.12061881 1.4384686e-38 313 134
-0.0068274797 0.64899999 0.12061881 1.4384686e-38 314 134
-0.0056807999 0.648 0.12043297 1.429249e-38 315 134
-0.00454464 0.648 0.12043297 1.4016976e-38 316 134
-0.0034032199 0.64700001 0.1202471 1.392478e-38 317 134
-0.0022688133 0.64700001 0.1202471 1.4107729e-38 318 134
-0.0011344067 0.64700001 0.1202471 1.3738947e-38 319 134
0 0.64700001 0.1202471 1.38297e-38 320 134
0.0011344067 0.64700001 0.1202471 1.38297e-38 321 134
0.0022688133 0.64700001 0.1202471 1.3736783e-38 322 134
0.0034032199 0.64700001 0.1202471 1.3644587e-38 323 134
0.0045376266 0.64700001 0.1202471 1.3643504e-38 324 134
0.0056720334 0.64700001 0.1202471 1.3367278e-38 325 134
0.0068064397 0.64700001 0.1202471 1.3457672e-38 326 134
0.0079408465 0.64700001 0.1202471 1.327328e-38 327 134
0.0090892799 0.648 0.12043297 1.299705e-38 328 134
0.010225439 0.648 0.12043297 1.2904855e-38 329 134
0.011431733 0.65200001 0.12117637 1.2812303e-38 330 134
0.012536332 0.64999998 0.12080465 1.2812303e-38 331 134
0.013675999 0.64999998 0.12080465 1.2444965e-38 332 134
0.014861252 0.65200001 0.12117637 1.3459117e-38 333 134
-0.016078066 0.65499997 0.12058549 1.6043482e-38 306 135
-0.014929632 0.65499997 0.12058549 1.5582862e-38 307 135
-0.013760159 0.65399998 0.12040139 1.447616e-38 308 135
-0.012613479 0.65399998 0.12040139 1.4291767e-38 309 135
-0.011449266 0.653 0.1202173 1.429177e-38 310 135
-0.01028856 0.65200001 0.1200332 1.4383967e-38 311 135
-0.0091453865 0.65200001 0.1200332 1.429177e-38 312 135
-0.0079776663 0.64999998 0.119665 1.4383967e-38 313 135
-0.0068274797 0.64899999 0.11948089 1.4476879e-38 314 135
-0.0056807999 0.648 0.1192968 1.4569433e-38 315 135
-0.00454464 0.648 0.1192968 1.4477598e-38 316 135
-0.0034032199 0.64700001 0.11911271 1.4201371e-38 317 135
-0.0022688133 0.64700001 0.11911271 1.3924777e-38 318 135
-0.0011344067 0.64700001 0.11911271 1.364855e-38 319 135
0 0.64700001 0.11911271 1.4014809e-38 320 135
0.0011344067 0.64700001 0.11911271 1.3830416e-38 321 135
0.0022688133 0.64700001 0.11911271 1.3554187e-38 322 135
0.0034032199 0.64700001 0.11911271 1.3461991e-38 323 135
0.0045376266 0.64700001 0.11911271 1.3552388e-38 324 135
0.0056720334 0.64700001 0.11911271 1.3275442e-38 325 135
0.0068169599 0.648 0.1192968 1.327436e-38 326 135
0.0079531204 0.648 0.1192968 1.3089609e-38 327 135
0.0091033066 0.64899999 0.11948089 1.2904855e-38 328 135
0.01024122 0.64899999 0.11948089 1.2720103e-38 329 135
0.011431733 0.65200001 0.1200332 1.2719387e-38 330 135
0.012574906 0.65200001 0.1200332 1.2627192e-38 331 135
0.01371808 0.65200001 0.1200332 1.2075457e-38 332 135
0.014884046 0.653 0.1202173 1.3182163e-38 333 135
-0.016078066 0.65499997 0.11943705 1.6135677e-38 306 136
-0.014929632 0.65499997 0.11943705 1.5767255e-38 307 136
-0.013781199 0.65499997 0.11943705 1.4844219e-38 308 136
-0.012613479 0.65399998 0.11925472 1.4475436e-38 309 136
-0.011449266 0.653 0.11907237 1.4566915e-38 310 136
-0.01028856 0.65200001 0.11889002 1.428997e-38 311 136
-0.0091453865 0.65200001 0.11889002 1.4014106e-38 312 136
-0.0079776663 0.64999998 0.11852533 1.4106301e-38 313 136
-0.0068274797 0.64899999 0.11834299 1.4014825e-38 314 136
-0.0056807999 0.648 0.11816064 1.3646401e-38 315 136
-0.00454464 0.648 0.11816064 1.3461288e-38 316 136
-0.00340848 0.648 0.11816064 1.3276897e-38 317 136
-0.00227232 0.648 0.11816064 1.2816272e-38 318 136
-0.0011344067 0.64700001 0.11797829 1.3092498e-38 319 136
0 0.64700001 0.11797829 1.3091414e-38 320 136
0.0011344067 0.64700001 0.11797829 1.2999218e-38 321 136
0.0022688133 0.64700001 0.11797829 1.2906662e-38 322 136
0.0034032199 0.64700001 0.11797829 1.2906662e-38 323 136
0.0045376266 0.64700001 0.11797829 1.2722274e-38 324 136
0.0056720334 0.64700001 0.11797829 1.2630078e-38 325 136
0.0068169599 0.648 0.11816064 1.2629357e-38 326 136
0.0079653924 0.64899999 0.11834299 1.2537161e-38 327 136
0.0091173323 0.64999998 0.11852533 1.2903421e-38 328 136
0.010256999 0.64999998 0.11852533 1.2626836e-38 329 136
0.011431733 0.65200001 0.11889002 1.2810507e-38 330 136
0.012574906 0.65200001 0.11889002 1.2810507e-38 331 136
0.01371808 0.65200001 0.11889002 1.2535715e-38 332 136
0.014884046 0.653 0.11907237 1.3457672e-38 333 136
-0.014929632 0.65499997 0.11828862 1.6319348e-38 307 137
-0.013781199 0.65499997 0.11828862 1.5121529e-38 308 137
-0.012613479 0.65399998 0.11810803 1.4844941e-38 309 137
-0.011466799 0.65399998 0.11810803 1.5027888e-38 310 137
-0.010304339 0.653 0.11792745 1.4659105e-38 311 137
-0.0091453865 0.65200001 0.11774684 1.4383234e-38 312 137
-0.0079776663 0.64999998 0.11738566 1.4199203e-38 313 137
-0.0068379994 0.64999998 0.11738566 1.3830066e-38 314 137
-0.0056895665 0.64899999 0.11720507 1.3184697e-38 315 137
-0.0045516533 0.64899999 0.11720507 1.2448212e-38 316 137
-0.0034137398 0.64899999 0.11720507 1.2171265e-38 317 137
-0.0022758266 0.64899999 0.11720507 1.2630078e-38 318 137
-0.0011344067 0.64700001 0.11684388 1.2630078e-38 319 137
0 0.64700001 0.11684388 1.2261649e-38 320 137
0.00113616 0.648 0.11702448 1.2077258e-38 321 137
0.0022688133 0.64700001 0.11684388 1.2169097e-38 322 137
0.0034032199 0.64700001 0.11684388 1.2353849e-38 323 137
0.0045376266 0.64700001 0.11684388 1.2444609e-38 324 137
0.0056720334 0.64700001 0.11684388 1.2444609e-38 325 137
0.0068169599 0.648 0.11702448 1.2719757e-38 326 137
0.0079653924 0.64899999 0.11720507 1.2811953e-38 327 137
0.0091173323 0.64999998 0.11738566 1.2994898e-38 328 137
0.010256999 0.64999998 0.11738566 1.2902702e-38 329 137
0.011449266 0.653 0.11792745 1.3088167e-38 330 137
0.012613479 0.65399998 0.11810803 1.3088167e-38 331 137
0.013760159 0.65399998 0.11810803 1.290522e-38 332 137
-0.011466799 0.65399998 0.11696136 1.5306995e-38 310 138
-0.010304339 0.653 0.11678252 1.5030409e-38 311 138
-0.0091453865 0.65200001 0.11660367 1.493749e-38 312 138
-0.0080022132 0.65200001 0.11660367 1.493749e-38 313 138
-0.0068379994 0.64999998 0.11624599 1.4935336e-38 314 138
-0.005698333 0.64999998 0.11624599 1.4566912e-38 315 138
-0.0045586661 0.64999998 0.11624599 1.3924061e-38 316 138
-0.0034189997 0.64999998 0.11624599 1.3924061e-38 317 138
-0.0022758266 0.64899999 0.11606716 1.4290323e-38 318 138
-0.00113616 0.648 0.11588832 1.392154e-38 319 138
0 0.648 0.11588832 1.3920817e-38 320 138
0.00113616 0.648 0.11588832 1.3644232e-38 321 138
0.00227232 0.648 0.11588832 1.3552752e-38 322 138
0.00340848 0.648 0.11588832 1.3552752e-38 323 138
0.00454464 0.648 0.11588832 1.3367996e-38 324 138
0.0056807999 0.648 0.11588832 1.3091411e-38 325 138
0.0068274797 0.64899999 0.11606716 1.3182883e-38 326 138
0.0079653924 0.64899999 0.11606716 1.3090328e-38 327 138
0.0091033066 0.64899999 0.11606716 1.3365473e-38 328 138
0.010256999 0.64999998 0.11624599 1.3273277e-38 329 138
0.011449266 0.653 0.11678252 1.3182158e-38 330 138
0.012536332 0.64999998 0.11624599 1.3182158e-38 331 138
0.013675999 0.64999998 0.11624599 1.3180728e-38 332 138
-0.0068379994 0.64999998 0.11510632 1.5398112e-38 314 139
-0.005698333 0.64999998 0.11510632 1.4844938e-38 315 139
-0.0045586661 0.64999998 0.11510632 1.4569433e-38 316 139
-0.0034189997 0.64999998 0.11510632 1.4569433e-38 317 139
-0.0022793331 0.64999998 0.11510632 1.4935339e-38 318 139
-0.00113616 0.648 0.11475215 1.4659112e-38 319 139
0 0.648 0.11475215 1.4381799e-38 320 139
0.0011379133 0.64899999 0.11492924 1.4381799e-38 321 139
0.00227232 0.648 0.11475215 1.4197401e-38 322 139
0.00340848 0.648 0.11475215 1.4105205e-38 323 139
0.0045516533 0.64899999 0.11492924 1.4012644e-38 324 139
0.0056895665 0.64899999 0.11492924 1.3828253e-38 325 139
0.0068274797 0.64899999 0.11492924 1.3643139e-38 326 139
0.0079653924 0.64899999 0.11492924 1.3458389e-38 327 139
0.0091033066 0.64899999 0.11492924 1.3457672e-38 328 139
0.010256999 0.64999998 0.11510632 1.327328e-38 329 139
0.011396666 0.64999998 0.11510632 1.3273274e-38 330 139
0.012536332 0.64999998 0.11510632 1.3273274e-38 331 139
0.013675999 0.64999998 0.11510632 1.2169806e-38 332 139
-0.0068590399 0.65200001 0.11431734 1.4384689e-38 314 140
-0.005698333 0.64999998 0.11396667 1.4384689e-38 315 140
-0.0045586661 0.64999998 0.11396667 1.4291767e-38 316 140
-0.0034189997 0.64999998 0.11396667 1.4291767e-38 317 140
-0.0022793331 0.64999998 0.11396667 1.456691e-38 318 140
-0.0011379133 0.64899999 0.11379133 1.4382518e-38 319 140
0 0.64899999 0.11379133 1.4566186e-38 320 140
0.0011379133 0.64899999 0.11379133 1.4197404e-38 321 140
0.0022758266 0.64899999 0.11379133 1.401301e-38 322 140
0.0034137398 0.64899999 0.11379133 1.3644587e-38 323 140
0.0045516533 0.64899999 0.11379133 1.3734981e-38 324 140
0.0056895665 0.64899999 0.11379133 1.355059e-38 325 140
0.0068274797 0.64899999 0.11379133 1.327328e-38 326 140
0.0079653924 0.64899999 0.11379133 1.2812303e-38 327 140
0.0091033066 0.64899999 0.11379133 1.253499e-38 328 140
0.010256999 0.64999998 0.11396667 1.1982175e-38 329 140
0.011396666 0.64999998 0.11396667 1.0416645e-38 330 140
0.012536332 0.64999998 0.11396667 9.3102985e-39 331 140
-0.0068590399 0.65200001 0.11317416 1.2447506e-38 314 141
-0.005698333 0.64999998 0.112827 1.2816287e-38 315 141
-0.0045586661 0.64999998 0.112827 1.3183978e-38 316 141
-0.0034189997 0.64999998 0.112827 1.3276174e-38 317 141
-0.0022793331 0.64999998 0.112827 1.3276527e-38 318 141
-0.0011379133 0.64899999 0.11265341 1.3184331e-38 319 141
0 0.64899999 0.11265341 1.336764e-38 320 141
0.0011379133 0.64899999 0.11265341 1.3091414e-38 321 141
0.0022758266 0.64899999 0.11265341 1.3089609e-38 322 141
0.0034189997 0.64999998 0.112827 1.2997413e-38 323 141
0.0045516533 0.64899999 0.11265341 1.2537514e-38 324 141
0.0056895665 0.64899999 0.11265341 1.2168732e-38 325 141
0.0068379994 0.64999998 0.112827 1.2166931e-38 326 141
0.0079776663 0.64999998 0.112827 1.1706311e-38 327 141
0.0091173323 0.64999998 0.112827 1.1336803e-38 328 141
0.010256999 0.64999998 0.112827 1.0783629e-38 329 141
0.011396666 0.64999998 0.112827 9.678002e-39 330 141
-0.0057158666 0.65200001 0.11203098 1.0234444e-38 315 142
-0.0045726933 0.65200001 0.11203098 1.0692898e-38 316 142
-0.0034295199 0.65200001 0.11203098 1.0600702e-38 317 142
-0.0022863466 0.65200001 0.11203098 1.0510299e-38 318 142
-0.0011396665 0.64999998 0.11168732 1.0695049e-38 319 142
0 0.64999998 0.11168732 1.1246422e-38 320 142
0.0011396665 0.64999998 0.11168732 1.087764e-38 321 142
0.0022793331 0.64999998 0.11168732 1.1060589e-38 322 142
0.0034189997 0.64999998 0.11168732 1.1060589e-38 323 142
0.0045516533 0.64899999 0.1115155 1.041774e-38 324 142
0.0056895665 0.64899999 0.1115155 1.0140793e-38 325 142
0.0068274797 0.64899999 0.1115155 1.0415938e-38 326 142
0.0080022132 0.65200001 0.11203098 1.0323743e-38 327 142
0.0091173323 0.64999998 0.11168732 1.0691802e-38 328 142
0.010256999 0.64999998 0.11168732 1.0599607e-38 329 142
0.011396666 0.64999998 0.11168732 9.9553175e-39 330 142
-0.0045797066 0.653 0.11105788 1.2076551e-38 316 143
-0.0034295199 0.65200001 0.11088781 1.1984356e-38 317 143
-0.0022863466 0.65200001 0.11088781 1.1984709e-38 318 143
-0.0011396665 0.64999998 0.11054766 1.1984709e-38 319 143
0 0.64999998 0.11054766 1.2076183e-38 320 143
0.0011431733 0.65200001 0.11088781 1.1983987e-38 321 143
0.0022793331 0.64999998 0.11054766 1.1891436e-38 322 143
0.0034189997 0.64999998 0.11054766 1.2076186e-38 323 143
0.0045516533 0.64899999 0.11037759 1.1984353e-38 324 143
0.0056895665 0.64899999 0.11037759 1.2076549e-38 325 143
0.0068379994 0.64999998 0.11054766 1.1893592e-38 326 143
0.0091173323 0.64999998 0.11054766 1.2446044e-38 328 143
0.010256999 0.64999998 0.11054766 1.2446044e-38 329 143
-0.0045867199 0.65399998 0.11008127 1.4289967e-38 316 144
-0.0034295199 0.65200001 0.10974464 1.3829347e-38 317 144
-0.0022863466 0.65200001 0.10974464 1.38279e-38 318 144
-0.0011396665 0.64999998 0.10940799 1.3735703e-38 319 144
0 0.64999998 0.10940799 1.3366924e-38 320 144
0.0011431733 0.65200001 0.10974464 1.3182174e-38 321 144
0.0022863466 0.65200001 0.10974464 1.2998865e-38 322 144
0.0034189997 0.64999998 0.10940799 1.3275092e-38 323 144
0.0045586661 0.64999998 0.10940799 1.3644232e-38 324 144
0.005698333 0.64999998 0.10940799 1.3644232e-38 325 144
0.0068379994 0.64999998 0.10940799 1.3459839e-38 326 144
-0.0034295199 0.65200001 0.10860147 1.548779e-38 317 145
-0.0022863466 0.65200001 0.10860147 1.4565465e-38 318 145
-0.0011396665 0.64999998 0.10826832 1.4104487e-38 319 145
0 0.64999998 0.10826832 1.3920095e-38 320 145
0.0011396665 0.64999998 0.10826832 1.38279e-38 321 145
0.0022863466 0.65200001 0.10860147 1.3552035e-38 322 145
0.0034295199 0.65200001 0.10860147 1.3552035e-38 323 145
0.0045586661 0.64999998 0.10826832 1.3369443e-38 324 145
0.005698333 0.64999998 0.10826832 1.3369443e-38 325 145
-0.0034295199 0.65200001 0.10745829 1.5857651e-38 317 146
-0.0022863466 0.65200001 0.10745829 1.4659461e-38 318 146
-0.0011396665 0.64999998 0.10712866 1.429032e-38 319 146
0 0.64999998 0.10712866 1.4105561e-38 320 146
0.0011396665 0.64999998 0.10712866 1.4013366e-38 321 146
0.0022863466 0.65200001 0.10745829 1.4012641e-38 322 146
0.0034295199 0.65200001 0.10745829 1.4012641e-38 323 146
0.0045726933 0.65200001 0.10745829 1.3920093e-38 324 146
-0.0034347798 0.653 0.10647818 1.5121529e-38 317 147
-0.0022863466 0.65200001 0.10631512 1.4567265e-38 318 147
-0.0011396665 0.64999998 0.10598899 1.4198124e-38 319 147
0 0.64999998 0.10598899 1.4198121e-38 320 147
0.0011396665 0.64999998 0.10598899 1.3829698e-38 321 147
0.0022863466 0.65200001 0.10631512 1.38297e-38 322 147
0.0034295199 0.65200001 0.10631512 1.3737146e-38 323 147
0.0045726933 0.65200001 0.10631512 1.4104489e-38 324 147
-0.0022863466 0.65200001 0.10517195 1.4289967e-38 318 148
-0.0011396665 0.64999998 0.10484933 1.4197771e-38 319 148
0 0.64999998 0.10484933 1.4105205e-38 320 148
0.0011396665 0.64999998 0.10484933 1.4105205e-38 321 148
0.0022863466 0.65200001 0.10517195 1.4012291e-38 322 148
0.0034189997 0.64999998 0.10484933 1.4012291e-38 323 148
0.0045586661 0.64999998 0.10484933 1.3920817e-38 324 148
-0.0022863466 0.65200001 0.10402877 1.3829347e-38 318 149
-0.0011396665 0.64999998 0.10370966 1.3829347e-38 319 149
0 0.64899999 0.10355011 1.4288158e-38 320 149
0.0011379133 0.64899999 0.10355011 1.4195603e-38 321 149
0.0022793331 0.64999998 0.10370966 1.3920093e-38 322 149
0.0034189997 0.64999998 0.10370966 1.4012647e-38 323 149
0.0045586661 0.64999998 0.10370966 1.3920814e-38 324 149
-0.0022863466 0.65200001 0.1028856 1.4104492e-38 318 150
-0.0011396665 0.64999998 0.10256999 1.4288523e-38 319 150
0 0.64899999 0.10241219 1.5116836e-38 320 150
0.0011379133 0.64899999 0.10241219 1.484061e-38 321 150
0.0022793331 0.64999998 0.10256999 1.4564019e-38 322 150
0.0034189997 0.64999998 0.10256999 1.4564019e-38 323 150
0.0045586661 0.64999998 0.10256999 1.4104843e-38 324 150
-0.0022863466 0.65200001 0.10174242 1.4195606e-38 318 151
-0.0011396665 0.64999998 0.10143033 1.4379997e-38 319 151
0 0.64899999 0.10127428 1.6036995e-38 320 151
0.0011379133 0.64899999 0.10127428 1.6036995e-38 321 151
0.0022793331 0.64999998 0.10143033 1.5023919e-38 322 151
0.0034189997 0.64999998 0.10143033 1.4931724e-38 323 151
0.0045586661 0.64999998 0.10143033 1.4288871e-38 324 151
-0.0011396665 0.64999998 0.10029066 1.4931724e-38 319 152
0 0.64899999 0.10013637 1.6222462e-38 320 152
0.0011379133 0.64899999 0.10013637 1.6314658e-38 321 152
0.0022793331 0.64999998 0.10029066 1.5484177e-38 322 152
0.0034189997 0.64999998 0.10029066 1.5115755e-38 323 152
0.0045586661 0.64999998 0.10029066 1.438215e-38 324 152
0 0.64999998 0.099150993 1.6036985e-38 320 153
0.0011396665 0.64999998 0.099150993 1.5944431e-38 321 153
0.0022793331 0.64999998 0.099150993 1.5116834e-38 322 153
0.0034295199 0.65200001 0.099456072 1.4932803e-38 323 153
0.0045726933 0.65200001 0.099456072 1.4748777e-38 324 153
0.0011396665 0.64999998 0.09801133 1.6034461e-38 321 154
0.0022793331 0.64999998 0.09801133 1.5116834e-38 322 154
0.0034295199 0.65200001 0.098312907 1.5116834e-38 323 154
0.025037598 0.68000001 0.027422134 6.1852712e-39 341 217
0.026229866 0.68000001 0.027422134 6.2774668e-39 342 217
0.027422134 0.68000001 0.027422134 6.2774668e-39 343 217
0.028614398 0.68000001 0.027422134 6.2771165e-39 344 217
-0.027664091 0.68599999 0.026461305 4.7080251e-39 297 218
-0.026461305 0.68599999 0.026461305 4.4300019e-39 298 218
-0.025184879 0.68400002 0.02638416 4.2452519e-39 299 218
-0.023915464 0.68199998 0.026307013 3.6027818e-39 300 218
-0.022719691 0.68199998 0.026307013 3.6027818e-39 301 218
-0.017778801 0.676 0.026075572 3.8793645e-39 305 218
-0.016593546 0.676 0.026075572 3.512384e-39 306 218
-0.015362706 0.67400002 0.025998428 4.3417846e-39 307 218
-0.01418096 0.67400002 0.025998428 4.1588352e-39 308 218
-0.012999214 0.67400002 0.025998428 4.4357823e-39 309 218
-0.011817466 0.67400002 0.025998428 5.7222023e-39 310 218
-0.010604159 0.67199999 0.025921278 6.183179e-39 311 218
-0.0094259195 0.67199999 0.025921278 6.0895429e-39 312 218
-0.00824768 0.67199999 0.025921278 6.3657696e-39 313 218
0.018964052 0.676 0.026075572 6.1816965e-39 336 218
0.020149305 0.676 0.026075572 5.536327e-39 337 218
0.021334561 0.676 0.026075572 5.2593758e-39 338 218
0.022519812 0.676 0.026075572 5.9969367e-39 339 218
0.023845334 0.68000001 0.026229866 5.9097605e-39 340 218
0.025037598 0.68000001 0.026229866 6.0019561e-39 341 218
0.026229866 0.68000001 0.026229866 6.2778171e-39 342 218
0.027422134 0.68000001 0.026229866 6.3700128e-39 343 218
0.028614398 0.68000001 0.026229866 6.2778325e-39 344 218
0.029894331 0.68199998 0.026307013 6.5547796e-39 345 218
-0.027664091 0.68599999 0.025258519 5.6306905e-39 297 219
-0.02638416 0.68400002 0.025184879 4.064441e-39 298 219
-0.025184879 0.68400002 0.025184879 4.064441e-39 299 219
-0.023915464 0.68199998 0.025111238 3.9704629e-39 300 219
-0.022719691 0.68199998 0.025111238 4.2470498e-39 301 219
-0.021523919 0.68199998 0.025111238 4.2459806e-39 302 219
-0.020328145 0.68199998 0.025111238 4.153785e-39 303 219
-0.017778801 0.676 0.024890319 3.6956991e-39 305 219
-0.016593546 0.676 0.024890319 3.327634e-39 306 219
-0.015362706 0.67400002 0.024816679 3.8808078e-39 307 219
-0.01418096 0.67400002 0.024816679 4.5279751e-39 308 219
-0.012960639 0.67199999 0.024743039 4.8967562e-39 309 219
-0.011782399 0.67199999 0.024743039 5.8140322e-39 310 219
-0.010604159 0.67199999 0.024743039 5.7218351e-39 311 219
-0.0094259195 0.67199999 0.024743039 5.5363439e-39 312 219
-0.00824768 0.67199999 0.024743039 5.0753657e-39 313 219
-0.0070694401 0.67199999 0.024743039 4.5232639e-39 314 219
-0.0058911997 0.67199999 0.024743039 4.6158183e-39 315 219
-0.0047129598 0.67199999 0.024743039 5.0753531e-39 316 219
-0.00353472 0.67199999 0.024743039 5.0753531e-39 317 219
-0.0023564799 0.67199999 0.024743039 5.2615352e-39 318 219
-0.0011782399 0.67199999 0.024743039 5.5384822e-39 319 219
0 0.67199999 0.024743039 5.351933e-39 320 219
0.0011782399 0.67199999 0.024743039 4.1534038e-39 321 219
0.0094259195 0.67199999 0.024743039 5.9980058e-39 328 219
0.01058838 0.671 0.024706218 5.6295877e-39 329 219
0.011764866 0.671 0.024706218 5.6306639e-39 330 219
0.012960639 0.67199999 0.024743039 5.6306639e-39 331 219
0.01413888 0.67199999 0.024743039 4.9842281e-39 332 219
0.01531712 0.67199999 0.024743039 4.8916751e-39 333 219
0.016544454 0.67400002 0.024816679 5.6292429e-39 334 219
0.0177262 0.67400002 0.024816679 5.7214386e-39 335 219
0.018935999 0.67500001 0.0248535 5.9047564e-39 336 219
0.020149305 0.676 0.024890319 5.7207253e-39 337 219
0.021334561 0.676 0.024890319 5.6303051e-39 338 219
0.022519812 0.676 0.024890319 5.9990848e-39 339 219
0.023810266 0.67900002 0.025000781 6.1859816e-39 340 219
0.025000781 0.67900002 0.025000781 6.3703701e-39 341 219
0.026229866 0.68000001 0.025037598 6.5536823e-39 342 219
0.027422134 0.68000001 0.025037598 6.6462353e-39 343 219
0.02869856 0.68199998 0.025111238 6.6455403e-39 344 219
0.029894331 0.68199998 0.025111238 6.7380946e-39 345 219
-0.031318039 0.68699998 0.024090799 1.4109136e-38 294 220
-0.030113498 0.68699998 0.024090799 1.1619854e-38 295 220
-0.02886688 0.68599999 0.024055731 7.2909125e-39 296 220
-0.027583439 0.68400002 0.0239856 5.8161411e-39 297 220
-0.02638416 0.68400002 0.0239856 6.1852712e-39 298 220
-0.025184879 0.68400002 0.0239856 6.6462479e-39 299 220
-0.023915464 0.68199998 0.023915464 4.8981449e-39 300 220
-0.022719691 0.68199998 0.023915464 4.2527755e-39 301 220
-0.021523919 0.68199998 0.023915464 3.5137853e-39 302 220
-0.020268533 0.68000001 0.023845334 3.3293955e-39 303 220
-0.019048214 0.67900002 0.023810266 3.3286906e-39 304 220
-0.017778801 0.676 0.023705067 3.5134406e-39 305 220
-0.016569 0.67500001 0.023669999 3.6042041e-39 306 220
-0.015362706 0.67400002 0.023634933 4.5261604e-39 307 220
-0.01418096 0.67400002 0.023634933 5.2648016e-39 308 220
-0.012960639 0.67199999 0.023564799 6.0945623e-39 309 220
-0.011782399 0.67199999 0.023564799 6.7388555e-39 310 220
-0.010604159 0.67199999 0.023564799 7.7530075e-39 311 220
-0.0094259195 0.67199999 0.023564799 8.2114675e-39 312 220
-0.00824768 0.67199999 0.023564799 7.7504907e-39 313 220
-0.0070694401 0.67199999 0.023564799 7.5664484e-39 314 220
-0.0058911997 0.67199999 0.023564799 7.5664484e-39 315 220
-0.0047129598 0.67199999 0.023564799 7.1072653e-39 316 220
-0.00353472 0.67199999 0.023564799 6.7384828e-39 317 220
-0.0023564799 0.67199999 0.023564799 6.9214321e-39 318 220
-0.0011782399 0.67199999 0.023564799 7.0136277e-39 319 220
0 0.671 0.023529733 6.6455655e-39 320 220
0.0011764866 0.671 0.023529733 6.5533699e-39 321 220
0.0023529732 0.671 0.023529733 7.2880692e-39 322 220
0.0035241998 0.67000002 0.023494666 7.7486887e-39 323 220
0.0046989331 0.67000002 0.023494666 7.471013e-39 324 220
0.0058736666 0.67000002 0.023494666 6.3643053e-39 325 220
0.0070483997 0.67000002 0.023494666 6.0869827e-39 326 220
0.0082354061 0.671 0.023529733 6.1791797e-39 327 220
0.0094118929 0.671 0.023529733 6.0894854e-39 328 220
0.01058838 0.671 0.023529733 6.4579078e-39 329 220
0.011764866 0.671 0.023529733 5.9101164e-39 330 220
0.012960639 0.67199999 0.023564799 5.6335337e-39 331 220
0.01413888 0.67199999 0.023564799 5.7228581e-39 332 220
0.01531712 0.67199999 0.023564799 5.4459167e-39 333 220
0.01649536 0.67199999 0.023564799 5.6295877e-39 334 220
0.017673599 0.67199999 0.023564799 5.9980058e-39 335 220
0.018935999 0.67500001 0.023669999 5.8150523e-39 336 220
0.020149305 0.676 0.023705067 5.9076053e-39 337 220
0.021334561 0.676 0.023705067 6.0008757e-39 338 220
0.022586439 0.67799997 0.023775198 6.1852642e-39 339 220
0.023775198 0.67799997 0.023775198 6.5543998e-39 340 220
0.025000781 0.67900002 0.023810266 6.5543998e-39 341 220
0.026229866 0.68000001 0.023845334 6.6462353e-39 342 220
0.027422134 0.68000001 0.023845334 6.6462353e-39 343 220
0.02869856 0.68199998 0.023915464 6.5529775e-39 344 220
0.029894331 0.68199998 0.023915464 6.8295658e-39 345 220
-0.031318039 0.68699998 0.022886258 1.4018017e-38 294 221
-0.030113498 0.68699998 0.022886258 1.1436539e-38 295 221
-0.02886688 0.68599999 0.022852944 7.1076002e-39 296 221
-0.027583439 0.68400002 0.022786319 6.7388177e-39 297 221
-0.02638416 0.68400002 0.022786319 7.567107e-39 298 221
-0.025184879 0.68400002 0.022786319 7.659304e-39 299 221
-0.023915464 0.68199998 0.022719691 7.1079309e-39 300 221
-0.022719691 0.68199998 0.022719691 6.646594e-39 301 221
-0.021523919 0.68199998 0.022719691 6.0008785e-39 302 221
-0.020268533 0.68000001 0.022653066 5.1711276e-39 303 221
-0.019048214 0.67900002 0.022619752 4.7101635e-39 304 221
-0.017778801 0.676 0.022519812 4.7101635e-39 305 221
-0.016569 0.67500001 0.022486499 4.7991305e-39 306 221
-0.015362706 0.67400002 0.022453187 5.6288926e-39 307 221
-0.01418096 0.67400002 0.022453187 5.911243e-39 308 221
-0.012960639 0.67199999 0.022386558 6.5562537e-39 309 221
-0.011782399 0.67199999 0.022386558 7.3831361e-39 310 221
-0.010604159 0.67199999 0.022386558 7.9363099e-39 311 221
-0.0094259195 0.67199999 0.022386558 8.7642727e-39 312 221
-0.00824768 0.67199999 0.022386558 8.6720771e-39 313 221
-0.0070694401 0.67199999 0.022386558 8.7631867e-39 314 221
-0.0058911997 0.67199999 0.022386558 8.8557425e-39 315 221
-0.0047129598 0.67199999 0.022386558 7.9366602e-39 316 221
-0.00353472 0.67199999 0.022386558 7.3834865e-39 317 221
-0.0023564799 0.67199999 0.022386558 7.2923628e-39 318 221
-0.0011764866 0.671 0.022353247 7.3845584e-39 319 221
0 0.671 0.022353247 7.2916411e-39 320 221
0.0011764866 0.671 0.022353247 7.1994455e-39 321 221
0.0023529732 0.671 0.022353247 7.3838396e-39 322 221
0.0035241998 0.67000002 0.022319933 7.7522634e-39 323 221
0.0046989331 0.67000002 0.022319933 8.3025659e-39 324 221
0.0058736666 0.67000002 0.022319933 6.4586533e-39 325 221
0.0070483997 0.67000002 0.022319933 5.2601129e-39 326 221
0.0082354061 0.671 0.022353247 5.2601129e-39 327 221
0.0094118929 0.671 0.022353247 5.5388326e-39 328 221
0.01058838 0.671 0.022353247 5.9994506e-39 329 221
0.011764866 0.671 0.022353247 6.0937874e-39 330 221
0.012960639 0.67199999 0.022386558 5.8175634e-39 331 221
0.01418096 0.67400002 0.022453187 5.7224994e-39 332 221
0.015362706 0.67400002 0.022453187 5.6303051e-39 333 221
0.01649536 0.67199999 0.022386558 5.5395458e-39 334 221
0.017673599 0.67199999 0.022386558 5.907964e-39 335 221
0.018935999 0.67500001 0.022486499 6.0927112e-39 336 221
0.020149305 0.676 0.022519812 6.4614881e-39 337 221
0.021334561 0.676 0.022519812 7.1961721e-39 338 221
0.022586439 0.67799997 0.022586439 7.4727548e-39 339 221
0.023775198 0.67799997 0.022586439 7.4720373e-39 340 221
0.025000781 0.67900002 0.022619752 7.3798431e-39 341 221
0.026191294 0.67900002 0.022619752 6.8295476e-39 342 221
0.027422134 0.68000001 0.022653066 6.6455178e-39 343 221
0.02869856 0.68199998 0.022719691 6.6451759e-39 344 221
0.029894331 0.68199998 0.022719691 7.0135997e-39 345 221
-0.030157333 0.68800002 0.021713281 1.106848e-38 295 222
-0.02886688 0.68599999 0.021650158 7.2005119e-39 296 222
-0.027543113 0.68300003 0.02155548 7.2927075e-39 297 222
-0.026345588 0.68300003 0.02155548 7.5714104e-39 298 222
-0.02514806 0.68300003 0.02155548 8.0323885e-39 299 222
-0.023915464 0.68199998 0.021523919 8.1245814e-39 300 222
-0.022719691 0.68199998 0.021523919 8.216777e-39 301 222
-0.021523919 0.68199998 0.021523919 8.4901367e-39 302 222
-0.020268533 0.68000001 0.0214608 7.9373216e-39 303 222
-0.019048214 0.67900002 0.021429239 7.2912362e-39 304 222
-0.017778801 0.676 0.021334561 6.9221005e-39 305 222
-0.016569 0.67500001 0.021303 5.8157698e-39 306 222
-0.015362706 0.67400002 0.021271439 6.0927112e-39 307 222
-0.01418096 0.67400002 0.021271439 6.7391862e-39 308 222
-0.012960639 0.67199999 0.021208318 7.2001644e-39 309 222
-0.011782399 0.67199999 0.021208318 7.8412374e-39 310 222
-0.010604159 0.67199999 0.021208318 8.1178229e-39 311 222
-0.0094259195 0.67199999 0.021208318 8.1185502e-39 312 222
-0.0082354061 0.671 0.021176759 8.3947769e-39 313 222
-0.0070589199 0.671 0.021176759 8.5788081e-39 314 222
-0.0058824331 0.671 0.021176759 8.4866124e-39 315 222
-0.0047129598 0.67199999 0.021208318 8.1192718e-39 316 222
-0.00353472 0.67199999 0.021208318 7.7504907e-39 317 222
-0.0023564799 0.67199999 0.021208318 7.5678945e-39 318 222
-0.0011764866 0.671 0.021176759 7.9366756e-39 319 222
0 0.671 0.021176759 7.3834991e-39 320 222
0.0011764866 0.671 0.021176759 7.1991078e-39 321 222
0.0023529732 0.671 0.021176759 7.107638e-39 322 222
0.0035241998 0.67000002 0.0211452 7.1998337e-39 323 222
0.0046989331 0.67000002 0.0211452 7.4738842e-39 324 222
0.0058736666 0.67000002 0.0211452 6.3671765e-39 325 222
0.0070483997 0.67000002 0.0211452 5.6270765e-39 326 222
0.0082354061 0.671 0.021176759 5.8118251e-39 327 222
0.0094259195 0.67199999 0.021208318 6.0905588e-39 328 222
0.010604159 0.67199999 0.021208318 6.275306e-39 329 222
0.011782399 0.67199999 0.021208318 6.3689352e-39 330 222
0.012960639 0.67199999 0.021208318 6.1845467e-39 331 222
0.01418096 0.67400002 0.021271439 5.9987233e-39 332 222
0.015362706 0.67400002 0.021271439 5.9065291e-39 333 222
0.016544454 0.67400002 0.021271439 5.9997995e-39 334 222
0.0177262 0.67400002 0.021271439 6.3682177e-39 335 222
0.018935999 0.67500001 0.021303 6.5529649e-39 336 222
0.020149305 0.676 0.021334561 7.2905299e-39 337 222
0.021334561 0.676 0.021334561 8.0252167e-39 338 222
0.022586439 0.67799997 0.021397678 7.6564356e-39 339 222
0.023775198 0.67799997 0.021397678 7.5638742e-39 340 222
0.025000781 0.67900002 0.021429239 7.3791256e-39 341 222
0.026191294 0.67900002 0.021429239 6.6455178e-39 342 222
0.027422134 0.68000001 0.0214608 6.8295476e-39 343 222
0.02869856 0.68199998 0.021523919 6.8284854e-39 344 222
0.029938167 0.68300003 0.02155548 7.197628e-39 345 222
-0.031500384 0.69099998 0.020596405 1.4018017e-38 294 223
-0.030244999 0.69 0.020566599 1.1252148e-38 295 223
-0.02878272 0.68400002 0.020387759 7.5689245e-39 296 223
-0.027543113 0.68300003 0.020357953 7.8455128e-39 297 223
-0.026345588 0.68300003 0.020357953 8.0323773e-39 298 223
-0.02514806 0.68300003 0.020357953 7.8479889e-39 299 223
-0.023915464 0.68199998 0.020328145 8.1242128e-39 300 223
-0.022719691 0.68199998 0.020328145 8.1242128e-39 301 223
-0.021523919 0.68199998 0.020328145 8.2153308e-39 302 223
-0.020268533 0.68000001 0.020268533 8.1231366e-39 303 223
-0.019048214 0.67900002 0.020238725 7.9383894e-39 304 223
-0.017778801 0.676 0.020149305 7.8461952e-39 305 223
-0.016569 0.67500001 0.020119499 8.303579e-39 306 223
-0.015362706 0.67400002 0.020089693 8.3957733e-39 307 223
-0.01418096 0.67400002 0.020089693 8.8546256e-39 308 223
-0.012960639 0.67199999 0.020030079 8.4862018e-39 309 223
-0.011782399 0.67199999 0.020030079 8.0238112e-39 310 223
-0.010604159 0.67199999 0.020030079 7.8397787e-39 311 223
-0.0094259195 0.67199999 0.020030079 7.9323442e-39 312 223
-0.0082354061 0.671 0.020000271 8.4851593e-39 313 223
-0.0070589199 0.671 0.020000271 8.5784269e-39 314 223
-0.0058824331 0.671 0.020000271 8.5784269e-39 315 223
-0.0047129598 0.67199999 0.020030079 8.6699037e-39 316 223
-0.00353472 0.67199999 0.020030079 8.4855124e-39 317 223
-0.0023564799 0.67199999 0.020030079 8.3022001e-39 318 223
-0.0011782399 0.67199999 0.020030079 8.5784269e-39 319 223
0 0.671 0.020000271 7.8405115e-39 320 223
0.0011764866 0.671 0.020000271 7.2873378e-39 321 223
0.0023529732 0.671 0.020000271 6.9210818e-39 322 223
0.0035294599 0.671 0.020000271 6.9210818e-39 323 223
0.0047059464 0.671 0.020000271 7.7475802e-39 324 223
0.0058736666 0.67000002 0.019970467 7.378439e-39 325 223
0.0070483997 0.67000002 0.019970467 6.4579008e-39 326 223
0.0082354061 0.671 0.020000271 6.550095e-39 327 223
0.0094259195 0.67199999 0.020030079 6.5522474e-39 328 223
0.010604159 0.67199999 0.020030079 6.6448004e-39 329 223
0.011782399 0.67199999 0.020030079 6.7373533e-39 330 223
0.012960639 0.67199999 0.020030079 6.6448004e-39 331 223
0.01418096 0.67400002 0.020089693 6.3685764e-39 332 223
0.015362706 0.67400002 0.020089693 6.3685764e-39 333 223
0.016544454 0.67400002 0.020089693 6.3689352e-39 334 223
0.0177262 0.67400002 0.020089693 6.5533236e-39 335 223
0.018935999 0.67500001 0.020119499 7.1039807e-39 336 223
0.020149305 0.676 0.020149305 7.6571544e-39 337 223
0.021334561 0.676 0.020149305 8.2996526e-39 338 223
0.022586439 0.67799997 0.020208918 8.0234258e-39 339 223
0.023775198 0.67799997 0.020208918 7.746469e-39 340 223
0.025000781 0.67900002 0.020238725 7.5617204e-39 341 223
0.026191294 0.67900002 0.020238725 6.8295476e-39 342 223
0.027502786 0.68199998 0.020328145 6.8295476e-39 343 223
0.02869856 0.68199998 0.020328145 6.7373758e-39 344 223
0.029938167 0.68300003 0.020357953 7.1057981e-39 345 223
-0.031500384 0.69099998 0.019384852 1.4018017e-38 294 224
-0.030244999 0.69 0.019356798 1.1252148e-38 295 224
-0.02878272 0.68400002 0.01918848 7.75295e-39 296 224
-0.027543113 0.68300003 0.019160427 8.1217325e-39 297 224
-0.026345588 0.68300003 0.019160427 8.1234954e-39 298 224
-0.02514806 0.68300003 0.019160427 7.9391069e-39 299 224
-0.023950534 0.68300003 0.019160427 7.9394656e-39 300 224
-0.022719691 0.68199998 0.019132372 7.9394656e-39 301 224
-0.021523919 0.68199998 0.019132372 8.0309424e-39 302 224
-0.020328145 0.68199998 0.019132372 8.2153308e-39 303 224
-0.019048214 0.67900002 0.019048214 8.3990018e-39 304 224
-0.017778801 0.676 0.018964052 8.4911961e-39 305 224
-0.016593546 0.676 0.018964052 9.042209e-39 306 224
-0.0153855 0.67500001 0.018935999 9.2265975e-39 307 224
-0.01418096 0.67400002 0.018907947 9.1304712e-39 308 224
-0.012999214 0.67400002 0.018907947 8.5772975e-39 309 224
-0.011782399 0.67199999 0.018851839 8.207457e-39 310 224
-0.010604159 0.67199999 0.018851839 7.8390346e-39 311 224
-0.0094259195 0.67199999 0.018851839 8.0226972e-39 312 224
-0.00824768 0.67199999 0.018851839 8.9446535e-39 313 224
-0.0070694401 0.67199999 0.018851839 9.4056162e-39 314 224
-0.0058911997 0.67199999 0.018851839 9.4978118e-39 315 224
-0.0047129598 0.67199999 0.018851839 9.405619e-39 316 224
-0.00353472 0.67199999 0.018851839 8.8524452e-39 317 224
-0.0023564799 0.67199999 0.018851839 8.8528109e-39 318 224
-0.0011782399 0.67199999 0.018851839 9.3137891e-39 319 224
0 0.67199999 0.018851839 7.4713409e-39 320 224
0.0011764866 0.671 0.018823786 6.0884064e-39 321 224
0.0023529732 0.671 0.018823786 7.1007787e-39 322 224
0.0035294599 0.671 0.018823786 7.3773656e-39 323 224
0.0047059464 0.671 0.018823786 7.9308743e-39 324 224
0.0058824331 0.671 0.018823786 7.9308743e-39 325 224
0.0070589199 0.671 0.018823786 8.1148858e-39 326 224
0.0082354061 0.671 0.018823786 7.9304973e-39 327 224
0.0094259195 0.67199999 0.018851839 7.4731135e-39 328 224
0.010604159 0.67199999 0.018851839 7.4731135e-39 329 224
0.011782399 0.67199999 0.018851839 7.3809193e-39 330 224
0.012960639 0.67199999 0.018851839 7.1968895e-39 331 224
0.01418096 0.67400002 0.018907947 7.0121424e-39 332 224
0.015362706 0.67400002 0.018907947 7.1043366e-39 333 224
0.016569 0.67500001 0.018935999 7.0117836e-39 334 224
0.0177525 0.67500001 0.018935999 7.1965308e-39 335 224
0.018964052 0.676 0.018964052 7.4716884e-39 336 224
0.020149305 0.676 0.018964052 7.748634e-39 337 224
0.021397678 0.67799997 0.019020159 8.11599e-39 338 224
0.022586439 0.67799997 0.019020159 7.8390444e-39 339 224
0.023810266 0.67900002 0.019048214 7.4713212e-39 340 224
0.025000781 0.67900002 0.019048214 7.3791256e-39 341 224
0.026229866 0.68000001 0.019076265 7.0135773e-39 342 224
0.027502786 0.68199998 0.019132372 7.197607e-39 343 224
0.028740639 0.68300003 0.019160427 7.1050765e-39 344 224
0.029938167 0.68300003 0.019160427 7.1976308e-39 345 224
-0.032711938 0.69099998 0.0181733 1.5858367e-38 293 225
-0.031500384 0.69099998 0.0181733 1.3925821e-38 294 225
-0.030288832 0.69099998 0.0181733 1.1344343e-38 295 225
-0.028908957 0.68699998 0.018068098 7.754036e-39 296 225
-0.027664091 0.68599999 0.018041799 7.938786e-39 297 225
-0.026345588 0.68300003 0.017962901 8.0313011e-39 298 225
-0.02514806 0.68300003 0.017962901 7.7550772e-39 299 225
-0.023950534 0.68300003 0.017962901 7.8454777e-39 300 225
-0.022719691 0.68199998 0.017936599 7.8454777e-39 301 225
-0.021523919 0.68199998 0.017936599 8.1220604e-39 302 225
-0.020268533 0.68000001 0.017883999 8.3990018e-39 303 225
-0.019048214 0.67900002 0.017857701 8.7670613e-39 304 225
-0.0178314 0.67799997 0.0178314 8.6745083e-39 305 225
-0.016593546 0.676 0.017778801 9.0418503e-39 306 225
-0.0153855 0.67500001 0.0177525 8.6727147e-39 307 225
-0.014202001 0.67500001 0.0177525 8.8517221e-39 308 225
-0.012999214 0.67400002 0.0177262 8.390751e-39 309 225
-0.011817466 0.67400002 0.0177262 8.3900349e-39 310 225
-0.010604159 0.67199999 0.017673599 8.9432087e-39 311 225
-0.0094259195 0.67199999 0.017673599 9.496723e-39 312 225
-0.00824768 0.67199999 0.017673599 1.004989e-38 313 225
-0.0070694401 0.67199999 0.017673599 1.0235353e-38 314 225
-0.0058911997 0.67199999 0.017673599 1.0235353e-38 315 225
-0.0047129598 0.67199999 0.017673599 1.0693454e-38 316 225
-0.00353472 0.67199999 0.017673599 1.0232483e-38 317 225
-0.0023564799 0.67199999 0.017673599 1.0232842e-38 318 225
-0.0011782399 0.67199999 0.017673599 1.041723e-38 319 225
0 0.67199999 0.017673599 8.0223328e-39 320 225
0.0011782399 0.67199999 0.017673599 7.0078376e-39 321 225
0.0023564799 0.67199999 0.017673599 7.3784081e-39 322 225
0.0035294599 0.671 0.0176473 7.9315777e-39 323 225
0.0047059464 0.671 0.0176473 8.5765744e-39 324 225
0.0058911997 0.67199999 0.017673599 8.5765744e-39 325 225
0.0070694401 0.67199999 0.017673599 8.5765744e-39 326 225
0.00824768 0.67199999 0.017673599 8.4843802e-39 327 225
0.0094259195 0.67199999 0.017673599 7.9337259e-39 328 225
0.01063572 0.67400002 0.0177262 7.8415317e-39 329 225
0.011817466 0.67400002 0.0177262 7.7482613e-39 330 225
0.012999214 0.67400002 0.0177262 7.5638728e-39 331 225
0.01418096 0.67400002 0.0177262 7.3794843e-39 332 225
0.0153855 0.67500001 0.0177525 7.5635141e-39 333 225
0.016569 0.67500001 0.0177525 7.3802018e-39 334 225
0.0177525 0.67500001 0.0177525 7.3802018e-39 335 225
0.018964052 0.676 0.017778801 7.4716786e-39 336 225
0.020149305 0.676 0.017778801 7.7479053e-39 337 225
0.021397678 0.67799997 0.0178314 7.747555e-39 338 225
0.022586439 0.67799997 0.0178314 7.5635239e-39 339 225
0.023845334 0.68000001 0.017883999 7.1961721e-39 340 225
0.025037598 0.68000001 0.017883999 7.1961721e-39 341 225
0.026229866 0.68000001 0.017883999 7.106489e-39 342 225
0.027502786 0.68199998 0.017936599 7.1986832e-39 343 225
0.028740639 0.68300003 0.017962901 7.1057981e-39 344 225
0.029982001 0.68400002 0.0179892 6.8295714e-39 345 225
-0.032711938 0.69099998 0.016961746 1.5858367e-38 293 226
-0.031500384 0.69099998 0.016961746 1.4018017e-38 294 226
-0.030288832 0.69099998 0.016961746 1.1436539e-38 295 226
-0.028908957 0.68699998 0.01686356 7.937714e-39 296 226
-0.027664091 0.68599999 0.016839013 7.8455184e-39 297 226
-0.026345588 0.68300003 0.016765373 8.1224192e-39 298 226
-0.02514806 0.68300003 0.016765373 7.4770596e-39 299 226
-0.023950534 0.68300003 0.016765373 7.2933886e-39 300 226
-0.022719691 0.68199998 0.016740825 7.3855828e-39 301 226
