# .PCD v.7 - Point Cloud Data file format
FIELDS x y z rgb imX imY
SIZE 4 4 4 4 4 4
TYPE F F F F F F
COUNT 1 1 1 1 1 1
WIDTH 845
HEIGHT 1
VIEWPOINT 0 0 0 1 0 0 0
POINTS 845
DATA ascii
0.010036079 0.63599998 0.093670078 1.8808259e-38 329 156
0.011151199 0.63599998 0.093670078 1.8716059e-38 330 156
0.012285607 0.63700002 0.093817361 1.8716059e-38 331 156
0.01342352 0.63800001 0.093964644 1.8807536e-38 332 156
0.014542148 0.63800001 0.093964644 1.871534e-38 333 156
0.015660774 0.63800001 0.093964644 1.871534e-38 334 156
0.016831998 0.63999999 0.094259195 1.8623144e-38 335 156
0.017954132 0.63999999 0.094259195 1.8347637e-38 336 156
0.019016653 0.63800001 0.093964644 1.8255082e-38 337 156
0.02013528 0.63800001 0.093964644 1.8530593e-38 338 156
0.021253906 0.63800001 0.093964644 1.7424604e-38 339 156
0.022372533 0.63800001 0.093964644 1.5488843e-38 340 156
-0.0089910924 0.64099997 0.093282588 1.447182e-38 312 157
-0.007830387 0.63800001 0.092846014 1.6776712e-38 313 157
-0.0067117601 0.63800001 0.092846014 1.6787167e-38 314 157
-0.0055931332 0.63800001 0.092846014 1.9091698e-38 315 157
-0.0044674934 0.63700002 0.092700489 1.8903704e-38 316 157
-0.0033506199 0.63700002 0.092700489 1.8166139e-38 317 157
-0.0022337467 0.63700002 0.092700489 1.8349083e-38 318 157
-0.0011168733 0.63700002 0.092700489 1.8533114e-38 319 157
0 0.63700002 0.092700489 1.8624591e-38 320 157
0.0011168733 0.63700002 0.092700489 1.8624591e-38 321 157
0.0022337467 0.63700002 0.092700489 1.8900457e-38 322 157
0.0033506199 0.63700002 0.092700489 1.8992653e-38 323 157
0.0044674934 0.63700002 0.092700489 1.8900457e-38 324 157
0.0055843666 0.63700002 0.092700489 1.8900457e-38 325 157
0.0067012399 0.63700002 0.092700489 1.8716786e-38 326 157
0.0078058392 0.63599998 0.092554957 1.8716786e-38 327 157
0.0089209592 0.63599998 0.092554957 1.8625309e-38 328 157
0.010036079 0.63599998 0.092554957 1.8625309e-38 329 157
0.011151199 0.63599998 0.092554957 1.8624947e-38 330 157
0.012266319 0.63599998 0.092554957 1.8532751e-38 331 157
0.013381439 0.63599998 0.092554957 1.880754e-38 332 157
0.014519353 0.63700002 0.092700489 1.8715343e-38 333 157
0.015636226 0.63700002 0.092700489 1.8715343e-38 334 157
0.0167531 0.63700002 0.092700489 1.8623147e-38 335 157
0.017869974 0.63700002 0.092700489 1.8255085e-38 336 157
0.018986847 0.63700002 0.092700489 1.8255085e-38 337 157
0.020103721 0.63700002 0.092700489 1.8530596e-38 338 157
0.021253906 0.63800001 0.092846014 1.6686683e-38 339 157
0.022372533 0.63800001 0.092846014 1.4845276e-38 340 157
-0.0089770658 0.63999999 0.092014931 1.4288158e-38 312 158
-0.0078549329 0.63999999 0.092014931 1.6961831e-38 313 158
-0.0067327996 0.63999999 0.092014931 1.6512391e-38 314 158
-0.0055931332 0.63800001 0.091727383 1.8817642e-38 315 158
-0.0044674934 0.63700002 0.09158361 1.8997337e-38 316 158
-0.0033506199 0.63700002 0.09158361 1.8075741e-38 317 158
-0.0022302398 0.63599998 0.091439828 1.8624947e-38 318 158
-0.0011151199 0.63599998 0.091439828 1.8624947e-38 319 158
0 0.63599998 0.091439828 1.8624591e-38 320 158
0.0011151199 0.63599998 0.091439828 1.8624591e-38 321 158
0.0022302398 0.63599998 0.091439828 1.8900101e-38 322 158
0.0033453598 0.63599998 0.091439828 1.8900101e-38 323 158
0.0044604796 0.63599998 0.091439828 1.8900101e-38 324 158
0.0055755996 0.63599998 0.091439828 1.8807906e-38 325 158
0.0066907196 0.63599998 0.091439828 1.8716786e-38 326 158
0.0078058392 0.63599998 0.091439828 1.8716786e-38 327 158
0.0089209592 0.63599998 0.091439828 1.8717142e-38 328 158
0.0100203 0.63499999 0.091296062 1.8717142e-38 329 158
0.011133666 0.63499999 0.091296062 1.8715707e-38 330 158
0.012247032 0.63499999 0.091296062 1.8715707e-38 331 158
0.013381439 0.63599998 0.091439828 1.8714987e-38 332 158
0.014496559 0.63599998 0.091439828 1.8714987e-38 333 158
0.015611678 0.63599998 0.091439828 1.8623147e-38 334 158
0.016726799 0.63599998 0.091439828 1.8530593e-38 335 158
0.017841918 0.63599998 0.091439828 1.8346565e-38 336 158
0.018957037 0.63599998 0.091439828 1.8346565e-38 337 158
0.020072158 0.63599998 0.091439828 1.8163262e-38 338 158
0.021054026 0.63200003 0.090864748 1.585837e-38 339 158
0.022162134 0.63200003 0.090864748 1.4383225e-38 340 158
-0.0089770658 0.63999999 0.090892799 1.4195603e-38 312 159
-0.0078549329 0.63999999 0.090892799 1.7146224e-38 313 159
-0.0067327996 0.63999999 0.090892799 1.6236893e-38 314 159
-0.0055931332 0.63800001 0.090608761 1.8357751e-38 315 159
-0.0044674934 0.63700002 0.090466738 1.8723644e-38 316 159
-0.0033506199 0.63700002 0.090466738 1.8078275e-38 317 159
-0.0022302398 0.63599998 0.090324715 1.8992297e-38 318 159
-0.0011151199 0.63599998 0.090324715 1.871571e-38 319 159
0 0.63599998 0.090324715 1.8714987e-38 320 159
0.0011151199 0.63599998 0.090324715 1.8899738e-38 321 159
0.0022302398 0.63599998 0.090324715 1.8899382e-38 322 159
0.0033453598 0.63599998 0.090324715 1.8899382e-38 323 159
0.0044604796 0.63599998 0.090324715 1.8900457e-38 324 159
0.0055755996 0.63599998 0.090324715 1.8900457e-38 325 159
0.0066907196 0.63599998 0.090324715 1.8717142e-38 326 159
0.0078058392 0.63599998 0.090324715 1.8717142e-38 327 159
0.0089209592 0.63599998 0.090324715 1.8625309e-38 328 159
0.0100203 0.63499999 0.090182692 1.8533114e-38 329 159
0.011133666 0.63499999 0.090182692 1.8532398e-38 330 159
0.012247032 0.63499999 0.090182692 1.8440201e-38 331 159
0.0133604 0.63499999 0.090182692 1.8714987e-38 332 159
0.014473766 0.63499999 0.090182692 1.8622791e-38 333 159
0.015587131 0.63499999 0.090182692 1.8530596e-38 334 159
0.016700499 0.63499999 0.090182692 1.8530596e-38 335 159
0.017813865 0.63499999 0.090182692 1.8346562e-38 336 159
0.018927233 0.63499999 0.090182692 1.8254366e-38 337 159
0.0200406 0.63499999 0.090182692 1.7426416e-38 338 159
0.021054026 0.63200003 0.089756638 1.4937493e-38 339 159
0.022162134 0.63200003 0.089756638 1.3922609e-38 340 159
-0.0078794798 0.64200002 0.090051197 1.7054027e-38 313 160
-0.0067433193 0.64099997 0.089910932 1.6145426e-38 314 160
-0.0055931332 0.63800001 0.089490131 1.7804947e-38 315 160
-0.0044674934 0.63700002 0.089349866 1.7806024e-38 316 160
-0.0033506199 0.63700002 0.089349866 1.7713828e-38 317 160
-0.0022302398 0.63599998 0.089209594 1.8719679e-38 318 160
-0.0011151199 0.63599998 0.089209594 1.82587e-38 319 160
0 0.63599998 0.089209594 1.8992653e-38 320 160
0.0011151199 0.63599998 0.089209594 1.8992653e-38 321 160
0.0022302398 0.63599998 0.089209594 1.8807903e-38 322 160
0.0033453598 0.63599998 0.089209594 1.8900457e-38 323 160
0.0044604796 0.63599998 0.089209594 1.8624591e-38 324 160
0.0055755996 0.63599998 0.089209594 1.8716786e-38 325 160
0.0066907196 0.63599998 0.089209594 1.8624591e-38 326 160
0.0078058392 0.63599998 0.089209594 1.8624591e-38 327 160
0.0089069325 0.63499999 0.089069329 1.8807903e-38 328 160
0.0100203 0.63499999 0.089069329 1.8807903e-38 329 160
0.011133666 0.63499999 0.089069329 1.8531675e-38 330 160
0.012247032 0.63499999 0.089069329 1.8715707e-38 331 160
0.0133604 0.63499999 0.089069329 1.8714987e-38 332 160
0.014473766 0.63499999 0.089069329 1.8714987e-38 333 160
0.015587131 0.63499999 0.089069329 1.8623144e-38 334 160
0.016700499 0.63499999 0.089069329 1.8623144e-38 335 160
0.017813865 0.63499999 0.089069329 1.8530949e-38 336 160
0.018927233 0.63499999 0.089069329 1.7885579e-38 337 160
0.0200406 0.63499999 0.089069329 1.6595934e-38 338 160
0.021054026 0.63200003 0.088648535 1.4844575e-38 339 160
0.022162134 0.63200003 0.088648535 1.4014442e-38 340 160
-0.0067433193 0.64099997 0.088787034 1.5960679e-38 314 161
-0.0055931332 0.63800001 0.088371508 1.7159222e-38 315 161
-0.0044674934 0.63700002 0.088232994 1.6886958e-38 316 161
-0.0033506199 0.63700002 0.088232994 1.744013e-38 317 161
-0.0022302398 0.63599998 0.088094473 1.8999881e-38 318 161
-0.0011151199 0.63599998 0.088094473 1.863074e-38 319 161
0 0.63599998 0.088094473 1.8811152e-38 320 161
0.0011151199 0.63599998 0.088094473 1.8442369e-38 321 161
0.0022302398 0.63599998 0.088094473 1.8532042e-38 322 161
0.0033453598 0.63599998 0.088094473 1.8624596e-38 323 161
0.0044604796 0.63599998 0.088094473 1.8807906e-38 324 161
0.0055668331 0.63499999 0.087955967 1.8807906e-38 325 161
0.0066801999 0.63499999 0.087955967 1.8807903e-38 326 161
0.0077935657 0.63499999 0.087955967 1.8900457e-38 327 161
0.0089069325 0.63499999 0.087955967 1.8807906e-38 328 161
0.0100203 0.63499999 0.087955967 1.871571e-38 329 161
0.011116133 0.634 0.087817445 1.8532042e-38 330 161
0.012227747 0.634 0.087817445 1.8439845e-38 331 161
0.0133604 0.63499999 0.087955967 1.8531675e-38 332 161
0.014473766 0.63499999 0.087955967 1.8439479e-38 333 161
0.015587131 0.63499999 0.087955967 1.8532028e-38 334 161
0.016726799 0.63599998 0.088094473 1.8439832e-38 335 161
0.017841918 0.63599998 0.088094473 1.78881e-38 336 161
0.018957037 0.63599998 0.088094473 1.6136383e-38 337 161
0.020072158 0.63599998 0.088094473 1.5121158e-38 338 161
0.021187279 0.63599998 0.088094473 1.4567984e-38 339 161
-0.0067433193 0.64099997 0.087663151 1.6052877e-38 314 162
-0.0056106662 0.63999999 0.087526396 1.7159225e-38 315 162
-0.0044674934 0.63700002 0.087116122 1.6242676e-38 316 162
-0.0033506199 0.63700002 0.087116122 1.6611819e-38 317 162
-0.0022302398 0.63599998 0.086979352 1.7806745e-38 318 162
-0.0011151199 0.63599998 0.086979352 1.7898941e-38 319 162
0 0.63599998 0.086979352 1.8814039e-38 320 162
0.0011151199 0.63599998 0.086979352 1.8445615e-38 321 162
0.0022302398 0.63599998 0.086979352 1.8902269e-38 322 162
0.0033453598 0.63599998 0.086979352 1.8810072e-38 323 162
0.0044604796 0.63599998 0.086979352 1.8992297e-38 324 162
0.0055668331 0.63499999 0.086842597 1.8900101e-38 325 162
0.0066801999 0.63499999 0.086842597 1.8991934e-38 326 162
0.0077935657 0.63499999 0.086842597 1.8899738e-38 327 162
0.0089069325 0.63499999 0.086842597 1.8899382e-38 328 162
0.0100203 0.63499999 0.086842597 1.8899382e-38 329 162
0.011116133 0.634 0.086705834 1.8807906e-38 330 162
0.012227747 0.634 0.086705834 1.8807906e-38 331 162
0.0133604 0.63499999 0.086842597 1.8532395e-38 332 162
0.014473766 0.63499999 0.086842597 1.8440198e-38 333 162
0.015587131 0.63499999 0.086842597 1.8164334e-38 334 162
0.016726799 0.63599998 0.086979352 1.7426769e-38 335 162
0.017841918 0.63599998 0.086979352 1.5861964e-38 336 162
0.018957037 0.63599998 0.086979352 1.4755617e-38 337 162
0.020072158 0.63599998 0.086979352 1.429212e-38 338 162
0.021187279 0.63599998 0.086979352 1.429212e-38 339 162
-0.0067433193 0.64099997 0.086539268 1.6145076e-38 314 163
-0.0056106662 0.63999999 0.086404264 1.6974838e-38 315 163
-0.0044674934 0.63700002 0.08599925 1.6057213e-38 316 163
-0.0033506199 0.63700002 0.08599925 1.6149408e-38 317 163
-0.0022302398 0.63599998 0.085864238 1.6519619e-38 318 163
-0.0011151199 0.63599998 0.085864238 1.7072791e-38 319 163
0 0.63599998 0.085864238 1.8448878e-38 320 163
0.0011151199 0.63599998 0.085864238 1.863291e-38 321 163
0.0022302398 0.63599998 0.085864238 1.9273947e-38 322 163
0.0033453598 0.63599998 0.085864238 1.8812969e-38 323 163
0.0044604796 0.63599998 0.085864238 1.8719679e-38 324 163
0.0055668331 0.63499999 0.085729234 1.8443092e-38 325 163
0.0066801999 0.63499999 0.085729234 1.8809706e-38 326 163
0.0077935657 0.63499999 0.085729234 1.8717511e-38 327 163
0.0089069325 0.63499999 0.085729234 1.8717511e-38 328 163
0.010004519 0.634 0.085594222 1.8625315e-38 329 163
0.011116133 0.634 0.085594222 1.8717155e-38 330 163
0.012227747 0.634 0.085594222 1.8717155e-38 331 163
0.013339359 0.634 0.085594222 1.8441647e-38 332 163
0.014473766 0.63499999 0.085729234 1.8257256e-38 333 163
0.015587131 0.63499999 0.085729234 1.7150911e-38 334 163
0.016726799 0.63599998 0.085864238 1.6044563e-38 335 163
0.017813865 0.63499999 0.085729234 1.4570877e-38 336 163
0.018927233 0.63499999 0.085729234 1.3925507e-38 337 163
0.020072158 0.63599998 0.085864238 1.429177e-38 338 163
0.021187279 0.63599998 0.085864238 1.4199575e-38 339 163
-0.0056194332 0.64099997 0.085415386 1.6700052e-38 315 164
-0.0044885329 0.63999999 0.085282132 1.6240885e-38 316 164
-0.00335588 0.63800001 0.085015625 1.6240885e-38 317 164
-0.0022337467 0.63700002 0.084882379 1.6058648e-38 318 164
-0.0011168733 0.63700002 0.084882379 1.6242679e-38 319 164
0 0.63599998 0.084749117 1.6978079e-38 320 164
0.0011151199 0.63599998 0.084749117 1.7070276e-38 321 164
0.0022302398 0.63599998 0.084749117 1.7987185e-38 322 164
0.0033453598 0.63599998 0.084749117 1.7987185e-38 323 164
0.0044604796 0.63599998 0.084749117 1.8721136e-38 324 164
0.0055668331 0.63499999 0.084615864 1.8537105e-38 325 164
0.0066801999 0.63499999 0.084615864 1.8536732e-38 326 164
0.0077935657 0.63499999 0.084615864 1.8444178e-38 327 164
0.0089069325 0.63499999 0.084615864 1.8534208e-38 328 164
0.010004519 0.634 0.08448261 1.8257982e-38 329 164
0.011116133 0.634 0.08448261 1.7981755e-38 330 164
0.012227747 0.634 0.08448261 1.7797722e-38 331 164
0.013339359 0.634 0.08448261 1.7335668e-38 332 164
0.014473766 0.63499999 0.084615864 1.6690298e-38 333 164
0.015611678 0.63599998 0.084749117 1.4849627e-38 334 164
0.016726799 0.63599998 0.084749117 1.4204258e-38 335 164
0.017813865 0.63499999 0.084615864 1.3742561e-38 336 164
0.018927233 0.63499999 0.084615864 1.3650365e-38 337 164
0.020072158 0.63599998 0.084749117 1.4199937e-38 338 164
0.021187279 0.63599998 0.084749117 1.4015906e-38 339 164
-0.0056194332 0.64099997 0.084291495 1.6607852e-38 315 165
-0.0044885329 0.63999999 0.08416 1.6334158e-38 316 165
-0.00335588 0.63800001 0.083897002 1.6241604e-38 317 165
-0.0022337467 0.63700002 0.083765499 1.6058295e-38 318 165
-0.0011168733 0.63700002 0.083765499 1.5966099e-38 319 165
0 0.63700002 0.083765499 1.6149046e-38 320 165
0.0011151199 0.63599998 0.083633989 1.6241241e-38 321 165
0.0022302398 0.63599998 0.083633989 1.7068474e-38 322 165
0.0033453598 0.63599998 0.083633989 1.7345421e-38 323 165
0.0044604796 0.63599998 0.083633989 1.7987185e-38 324 165
0.0055668331 0.63499999 0.083502494 1.8079739e-38 325 165
0.0066801999 0.63499999 0.083502494 1.8538191e-38 326 165
0.0077935657 0.63499999 0.083502494 1.7985376e-38 327 165
0.0089069325 0.63499999 0.083502494 1.7524032e-38 328 165
0.0100203 0.63499999 0.083502494 1.7154889e-38 329 165
0.011133666 0.63499999 0.083502494 1.6786464e-38 330 165
0.012247032 0.63499999 0.083502494 1.6509517e-38 331 165
0.0133604 0.63499999 0.083502494 1.5772308e-38 332 165
0.014473766 0.63499999 0.083502494 1.5126938e-38 333 165
0.015611678 0.63599998 0.083633989 1.3560689e-38 334 165
0.016726799 0.63599998 0.083633989 1.3468493e-38 335 165
0.017841918 0.63599998 0.083633989 1.3650365e-38 336 165
0.018957037 0.63599998 0.083633989 1.3558168e-38 337 165
0.020072158 0.63599998 0.083633989 1.3924074e-38 338 165
-0.00450256 0.64200002 0.083297364 1.605721e-38 316 166
-0.0033716597 0.64099997 0.083167605 1.624196e-38 317 166
-0.0022442664 0.63999999 0.083037868 1.6149764e-38 318 166
-0.0011186267 0.63800001 0.082778372 1.5873178e-38 319 166
0 0.63700002 0.082648627 1.6147965e-38 320 166
0.0011168733 0.63700002 0.082648627 1.5686988e-38 321 166
0.0022302398 0.63599998 0.082518876 1.5503676e-38 322 166
0.0033453598 0.63599998 0.082518876 1.5503676e-38 323 166
0.0044604796 0.63599998 0.082518876 1.5686618e-38 324 166
0.0055755996 0.63599998 0.082518876 1.5686618e-38 325 166
0.0066801999 0.63499999 0.082389124 1.5321427e-38 326 166
0.0077935657 0.63499999 0.082389124 1.4676058e-38 327 166
0.0089069325 0.63499999 0.082389124 1.5681208e-38 328 166
0.0100203 0.63499999 0.082389124 1.522023e-38 329 166
0.011133666 0.63499999 0.082389124 1.4762126e-38 330 166
0.012247032 0.63499999 0.082389124 1.4577735e-38 331 166
0.013381439 0.63599998 0.082518876 1.4023478e-38 332 166
0.014496559 0.63599998 0.082518876 1.4115675e-38 333 166
0.015611678 0.63599998 0.082518876 1.3284828e-38 334 166
0.0167531 0.63700002 0.082648627 1.3192274e-38 335 166
0.017869974 0.63700002 0.082648627 1.3741483e-38 336 166
-0.0056720334 0.64700001 0.082811691 1.6240155e-38 315 167
-0.0045095733 0.64300001 0.082299709 1.5964297e-38 316 167
-0.00337692 0.64200002 0.082171716 1.6056493e-38 317 167
-0.00225128 0.64200002 0.082171716 1.5873183e-38 318 167
-0.0011238866 0.64099997 0.082043722 1.5780629e-38 319 167
0 0.64099997 0.082043722 1.577955e-38 320 167
0.0011186267 0.63800001 0.081659749 1.577955e-38 321 167
0.0022337467 0.63700002 0.081531756 1.5411126e-38 322 167
0.0033506199 0.63700002 0.081531756 1.531893e-38 323 167
0.0044604796 0.63599998 0.081403755 1.5134168e-38 324 167
0.0055755996 0.63599998 0.081403755 1.5041972e-38 325 167
0.0066907196 0.63599998 0.081403755 1.531711e-38 326 167
0.0078058392 0.63599998 0.081403755 1.5224914e-38 327 167
0.0089209592 0.63599998 0.081403755 1.4764294e-38 328 167
0.010036079 0.63599998 0.081403755 1.421112e-38 329 167
0.011151199 0.63599998 0.081403755 1.4669574e-38 330 167
0.012266319 0.63599998 0.081403755 1.4485182e-38 331 167
0.013381439 0.63599998 0.081403755 1.4114954e-38 332 167
0.014519353 0.63700002 0.081531756 1.3838367e-38 333 167
0.015660774 0.63800001 0.081659749 1.3559617e-38 334 167
0.016779399 0.63800001 0.081659749 1.3467421e-38 335 167
0.017898027 0.63800001 0.081659749 1.3741483e-38 336 167
-0.0068274797 0.64899999 0.081929758 1.6147246e-38 314 168
-0.0056720334 0.64700001 0.08167728 1.6607866e-38 315 168
-0.0045306133 0.64600003 0.081551038 1.614869e-38 316 168
-0.0033821799 0.64300001 0.081172317 1.5964297e-38 317 168
-0.00225128 0.64200002 0.081046082 1.5963575e-38 318 168
-0.0011238866 0.64099997 0.080919832 1.587138e-38 319 168
0 0.64099997 0.080919832 1.5779187e-38 320 168
0.0011221332 0.63999999 0.080793597 1.5686632e-38 321 168
0.0022372534 0.63800001 0.080541119 1.5594435e-38 322 168
0.00335588 0.63800001 0.080541119 1.550224e-38 323 168
0.0044674934 0.63700002 0.080414884 1.5409323e-38 324 168
0.0055843666 0.63700002 0.080414884 1.5409323e-38 325 168
0.0067012399 0.63700002 0.080414884 1.5133446e-38 326 168
0.0078181131 0.63700002 0.080414884 1.4856858e-38 327 168
0.0089349868 0.63700002 0.080414884 1.4672817e-38 328 168
0.010036079 0.63599998 0.080288634 1.4211839e-38 329 168
0.011151199 0.63599998 0.080288634 1.4669574e-38 330 168
0.012285607 0.63700002 0.080414884 1.4392986e-38 331 168
0.01340248 0.63700002 0.080414884 1.3930563e-38 332 168
0.014587732 0.63999999 0.080793597 1.3561782e-38 333 168
0.015709866 0.63999999 0.080793597 1.3742566e-38 334 168
0.016858298 0.64099997 0.080919832 1.3650012e-38 335 168
0.017982185 0.64099997 0.080919832 1.3740761e-38 336 168
0.019284913 0.64700001 0.08167728 1.355637e-38 337 168
-0.0068274797 0.64899999 0.080791838 1.5777032e-38 314 169
-0.0056807999 0.648 0.080667354 1.6975575e-38 315 169
-0.0045376266 0.64700001 0.08054287 1.6058295e-38 316 169
-0.0033874398 0.64399999 0.08016941 1.5781348e-38 317 169
-0.0022547867 0.64300001 0.080044925 1.5688786e-38 318 169
-0.00112564 0.64200002 0.079920441 1.5596591e-38 319 169
0 0.64200002 0.079920441 1.550332e-38 320 169
0.0011238866 0.64099997 0.079795949 1.5318928e-38 321 169
0.0022442664 0.63999999 0.079671465 1.5318209e-38 322 169
0.0033663998 0.63999999 0.079671465 1.5226013e-38 323 169
0.0044745067 0.63800001 0.079422489 1.5133812e-38 324 169
0.0055931332 0.63800001 0.079422489 1.5133812e-38 325 169
0.0067012399 0.63700002 0.079298005 1.5133446e-38 326 169
0.0078181131 0.63700002 0.079298005 1.4764662e-38 327 169
0.0089490134 0.63800001 0.079422489 1.4672097e-38 328 169
0.01005186 0.63700002 0.079298005 1.4395151e-38 329 169
0.011168733 0.63700002 0.079298005 1.4577014e-38 330 169
0.012304893 0.63800001 0.079422489 1.4300069e-38 331 169
0.013465599 0.63999999 0.079671465 1.3837646e-38 332 169
0.014610525 0.64099997 0.079795949 1.3653253e-38 333 169
0.01575896 0.64200002 0.079920441 1.3926595e-38 334 169
0.016884599 0.64200002 0.079920441 1.3742563e-38 335 169
0.018038293 0.64300001 0.080044925 1.3741117e-38 336 169
0.019284913 0.64700001 0.08054287 1.3556367e-38 337 169
-0.0068379994 0.64999998 0.079776667 1.4026391e-38 314 170
-0.0056895665 0.64899999 0.079653934 1.6700064e-38 315 170
-0.00454464 0.648 0.0795312 1.6426714e-38 316 170
-0.00339796 0.64600003 0.079285733 1.6057937e-38 317 170
-0.0022653067 0.64600003 0.079285733 1.6057213e-38 318 170
-0.0011291467 0.64399999 0.079040259 1.5688789e-38 319 170
0 0.64300001 0.078917533 1.57799e-38 320 170
0.00112564 0.64200002 0.0787948 1.5411476e-38 321 170
0.0022477731 0.64099997 0.078672059 1.5501874e-38 322 170
0.0033716597 0.64099997 0.078672059 1.5317483e-38 323 170
0.0044885329 0.63999999 0.078549333 1.540896e-38 324 170
0.0056106662 0.63999999 0.078549333 1.5316764e-38 325 170
0.0067327996 0.63999999 0.078549333 1.5132363e-38 326 170
0.0078549329 0.63999999 0.078549333 1.4579548e-38 327 170
0.0089770658 0.63999999 0.078549333 1.466994e-38 328 170
0.0100992 0.63999999 0.078549333 1.4301516e-38 329 170
0.011221332 0.63999999 0.078549333 1.4575577e-38 330 170
0.012343466 0.63999999 0.078549333 1.4022762e-38 331 170
0.013486639 0.64099997 0.078672059 1.4020592e-38 332 170
0.01463332 0.64200002 0.0787948 1.4020592e-38 333 170
0.015783506 0.64300001 0.078917533 1.4019146e-38 334 170
0.0169372 0.64399999 0.079040259 1.3926951e-38 335 170
0.018066347 0.64399999 0.079040259 1.3834033e-38 336 170
0.019284913 0.64700001 0.079408467 1.3465251e-38 337 170
-0.0068379994 0.64999998 0.078636996 1.1079002e-38 314 171
-0.0056895665 0.64899999 0.078516014 1.532e-38 315 171
-0.00454464 0.648 0.078395039 1.6517832e-38 316 171
-0.0034032199 0.64700001 0.078274064 1.6701862e-38 317 171
-0.0022653067 0.64600003 0.078153081 1.6058295e-38 318 171
-0.0011326533 0.64600003 0.078153081 1.5781348e-38 319 171
0 0.64399999 0.077911116 1.6147965e-38 320 171
0.0011273933 0.64300001 0.077790141 1.5963575e-38 321 171
0.00225128 0.64200002 0.077669159 1.5962852e-38 322 171
0.00337692 0.64200002 0.077669159 1.5409678e-38 323 171
0.00450256 0.64200002 0.077669159 1.5133093e-38 324 171
0.0056281998 0.64200002 0.077669159 1.5133093e-38 325 171
0.0067433193 0.64099997 0.077548169 1.4673546e-38 326 171
0.0078672068 0.64099997 0.077548169 1.4212207e-38 327 171
0.0089910924 0.64099997 0.077548169 1.4577744e-38 328 171
0.010114979 0.64099997 0.077548169 1.4209321e-38 329 171
0.011238866 0.64099997 0.077548169 1.4483384e-38 330 171
0.01238204 0.64200002 0.077669159 1.4114601e-38 331 171
0.01350768 0.64200002 0.077669159 1.4388299e-38 332 171
0.014656113 0.64300001 0.077790141 1.4296103e-38 333 171
0.015808053 0.64399999 0.077911116 1.4019146e-38 334 171
0.016989801 0.64600003 0.078153081 1.3926951e-38 335 171
0.018122453 0.64600003 0.078153081 1.392551e-38 336 171
0.019284913 0.64700001 0.078274064 1.3556367e-38 337 171
0.02041932 0.64700001 0.078274064 1.3738601e-38 338 171
-0.0068379994 0.64999998 0.077497326 9.8754001e-39 314 172
-0.005698333 0.64999998 0.077497326 1.4024205e-38 315 172
-0.00454464 0.648 0.077258877 1.5411143e-38 316 172
-0.0034032199 0.64700001 0.077139653 1.6517832e-38 317 172
-0.0022688133 0.64700001 0.077139653 1.6701503e-38 318 172
-0.0011326533 0.64600003 0.077020429 1.6516756e-38 319 172
0 0.64600003 0.077020429 1.6149411e-38 320 172
0.0011291467 0.64399999 0.076781973 1.6057216e-38 321 172
0.0022547867 0.64300001 0.076662742 1.6147243e-38 322 172
0.0033821799 0.64300001 0.076662742 1.5686265e-38 323 172
0.0045095733 0.64300001 0.076662742 1.5685542e-38 324 172
0.0056369668 0.64300001 0.076662742 1.5501152e-38 325 172
0.0067643598 0.64300001 0.076662742 1.4856855e-38 326 172
0.0078794798 0.64200002 0.076543517 1.4672464e-38 327 172
0.00900512 0.64200002 0.076543517 1.5037999e-38 328 172
0.01013076 0.64200002 0.076543517 1.4485184e-38 329 172
0.011273934 0.64300001 0.076662742 1.4667412e-38 330 172
0.012420613 0.64399999 0.076781973 1.4574858e-38 331 172
0.013549759 0.64399999 0.076781973 1.4573414e-38 332 172
0.014678906 0.64399999 0.076781973 1.4388664e-38 333 172
0.015857147 0.64600003 0.077020429 1.3835478e-38 334 172
0.016989801 0.64600003 0.077020429 1.3743282e-38 335 172
0.018122453 0.64600003 0.077020429 1.392443e-38 336 172
0.019284913 0.64700001 0.077139653 1.3463453e-38 337 172
0.02041932 0.64700001 0.077139653 1.2818086e-38 338 172
-0.0068379994 0.64999998 0.076357663 1.3274765e-38 314 173
-0.0056895665 0.64899999 0.076240189 1.0693646e-38 315 173
-0.00454464 0.648 0.076122716 1.080603e-38 316 173
-0.0034032199 0.64700001 0.07600525 1.3940322e-38 317 173
-0.0022688133 0.64700001 0.07600525 1.6516756e-38 318 173
-0.0011344067 0.64700001 0.07600525 1.7162116e-38 319 173
0 0.64600003 0.075887777 1.7069563e-38 320 173
0.0011326533 0.64600003 0.075887777 1.6332005e-38 321 173
0.0022582933 0.64399999 0.075652823 1.5964294e-38 322 173
0.0033874398 0.64399999 0.075652823 1.5779903e-38 323 173
0.0045165867 0.64399999 0.075652823 1.5962133e-38 324 173
0.0056457333 0.64399999 0.075652823 1.5962133e-38 325 173
0.0067748795 0.64399999 0.075652823 1.5684821e-38 326 173
0.0078917528 0.64300001 0.07553535 1.5592625e-38 327 173
0.0090191467 0.64300001 0.07553535 1.5865965e-38 328 173
0.01016232 0.64399999 0.075652823 1.5497543e-38 329 173
0.011291467 0.64399999 0.075652823 1.5403898e-38 330 173
0.012459187 0.64600003 0.075887777 1.494292e-38 331 173
0.01359184 0.64600003 0.075887777 1.4481219e-38 332 173
0.014724494 0.64600003 0.075887777 1.4388664e-38 333 173
0.015857147 0.64600003 0.075887777 1.3835481e-38 334 173
0.016989801 0.64600003 0.075887777 1.3650731e-38 335 173
0.018122453 0.64600003 0.075887777 1.355637e-38 336 173
0.019284913 0.64700001 0.07600525 1.2357827e-38 337 173
0.02041932 0.64700001 0.07600525 1.1437669e-38 338 173
-0.0056895665 0.64899999 0.075102277 1.0782573e-38 315 174
-0.00454464 0.648 0.074986562 8.404586e-39 316 174
-0.0034032199 0.64700001 0.07487084 1.1908021e-38 317 174
-0.0022688133 0.64700001 0.07487084 1.4671054e-38 318 174
-0.0011344067 0.64700001 0.07487084 1.6607157e-38 319 174
0 0.64600003 0.074755117 1.6975575e-38 320 174
0.0011326533 0.64600003 0.074755117 1.6606797e-38 321 174
0.0022582933 0.64399999 0.074523672 1.6056493e-38 322 174
0.0033874398 0.64399999 0.074523672 1.5872101e-38 323 174
0.0045165867 0.64399999 0.074523672 1.5962852e-38 324 174
0.0056457333 0.64399999 0.074523672 1.5686265e-38 325 174
0.0067748795 0.64399999 0.074523672 1.596141e-38 326 174
0.0079040267 0.64399999 0.074523672 1.5500073e-38 327 174
0.0090331733 0.64399999 0.074523672 1.5590101e-38 328 174
0.01016232 0.64399999 0.074523672 1.5221677e-38 329 174
0.011326533 0.64600003 0.074755117 1.522023e-38 330 174
0.012459187 0.64600003 0.074755117 1.4851087e-38 331 174
0.01359184 0.64600003 0.074755117 1.4572695e-38 332 174
0.014724494 0.64600003 0.074755117 1.429575e-38 333 174
0.015857147 0.64600003 0.074755117 1.3465616e-38 334 174
0.016989801 0.64600003 0.074755117 1.2912801e-38 335 174
0.018122453 0.64600003 0.074755117 1.1990842e-38 336 174
0.019284913 0.64700001 0.07487084 1.1990842e-38 337 174
-0.00113616 0.648 0.073850393 1.2918952e-38 319 175
0 0.64700001 0.073736429 1.4486293e-38 320 175
0.0011326533 0.64600003 0.073622465 1.5316055e-38 321 175
0.0022653067 0.64600003 0.073622465 1.6237291e-38 322 175
0.00339796 0.64600003 0.073622465 1.6513878e-38 323 175
0.0045306133 0.64600003 0.073622465 1.6146527e-38 324 175
0.0056632664 0.64600003 0.073622465 1.6146527e-38 325 175
0.00679592 0.64600003 0.073622465 1.596141e-38 326 175
0.0079285735 0.64600003 0.073622465 1.5500073e-38 327 175
0.0090612266 0.64600003 0.073622465 1.5774848e-38 328 175
0.01019388 0.64600003 0.073622465 1.5498262e-38 329 175
0.011326533 0.64600003 0.073622465 1.5128031e-38 330 175
0.012459187 0.64600003 0.073622465 1.4574858e-38 331 175
0.01359184 0.64600003 0.073622465 1.4571967e-38 332 175
0.014747286 0.64700001 0.073736429 1.3926597e-38 333 175
0.015881693 0.64700001 0.073736429 1.2818449e-38 334 175
0.0170161 0.64700001 0.073736429 1.1620265e-38 335 175
0.018150507 0.64700001 0.073736429 1.0056529e-38 336 175
0.019284913 0.64700001 0.073736429 1.2269584e-38 337 175
0 0.648 0.072714239 1.1718253e-38 320 176
0.00113616 0.648 0.072714239 1.2363623e-38 321 176
0.0022688133 0.64700001 0.072602026 1.3286305e-38 322 176
0.0034032199 0.64700001 0.072602026 1.4116066e-38 323 176
0.0045376266 0.64700001 0.072602026 1.4577044e-38 324 176
0.0056807999 0.648 0.072714239 1.4946186e-38 325 176
0.0068169599 0.648 0.072714239 1.4945456e-38 326 176
0.0079408465 0.64700001 0.072602026 1.448448e-38 327 176
0.0090752533 0.64700001 0.072602026 1.4850368e-38 328 176
0.01020966 0.64700001 0.072602026 1.4389749e-38 329 176
0.011344067 0.64700001 0.072602026 1.401844e-38 330 176
0.012459187 0.64600003 0.072489813 1.3096844e-38 331 176
0.01359184 0.64600003 0.072489813 1.281773e-38 332 176
0.014747286 0.64700001 0.072602026 1.2264915e-38 333 176
0.015881693 0.64700001 0.072602026 1.1435518e-38 334 176
0.0068169599 0.648 0.071578078 1.2638399e-38 326 177
0.0079531204 0.648 0.071578078 1.2454008e-38 327 177
0.0090892799 0.648 0.071578078 1.2452909e-38 328 177
0.01020966 0.64700001 0.071467623 1.199229e-38 329 177
0.011344067 0.64700001 0.071467623 1.1987971e-38 330 177
0.012478473 0.64700001 0.071467623 1.0789429e-38 331 177
0.013612879 0.64700001 0.071467623 1.0511416e-38 332 177
0.014747286 0.64700001 0.071467623 1.0603611e-38 333 177
-0.042662106 0.86900002 0.076182336 1.8898658e-38 292 190
-0.041043781 0.86699998 0.076006994 1.8898658e-38 293 190
-0.039523639 0.86699998 0.076006994 1.8714987e-38 294 190
-0.044185754 0.86900002 0.074658684 1.8990855e-38 291 191
-0.042662106 0.86900002 0.074658684 1.8990855e-38 292 191
-0.041043781 0.86699998 0.074486852 1.8898658e-38 293 191
-0.039523639 0.86699998 0.074486852 1.871499e-38 294 191
-0.044287443 0.87099999 0.073303357 1.8989782e-38 291 192
-0.042662106 0.86900002 0.073135041 1.8898305e-38 292 192
-0.041138459 0.86900002 0.073135041 1.8714274e-38 293 192
-0.039614812 0.86900002 0.073135041 1.871499e-38 294 192
-0.042760294 0.87099999 0.071776204 1.8989782e-38 292 193
-0.041138459 0.86900002 0.071611397 1.8989782e-38 293 193
-0.039614812 0.86900002 0.071611397 1.8714271e-38 294 193
-0.041233137 0.87099999 0.070249051 1.8714274e-38 293 194
-0.020254506 0.722 0.020254506 1.0711534e-38 304 224
-0.0189886 0.722 0.020254506 1.1817521e-38 305 224
-0.017722692 0.722 0.020254506 1.3374465e-38 306 224
-0.012553867 0.71600002 0.020086186 1.9453686e-38 310 224
-0.01129848 0.71600002 0.020086186 2.1021e-38 311 224
-0.010043093 0.71600002 0.020086186 2.0379219e-38 312 224
-0.0087877065 0.71600002 0.020086186 1.6046025e-38 313 224
-0.022944121 0.727 0.019120099 1.1169934e-38 302 225
-0.021609833 0.72500002 0.0190675 1.0432369e-38 303 225
-0.020254506 0.722 0.0189886 9.3332391e-39 304 225
-0.0189886 0.722 0.0189886 9.9786085e-39 305 225
-0.017673599 0.72000003 0.018935999 1.1446246e-38 306 225
-0.0164112 0.72000003 0.018935999 1.1446246e-38 307 225
-0.01512776 0.71899998 0.018909698 1.2265984e-38 308 225
-0.013828539 0.71700001 0.018857099 1.2081234e-38 309 225
-0.012553867 0.71600002 0.0188308 1.1530622e-38 310 225
-0.01129848 0.71600002 0.0188308 1.2268187e-38 311 225
-0.010043093 0.71600002 0.0188308 1.336913e-38 312 225
-0.0087877065 0.71600002 0.0188308 1.1801804e-38 313 225
-0.00753232 0.71600002 0.0188308 1.1524829e-38 314 225
-0.024252106 0.72799999 0.017869972 1.1814654e-38 301 226
-0.022944121 0.727 0.017845426 1.1172815e-38 302 226
-0.021609833 0.72500002 0.017796334 1.0343053e-38 303 226
-0.020282559 0.72299999 0.017747238 9.3324782e-39 304 226
-0.0189886 0.722 0.017722692 9.5168709e-39 305 226
-0.017673599 0.72000003 0.017673599 1.043494e-38 306 226
-0.0164112 0.72000003 0.017673599 1.0711887e-38 307 226
-0.01512776 0.71899998 0.017649053 1.1810379e-38 308 226
-0.013828539 0.71700001 0.017599959 1.1072814e-38 309 226
-0.012553867 0.71600002 0.017575413 9.5962586e-39 310 226
-0.01129848 0.71600002 0.017575413 9.1349204e-39 311 226
-0.010043093 0.71600002 0.017575413 1.005221e-38 312 226
-0.0087877065 0.71600002 0.017575413 1.0882331e-38 313 226
-0.00753232 0.71600002 0.017575413 1.2078719e-38 314 226
-0.024252106 0.72799999 0.016593546 1.1722474e-38 301 227
-0.022944121 0.727 0.016570752 1.1448325e-38 302 227
-0.021669446 0.727 0.016570752 1.0526728e-38 303 227
-0.020338668 0.72500002 0.016525166 9.9763973e-39 304 227
-0.019014901 0.72299999 0.01647958 1.0068952e-38 305 227
-0.017722692 0.722 0.016456785 1.0434179e-38 306 227
-0.016456785 0.722 0.016456785 1.0618572e-38 307 227
-0.0151488 0.72000003 0.0164112 1.0892697e-38 308 227
-0.013828539 0.71700001 0.016342819 1.126148e-38 309 227
-0.0125714 0.71700001 0.016342819 1.1993323e-38 310 227
-0.01129848 0.71600002 0.016320027 1.1901127e-38 311 227
-0.010043093 0.71600002 0.016320027 1.2265969e-38 312 227
-0.0087877065 0.71600002 0.016320027 1.2265969e-38 313 227
-0.00753232 0.71600002 0.016320027 1.2265263e-38 314 227
-0.024252106 0.72799999 0.01531712 1.1904717e-38 301 228
-0.022944121 0.727 0.015296079 1.1540158e-38 302 228
-0.021669446 0.727 0.015296079 1.0802593e-38 303 228
-0.020394772 0.727 0.015296079 1.0344447e-38 304 228
-0.019120099 0.727 0.015296079 1.0344447e-38 305 228
-0.017747238 0.72299999 0.015211919 1.0068952e-38 306 228
-0.016456785 0.722 0.015190879 1.0068952e-38 307 228
-0.0151488 0.72000003 0.0151488 1.0066841e-38 308 228
-0.013867113 0.71899998 0.01512776 1.0435625e-38 309 228
-0.0125714 0.71700001 0.015085679 1.135225e-38 310 228
-0.01129848 0.71600002 0.01506464 1.135225e-38 311 228
-0.010043093 0.71600002 0.01506464 1.1441238e-38 312 228
-0.0087877065 0.71600002 0.01506464 1.1441238e-38 313 228
-0.00753232 0.71600002 0.01506464 1.1715682e-38 314 228
-0.025528532 0.72799999 0.014040692 1.2087664e-38 300 229
-0.024252106 0.72799999 0.014040692 1.1995467e-38 301 229
-0.022975679 0.72799999 0.014040692 1.1263564e-38 302 229
-0.021699252 0.72799999 0.014040692 1.0802946e-38 303 229
-0.020422826 0.72799999 0.014040692 1.0161851e-38 304 229
-0.0191464 0.72799999 0.014040692 1.0161851e-38 305 229
-0.017845426 0.727 0.014021406 1.0345889e-38 306 229
-0.01647958 0.72299999 0.01394426 1.0253693e-38 307 229
-0.015190879 0.722 0.013924973 1.0068599e-38 308 229
-0.0138864 0.72000003 0.0138864 9.699816e-39 309 229
-0.012624 0.72000003 0.0138864 9.9746401e-39 310 229
-0.01134582 0.71899998 0.013867113 9.9746401e-39 311 229
-0.01005712 0.71700001 0.013828539 1.0433139e-38 312 229
-0.0087999795 0.71700001 0.013828539 1.0433139e-38 313 229
-0.0075428397 0.71700001 0.013828539 1.1166435e-38 314 229
-0.0062857 0.71700001 0.013828539 1.171925e-38 315 229
0.024218792 0.727 0.014021406 9.6948134e-39 339 229
0.025493465 0.727 0.014021406 9.3281594e-39 340 229
0.026804959 0.72799999 0.014040692 9.2359638e-39 341 229
0.033511456 0.83099997 0.01602722 1.0430935e-38 343 229
0.03496848 0.83099997 0.01602722 1.0979106e-38 344 229
0.036425497 0.83099997 0.01602722 1.0979106e-38 345 229
0.037882518 0.83099997 0.01602722 1.355666e-38 346 229
-0.025528532 0.72799999 0.012764266 1.25472e-38 300 230
-0.024252106 0.72799999 0.012764266 1.1809635e-38 301 230
-0.022975679 0.72799999 0.012764266 1.0803662e-38 302 230
-0.021699252 0.72799999 0.012764266 1.0527434e-38 303 230
-0.020478934 0.73000002 0.012799333 1.0437005e-38 304 230
-0.0191464 0.72799999 0.012764266 1.0529201e-38 305 230
-0.017869972 0.72799999 0.012764266 1.098911e-38 306 230
-0.016525166 0.72500002 0.012711667 1.0620686e-38 307 230
-0.015254001 0.72500002 0.012711667 1.0161498e-38 308 230
-0.01394426 0.72299999 0.012676599 9.7005194e-39 309 230
-0.012676599 0.72299999 0.012676599 9.7916361e-39 310 230
-0.011361601 0.72000003 0.012624 9.7916361e-39 311 230
-0.010085173 0.71899998 0.012606465 9.6994671e-39 312 230
-0.0087999795 0.71700001 0.0125714 9.6994671e-39 313 230
-0.0075428397 0.71700001 0.0125714 9.6069744e-39 314 230
-0.0062857 0.71700001 0.0125714 1.0252344e-38 315 230
-0.0050285598 0.71700001 0.0125714 1.1351196e-38 316 230
-0.0037714199 0.71700001 0.0125714 1.1259e-38 317 230
-0.0025142799 0.71700001 0.0125714 1.1625634e-38 318 230
-0.00125714 0.71700001 0.0125714 1.1810026e-38 319 230
0.00124662 0.71100003 0.0124662 1.3003178e-38 321 230
0.0024932399 0.71100003 0.0124662 1.3369808e-38 322 230
0.0037503797 0.713 0.012501267 1.3369808e-38 323 230
0.0050005065 0.713 0.012501267 1.3002102e-38 324 230
0.0062593995 0.71399999 0.012518799 1.2909905e-38 325 230
0.00753232 0.71600002 0.012553867 1.2818785e-38 326 230
0.0087999795 0.71700001 0.0125714 1.2818785e-38 327 230
0.01005712 0.71700001 0.0125714 1.2543996e-38 328 230
0.015211919 0.72299999 0.012676599 1.1903295e-38 332 230
0.01647958 0.72299999 0.012676599 1.1350121e-38 333 230
0.017747238 0.72299999 0.012676599 1.0799442e-38 334 230
0.019014901 0.72299999 0.012676599 1.061541e-38 335 230
0.020282559 0.72299999 0.012676599 1.0523873e-38 336 230
0.021609833 0.72500002 0.012711667 9.878504e-39 337 230
0.022944121 0.727 0.012746733 1.0063191e-38 338 230
0.024218792 0.727 0.012746733 9.6944084e-39 339 230
0.025493465 0.727 0.012746733 9.9706478e-39 340 230
0.026804959 0.72799999 0.012764266 1.0339072e-38 341 230
0.028081384 0.72799999 0.012764266 1.0797571e-38 342 230
0.033511456 0.83099997 0.014570199 1.0429147e-38 343 230
0.03496848 0.83099997 0.014570199 1.0886913e-38 344 230
0.036425497 0.83099997 0.014570199 1.1256056e-38 345 230
0.037882518 0.83099997 0.014570199 1.4384273e-38 346 230
0.039623581 0.83700001 0.014675399 1.6505131e-38 347 230
-0.025598666 0.73000002 0.011519399 1.3375887e-38 300 231
-0.024318734 0.73000002 0.011519399 1.1992594e-38 301 231
-0.023038799 0.73000002 0.011519399 1.0894789e-38 302 231
-0.021758866 0.73000002 0.011519399 1.0802593e-38 303 231
-0.020478934 0.73000002 0.011519399 1.025299e-38 304 231
-0.019199001 0.73000002 0.011519399 1.0345185e-38 305 231
-0.017869972 0.72799999 0.01148784 1.016189e-38 306 231
-0.016570752 0.727 0.01147206 1.0069694e-38 307 231
-0.015296079 0.727 0.01147206 9.8852835e-39 308 231
-0.013982833 0.72500002 0.0114405 9.6086952e-39 309 231
-0.012676599 0.72299999 0.01140894 9.3331691e-39 310 231
-0.01140894 0.72299999 0.01140894 9.2406147e-39 311 231
-0.010127253 0.722 0.01139316 8.9654753e-39 312 231
-0.0088245263 0.71899998 0.01134582 9.057671e-39 313 231
-0.0075428397 0.71700001 0.01131426 9.3317593e-39 314 231
-0.0062857 0.71700001 0.01131426 9.6079875e-39 315 231
-0.0050285598 0.71700001 0.01131426 1.0065766e-38 316 231
-0.0037714199 0.71700001 0.01131426 1.0158321e-38 317 231
-0.0025142799 0.71700001 0.01131426 1.0524634e-38 318 231
-0.00125714 0.71700001 0.01131426 1.0893777e-38 319 231
0 0.71600002 0.01129848 1.1810732e-38 320 231
0.00124662 0.71100003 0.01121958 1.2271351e-38 321 231
0.0024932399 0.71100003 0.01121958 1.2637991e-38 322 231
0.0037503797 0.713 0.011251139 1.2822022e-38 323 231
0.0050005065 0.713 0.011251139 1.2729108e-38 324 231
0.0062593995 0.71399999 0.011266919 1.2360684e-38 325 231
0.00753232 0.71600002 0.01129848 1.1994047e-38 326 231
0.0087999795 0.71700001 0.01131426 1.1625266e-38 327 231
0.01005712 0.71700001 0.01131426 1.1534493e-38 328 231
0.011361601 0.72000003 0.011361601 1.1442297e-38 329 231
0.012624 0.72000003 0.011361601 1.153484e-38 330 231
0.0138864 0.72000003 0.011361601 1.1627395e-38 331 231
0.015211919 0.72299999 0.01140894 1.0799058e-38 332 231
0.01647958 0.72299999 0.01140894 1.0338078e-38 333 231
0.017747238 0.72299999 0.01140894 9.787051e-39 334 231
0.019014901 0.72299999 0.01140894 9.787051e-39 335 231
0.020282559 0.72299999 0.01140894 1.0246917e-38 336 231
0.021609833 0.72500002 0.0114405 9.7859398e-39 337 231
0.022944121 0.727 0.01147206 9.8773899e-39 338 231
0.024252106 0.72799999 0.01148784 9.600803e-39 339 231
0.025493465 0.727 0.01147206 9.9692423e-39 340 231
0.026768139 0.727 0.01147206 1.061461e-38 341 231
0.028042812 0.727 0.01147206 1.0704299e-38 342 231
0.033592112 0.833 0.01314474 1.0427712e-38 343 231
0.035052639 0.833 0.01314474 1.1254618e-38 344 231
0.036600832 0.83499998 0.0131763 1.1899988e-38 345 231
0.038064864 0.83499998 0.0131763 1.5212604e-38 346 231
0.039623581 0.83700001 0.013207859 1.7241267e-38 347 231
-0.025633732 0.73100001 0.010253493 1.4570856e-38 300 232
-0.024352046 0.73100001 0.010253493 1.3187562e-38 301 232
-0.02307036 0.73100001 0.010253493 1.1537305e-38 302 232
-0.021788673 0.73100001 0.010253493 1.1076328e-38 303 232
-0.020506985 0.73100001 0.010253493 1.0069678e-38 304 232
-0.019199001 0.73000002 0.010239467 9.8852863e-39 305 232
-0.017919067 0.73000002 0.010239467 9.9774791e-39 306 232
-0.016593546 0.72799999 0.010211413 9.8852835e-39 307 232
-0.01531712 0.72799999 0.010211413 9.5179303e-39 308 232
-0.014021406 0.727 0.010197386 9.3331789e-39 309 232
-0.012711667 0.72500002 0.010169334 9.1498414e-39 310 232
-0.01140894 0.72299999 0.01014128 8.8736132e-39 311 232
-0.010127253 0.722 0.010127253 8.8743223e-39 312 232
-0.0088613462 0.722 0.010127253 8.8743223e-39 313 232
-0.0075638802 0.71899998 0.010085173 9.1491113e-39 314 232
-0.0063032326 0.71899998 0.010085173 9.333141e-39 315 232
-0.0050425865 0.71899998 0.010085173 9.6990747e-39 316 232
-0.0037819401 0.71899998 0.010085173 9.7912703e-39 317 232
-0.0025142799 0.71700001 0.01005712 8.7807716e-39 318 232
-0.00125714 0.71700001 0.01005712 9.0573599e-39 319 232
0 0.71600002 0.010043093 9.2410883e-39 320 232
0.0012501266 0.713 0.010001013 9.7017063e-39 321 232
0.0025002533 0.713 0.010001013 1.0618294e-38 322 232
0.0037503797 0.713 0.010001013 1.0618294e-38 323 232
0.0050215465 0.71600002 0.010043093 1.1351549e-38 324 232
0.0062769335 0.71600002 0.010043093 1.0982766e-38 325 232
0.0075428397 0.71700001 0.01005712 9.6981358e-39 326 232
0.0088245263 0.71899998 0.010085173 9.4219091e-39 327 232
0.010085173 0.71899998 0.010085173 9.6981204e-39 328 232
0.011361601 0.72000003 0.010099201 9.6981204e-39 329 232
0.012624 0.72000003 0.010099201 1.080013e-38 330 232
0.0138864 0.72000003 0.010099201 1.080013e-38 331 232
0.015211919 0.72299999 0.01014128 1.0798315e-38 332 232
0.01647958 0.72299999 0.01014128 1.0706119e-38 333 232
0.017747238 0.72299999 0.01014128 1.0430962e-38 334 232
0.019014901 0.72299999 0.01014128 1.024621e-38 335 232
0.020282559 0.72299999 0.01014128 1.0338018e-38 336 232
0.021609833 0.72500002 0.010169334 9.8770396e-39 337 232
0.022944121 0.727 0.010197386 1.0151453e-38 338 232
0.024252106 0.72799999 0.010211413 9.8752263e-39 339 232
0.025493465 0.727 0.010197386 1.0151831e-38 340 232
0.026768139 0.727 0.010197386 1.0705005e-38 341 232
0.028158534 0.73000002 0.010239467 1.1162058e-38 342 232
0.033672765 0.83499998 0.011712266 1.1254254e-38 343 232
0.035136797 0.83499998 0.011712266 1.2450671e-38 344 232
-0.025879199 0.73799998 0.0090577193 1.4938586e-38 300 233
-0.024585238 0.73799998 0.0090577193 1.3924074e-38 301 233
-0.023133477 0.73299998 0.0089963535 1.2088716e-38 302 233
-0.021848286 0.73299998 0.0089963535 1.1074924e-38 303 233
-0.020563092 0.73299998 0.0089963535 9.4264731e-39 304 233
-0.019225299 0.73100001 0.0089718066 9.3342775e-39 305 233
-0.017919067 0.73000002 0.0089595336 9.1505855e-39 306 233
-0.016639132 0.73000002 0.0089595336 9.1505855e-39 307 233
-0.01531712 0.72799999 0.0089349858 9.3338851e-39 308 233
-0.014021406 0.727 0.0089227129 9.2416895e-39 309 233
-0.012746733 0.727 0.0089227129 9.1501875e-39 310 233
-0.0114405 0.72500002 0.0088981669 9.0576345e-39 311 233
-0.01014128 0.72299999 0.0088736191 9.058352e-39 312 233
-0.0088736191 0.72299999 0.0088736191 8.9661578e-39 313 233
-0.0075954394 0.722 0.0088613462 9.2405881e-39 314 233
-0.0063295332 0.722 0.0088613462 9.333141e-39 315 233
-0.0050496003 0.72000003 0.0088367993 9.4249765e-39 316 233
-0.0037872 0.72000003 0.0088367993 9.2405881e-39 317 233
-0.0025212932 0.71899998 0.0088245263 8.964011e-39 318 233
-0.00125714 0.71700001 0.0087999795 9.0562066e-39 319 233
0 0.71700001 0.0087999795 9.424678e-39 320 233
0.00125188 0.71399999 0.0087631596 9.8852961e-39 321 233
0.0025037599 0.71399999 0.0087631596 1.0526747e-38 322 233
0.0037872 0.72000003 0.0088367993 1.0434552e-38 323 233
0.0050425865 0.71899998 0.0088245263 1.0340946e-38 324 233
0.0063032326 0.71899998 0.0088245263 1.0525338e-38 325 233
0.0075638802 0.71899998 0.0088245263 1.0158729e-38 326 233
0.0088245263 0.71899998 0.0088245263 1.0066533e-38 327 233
0.010099201 0.72000003 0.0088367993 1.0250198e-38 328 233
0.011361601 0.72000003 0.0088367993 1.0342394e-38 329 233
0.012624 0.72000003 0.0088367993 1.0524972e-38 330 233
0.013924973 0.722 0.0088613462 1.0340579e-38 331 233
0.015211919 0.72299999 0.0088736191 1.1257844e-38 332 233
0.01647958 0.72299999 0.0088736191 1.1257844e-38 333 233
0.017747238 0.72299999 0.0088736191 1.1625169e-38 334 233
0.019014901 0.72299999 0.0088736191 1.1071995e-38 335 233
0.020282559 0.72299999 0.0088736191 1.097905e-38 336 233
0.021669446 0.727 0.0089227129 1.0518431e-38 337 233
0.022975679 0.72799999 0.0089349858 1.0517701e-38 338 233
0.024252106 0.72799999 0.0089349858 1.0794289e-38 339 233
0.025528532 0.72799999 0.0089349858 1.0793251e-38 340 233
0.026878599 0.73000002 0.0089595336 1.0701055e-38 341 233
0.028158534 0.73000002 0.0089595336 1.1345397e-38 342 233
0.029438468 0.73000002 0.0089595336 1.2359189e-38 343 233
-0.025879199 0.73799998 0.0077637597 1.4293951e-38 300 234
-0.024585238 0.73799998 0.0077637597 1.4478343e-38 301 234
-0.023165042 0.73400003 0.0077216802 1.2733036e-38 302 234
-0.021878093 0.73400003 0.0077216802 1.116571e-38 303 234
-0.020591147 0.73400003 0.0077216802 9.6087162e-39 304 234
-0.019277899 0.73299998 0.0077111595 9.6087162e-39 305 234
-0.017992707 0.73299998 0.0077111595 9.2431216e-39 306 234
-0.016661927 0.73100001 0.00769012 9.2431216e-39 307 234
-0.0153592 0.73000002 0.0076795998 9.6100993e-39 308 234
-0.014040692 0.72799999 0.0076585598 9.4260681e-39 309 234
-0.012764266 0.72799999 0.0076585598 9.150905e-39 310 234
-0.01147206 0.727 0.0076480396 8.874681e-39 311 234
-0.010169334 0.72500002 0.0076270006 9.058352e-39 312 234
-0.0088736191 0.72299999 0.0076059597 9.058352e-39 313 234
-0.0075954394 0.722 0.0075954394 9.516812e-39 314 234
-0.0063295332 0.722 0.0075954394 9.6090063e-39 315 234
-0.0050636264 0.722 0.0075954394 9.333141e-39 316 234
-0.0037977197 0.722 0.0075954394 9.333141e-39 317 234
-0.0025318132 0.722 0.0075954394 9.3313684e-39 318 234
-0.0012606466 0.71899998 0.0075638802 9.7923451e-39 319 234
0 0.71700001 0.0075428397 1.0620719e-38 320 234
0.00125714 0.71700001 0.0075428397 1.0436329e-38 321 234
0.0025142799 0.71700001 0.0075428397 1.061894e-38 322 234
0.0037872 0.72000003 0.0075743999 1.0434549e-38 323 234
0.0050496003 0.72000003 0.0075743999 1.0617144e-38 324 234
0.0063120001 0.72000003 0.0075743999 1.0617144e-38 325 234
0.0075743999 0.72000003 0.0075743999 1.034163e-38 326 234
0.0088367993 0.72000003 0.0075743999 1.034163e-38 327 234
0.010099201 0.72000003 0.0075743999 1.0709321e-38 328 234
0.01139316 0.722 0.0075954394 1.0617126e-38 329 234
0.012659066 0.722 0.0075954394 1.0983384e-38 330 234
0.01394426 0.72299999 0.0076059597 1.0891189e-38 331 234
0.015211919 0.72299999 0.0076059597 1.1441126e-38 332 234
0.016525166 0.72500002 0.0076270006 1.1533321e-38 333 234
0.017796334 0.72500002 0.0076270006 1.1716265e-38 334 234
0.0190675 0.72500002 0.0076270006 1.1347481e-38 335 234
0.020338668 0.72500002 0.0076270006 1.1162012e-38 336 234
0.021669446 0.727 0.0076480396 1.1254566e-38 337 234
0.022975679 0.72799999 0.0076585598 1.1254971e-38 338 234
0.024318734 0.73000002 0.0076795998 1.1624113e-38 339 234
0.025598666 0.73000002 0.0076795998 1.1714199e-38 340 234
0.026878599 0.73000002 0.0076795998 1.189823e-38 341 234
0.028582839 0.741 0.0077953199 1.2451785e-38 342 234
0.029882059 0.741 0.0077953199 1.3373382e-38 343 234
0.03118128 0.741 0.0077953199 1.3921896e-38 344 234
0.032524332 0.74199998 0.0078058392 1.3737146e-38 345 234
0.033825304 0.74199998 0.0078058392 1.7054391e-38 346 234
-0.024451986 0.73400003 0.006434733 1.4664905e-38 301 235
-0.023165042 0.73400003 0.006434733 1.3377351e-38 302 235
-0.021878093 0.73400003 0.006434733 1.0888069e-38 303 235
-0.020591147 0.73400003 0.006434733 9.9746457e-39 304 235
-0.019304199 0.73400003 0.006434733 1.0435625e-38 305 235
-0.017992707 0.73299998 0.0064259665 1.1723413e-38 306 235
-0.016707512 0.73299998 0.0064259665 1.153902e-38 307 235
-0.01538024 0.73100001 0.006408433 1.1171296e-38 308 235
