# .PCD v.7 - Point Cloud Data file format
FIELDS x y z rgb imX imY
SIZE 4 4 4 4 4 4
TYPE F F F F F F
COUNT 1 1 1 1 1 1
WIDTH 834
HEIGHT 1
VIEWPOINT 0 0 0 1 0 0 0
POINTS 834
DATA ascii
0.030907756 0.67799997 -0.046361636 6.4638479e-39 346 279
0.032191198 0.68000001 -0.046498399 7.5701955e-39 347 279
0.03348165 0.68199998 -0.046635158 8.6758017e-39 348 279
0.034728274 0.68300003 -0.04670354 9.7821479e-39 349 279
0.035925802 0.68300003 -0.04670354 1.2264578e-38 350 279
0.037123326 0.68300003 -0.04670354 1.2541166e-38 351 279
0.038376961 0.68400002 -0.046771921 1.2725533e-38 352 279
0.03957624 0.68400002 -0.046771921 1.281773e-38 353 279
0.040894743 0.68599999 -0.046908677 1.2448225e-38 354 279
0.042097531 0.68599999 -0.046908677 1.1987605e-38 355 279
0.043363437 0.68699998 -0.046977058 1.1529861e-38 356 279
0.044632856 0.68800002 -0.047045439 1.1622057e-38 357 279
0.046039023 0.69099998 -0.047250576 1.0515337e-38 358 279
0.047387339 0.69300002 -0.047387339 1.1345457e-38 359 279
0.048602402 0.69300002 -0.047387339 1.6502289e-38 360 279
-0.015955333 0.69999999 -0.049093332 1.852988e-38 307 280
-0.014727999 0.69999999 -0.049093332 1.4013392e-38 308 280
-0.013462093 0.69800001 -0.048953064 1.1154968e-38 309 280
-0.012238266 0.69800001 -0.048953064 8.764368e-39 310 280
-0.01099866 0.69700003 -0.048882935 1.125365e-38 311 280
-0.0097765867 0.69700003 -0.048882935 1.2547626e-38 312 280
-0.0085176928 0.69400001 -0.048672531 1.2086648e-38 313 280
-0.0073008798 0.69400001 -0.048672531 1.1165067e-38 314 280
-0.0060753003 0.69300002 -0.048602402 9.8743281e-39 315 280
-0.0048391996 0.69 -0.048391998 1.162354e-38 316 280
-0.0036188802 0.68800002 -0.048251733 1.3375617e-38 317 280
-0.0024055731 0.68599999 -0.048111461 1.4479794e-38 318 280
-0.0011975267 0.68300003 -0.047901068 1.4571989e-38 319 280
0 0.68300003 -0.047901068 1.3650027e-38 320 280
0.0011957732 0.68199998 -0.047830928 1.2820267e-38 321 280
0.0023915465 0.68199998 -0.047830928 1.3186888e-38 322 280
0.00358732 0.68199998 -0.047830928 1.1803953e-38 323 280
0.0047690663 0.68000001 -0.047690667 7.0184118e-39 324 280
0.0059525664 0.67900002 -0.047620531 9.5998894e-39 325 280
0.0071430802 0.67900002 -0.047620531 1.2362158e-38 326 280
0.0083213197 0.67799997 -0.047550395 1.3560702e-38 327 280
0.0095100794 0.67799997 -0.047550395 1.3743295e-38 328 280
0.010698839 0.67799997 -0.047550395 1.3835849e-38 329 280
0.011887599 0.67799997 -0.047550395 1.3652178e-38 330 280
0.013076359 0.67799997 -0.047550395 1.3559983e-38 331 280
0.014265119 0.67799997 -0.047550395 1.3743651e-38 332 280
0.015453878 0.67799997 -0.047550395 1.355962e-38 333 280
0.016593546 0.676 -0.047410134 1.374221e-38 334 280
0.017778801 0.676 -0.047410134 1.374221e-38 335 280
0.018964052 0.676 -0.047410134 1.3833327e-38 336 280
0.020149305 0.676 -0.047410134 1.3833327e-38 337 280
0.021334561 0.676 -0.047410134 1.3741127e-38 338 280
0.022519812 0.676 -0.047410134 1.4018074e-38 339 280
0.023705067 0.676 -0.047410134 1.3558891e-38 340 280
0.024890319 0.676 -0.047410134 1.1069609e-38 341 280
0.026075572 0.676 -0.047410134 9.4933038e-39 342 280
0.027341479 0.67799997 -0.047550395 8.1100107e-39 343 280
0.028530238 0.67799997 -0.047550395 6.2747735e-39 344 280
0.029762832 0.67900002 -0.047620531 6.1822191e-39 345 280
0.030953348 0.67900002 -0.047620531 8.120128e-39 346 280
0.032191198 0.68000001 -0.047690667 9.871845e-39 347 280
0.03348165 0.68199998 -0.047830928 1.1896518e-38 348 280
0.034728274 0.68300003 -0.047901068 1.2634083e-38 349 280
0.035925802 0.68300003 -0.047901068 1.3185442e-38 350 280
0.037177678 0.68400002 -0.0479712 1.2632268e-38 351 280
0.038376961 0.68400002 -0.0479712 1.2080167e-38 352 280
0.039691959 0.68599999 -0.048111461 1.1711386e-38 353 280
0.040894743 0.68599999 -0.048111461 1.0976344e-38 354 280
0.042158898 0.68699998 -0.048181597 1.0791593e-38 355 280
0.043363437 0.68699998 -0.048181597 1.115895e-38 356 280
0.044827472 0.69099998 -0.04846213 1.0790526e-38 357 280
0.04617228 0.69300002 -0.048602402 9.0409549e-39 358 280
0.047455717 0.69400001 -0.048672531 1.0055107e-38 359 280
0.048672531 0.69400001 -0.048672531 1.6317905e-38 360 280
-0.015955333 0.69999999 -0.050320663 1.8529524e-38 307 281
-0.014727999 0.69999999 -0.050320663 1.4658762e-38 308 281
-0.013462093 0.69800001 -0.050176892 1.1708142e-38 309 281
-0.012238266 0.69800001 -0.050176892 9.0398801e-39 310 281
-0.01101444 0.69800001 -0.050176892 1.1252215e-38 311 281
-0.0097625591 0.69599998 -0.050033119 1.227034e-38 312 281
-0.0085422397 0.69599998 -0.050033119 1.2546925e-38 313 281
-0.0073008798 0.69400001 -0.049889345 1.1349828e-38 314 281
-0.0060753003 0.69300002 -0.049817458 1.0520066e-38 315 281
-0.0048462129 0.69099998 -0.049673684 1.1252593e-38 316 281
-0.0036293997 0.69 -0.049601797 1.152918e-38 317 281
-0.0024090798 0.68699998 -0.049386136 1.1438783e-38 318 281
-0.00119928 0.68400002 -0.049170479 1.1991598e-38 319 281
0 0.68300003 -0.049098592 1.3558916e-38 320 281
0.0011975267 0.68300003 -0.049098592 1.4204286e-38 321 281
0.0023950534 0.68300003 -0.049098592 1.4571261e-38 322 281
0.00358732 0.68199998 -0.049026705 1.4295034e-38 323 281
0.004783093 0.68199998 -0.049026705 1.3832974e-38 324 281
0.0059613334 0.68000001 -0.048882935 1.3372354e-38 325 281
0.0071535995 0.68000001 -0.048882935 1.2915335e-38 326 281
0.0083335936 0.67900002 -0.048811045 1.3376673e-38 327 281
0.009524107 0.67900002 -0.048811045 1.4019886e-38 328 281
0.010714619 0.67900002 -0.048811045 1.3927689e-38 329 281
0.011887599 0.67799997 -0.048739154 1.392697e-38 330 281
0.013076359 0.67799997 -0.048739154 1.3834775e-38 331 281
0.014265119 0.67799997 -0.048739154 1.3743298e-38 332 281
0.015453878 0.67799997 -0.048739154 1.3559267e-38 333 281
0.016642639 0.67799997 -0.048739154 1.3742576e-38 334 281
0.0178314 0.67799997 -0.048739154 1.3558185e-38 335 281
0.019020159 0.67799997 -0.048739154 1.374221e-38 336 281
0.020208918 0.67799997 -0.048739154 1.3650015e-38 337 281
0.021334561 0.676 -0.048595384 1.3650015e-38 338 281
0.022519812 0.676 -0.048595384 1.374221e-38 339 281
0.023775198 0.67799997 -0.048739154 1.337487e-38 340 281
0.024963958 0.67799997 -0.048739154 1.1991934e-38 341 281
0.026152719 0.67799997 -0.048739154 1.2447158e-38 342 281
0.027381808 0.67900002 -0.048811045 1.2447158e-38 343 281
0.028572321 0.67900002 -0.048811045 1.3094689e-38 344 281
0.029762832 0.67900002 -0.048811045 1.3555667e-38 345 281
0.030998932 0.68000001 -0.048882935 1.3831175e-38 346 281
0.032285877 0.68199998 -0.049026705 1.3647143e-38 347 281
0.033530746 0.68300003 -0.049098592 1.3738613e-38 348 281
0.034728274 0.68300003 -0.049098592 1.2908851e-38 349 281
0.035925802 0.68300003 -0.049098592 1.1068184e-38 350 281
0.037177678 0.68400002 -0.049170479 1.0607204e-38 351 281
0.03848917 0.68599999 -0.049314249 1.1065313e-38 352 281
0.039691959 0.68599999 -0.049314249 1.0604333e-38 353 281
0.040954359 0.68699998 -0.049386136 9.8718086e-39 354 281
0.042158898 0.68699998 -0.049386136 1.0148394e-38 355 281
0.043426562 0.68800002 -0.049458027 1.0328469e-38 356 281
0.044827472 0.69099998 -0.049673684 9.0377305e-39 357 281
0.04617228 0.69300002 -0.049817458 8.3912667e-39 358 281
0.047455717 0.69400001 -0.049889345 1.0419571e-38 359 281
0.048882935 0.69700003 -0.050105009 1.6043116e-38 360 281
0.050105009 0.69700003 -0.050105009 1.7518246e-38 361 281
-0.015978126 0.70099998 -0.051621638 1.8620996e-38 307 282
-0.014749039 0.70099998 -0.051621638 1.4934986e-38 308 282
-0.013500666 0.69999999 -0.051547997 1.1985084e-38 309 282
-0.012238266 0.69800001 -0.051400717 9.2231952e-39 310 282
-0.01101444 0.69800001 -0.051400717 1.1528445e-38 311 282
-0.0097625591 0.69599998 -0.051253434 1.2913557e-38 312 282
-0.0085422397 0.69599998 -0.051253434 1.2821361e-38 313 282
-0.0073008798 0.69400001 -0.051106159 1.1810808e-38 314 282
-0.0060753003 0.69300002 -0.051032521 1.1349831e-38 315 282
-0.00486024 0.69300002 -0.051032521 1.1255112e-38 316 282
-0.0036293997 0.69 -0.050811596 1.0794492e-38 317 282
-0.0024125867 0.68800002 -0.050664321 1.0609745e-38 318 282
-0.0012027866 0.68599999 -0.050517038 1.0517549e-38 319 282
0 0.68599999 -0.050517038 1.1255833e-38 320 282
0.0011975267 0.68300003 -0.05029612 1.2638768e-38 321 282
0.0023950534 0.68300003 -0.05029612 1.3191573e-38 322 282
0.0035925799 0.68300003 -0.05029612 1.3652551e-38 323 282
0.0047901068 0.68300003 -0.05029612 1.4019889e-38 324 282
0.005978866 0.68199998 -0.050222475 1.3835496e-38 325 282
0.00717464 0.68199998 -0.050222475 1.3374519e-38 326 282
0.0083458666 0.68000001 -0.050075196 1.3190127e-38 327 282
0.009524107 0.67900002 -0.050001562 1.3832979e-38 328 282
0.010714619 0.67900002 -0.050001562 1.3648228e-38 329 282
0.011905133 0.67900002 -0.050001562 1.3374517e-38 330 282
0.013095647 0.67900002 -0.050001562 1.3467071e-38 331 282
0.01428616 0.67900002 -0.050001562 1.3466715e-38 332 282
0.015476674 0.67900002 -0.050001562 1.3374519e-38 333 282
0.016667187 0.67900002 -0.050001562 1.365038e-38 334 282
0.017857701 0.67900002 -0.050001562 1.365038e-38 335 282
0.019048214 0.67900002 -0.050001562 1.3650018e-38 336 282
0.020238725 0.67900002 -0.050001562 1.3557462e-38 337 282
0.021397678 0.67799997 -0.049927916 1.3557462e-38 338 282
0.022586439 0.67799997 -0.049927916 1.3557462e-38 339 282
0.023810266 0.67900002 -0.050001562 1.3190124e-38 340 282
0.025000781 0.67900002 -0.050001562 1.2268528e-38 341 282
0.026191294 0.67900002 -0.050001562 1.2541522e-38 342 282
0.027381808 0.67900002 -0.050001562 1.235677e-38 343 282
0.028614398 0.68000001 -0.050075196 1.3370552e-38 344 282
0.029806666 0.68000001 -0.050075196 1.3462749e-38 345 282
0.031090107 0.68199998 -0.050222475 1.3370184e-38 346 282
0.032285877 0.68199998 -0.050222475 1.3093597e-38 347 282
0.033530746 0.68300003 -0.05029612 1.2356755e-38 348 282
0.03477912 0.68400002 -0.050369758 1.161919e-38 349 282
0.035978399 0.68400002 -0.050369758 1.0238789e-38 350 282
0.037286382 0.68599999 -0.050517038 1.0330985e-38 351 282
0.03848917 0.68599999 -0.050517038 1.0883441e-38 352 282
0.039749816 0.68699998 -0.050590675 1.1067834e-38 353 282
0.040954359 0.68699998 -0.050590675 1.106675e-38 354 282
0.042220265 0.68800002 -0.050664321 1.0513937e-38 355 282
0.043426562 0.68800002 -0.050664321 9.3157565e-39 356 282
0.0447626 0.69 -0.050811596 7.5643983e-39 357 282
0.04617228 0.69300002 -0.051032521 8.3937834e-39 358 282
0.047592476 0.69599998 -0.051253434 1.0514284e-38 359 282
0.048882935 0.69700003 -0.051327083 1.6593771e-38 360 282
-0.015978126 0.70099998 -0.052850723 1.8712836e-38 307 283
-0.014749039 0.70099998 -0.052850723 1.5211578e-38 308 283
-0.013500666 0.69999999 -0.052775331 1.2814133e-38 309 283
-0.012273333 0.69999999 -0.052775331 9.4093899e-39 310 283
-0.01101444 0.69800001 -0.052624546 1.1252944e-38 311 283
-0.0097765867 0.69700003 -0.052549154 1.3188349e-38 312 283
-0.0085422397 0.69599998 -0.052473757 1.3096153e-38 313 283
-0.0073008798 0.69400001 -0.052322973 1.2085961e-38 314 283
-0.0060840664 0.69400001 -0.052322973 1.1809733e-38 315 283
-0.0048462129 0.69099998 -0.052096792 1.1534222e-38 316 283
-0.0036293997 0.69 -0.052021399 1.1442027e-38 317 283
-0.0024125867 0.68800002 -0.051870614 1.1348029e-38 318 283
-0.0012045399 0.68699998 -0.051795214 1.0334237e-38 319 283
0 0.68599999 -0.051719822 9.4144416e-39 320 283
0.00119928 0.68400002 -0.051569041 1.0059811e-38 321 283
0.0023985601 0.68400002 -0.051569041 1.0890646e-38 322 283
0.0035925799 0.68300003 -0.051493648 1.1812604e-38 323 283
0.0047901068 0.68300003 -0.051493648 1.3283769e-38 324 283
0.005978866 0.68199998 -0.051418249 1.3099377e-38 325 283
0.00717464 0.68199998 -0.051418249 1.3004658e-38 326 283
0.0083704125 0.68199998 -0.051418249 1.2451843e-38 327 283
0.0095381327 0.68000001 -0.051267464 1.2449325e-38 328 283
0.0107304 0.68000001 -0.051267464 1.2172379e-38 329 283
0.011922667 0.68000001 -0.051267464 1.1623171e-38 330 283
0.013095647 0.67900002 -0.051192071 1.1807922e-38 331 283
0.01428616 0.67900002 -0.051192071 1.2269259e-38 332 283
0.015476674 0.67900002 -0.051192071 1.2914629e-38 333 283
0.016667187 0.67900002 -0.051192071 1.3557832e-38 334 283
0.017857701 0.67900002 -0.051192071 1.3557832e-38 335 283
0.019048214 0.67900002 -0.051192071 1.3190124e-38 336 283
0.020238725 0.67900002 -0.051192071 1.3097928e-38 337 283
0.021429239 0.67900002 -0.051192071 1.3189761e-38 338 283
0.022619752 0.67900002 -0.051192071 1.3189761e-38 339 283
0.023810266 0.67900002 -0.051192071 1.3281601e-38 340 283
0.025037598 0.68000001 -0.051267464 1.1990862e-38 341 283
0.026229866 0.68000001 -0.051267464 1.1528445e-38 342 283
0.027422134 0.68000001 -0.051267464 1.143589e-38 343 283
0.02869856 0.68199998 -0.051418249 1.2172013e-38 344 283
0.029894331 0.68199998 -0.051418249 1.2079818e-38 345 283
0.031090107 0.68199998 -0.051418249 1.1527363e-38 346 283
0.032333218 0.68300003 -0.051493648 1.1066385e-38 347 283
0.033530746 0.68300003 -0.051493648 1.0238789e-38 348 283
0.03477912 0.68400002 -0.051569041 1.0054756e-38 349 283
0.035978399 0.68400002 -0.051569041 1.0423902e-38 350 283
0.037286382 0.68599999 -0.051719822 1.0608293e-38 351 283
0.038545277 0.68699998 -0.051795214 1.0885237e-38 352 283
0.039749816 0.68699998 -0.051795214 1.1254019e-38 353 283
0.041013971 0.68800002 -0.051870614 1.1436612e-38 354 283
0.042220265 0.68800002 -0.051870614 1.0053677e-38 355 283
0.043426562 0.68800002 -0.051870614 8.9469768e-39 356 283
0.0447626 0.69 -0.052021399 8.1172161e-39 357 283
0.046238903 0.69400001 -0.052322973 9.6820027e-39 358 283
0.047729239 0.69800001 -0.052624546 1.0972742e-38 359 283
0.048953064 0.69800001 -0.052624546 1.6684166e-38 360 283
-0.016046507 0.704 -0.054311249 1.8529524e-38 307 284
-0.014812159 0.704 -0.054311249 1.5488162e-38 308 284
-0.013519952 0.70099998 -0.054079808 1.364425e-38 309 284
-0.012290866 0.70099998 -0.054079808 1.0791243e-38 310 284
-0.011045999 0.69999999 -0.054002665 1.1344416e-38 311 284
-0.0097765867 0.69700003 -0.053771228 1.2728447e-38 312 284
-0.0085422397 0.69599998 -0.053694077 1.3834793e-38 313 284
-0.0073219193 0.69599998 -0.053694077 1.2730247e-38 314 284
-0.0060840664 0.69400001 -0.053539783 1.1992682e-38 315 284
-0.0048462129 0.69099998 -0.053308345 1.11676e-38 316 284
-0.0036346598 0.69099998 -0.053308345 1.135235e-38 317 284
-0.0024125867 0.68800002 -0.053076908 1.1442748e-38 318 284
-0.0012045399 0.68699998 -0.052999757 1.0889574e-38 319 284
0 0.68599999 -0.05292261 1.0613708e-38 320 284
0.0012027866 0.68599999 -0.05292261 1.0429317e-38 321 284
0.0023985601 0.68400002 -0.05276832 1.0521868e-38 322 284
0.00359784 0.68400002 -0.05276832 1.1259433e-38 323 284
0.0047901068 0.68300003 -0.052691177 1.2087393e-38 324 284
0.0059876335 0.68300003 -0.052691177 1.1257632e-38 325 284
0.00717464 0.68199998 -0.052614026 1.1438058e-38 326 284
0.0083704125 0.68199998 -0.052614026 1.116147e-38 327 284
0.009566186 0.68199998 -0.052614026 1.1066756e-38 328 284
0.0107304 0.68000001 -0.052459732 1.0513584e-38 329 284
0.011922667 0.68000001 -0.052459732 9.6874327e-39 330 284
0.013114933 0.68000001 -0.052459732 9.9643783e-39 331 284
0.014307199 0.68000001 -0.052459732 1.061119e-38 332 284
0.015499466 0.68000001 -0.052459732 1.1533146e-38 333 284
0.016691733 0.68000001 -0.052459732 1.2360736e-38 334 284
0.017883999 0.68000001 -0.052459732 1.2637323e-38 335 284
0.019076265 0.68000001 -0.052459732 1.2637676e-38 336 284
0.020268533 0.68000001 -0.052459732 1.2729872e-38 337 284
0.0214608 0.68000001 -0.052459732 1.3005014e-38 338 284
0.022653066 0.68000001 -0.052459732 1.3005014e-38 339 284
0.023845334 0.68000001 -0.052459732 1.2913541e-38 340 284
0.025111238 0.68199998 -0.052614026 1.1346216e-38 341 284
0.026307013 0.68199998 -0.052614026 9.8725302e-39 342 284
0.027502786 0.68199998 -0.052614026 8.9505725e-39 343 284
0.02869856 0.68199998 -0.052614026 8.7669043e-39 344 284
0.029894331 0.68199998 -0.052614026 9.0434926e-39 345 284
0.031090107 0.68199998 -0.052614026 9.5970223e-39 346 284
0.032333218 0.68300003 -0.052691177 1.0149836e-38 347 284
0.033530746 0.68300003 -0.052691177 1.0515735e-38 348 284
0.03477912 0.68400002 -0.05276832 1.060793e-38 349 284
0.035978399 0.68400002 -0.05276832 1.0793042e-38 350 284
0.037286382 0.68599999 -0.05292261 1.0885237e-38 351 284
0.038545277 0.68699998 -0.052999757 1.0885956e-38 352 284
0.039749816 0.68699998 -0.052999757 1.1070706e-38 353 284
0.041013971 0.68800002 -0.053076908 1.0057277e-38 354 284
0.042220265 0.68800002 -0.053076908 8.3052003e-39 355 284
0.043426562 0.68800002 -0.053076908 8.4852784e-39 356 284
0.044827472 0.69099998 -0.053308345 8.4852784e-39 357 284
0.046372157 0.69599998 -0.053694077 9.6838006e-39 358 284
0.047729239 0.69800001 -0.053848371 1.051392e-38 359 284
0.048953064 0.69800001 -0.053848371 1.6317178e-38 360 284
0.050176892 0.69800001 -0.053848371 1.7977059e-38 361 284
-0.017379038 0.708 -0.055861197 1.8713189e-38 306 285
-0.01613768 0.708 -0.055861197 1.8344765e-38 307 285
-0.01487528 0.70700002 -0.055782299 1.5212652e-38 308 285
-0.013616386 0.70599997 -0.055703394 1.4014108e-38 309 285
-0.012378532 0.70599997 -0.055703394 1.1713556e-38 310 285
-0.011061779 0.70099998 -0.055308893 1.1436609e-38 311 285
-0.0098186666 0.69999999 -0.055229999 1.2268896e-38 312 285
-0.0085545136 0.69700003 -0.054993302 1.4205005e-38 313 285
-0.0073219193 0.69599998 -0.054914396 1.3742597e-38 314 285
-0.0060840664 0.69400001 -0.054756597 1.2451858e-38 315 285
-0.00486024 0.69300002 -0.054677699 1.0891023e-38 316 285
-0.0036346598 0.69099998 -0.054519895 1.1075055e-38 317 285
-0.0024195998 0.69 -0.054440998 1.0983935e-38 318 285
-0.0012062934 0.68800002 -0.054283202 1.1352718e-38 319 285
0 0.68699998 -0.054204296 1.1535307e-38 320 285
0.0012045399 0.68699998 -0.054204296 1.1351276e-38 321 285
0.0024055731 0.68599999 -0.054125395 1.1074686e-38 322 285
0.00360836 0.68599999 -0.054125395 1.1166882e-38 323 285
0.0048111463 0.68599999 -0.054125395 1.1257635e-38 324 285
0.0059964 0.68400002 -0.053967599 1.0520069e-38 325 285
0.0071956799 0.68400002 -0.053967599 1.0333881e-38 326 285
0.0083826864 0.68300003 -0.053888701 9.5963161e-39 327 285
0.009566186 0.68199998 -0.053809796 9.7778319e-39 328 285
0.010761959 0.68199998 -0.053809796 9.2246581e-39 329 285
0.011957732 0.68199998 -0.053809796 8.2133943e-39 330 285
0.013153506 0.68199998 -0.053809796 7.9371661e-39 331 285
0.01434928 0.68199998 -0.053809796 8.9538362e-39 332 285
0.015545053 0.68199998 -0.053809796 1.0428966e-38 333 285
0.016740825 0.68199998 -0.053809796 1.1439506e-38 334 285
0.017936599 0.68199998 -0.053809796 1.1900484e-38 335 285
0.019132372 0.68199998 -0.053809796 1.2085944e-38 336 285
0.020328145 0.68199998 -0.053809796 1.21785e-38 337 285
0.021523919 0.68199998 -0.053809796 1.20863e-38 338 285
0.022719691 0.68199998 -0.053809796 1.20863e-38 339 285
0.023915464 0.68199998 -0.053809796 1.2268175e-38 340 285
0.025111238 0.68199998 -0.053809796 1.1438414e-38 341 285
0.026307013 0.68199998 -0.053809796 1.0149476e-38 342 285
0.027502786 0.68199998 -0.053809796 9.2271608e-39 343 285
0.02869856 0.68199998 -0.053809796 8.7687036e-39 344 285
0.029894331 0.68199998 -0.053809796 9.1374847e-39 345 285
0.031135695 0.68300003 -0.053888701 9.9654447e-39 346 285
0.032333218 0.68300003 -0.053888701 1.0518619e-38 347 285
0.033579841 0.68400002 -0.053967599 1.0977789e-38 348 285
0.03477912 0.68400002 -0.053967599 1.0977789e-38 349 285
0.036083598 0.68599999 -0.054125395 1.0978508e-38 350 285
0.037340738 0.68699998 -0.054204296 1.0794117e-38 351 285
0.038545277 0.68699998 -0.054204296 1.0610451e-38 352 285
0.039807681 0.68800002 -0.054283202 1.0425701e-38 353 285
0.041013971 0.68800002 -0.054283202 9.3215074e-39 354 285
0.042342998 0.69 -0.054440998 7.6616274e-39 355 285
0.043552797 0.69 -0.054440998 8.6696556e-39 356 285
0.045022093 0.69400001 -0.054756597 8.9458824e-39 357 285
0.046438783 0.69700003 -0.054993302 1.0880532e-38 358 285
0.047865998 0.69999999 -0.055229999 1.1710293e-38 359 285
0.049093332 0.69999999 -0.055229999 1.6409007e-38 360 285
0.050320663 0.69999999 -0.055229999 1.7975974e-38 361 285
-0.01613768 0.708 -0.057102561 1.8068176e-38 307 286
-0.01487528 0.70700002 -0.057021905 1.4844938e-38 308 286
-0.013616386 0.70599997 -0.056941248 1.4199569e-38 309 286
-0.012378532 0.70599997 -0.056941248 1.2451827e-38 310 286
-0.01109334 0.70300001 -0.056699295 1.1990489e-38 311 286
-0.0098186666 0.69999999 -0.056457333 1.2452562e-38 312 286
-0.0085667865 0.69800001 -0.056296028 1.484965e-38 313 286
-0.00733244 0.69700003 -0.056215372 1.4479796e-38 314 286
-0.0061015999 0.69599998 -0.056134716 1.3004308e-38 315 286
-0.0048672534 0.69400001 -0.055973411 1.0707345e-38 316 286
-0.0036451798 0.69300002 -0.055892758 1.0338922e-38 317 286
-0.0024231065 0.69099998 -0.055731449 1.0616232e-38 318 286
-0.0012062934 0.68800002 -0.055489492 1.0708427e-38 319 286
0 0.68800002 -0.055489492 1.1075408e-38 320 286
0.0012045399 0.68699998 -0.055408835 1.1167603e-38 321 286
0.0024090798 0.68699998 -0.055408835 1.125908e-38 322 286
0.0036136196 0.68699998 -0.055408835 1.1166884e-38 323 286
0.0048111463 0.68599999 -0.055328183 1.107289e-38 324 286
0.0060139326 0.68599999 -0.055328183 1.0704108e-38 325 286
0.0072167199 0.68599999 -0.055328183 1.0150584e-38 326 286
0.0083949603 0.68400002 -0.055166878 6.8315416e-39 327 286
0.0095802136 0.68300003 -0.055086225 6.5560435e-39 328 286
0.01077774 0.68300003 -0.055086225 6.6485979e-39 329 286
0.011975267 0.68300003 -0.055086225 5.0845162e-39 330 286
0.013172794 0.68300003 -0.055086225 5.2685473e-39 331 286
0.014370319 0.68300003 -0.055086225 7.2042898e-39 332 286
0.015567848 0.68300003 -0.055086225 8.4950286e-39 333 286
0.016765373 0.68300003 -0.055086225 9.5984797e-39 334 286
0.017962901 0.68300003 -0.055086225 1.04286e-38 335 286
0.019160427 0.68300003 -0.055086225 1.125763e-38 336 286
0.020357953 0.68300003 -0.055086225 1.144238e-38 337 286
0.02155548 0.68300003 -0.055086225 1.1809357e-38 338 286
0.022753006 0.68300003 -0.055086225 1.1901553e-38 339 286
0.023915464 0.68199998 -0.055005573 1.1532775e-38 340 286
0.025111238 0.68199998 -0.055005573 1.1348382e-38 341 286
0.026307013 0.68199998 -0.055005573 1.1161114e-38 342 286
0.027502786 0.68199998 -0.055005573 1.0608299e-38 343 286
0.028740639 0.68300003 -0.055086225 9.7839317e-39 344 286
0.029938167 0.68300003 -0.055086225 1.0060158e-38 345 286
0.031135695 0.68300003 -0.055086225 9.9693978e-39 346 286
0.032333218 0.68300003 -0.055086225 1.0061593e-38 347 286
0.033579841 0.68400002 -0.055166878 1.0794842e-38 348 286
0.034880809 0.68599999 -0.055328183 1.0702647e-38 349 286
0.036083598 0.68599999 -0.055328183 1.0793408e-38 350 286
0.037340738 0.68699998 -0.055408835 1.0424984e-38 351 286
0.038601387 0.68800002 -0.055489492 1.0332435e-38 352 286
0.039807681 0.68800002 -0.055489492 9.8714582e-39 353 286
0.041133199 0.69 -0.055650797 8.7672575e-39 354 286
0.042342998 0.69 -0.055650797 8.3062807e-39 355 286
0.043742158 0.69300002 -0.055892758 1.0051863e-38 356 286
0.045151837 0.69599998 -0.056134716 1.0605037e-38 357 286
0.046505414 0.69800001 -0.056296028 1.2354214e-38 358 286
0.047865998 0.69999999 -0.056457333 1.2907388e-38 359 286
0.049093332 0.69999999 -0.056457333 1.6409005e-38 360 286
0.050320663 0.69999999 -0.056457333 1.797633e-38 361 286
-0.01487528 0.70700002 -0.05826151 1.5306267e-38 308 287
-0.013616386 0.70599997 -0.058179103 1.4476866e-38 309 287
-0.012378532 0.70599997 -0.058179103 1.3188308e-38 310 287
-0.011109119 0.704 -0.058014292 1.2174515e-38 311 287
-0.0098326923 0.70099998 -0.057767071 1.1989783e-38 312 287
-0.0085913334 0.69999999 -0.05768466 1.4571261e-38 313 287
-0.0073429602 0.69800001 -0.057519849 1.5032246e-38 314 287
-0.0061103669 0.69700003 -0.05743745 1.4018092e-38 315 287
-0.0048672534 0.69400001 -0.057190225 1.2729521e-38 316 287
-0.0036451798 0.69300002 -0.057107817 1.1807566e-38 317 287
-0.0024231065 0.69099998 -0.056942999 1.0248169e-38 318 287
-0.0012097999 0.69 -0.0568606 1.0155972e-38 319 287
0 0.68800002 -0.056695789 9.9730244e-39 320 287
0.0012062934 0.68800002 -0.056695789 1.0065579e-38 321 287
0.0024090798 0.68699998 -0.056613375 1.0616948e-38 322 287
0.0036136196 0.68699998 -0.056613375 1.0616948e-38 323 287
0.0048181596 0.68699998 -0.056613375 1.0706625e-38 324 287
0.0060226996 0.68699998 -0.056613375 1.0246007e-38 325 287
0.0072272392 0.68699998 -0.056613375 9.967635e-39 326 287
0.0084195063 0.68599999 -0.056530971 6.6485923e-39 327 287
0.0095942402 0.68400002 -0.056366164 6.0965129e-39 328 287
0.01077774 0.68300003 -0.056283753 6.1887086e-39 329 287
0.011975267 0.68300003 -0.056283753 6.3684335e-39 330 287
0.013172794 0.68300003 -0.056283753 6.1836835e-39 331 287
0.014370319 0.68300003 -0.056283753 6.0957941e-39 332 287
0.015567848 0.68300003 -0.056283753 7.5709241e-39 333 287
0.016765373 0.68300003 -0.056283753 8.9534802e-39 334 287
0.017962901 0.68300003 -0.056283753 9.6910453e-39 335 287
0.019160427 0.68300003 -0.056283753 1.0889572e-38 336 287
0.020357953 0.68300003 -0.056283753 1.1074323e-38 337 287
0.02155548 0.68300003 -0.056283753 1.0982843e-38 338 287
0.022753006 0.68300003 -0.056283753 1.0890646e-38 339 287
0.023950534 0.68300003 -0.056283753 1.1256915e-38 340 287
0.02514806 0.68300003 -0.056283753 1.1164719e-38 341 287
0.026345588 0.68300003 -0.056283753 1.1438783e-38 342 287
0.027543113 0.68300003 -0.056283753 1.107e-38 343 287
0.028740639 0.68300003 -0.056283753 1.0794842e-38 344 287
0.029938167 0.68300003 -0.056283753 1.0794842e-38 345 287
0.03118128 0.68400002 -0.056366164 1.0703366e-38 346 287
0.032380559 0.68400002 -0.056366164 1.061117e-38 347 287
0.033678025 0.68599999 -0.056530971 1.0335306e-38 348 287
0.034880809 0.68599999 -0.056530971 9.9665237e-39 349 287
0.036136195 0.68699998 -0.056613375 8.9538137e-39 350 287
0.037340738 0.68699998 -0.056613375 9.5069875e-39 351 287
0.038601387 0.68800002 -0.056695789 1.0516098e-38 352 287
0.039807681 0.68800002 -0.056695789 1.0516098e-38 353 287
0.041133199 0.69 -0.0568606 1.042209e-38 354 287
0.042404365 0.69099998 -0.056942999 1.02377e-38 355 287
0.043931518 0.69599998 -0.057355035 1.0789425e-38 356 287
0.045216713 0.69700003 -0.05743745 1.1434794e-38 357 287
0.046638668 0.69999999 -0.05768466 1.2631877e-38 358 287
0.047934376 0.70099998 -0.057767071 1.2908464e-38 359 287
0.049163464 0.70099998 -0.057767071 1.6317884e-38 360 287
0.050392549 0.70099998 -0.057767071 1.7977407e-38 361 287
-0.01487528 0.70700002 -0.059501119 1.5858718e-38 308 288
-0.013616386 0.70599997 -0.059416957 1.475273e-38 309 288
-0.012378532 0.70599997 -0.059416957 1.3281931e-38 310 288
-0.011109119 0.704 -0.059248637 1.226778e-38 311 288
-0.0098326923 0.70099998 -0.058996156 1.1530963e-38 312 288
-0.0085913334 0.69999999 -0.058911994 1.3374517e-38 313 288
-0.0073639993 0.69999999 -0.058911994 1.448051e-38 314 288
-0.006119133 0.69800001 -0.058743682 1.4665261e-38 315 288
-0.0048882933 0.69700003 -0.05865952 1.4110288e-38 316 288
-0.0036504399 0.69400001 -0.058407038 1.3003942e-38 317 288
-0.00243012 0.69300002 -0.058322877 1.0155251e-38 318 288
-0.0012115532 0.69099998 -0.058154557 9.7864681e-39 319 288
0 0.69 -0.058070395 9.5127679e-39 320 288
0.0012062934 0.68800002 -0.057902083 9.6975179e-39 321 288
0.0024125867 0.68800002 -0.057902083 1.0706992e-38 322 288
0.0036188802 0.68800002 -0.057902083 1.0522961e-38 323 288
0.0048251734 0.68800002 -0.057902083 1.0246726e-38 324 288
0.0060314666 0.68800002 -0.057902083 9.8779449e-39 325 288
0.0072272392 0.68699998 -0.057817914 9.7828752e-39 326 288
0.0084317802 0.68699998 -0.057817914 7.6623743e-39 327 288
0.0096222926 0.68599999 -0.057733759 6.4638479e-39 328 288
0.01079352 0.68400002 -0.057565439 5.4500547e-39 329 288
0.0119928 0.68400002 -0.057565439 5.8145408e-39 330 288
0.01319208 0.68400002 -0.057565439 5.6301496e-39 331 288
0.01439136 0.68400002 -0.057565439 3.791625e-39 332 288
0.01559064 0.68400002 -0.057565439 5.9121259e-39 333 288
0.016789921 0.68400002 -0.057565439 8.5850564e-39 334 288
0.0179892 0.68400002 -0.057565439 9.3226215e-39 335 288
0.01918848 0.68400002 -0.057565439 1.0062329e-38 336 288
0.020387759 0.68400002 -0.057565439 1.024672e-38 337 288
0.02158704 0.68400002 -0.057565439 1.0797373e-38 338 288
0.022786319 0.68400002 -0.057565439 1.0797373e-38 339 288
0.0239856 0.68400002 -0.057565439 1.0796654e-38 340 288
0.025184879 0.68400002 -0.057565439 1.0796654e-38 341 288
0.02638416 0.68400002 -0.057565439 1.0794855e-38 342 288
0.027583439 0.68400002 -0.057565439 1.0794855e-38 343 288
0.02878272 0.68400002 -0.057565439 1.0519344e-38 344 288
0.029982001 0.68400002 -0.057565439 1.0427149e-38 345 288
0.031272452 0.68599999 -0.057733759 1.033495e-38 346 288
0.032475237 0.68599999 -0.057733759 1.033495e-38 347 288
0.033727121 0.68699998 -0.057817914 1.0609745e-38 348 288
0.034931656 0.68699998 -0.057817914 8.5814411e-39 349 288
0.036136195 0.68699998 -0.057817914 5.1795565e-39 350 288
0.037395094 0.68800002 -0.057902083 7.8532297e-39 351 288
0.038713597 0.69 -0.058070395 1.2908495e-38 352 288
0.0399234 0.69 -0.058070395 1.3093247e-38 353 288
0.041133199 0.69 -0.058070395 1.2815562e-38 354 288
0.042527102 0.69300002 -0.058322877 1.1985802e-38 355 288
0.043994639 0.69700003 -0.05865952 1.1986521e-38 356 288
0.045216713 0.69700003 -0.05865952 1.2263466e-38 357 288
0.046638668 0.69999999 -0.058911994 1.2357435e-38 358 288
0.047865998 0.69999999 -0.058911994 1.2449632e-38 359 288
0.049093332 0.69999999 -0.058911994 1.6227115e-38 360 288
-0.01487528 0.70700002 -0.060740728 1.6411526e-38 308 289
-0.013635674 0.70700002 -0.060740728 1.4936395e-38 309 289
-0.012396066 0.70700002 -0.060740728 1.2546868e-38 310 289
-0.011109119 0.704 -0.060482983 1.2546868e-38 311 289
-0.0098607466 0.70300001 -0.06039707 1.2359995e-38 312 289
-0.0086036054 0.70099998 -0.060225245 1.263694e-38 313 289
-0.0073639993 0.69999999 -0.060139328 1.3652184e-38 314 289
-0.006119133 0.69800001 -0.059967503 1.4481946e-38 315 289
-0.0048882933 0.69700003 -0.05988159 1.4387951e-38 316 289
-0.0036609597 0.69599998 -0.059795678 1.3557832e-38 317 289
-0.0024336267 0.69400001 -0.059623852 9.8768645e-39 318 289
-0.00121506 0.69300002 -0.05953794 8.5861256e-39 319 289
0 0.69099998 -0.059366114 7.6728238e-39 320 289
0.0012097999 0.69 -0.059280202 7.6728238e-39 321 289
0.0024195998 0.69 -0.059280202 8.6844519e-39 322 289
0.0036293997 0.69 -0.059280202 9.1454301e-39 323 289
0.0048251734 0.68800002 -0.059108373 9.6949955e-39 324 289
0.0060314666 0.68800002 -0.059108373 9.5106029e-39 325 289
0.0072377604 0.68800002 -0.059108373 9.4162436e-39 326 289
0.0084317802 0.68699998 -0.059022456 8.5861228e-39 327 289
0.0096363192 0.68699998 -0.059022456 8.2108789e-39 328 289
0.010825079 0.68599999 -0.058936544 6.6439134e-39 329 289
0.012027865 0.68599999 -0.058936544 5.4504246e-39 330 289
0.01319208 0.68400002 -0.058764715 5.5426203e-39 331 289
0.01439136 0.68400002 -0.058764715 5.9106741e-39 332 289
0.01559064 0.68400002 -0.058764715 7.1092173e-39 333 289
0.016789921 0.68400002 -0.058764715 9.1367813e-39 334 289
0.0179892 0.68400002 -0.058764715 9.6895963e-39 335 289
0.01918848 0.68400002 -0.058764715 9.9694132e-39 336 289
0.020387759 0.68400002 -0.058764715 1.0153806e-38 337 289
0.021650158 0.68599999 -0.058936544 1.0153809e-38 338 289
0.022852944 0.68599999 -0.058936544 1.0153809e-38 339 289
0.0239856 0.68400002 -0.058764715 1.0337121e-38 340 289
0.025184879 0.68400002 -0.058764715 1.0337121e-38 341 289
0.02638416 0.68400002 -0.058764715 1.0427514e-38 342 289
0.027583439 0.68400002 -0.058764715 1.0427514e-38 343 289
0.02886688 0.68599999 -0.058936544 1.0335675e-38 344 289
0.030069664 0.68599999 -0.058936544 1.0059089e-38 345 289
0.031318039 0.68699998 -0.059022456 9.7835814e-39 346 289
0.032522578 0.68699998 -0.059022456 9.4144388e-39 347 289
0.033727121 0.68699998 -0.059022456 8.3999407e-39 348 289
0.034931656 0.68699998 -0.059022456 5.6340704e-39 349 289
0.0361888 0.68800002 -0.059108373 2.8718015e-39 350 289
0.037395094 0.68800002 -0.059108373 7.4815829e-39 351 289
0.038713597 0.69 -0.059280202 1.3277638e-38 352 289
0.0399234 0.69 -0.059280202 1.3277638e-38 353 289
0.041312039 0.69300002 -0.05953794 1.3092501e-38 354 289
0.042588469 0.69400001 -0.059623852 1.1986155e-38 355 289
0.04405776 0.69800001 -0.059967503 1.1895754e-38 356 289
0.045281585 0.69800001 -0.059967503 1.2264536e-38 357 289
0.046638668 0.69999999 -0.060139328 1.2081555e-38 358 289
0.047865998 0.69999999 -0.060139328 1.2450338e-38 359 289
0.049303733 0.70300001 -0.06039707 1.6963954e-38 360 289
-0.013635674 0.70700002 -0.061980337 1.5396282e-38 309 290
-0.012396066 0.70700002 -0.061980337 1.171924e-38 310 290
-0.011140679 0.70599997 -0.061892662 1.2087664e-38 311 290
-0.0098747732 0.704 -0.061717331 1.2638357e-38 312 290
-0.0086036054 0.70099998 -0.06145433 1.2177739e-38 313 290
-0.0073745195 0.70099998 -0.06145433 1.3007528e-38 314 290
-0.0061366665 0.69999999 -0.061366666 1.4483018e-38 315 290
-0.0048953067 0.69800001 -0.061191335 1.4941122e-38 316 290
-0.00366622 0.69700003 -0.061103668 1.411136e-38 317 290
-0.0024336267 0.69400001 -0.060840666 1.0611899e-38 318 290
-0.0012168133 0.69400001 -0.060840666 7.9378667e-39 319 290
0 0.69300002 -0.060752999 6.5657503e-39 320 290
0.0012115532 0.69099998 -0.060577665 6.6579474e-39 321 290
0.0024231065 0.69099998 -0.060577665 8.498623e-39 322 290
0.0036293997 0.69 -0.060489997 9.4202191e-39 323 290
0.0048391996 0.69 -0.060489997 9.6949983e-39 324 290
0.0060314666 0.68800002 -0.060314666 9.5106057e-39 325 290
0.0072377604 0.68800002 -0.060314666 9.5088022e-39 326 290
0.0084440531 0.68800002 -0.060314666 8.9559872e-39 327 290
0.0096363192 0.68699998 -0.060226995 9.2253882e-39 328 290
0.010840859 0.68699998 -0.060226995 8.2108761e-39 329 290
0.012045399 0.68699998 -0.060226995 7.5694724e-39 330 290
0.013230653 0.68599999 -0.060139328 7.5694724e-39 331 290
0.01443344 0.68599999 -0.060139328 8.0300848e-39 332 290
0.015636226 0.68599999 -0.060139328 8.6754542e-39 333 290
0.016839013 0.68599999 -0.060139328 9.1382274e-39 334 290
0.018041799 0.68599999 -0.060139328 9.4148143e-39 335 290
0.019244585 0.68599999 -0.060139328 9.3258557e-39 336 290
0.020447372 0.68599999 -0.060139328 9.41841e-39 337 290
0.021650158 0.68599999 -0.060139328 9.6931991e-39 338 290
0.022852944 0.68599999 -0.060139328 9.6931991e-39 339 290
0.024055731 0.68599999 -0.060139328 9.6010006e-39 340 290
0.025258519 0.68599999 -0.060139328 9.6931963e-39 341 290
0.026461305 0.68599999 -0.060139328 9.8761428e-39 342 290
0.027664091 0.68599999 -0.060139328 9.8761428e-39 343 290
0.028908957 0.68699998 -0.060226995 9.9676153e-39 344 290
0.030113498 0.68699998 -0.060226995 9.7835842e-39 345 290
0.031318039 0.68699998 -0.060226995 9.4140856e-39 346 290
0.032522578 0.68699998 -0.060226995 8.2159012e-39 347 290
0.033776212 0.68800002 -0.060314666 5.7259143e-39 348 290
0.03498251 0.68800002 -0.060314666 3.4210222e-39 349 290
0.0361888 0.68800002 -0.060314666 1.8562202e-39 350 290
0.037503798 0.69 -0.060489997 6.2812517e-39 351 290
0.038769703 0.69099998 -0.060577665 1.1896884e-38 352 290
0.04009698 0.69300002 -0.060752999 1.2173829e-38 353 290
0.041490879 0.69599998 -0.061015997 1.1711741e-38 354 290
0.042772565 0.69700003 -0.061103668 1.1342599e-38 355 290
0.04405776 0.69800001 -0.061191335 1.152877e-38 356 290
0.04541133 0.69999999 -0.061366666 1.1805357e-38 357 290
0.046705291 0.70099998 -0.06145433 1.2081908e-38 358 290
0.048071139 0.70300001 -0.061629668 1.2911309e-38 359 290
0.049303733 0.70300001 -0.061629668 1.7700797e-38 360 290
-0.012378532 0.70599997 -0.063130513 1.2270959e-38 310 291
-0.011140679 0.70599997 -0.063130513 1.1717785e-38 311 291
-0.0098747732 0.704 -0.062951677 1.1353347e-38 312 291
-0.0086281532 0.70300001 -0.062862262 1.1998716e-38 313 291
-0.0073745195 0.70099998 -0.062683418 1.3008234e-38 314 291
-0.0061366665 0.69999999 -0.062593997 1.4483366e-38 315 291
-0.0048953067 0.69800001 -0.062415157 1.5216986e-38 316 291
-0.00366622 0.69700003 -0.062325738 1.4848203e-38 317 291
-0.0024406398 0.69599998 -0.062236317 1.4293232e-38 318 291
-0.0012168133 0.69400001 -0.06205748 1.2357123e-38 319 291
0 0.69400001 -0.06205748 9.4144388e-39 320 291
0.00121506 0.69300002 -0.061968062 9.5991888e-39 321 291
0.0024231065 0.69099998 -0.061789215 1.1440597e-38 322 291
0.0036346598 0.69099998 -0.061789215 1.1624988e-38 323 291
0.0048391996 0.69 -0.061699796 9.971581e-39 324 291
0.0060489997 0.69 -0.061699796 9.4184072e-39 325 291
0.0072587994 0.69 -0.061699796 9.050345e-39 326 291
0.0084440531 0.68800002 -0.06152096 8.4975299e-39 327 291
0.0096503468 0.68800002 -0.06152096 8.3999407e-39 328 291
0.010856641 0.68800002 -0.06152096 7.477983e-39 329 291
0.012045399 0.68699998 -0.061431535 8.7651289e-39 330 291
0.013249939 0.68699998 -0.061431535 9.1339114e-39 331 291
0.014454478 0.68699998 -0.061431535 8.7676498e-39 332 291
0.015659019 0.68699998 -0.061431535 9.228628e-39 333 291
0.01686356 0.68699998 -0.061431535 8.8648803e-39 334 291
0.018068098 0.68699998 -0.061431535 8.8648803e-39 335 291
0.019272638 0.68699998 -0.061431535 8.9577962e-39 336 291
0.020477179 0.68699998 -0.061431535 8.9577962e-39 337 291
0.021681719 0.68699998 -0.061431535 9.1400281e-39 338 291
0.022886258 0.68699998 -0.061431535 8.7708868e-39 339 291
0.024090799 0.68699998 -0.061431535 8.1294677e-39 340 291
0.025295338 0.68699998 -0.061431535 8.7748371e-39 341 291
0.026499879 0.68699998 -0.061431535 9.4169625e-39 342 291
0.027704418 0.68699998 -0.061431535 9.5091581e-39 343 291
0.028951041 0.68800002 -0.06152096 9.5095113e-39 344 291
0.030157333 0.68800002 -0.06152096 9.1407287e-39 345 291
0.031363625 0.68800002 -0.06152096 6.8354821e-39 346 291
0.032569919 0.68800002 -0.06152096 5.4525476e-39 347 291
0.033776212 0.68800002 -0.06152096 3.5132206e-39 348 291
0.03498251 0.68800002 -0.06152096 3.0522425e-39 349 291
0.036293998 0.69 -0.061699796 3.0472202e-39 350 291
0.03755815 0.69099998 -0.061789215 3.6925896e-39 351 291
0.03888192 0.69300002 -0.061968062 5.4539952e-39 352 291
0.040154841 0.69400001 -0.06205748 7.9432772e-39 353 291
0.041550495 0.69700003 -0.062325738 1.0518589e-38 354 291
0.042833932 0.69800001 -0.062415157 1.0979209e-38 355 291
0.044183996 0.69999999 -0.062593997 1.0888407e-38 356 291
0.04541133 0.69999999 -0.062593997 1.0703656e-38 357 291
0.046705291 0.70099998 -0.062683418 1.2176245e-38 358 291
0.048071139 0.70300001 -0.062862262 1.3743572e-38 359 291
-0.012378532 0.70599997 -0.064368367 1.4477525e-38 310 292
-0.011140679 0.70599997 -0.064368367 1.2910198e-38 311 292
-0.0098747732 0.704 -0.064186029 1.061682e-38 312 292
-0.0086281532 0.70300001 -0.064094849 1.1538416e-38 313 292
-0.0073745195 0.70099998 -0.063912503 1.2458282e-38 314 292
-0.0061366665 0.69999999 -0.063821331 1.3749021e-38 315 292
-0.0049093333 0.69999999 -0.063821331 1.4757807e-38 316 292
-0.0036714801 0.69800001 -0.063638985 1.4850003e-38 317 292
-0.0024441467 0.69700003 -0.06354782 1.5216264e-38 318 292
-0.0012203199 0.69599998 -0.063456632 1.4939317e-38 319 292
0 0.69400001 -0.063274294 1.2544755e-38 320 292
0.00121506 0.69300002 -0.063183114 1.1438767e-38 321 292
0.00243012 0.69300002 -0.063183114 1.3004308e-38 322 292
0.0036346598 0.69099998 -0.063000768 1.3189058e-38 323 292
0.0048462129 0.69099998 -0.063000768 1.2085597e-38 324 292
0.0060489997 0.69 -0.062909603 1.1532424e-38 325 292
0.0072587994 0.69 -0.062909603 1.0612985e-38 326 292
0.0084686 0.69 -0.062909603 9.9676153e-39 327 292
0.0096503468 0.68800002 -0.06272725 8.7647562e-39 328 292
0.010856641 0.68800002 -0.06272725 6.6446168e-39 329 292
0.012062933 0.68800002 -0.06272725 7.1066838e-39 330 292
0.013269227 0.68800002 -0.06272725 8.6736493e-39 331 292
0.014475521 0.68800002 -0.06272725 9.3197488e-39 332 292
0.015659019 0.68699998 -0.062636077 1.0241704e-38 333 292
0.01686356 0.68699998 -0.062636077 9.967635e-39 334 292
0.018068098 0.68699998 -0.062636077 9.7832437e-39 335 292
0.019272638 0.68699998 -0.062636077 9.6002818e-39 336 292
0.020477179 0.68699998 -0.062636077 9.2311391e-39 337 292
0.021713281 0.68800002 -0.06272725 8.6783185e-39 338 292
0.022919573 0.68800002 -0.06272725 7.8485578e-39 339 292
0.024125867 0.68800002 -0.06272725 7.1167437e-39 340 292
0.02533216 0.68800002 -0.06272725 9.0528519e-39 341 292
0.026538454 0.68800002 -0.06272725 1.1070723e-38 342 292
0.027744746 0.68800002 -0.06272725 1.1255114e-38 343 292
0.028951041 0.68800002 -0.06272725 1.0702297e-38 344 292
0.030157333 0.68800002 -0.06272725 1.0056927e-38 345 292
0.031363625 0.68800002 -0.06272725 6.5567344e-39 346 292
0.032664597 0.69 -0.062909603 4.2514835e-39 347 292
0.0338744 0.69 -0.062909603 3.4213753e-39 348 292
0.035084199 0.69 -0.062909603 3.1447898e-39 349 292
0.036346599 0.69099998 -0.063000768 3.7833377e-39 350 292
0.037666857 0.69300002 -0.063183114 3.0457727e-39 351 292
0.038938027 0.69400001 -0.063274294 4.836946e-40 352 292
0.040270556 0.69599998 -0.063456632 6.3842149e-39 353 292
0.041610107 0.69800001 -0.063638985 9.9686369e-39 354 292
0.042956665 0.69999999 -0.063821331 1.0429256e-38 355 292
0.044183996 0.69999999 -0.063821331 1.0429908e-38 356 292
0.04541133 0.69999999 -0.063821331 1.0152961e-38 357 292
0.046705291 0.70099998 -0.063912503 1.3741035e-38 358 292
0.048139516 0.704 -0.064186029 1.5492753e-38 359 292
-0.011109119 0.704 -0.065420374 1.4840918e-38 311 293
-0.0098747732 0.704 -0.065420374 1.1350767e-38 312 293
-0.0086281532 0.70300001 -0.065327443 1.1719548e-38 313 293
-0.0073745195 0.70099998 -0.065141588 1.0436054e-38 314 293
-0.0061366665 0.69999999 -0.065048665 1.135801e-38 315 293
-0.0049093333 0.69999999 -0.065048665 1.2734876e-38 316 293
-0.0036714801 0.69800001 -0.06486281 1.328805e-38 317 293
-0.0024476533 0.69800001 -0.06486281 1.4390096e-38 318 293
-0.0012203199 0.69599998 -0.064676955 1.4666683e-38 319 293
0 0.69599998 -0.064676955 1.44805e-38 320 293
0.0012168133 0.69400001 -0.064491108 1.3927326e-38 321 293
0.0024336267 0.69400001 -0.064491108 1.4111004e-38 322 293
0.0036451798 0.69300002 -0.064398177 1.4387951e-38 323 293
0.00486024 0.69300002 -0.064398177 1.475386e-38 324 293
0.0060577663 0.69099998 -0.06421233 1.4292881e-38 325 293
0.0072693196 0.69099998 -0.06421233 1.327945e-38 326 293
0.008480873 0.69099998 -0.06421233 1.2173461e-38 327 293
0.0096783992 0.69 -0.064119399 9.5948671e-39 328 293
0.010888199 0.69 -0.064119399 6.9211939e-39 329 293
0.012062933 0.68800002 -0.063933544 5.6369417e-39 330 293
0.013269227 0.68800002 -0.063933544 5.9135286e-39 331 293
0.014475521 0.68800002 -0.063933544 5.5454747e-39 332 293
0.015681813 0.68800002 -0.063933544 8.034398e-39 333 293
0.016888106 0.68800002 -0.063933544 1.2452588e-38 334 293
0.0180944 0.68800002 -0.063933544 1.2728815e-38 335 293
0.019300694 0.68800002 -0.063933544 1.1993035e-38 336 293
0.020506985 0.68800002 -0.063933544 9.8721771e-39 337 293
0.021713281 0.68800002 -0.063933544 7.0205922e-39 338 293
0.022919573 0.68800002 -0.063933544 6.7443654e-39 339 293
0.024125867 0.68800002 -0.063933544 8.127653e-39 340 293
0.02533216 0.68800002 -0.063933544 1.1630727e-38 341 293
0.026615599 0.69 -0.064119399 1.420032e-38 342 293
0.027825398 0.69 -0.064119399 1.3554951e-38 343 293
0.029035198 0.69 -0.064119399 1.1986546e-38 344 293
0.030244999 0.69 -0.064119399 1.0972394e-38 345 293
0.031454802 0.69 -0.064119399 8.3977519e-39 346 293
0.032711938 0.69099998 -0.06421233 8.4899489e-39 347 293
0.033923492 0.69099998 -0.06421233 1.0053675e-38 348 293
0.035236739 0.69300002 -0.064398177 1.0883794e-38 349 293
0.036504399 0.69400001 -0.064491108 1.1160356e-38 350 293
0.037829921 0.69599998 -0.064676955 1.005401e-38 351 293
0.039050236 0.69599998 -0.064676955 9.2289012e-39 352 293
0.040328421 0.69700003 -0.064769886 1.0980618e-38 353 293
0.041610107 0.69800001 -0.06486281 9.9703941e-39 354 293
0.042956665 0.69999999 -0.065048665 9.6934485e-39 355 293
0.044183996 0.69999999 -0.065048665 1.0062565e-38 356 293
0.04541133 0.69999999 -0.065048665 1.1261108e-38 357 293
0.046705291 0.70099998 -0.065141588 1.5123994e-38 358 293
-0.011109119 0.704 -0.066654719 1.6867802e-38 311 294
-0.0098747732 0.704 -0.066654719 1.4292385e-38 312 294
-0.0086281532 0.70300001 -0.066560037 1.3186397e-38 313 294
-0.0073955595 0.70300001 -0.066560037 9.9739394e-39 314 294
-0.0061454331 0.70099998 -0.066370681 1.0711504e-38 315 294
-0.0049093333 0.69999999 -0.066275999 1.1355496e-38 316 294
-0.0036819996 0.69999999 -0.066275999 1.2277093e-38 317 294
-0.0024476533 0.69800001 -0.066086642 1.3104384e-38 318 294
-0.0012220733 0.69700003 -0.06599196 1.3657556e-38 319 294
0 0.69700003 -0.06599196 1.4205708e-38 320 294
0.0012203199 0.69599998 -0.065897278 1.4205708e-38 321 294
0.0024336267 0.69400001 -0.065707922 1.44805e-38 322 294
0.0036504399 0.69400001 -0.065707922 1.44805e-38 323 294
0.00486024 0.69300002 -0.06561324 1.44805e-38 324 294
0.0060753003 0.69300002 -0.06561324 1.4387945e-38 325 294
0.0072903596 0.69300002 -0.06561324 1.4478699e-38 326 294
0.008480873 0.69099998 -0.065423876 1.383333e-38 327 294
0.0096924258 0.69099998 -0.065423876 1.3095761e-38 328 294
0.01090398 0.69099998 -0.065423876 1.1436599e-38 329 294
0.012097999 0.69 -0.065329194 8.9473467e-39 330 294
0.0133078 0.69 -0.065329194 6.089641e-39 331 294
0.014517599 0.69 -0.065329194 4.162906e-39 332 294
0.015681813 0.68800002 -0.065139838 6.0990142e-39 333 294
0.016888106 0.68800002 -0.065139838 1.0979969e-38 334 294
0.0180944 0.68800002 -0.065139838 1.2731686e-38 335 294
0.019300694 0.68800002 -0.065139838 1.3649662e-38 336 294
0.020506985 0.68800002 -0.065139838 1.2358923e-38 337 294
0.021713281 0.68800002 -0.065139838 9.2300181e-39 338 294
0.022986198 0.69 -0.065329194 9.0452681e-39 339 294
0.024195999 0.69 -0.065329194 1.0426407e-38 340 294
0.025405798 0.69 -0.065329194 1.3007884e-38 341 294
0.026615599 0.69 -0.065329194 1.4016275e-38 342 294
0.027825398 0.69 -0.065329194 1.327871e-38 343 294
0.029077278 0.69099998 -0.065423876 1.2357474e-38 344 294
0.030288832 0.69099998 -0.065423876 1.1435518e-38 345 294
0.031500384 0.69099998 -0.065423876 1.1252571e-38 346 294
0.03280662 0.69300002 -0.06561324 1.1436962e-38 347 294
0.034021679 0.69300002 -0.06561324 1.2726254e-38 348 294
0.035287585 0.69400001 -0.065707922 1.3095395e-38 349 294
0.036504399 0.69400001 -0.065707922 1.3004956e-38 350 294
0.037884273 0.69700003 -0.06599196 1.1898609e-38 351 294
0.039106347 0.69700003 -0.06599196 1.0061142e-38 352 294
0.040386278 0.69800001 -0.066086642 1.0061142e-38 353 294
0.041729331 0.69999999 -0.066275999 9.3275162e-39 354 294
0.042956665 0.69999999 -0.066275999 9.1434851e-39 355 294
0.044247117 0.70099998 -0.066370681 1.1718138e-38 356 294
-0.0098747732 0.704 -0.067889065 1.7238355e-38 312 295
-0.0086404262 0.704 -0.067889065 1.5118214e-38 313 295
-0.0073955595 0.70300001 -0.067792632 1.1535855e-38 314 295
-0.0061454331 0.70099998 -0.067599766 1.1167431e-38 315 295
-0.0049163462 0.70099998 -0.067599766 1.0250177e-38 316 295
-0.0036819996 0.69999999 -0.067503333 1.0711154e-38 317 295
-0.0024476533 0.69800001 -0.06731046 1.1171821e-38 318 295
-0.0012238267 0.69800001 -0.06731046 1.1633158e-38 319 295
0 0.69800001 -0.06731046 1.2917818e-38 320 295
0.0012203199 0.69599998 -0.067117594 1.3470992e-38 321 295
0.0024406398 0.69599998 -0.067117594 1.4113863e-38 322 295
0.0036504399 0.69400001 -0.066924736 1.4206058e-38 323 295
0.0048672534 0.69400001 -0.066924736 1.4205708e-38 324 295
0.0060753003 0.69300002 -0.066828303 1.4297904e-38 325 295
0.0072903596 0.69300002 -0.066828303 1.44805e-38 326 295
0.0085054198 0.69300002 -0.066828303 1.4572695e-38 327 295
0.0096924258 0.69099998 -0.06663543 1.503115e-38 328 295
0.01090398 0.69099998 -0.06663543 1.438578e-38 329 295
0.012115533 0.69099998 -0.06663543 1.2447874e-38 330 295
0.013327086 0.69099998 -0.06663543 1.0972744e-38 331 295
0.014517599 0.69 -0.066538997 9.8728834e-39 332 295
0.015727401 0.69 -0.066538997 9.965079e-39 333 295
0.0169372 0.69 -0.066538997 9.9675999e-39 334 295
0.018146999 0.69 -0.066538997 1.1903708e-38 335 295
0.019356798 0.69 -0.066538997 1.4110273e-38 336 295
0.020566599 0.69 -0.066538997 1.3833327e-38 337 295
0.021776399 0.69 -0.066538997 1.3372702e-38 338 295
0.022986198 0.69 -0.066538997 1.3372702e-38 339 295
0.024195999 0.69 -0.066538997 1.3740764e-38 340 295
0.025405798 0.69 -0.066538997 1.3740764e-38 341 295
