# .PCD v.7 - Point Cloud Data file format
FIELDS x y z rgb imX imY
SIZE 4 4 4 4 4 4
TYPE F F F F F F
COUNT 1 1 1 1 1 1
WIDTH 848
HEIGHT 1
VIEWPOINT 0 0 0 1 0 0 0
POINTS 848
DATA ascii
-0.0076795998 0.73000002 0.016639132 1.1713514e-38 314 227
0.026878599 0.73000002 0.016639132 9.8799557e-39 341 227
0.028158534 0.73000002 0.016639132 1.0521728e-38 342 227
0.029438468 0.73000002 0.016639132 1.0429172e-38 343 227
0.030718399 0.73000002 0.016639132 1.0886249e-38 344 227
0.031998333 0.73000002 0.016639132 1.0978804e-38 345 227
0.033278264 0.73000002 0.016639132 1.3276524e-38 346 227
-0.024218792 0.727 0.015296079 1.2825976e-38 301 228
-0.022944121 0.727 0.015296079 1.2831345e-38 302 228
-0.021669446 0.727 0.015296079 1.3200128e-38 303 228
-0.020394772 0.727 0.015296079 1.4205953e-38 304 228
-0.0191464 0.72799999 0.01531712 1.365314e-38 305 228
-0.017845426 0.727 0.015296079 1.2643997e-38 306 228
-0.016570752 0.727 0.015296079 1.2183378e-38 307 228
-0.015296079 0.727 0.015296079 1.1448353e-38 308 228
-0.013982833 0.72500002 0.015254001 1.1540549e-38 309 228
-0.012676599 0.72299999 0.015211919 1.135547e-38 310 228
-0.01140894 0.72299999 0.015211919 1.1632058e-38 311 228
-0.01014128 0.72299999 0.015211919 1.2547566e-38 312 228
-0.0088613462 0.722 0.015190879 1.1625969e-38 313 228
-0.0075743999 0.72000003 0.0151488 1.1533068e-38 314 228
-0.0063120001 0.72000003 0.0151488 1.1625622e-38 315 228
0.025528532 0.72799999 0.01531712 9.787718e-39 340 228
0.026804959 0.72799999 0.01531712 9.8799137e-39 341 228
0.028158534 0.73000002 0.0153592 9.9692983e-39 342 228
0.029438468 0.73000002 0.0153592 9.8771027e-39 343 228
0.03076048 0.73100001 0.01538024 1.0975949e-38 344 228
0.032042164 0.73100001 0.01538024 1.1252536e-38 345 228
0.033323854 0.73100001 0.01538024 1.4105208e-38 346 228
-0.024252106 0.72799999 0.014040692 1.1626706e-38 301 229
-0.022975679 0.72799999 0.014040692 1.0715881e-38 302 229
-0.021699252 0.72799999 0.014040692 1.2098815e-38 303 229
-0.020422826 0.72799999 0.014040692 1.4024458e-38 304 229
-0.0191464 0.72799999 0.014040692 1.3379089e-38 305 229
-0.017869972 0.72799999 0.014040692 1.3010985e-38 306 229
-0.016570752 0.727 0.014021406 1.2642562e-38 307 229
-0.015296079 0.727 0.014021406 1.2091559e-38 308 229
-0.013982833 0.72500002 0.013982833 1.2459982e-38 309 229
-0.012676599 0.72299999 0.01394426 1.1908991e-38 310 229
-0.01140894 0.72299999 0.01394426 1.1355817e-38 311 229
-0.01014128 0.72299999 0.01394426 1.0802634e-38 312 229
-0.0088613462 0.722 0.013924973 1.0433492e-38 313 229
-0.0075743999 0.72000003 0.0138864 1.0892325e-38 314 229
-0.0063120001 0.72000003 0.0138864 1.1261108e-38 315 229
0.024252106 0.72799999 0.014040692 9.5125703e-39 339 229
0.025528532 0.72799999 0.014040692 9.602643e-39 340 229
0.026804959 0.72799999 0.014040692 9.602643e-39 341 229
0.028158534 0.73000002 0.014079267 9.8731888e-39 342 229
0.029438468 0.73000002 0.014079267 1.0242331e-38 343 229
0.03076048 0.73100001 0.014098554 1.1434426e-38 344 229
0.032042164 0.73100001 0.014098554 1.1711013e-38 345 229
0.033323854 0.73100001 0.014098554 1.4842773e-38 346 229
-0.024252106 0.72799999 0.012764266 1.1811465e-38 301 230
-0.022975679 0.72799999 0.012764266 1.0069439e-38 302 230
-0.021699252 0.72799999 0.012764266 1.0622613e-38 303 230
-0.020422826 0.72799999 0.012764266 1.145056e-38 304 230
-0.019199001 0.73000002 0.012799333 1.1727146e-38 305 230
-0.017869972 0.72799999 0.012764266 1.3013531e-38 306 230
-0.016593546 0.72799999 0.012764266 1.282914e-38 307 230
-0.015296079 0.727 0.012746733 1.3285426e-38 308 230
-0.013982833 0.72500002 0.012711667 1.3470178e-38 309 230
-0.012676599 0.72299999 0.012676599 1.2644376e-38 310 230
-0.01140894 0.72299999 0.012676599 1.1722419e-38 311 230
-0.01014128 0.72299999 0.012676599 9.793106e-39 312 230
-0.0088613462 0.722 0.012659066 9.2399323e-39 313 230
-0.0075954394 0.722 0.012659066 9.608719e-39 314 230
-0.0063120001 0.72000003 0.012624 9.8849457e-39 315 230
-0.0050496003 0.72000003 0.012624 1.043459e-38 316 230
-0.0037872 0.72000003 0.012624 1.0618982e-38 317 230
-0.0025248001 0.72000003 0.012624 1.0432464e-38 318 230
0.022944121 0.727 0.012746733 9.2352477e-39 338 230
0.024218792 0.727 0.012746733 9.2352477e-39 339 230
0.025528532 0.72799999 0.012764266 9.323573e-39 340 230
0.026804959 0.72799999 0.012764266 9.323573e-39 341 230
0.028158534 0.73000002 0.012799333 1.0054728e-38 342 230
0.029438468 0.73000002 0.012799333 1.0607902e-38 343 230
0.03076048 0.73100001 0.012816866 1.1895404e-38 344 230
0.032042164 0.73100001 0.012816866 1.2264185e-38 345 230
-0.024318734 0.73000002 0.011519399 1.2914954e-38 301 231
-0.023038799 0.73000002 0.011519399 1.1079275e-38 302 231
-0.021699252 0.72799999 0.01148784 1.0618297e-38 303 231
-0.020422826 0.72799999 0.01148784 1.0715165e-38 304 231
-0.019199001 0.73000002 0.011519399 1.145273e-38 305 231
-0.017919067 0.73000002 0.011519399 1.3658585e-38 306 231
-0.016593546 0.72799999 0.01148784 1.3381998e-38 307 231
-0.015296079 0.727 0.01147206 1.3653853e-38 308 231
-0.013982833 0.72500002 0.0114405 1.3193233e-38 309 231
-0.012676599 0.72299999 0.01140894 1.2551066e-38 310 231
-0.01140894 0.72299999 0.01140894 1.1905697e-38 311 231
-0.01014128 0.72299999 0.01140894 1.0161132e-38 312 231
-0.0088613462 0.722 0.01139316 9.5157624e-39 313 231
-0.0075954394 0.722 0.01139316 9.5175351e-39 314 231
-0.0063120001 0.72000003 0.011361601 9.4253395e-39 315 231
-0.0050496003 0.72000003 0.011361601 9.6086896e-39 316 231
-0.0037872 0.72000003 0.011361601 9.4246584e-39 317 231
-0.0025248001 0.72000003 0.011361601 9.5143682e-39 318 231
-0.0012624001 0.72000003 0.011361601 9.5143682e-39 319 231
0.0025142799 0.71700001 0.01131426 1.0892681e-38 322 231
0.0037714199 0.71700001 0.01131426 1.0984877e-38 323 231
0.010127253 0.722 0.01139316 1.1259996e-38 328 231
0.01139316 0.722 0.01139316 1.0799018e-38 329 231
0.012659066 0.722 0.01139316 1.0063929e-38 330 231
0.013924973 0.722 0.01139316 1.0156125e-38 331 231
0.015190879 0.722 0.01139316 9.6990775e-39 332 231
0.016456785 0.722 0.01139316 9.6990775e-39 333 231
0.017747238 0.72299999 0.01140894 9.0537053e-39 334 231
0.019014901 0.72299999 0.01140894 8.869314e-39 335 231
0.020338668 0.72500002 0.0114405 8.8675358e-39 336 231
0.021669446 0.727 0.01147206 8.8675358e-39 337 231
0.022944121 0.727 0.01147206 9.0483902e-39 338 231
0.024218792 0.727 0.01147206 9.0483902e-39 339 231
0.025528532 0.72799999 0.01148784 9.9628663e-39 340 231
0.026878599 0.73000002 0.011519399 9.9628663e-39 341 231
0.028158534 0.73000002 0.011519399 1.0146211e-38 342 231
0.029438468 0.73000002 0.011519399 1.0514633e-38 343 231
0.030886721 0.73400003 0.011582521 1.2078716e-38 344 231
0.032173667 0.73400003 0.011582521 1.2724086e-38 345 231
-0.024318734 0.73000002 0.010239467 1.4663446e-38 301 232
-0.023038799 0.73000002 0.010239467 1.3195484e-38 302 232
-0.021758866 0.73000002 0.010239467 1.3563908e-38 303 232
-0.020478934 0.73000002 0.010239467 1.3566778e-38 304 232
-0.019199001 0.73000002 0.010239467 1.3198355e-38 305 232
-0.017919067 0.73000002 0.010239467 1.3105436e-38 306 232
-0.016593546 0.72799999 0.010211413 1.3105436e-38 307 232
-0.01531712 0.72799999 0.010211413 1.3657471e-38 308 232
-0.014021406 0.727 0.010197386 1.2643319e-38 309 232
-0.012711667 0.72500002 0.010169334 1.2458852e-38 310 232
-0.01140894 0.72299999 0.01014128 1.1905318e-38 311 232
-0.01014128 0.72299999 0.01014128 1.0987983e-38 312 232
-0.0088736191 0.72299999 0.01014128 1.0618841e-38 313 232
-0.0075954394 0.722 0.010127253 9.7933947e-39 314 232
-0.0063295332 0.722 0.010127253 9.516812e-39 315 232
-0.0050636264 0.722 0.010127253 9.5160946e-39 316 232
-0.0037872 0.72000003 0.010099201 9.3320648e-39 317 232
-0.0025248001 0.72000003 0.010099201 9.6065077e-39 318 232
-0.0012624001 0.72000003 0.010099201 9.6065077e-39 319 232
0 0.72000003 0.010099201 9.6983685e-39 320 232
0.0012624001 0.72000003 0.010099201 9.7909228e-39 321 232
0.0025142799 0.71700001 0.01005712 9.9731757e-39 322 232
0.0037714199 0.71700001 0.01005712 9.6969489e-39 323 232
0.0088613462 0.722 0.010127253 8.8722231e-39 327 232
0.010127253 0.722 0.010127253 9.3328159e-39 328 232
0.01139316 0.722 0.010127253 9.0558703e-39 329 232
0.012659066 0.722 0.010127253 9.7898074e-39 330 232
0.013924973 0.722 0.010127253 9.6054189e-39 331 232
0.015190879 0.722 0.010127253 9.4228241e-39 332 232
0.016456785 0.722 0.010127253 9.1458827e-39 333 232
0.017747238 0.72299999 0.01014128 8.9604181e-39 334 232
0.019014901 0.72299999 0.01014128 8.6841941e-39 335 232
0.020338668 0.72500002 0.010169334 8.5898755e-39 336 232
0.021669446 0.727 0.010197386 9.0508537e-39 337 232
0.022944121 0.727 0.010197386 9.6001416e-39 338 232
0.024252106 0.72799999 0.010211413 9.6001416e-39 339 232
0.025598666 0.73000002 0.010239467 1.0237665e-38 340 232
0.026878599 0.73000002 0.010239467 1.0145109e-38 341 232
0.028197108 0.73100001 0.010253493 9.7795891e-39 342 232
0.029599773 0.73400003 0.010295574 1.0424959e-38 343 232
0.030970879 0.736 0.010323626 1.2077997e-38 344 232
0.032392833 0.73900002 0.010365707 1.2815562e-38 345 232
-0.025738932 0.73400003 0.0090086265 1.1623521e-38 300 233
-0.024451986 0.73400003 0.0090086265 1.3099012e-38 301 233
-0.023165042 0.73400003 0.0090086265 1.337991e-38 302 233
-0.021848286 0.73299998 0.0089963535 1.4209671e-38 303 233
-0.020506985 0.73100001 0.0089718066 1.439477e-38 304 233
-0.019225299 0.73100001 0.0089718066 1.4117823e-38 305 233
-0.017943613 0.73100001 0.0089718066 1.2277491e-38 306 233
-0.016639132 0.73000002 0.0089595336 1.2369686e-38 307 233
-0.0153592 0.73000002 0.0089595336 1.3291952e-38 308 233
-0.014040692 0.72799999 0.0089349858 1.2554387e-38 309 233
-0.012746733 0.727 0.0089227129 1.2735432e-38 310 233
-0.0114405 0.72500002 0.0088981669 1.1997867e-38 311 233
-0.010169334 0.72500002 0.0088981669 1.2274388e-38 312 233
-0.0088736191 0.72299999 0.0088736191 1.1905611e-38 313 233
-0.0076059597 0.72299999 0.0088736191 1.1630822e-38 314 233
-0.0063295332 0.722 0.0088613462 1.1446434e-38 315 233
-0.0050636264 0.722 0.0088613462 1.0894703e-38 316 233
-0.0037977197 0.722 0.0088613462 1.0618121e-38 317 233
-0.0025318132 0.722 0.0088613462 1.006639e-38 318 233
-0.0012624001 0.72000003 0.0088367993 1.0158584e-38 319 233
0 0.72000003 0.0088367993 9.239872e-39 320 233
0.0012624001 0.72000003 0.0088367993 9.3320676e-39 321 233
0.0025212932 0.71899998 0.0088245263 9.0551248e-39 322 233
0.0037819401 0.71899998 0.0088245263 8.8710937e-39 323 233
0.0050636264 0.722 0.0088613462 9.2387944e-39 324 233
0.0063382997 0.72299999 0.0088736191 9.4231829e-39 325 233
0.0076059597 0.72299999 0.0088736191 9.7894529e-39 326 233
0.0088613462 0.722 0.0088613462 9.7894529e-39 327 233
0.010127253 0.722 0.0088613462 9.0569297e-39 328 233
0.01139316 0.722 0.0088613462 8.5959515e-39 329 233
0.012659066 0.722 0.0088613462 8.6874227e-39 330 233
0.013924973 0.722 0.0088613462 8.503393e-39 331 233
0.015190879 0.722 0.0088613462 8.3186458e-39 332 233
0.016456785 0.722 0.0088613462 8.41084e-39 333 233
0.017747238 0.72299999 0.0088736191 8.2246677e-39 334 233
0.019014901 0.72299999 0.0088736191 7.9480794e-39 335 233
0.020338668 0.72500002 0.0088981669 8.4055095e-39 336 233
0.021699252 0.72799999 0.0089349858 9.4193013e-39 337 233
0.022975679 0.72799999 0.0089349858 1.1530527e-38 338 233
0.024318734 0.73000002 0.0089595336 1.0516375e-38 339 233
0.025598666 0.73000002 0.0089595336 1.0512116e-38 340 233
0.026915418 0.73100001 0.0089718066 1.0327724e-38 341 233
0.028197108 0.73100001 0.0089718066 1.0055107e-38 342 233
0.029761078 0.73799998 0.0090577193 1.0700476e-38 343 233
0.031055039 0.73799998 0.0090577193 1.2170552e-38 344 233
0.032392833 0.73900002 0.0090699932 1.2723367e-38 345 233
0.033688545 0.73900002 0.0090699932 1.6317178e-38 346 233
-0.025738932 0.73400003 0.0077216802 1.0612249e-38 300 234
-0.024451986 0.73400003 0.0077216802 1.1533847e-38 301 234
-0.023165042 0.73400003 0.0077216802 1.264344e-38 302 234
-0.021878093 0.73400003 0.0077216802 1.3841983e-38 303 234
-0.020591147 0.73400003 0.0077216802 1.3566817e-38 304 234
-0.019277899 0.73299998 0.0077111595 1.3474621e-38 305 234
-0.017992707 0.73299998 0.0077111595 1.2094894e-38 306 234
-0.016661927 0.73100001 0.00769012 1.1172579e-38 307 234
-0.0153592 0.73000002 0.0076795998 1.0437856e-38 308 234
-0.014040692 0.72799999 0.0076585598 1.1267617e-38 309 234
-0.012764266 0.72799999 0.0076585598 1.3013881e-38 310 234
-0.01147206 0.727 0.0076480396 1.2184121e-38 311 234
-0.010169334 0.72500002 0.0076270006 1.2459181e-38 312 234
-0.0088981669 0.72500002 0.0076270006 1.1721616e-38 313 234
-0.0076059597 0.72299999 0.0076059597 1.1722658e-38 314 234
-0.0063382997 0.72299999 0.0076059597 1.1722658e-38 315 234
-0.0050706398 0.72299999 0.0076059597 1.21804e-38 316 234
-0.0037977197 0.722 0.0075954394 1.1996012e-38 317 234
-0.0025318132 0.722 0.0075954394 1.0801792e-38 318 234
-0.0012659066 0.722 0.0075954394 1.0709597e-38 319 234
0 0.72000003 0.0075743999 9.2409468e-39 320 234
0.0012624001 0.72000003 0.0075743999 9.1487526e-39 321 234
0.0025248001 0.72000003 0.0075743999 9.4235416e-39 322 234
0.0037872 0.72000003 0.0075743999 9.5157358e-39 323 234
0.0050636264 0.722 0.0075954394 1.0066749e-38 324 234
0.0063382997 0.72299999 0.0076059597 1.0251137e-38 325 234
0.0076059597 0.72299999 0.0076059597 1.006639e-38 326 234
0.0088736191 0.72299999 0.0076059597 9.5132247e-39 327 234
0.01014128 0.72299999 0.0076059597 8.9625705e-39 328 234
0.01140894 0.72299999 0.0076059597 8.8700175e-39 329 234
0.012676599 0.72299999 0.0076059597 8.6852703e-39 330 234
0.01394426 0.72299999 0.0076059597 8.4090463e-39 331 234
0.015211919 0.72299999 0.0076059597 8.6841941e-39 332 234
0.01647958 0.72299999 0.0076059597 8.4998056e-39 333 234
0.017796334 0.72500002 0.0076270006 8.3150683e-39 334 234
0.0190675 0.72500002 0.0076270006 8.591295e-39 335 234
0.020394772 0.727 0.0076480396 9.6926876e-39 336 234
0.021699252 0.72799999 0.0076585598 1.1075622e-38 337 234
0.022975679 0.72799999 0.0076585598 1.217342e-38 338 234
0.024352046 0.73100001 0.00769012 1.0145115e-38 339 234
0.025633732 0.73100001 0.00769012 9.1331477e-39 340 234
0.026989058 0.73299998 0.0077111595 9.6863215e-39 341 234
0.028505694 0.73900002 0.0077742799 1.0790148e-38 342 234
0.029801406 0.73900002 0.0077742799 1.1435518e-38 343 234
0.03109712 0.73900002 0.0077742799 1.2262747e-38 344 234
0.032524332 0.74199998 0.0078058392 1.2631171e-38 345 234
0.033825304 0.74199998 0.0078058392 1.6869632e-38 346 234
-0.025738932 0.73400003 0.006434733 1.2357495e-38 300 235
-0.024451986 0.73400003 0.006434733 1.1804322e-38 301 235
-0.023165042 0.73400003 0.006434733 1.1170119e-38 302 235
-0.021878093 0.73400003 0.006434733 1.2922196e-38 303 235
-0.020591147 0.73400003 0.006434733 1.3934173e-38 304 235
-0.019304199 0.73400003 0.006434733 1.3749782e-38 305 235
-0.018017253 0.73400003 0.006434733 1.2922854e-38 306 235
-0.016707512 0.73299998 0.0064259665 1.1816865e-38 307 235
-0.015422319 0.73299998 0.0064259665 9.0570698e-39 308 235
-0.014098554 0.73100001 0.006408433 9.7946349e-39 309 235
-0.012799333 0.73000002 0.0063996664 1.1359784e-38 310 235
-0.011519399 0.73000002 0.0063996664 1.163673e-38 311 235
-0.010197386 0.727 0.0063733663 1.2920238e-38 312 235
-0.0089227129 0.727 0.0063733663 1.264365e-38 313 235
-0.0076480396 0.727 0.0063733663 1.2643239e-38 314 235
-0.0063558333 0.72500002 0.0063558333 1.2274458e-38 315 235
-0.0050706398 0.72299999 0.0063382997 1.2089658e-38 316 235
-0.0038029798 0.72299999 0.0063382997 1.1536485e-38 317 235
-0.0025353199 0.72299999 0.0063382997 1.0802509e-38 318 235
-0.0012659066 0.722 0.0063295332 1.0618121e-38 319 235
0 0.722 0.0063295332 9.5160946e-39 320 235
0.0012659066 0.722 0.0063295332 9.5160946e-39 321 235
0.0025318132 0.722 0.0063295332 9.9738371e-39 322 235
0.0037977197 0.722 0.0063295332 1.0250779e-38 323 235
0.0050706398 0.72299999 0.0063382997 1.0708888e-38 324 235
0.0063382997 0.72299999 0.0063382997 1.0708888e-38 325 235
0.0076270006 0.72500002 0.0063558333 9.0554821e-39 326 235
0.0088981669 0.72500002 0.0063558333 8.4101225e-39 327 235
0.010169334 0.72500002 0.0063558333 8.5941523e-39 328 235
0.0114405 0.72500002 0.0063558333 8.501958e-39 329 235
0.012711667 0.72500002 0.0063558333 8.6849116e-39 330 235
0.013982833 0.72500002 0.0063558333 8.6849116e-39 331 235
0.015296079 0.727 0.0063733663 8.5927173e-39 332 235
0.016570752 0.727 0.0063733663 8.4083289e-39 333 235
0.017845426 0.727 0.0063733663 7.764784e-39 334 235
0.019120099 0.727 0.0063733663 8.0413709e-39 335 235
0.020422826 0.72799999 0.0063821329 1.0519953e-38 336 235
0.021758866 0.73000002 0.0063996664 1.1718494e-38 337 235
0.023038799 0.73000002 0.0063996664 1.2081237e-38 338 235
0.024352046 0.73100001 0.006408433 9.6841509e-39 339 235
0.025703866 0.73299998 0.0064259665 9.2235483e-39 340 235
0.027209979 0.73900002 0.0064785667 1.0053309e-38 341 235
0.028505694 0.73900002 0.0064785667 1.0698676e-38 342 235
0.029882059 0.741 0.0064960998 1.1159654e-38 343 235
0.03118128 0.741 0.0064960998 1.2538974e-38 344 235
0.032524332 0.74199998 0.0065048663 1.2815562e-38 345 235
0.033825304 0.74199998 0.0065048663 1.7330252e-38 346 235
-0.024984999 0.75 0.00526 1.0605058e-38 301 236
-0.021937706 0.736 0.005161813 1.0897127e-38 303 236
-0.020647252 0.736 0.005161813 1.3932025e-38 304 236
-0.019356798 0.736 0.005161813 1.402422e-38 305 236
-0.018017253 0.73400003 0.0051477868 1.3474955e-38 306 236
-0.016730307 0.73400003 0.0051477868 1.2552998e-38 307 236
-0.01544336 0.73400003 0.0051477868 9.7013406e-39 308 236
-0.014137126 0.73299998 0.005140773 8.8715799e-39 309 236
-0.012851933 0.73299998 0.005140773 8.5074679e-39 310 236
-0.01153518 0.73100001 0.0051267464 1.0259184e-38 311 236
-0.010211413 0.72799999 0.0051057064 1.3014663e-38 312 236
-0.0089349858 0.72799999 0.0051057064 1.3567478e-38 313 236
-0.0076480396 0.727 0.0050986931 1.3931913e-38 314 236
-0.0063733663 0.727 0.0050986931 1.2825565e-38 315 236
-0.0050846669 0.72500002 0.0050846669 1.2181169e-38 316 236
-0.0038135003 0.72500002 0.0050846669 1.1259215e-38 317 236
-0.0025353199 0.72299999 0.0050706398 1.0802509e-38 318 236
-0.0012676599 0.72299999 0.0050706398 1.0618121e-38 319 236
0 0.72299999 0.0050706398 9.6082888e-39 320 236
0.0012676599 0.72299999 0.0050706398 9.5160946e-39 321 236
0.0025353199 0.72299999 0.0050706398 9.7908836e-39 322 236
0.0038029798 0.72299999 0.0050706398 9.9756308e-39 323 236
0.0050846669 0.72500002 0.0050846669 1.0433024e-38 324 236
0.0063558333 0.72500002 0.0050846669 9.972405e-39 325 236
0.0076480396 0.727 0.0050986931 8.3190045e-39 326 236
0.0089227129 0.727 0.0050986931 8.0420631e-39 327 236
0.010169334 0.72500002 0.0050846669 8.7774645e-39 328 236
0.0114405 0.72500002 0.0050846669 8.7774645e-39 329 236
0.012746733 0.727 0.0050986931 9.236642e-39 330 236
0.014021406 0.727 0.0050986931 9.4210305e-39 331 236
0.015296079 0.727 0.0050986931 8.5937935e-39 332 236
0.016593546 0.72799999 0.0051057064 8.2246579e-39 333 236
0.017869972 0.72799999 0.0051057064 7.5800382e-39 334 236
0.0191464 0.72799999 0.0051057064 8.2254076e-39 335 236
0.020422826 0.72799999 0.0051057064 1.10717e-38 336 236
0.021758866 0.73000002 0.0051197335 1.19011e-38 337 236
0.023038799 0.73000002 0.0051197335 1.1620262e-38 338 236
0.024451986 0.73400003 0.0051477868 9.6841537e-39 339 236
0.025809066 0.736 0.005161813 9.775999e-39 340 236
0.027209979 0.73900002 0.0051828534 1.0421368e-38 341 236
0.028582839 0.741 0.0051968796 1.0974895e-38 342 236
0.029882059 0.741 0.0051968796 1.1435515e-38 343 236
0.031223357 0.74199998 0.0052038929 1.2723723e-38 344 236
0.032524332 0.74199998 0.0052038929 1.3276897e-38 345 236
0.033825304 0.74199998 0.0052038929 1.7514649e-38 346 236
-0.023669999 0.75 0.003945 8.2184193e-39 302 237
-0.022265578 0.74699998 0.0039292197 9.04818e-39 303 237
-0.020731414 0.73900002 0.00388714 1.1354513e-38 304 237
-0.019356798 0.736 0.0038713599 1.3014394e-38 305 237
-0.018066347 0.736 0.0038713599 1.4393336e-38 306 237
-0.016775893 0.736 0.0038713599 1.3747967e-38 307 237
-0.015485439 0.736 0.0038713599 1.1817541e-38 308 237
-0.014156413 0.73400003 0.0038608401 1.0065824e-38 309 237
-0.012869466 0.73400003 0.0038608401 8.504947e-39 310 237
-0.011566739 0.73299998 0.0038555798 9.3347063e-39 311 237
-0.010253493 0.73100001 0.00384506 1.0071957e-38 312 237
-0.0089595336 0.73000002 0.0038397999 1.1270501e-38 313 237
-0.0076585598 0.72799999 0.0038292799 1.3196901e-38 314 237
-0.0063821329 0.72799999 0.0038292799 1.2828478e-38 315 237
-0.0050986931 0.727 0.0038240198 1.3010272e-38 316 237
-0.0038240198 0.727 0.0038240198 1.1719533e-38 317 237
-0.0025423334 0.72500002 0.0038135003 1.0250431e-38 318 237
-0.0012711667 0.72500002 0.0038135003 1.0158235e-38 319 237
0 0.727 0.0038240198 9.6082888e-39 320 237
0.0012711667 0.72500002 0.0038135003 9.5160946e-39 321 237
0.0025423334 0.72500002 0.0038135003 9.5146596e-39 322 237
0.0038135003 0.72500002 0.0038135003 9.5146596e-39 323 237
0.0050986931 0.727 0.0038240198 9.6054189e-39 324 237
0.0063733663 0.727 0.0038240198 9.2370007e-39 325 237
0.0076480396 0.727 0.0038240198 8.6849116e-39 326 237
0.0089227129 0.727 0.0038240198 8.8693e-39 327 237
0.010197386 0.727 0.0038240198 9.9724148e-39 328 237
0.01147206 0.727 0.0038240198 1.0249362e-38 329 237
0.012746733 0.727 0.0038240198 9.8816555e-39 330 237
0.014021406 0.727 0.0038240198 9.5125128e-39 331 237
0.01531712 0.72799999 0.0038292799 8.9593419e-39 332 237
0.016593546 0.72799999 0.0038292799 8.5909237e-39 333 237
0.017869972 0.72799999 0.0038292799 7.487516e-39 334 237
0.019199001 0.73000002 0.0038397999 8.8704505e-39 335 237
0.020478934 0.73000002 0.0038397999 1.1991881e-38 336 237
0.021788673 0.73100001 0.00384506 1.1991881e-38 337 237
0.02307036 0.73100001 0.00384506 1.1160005e-38 338 237
0.024518613 0.736 0.0038713599 9.5930399e-39 339 237
0.025914267 0.73900002 0.00388714 1.0603962e-38 340 237
0.027283618 0.741 0.0038976599 1.0972744e-38 341 237
0.028582839 0.741 0.0038976599 1.079158e-38 342 237
0.029922385 0.74199998 0.0039029196 1.12522e-38 343 237
0.031223357 0.74199998 0.0039029196 1.2264182e-38 344 237
0.032612 0.74400002 0.0039134403 1.3001749e-38 345 237
0.033916477 0.74400002 0.0039134403 1.7607563e-38 346 237
-0.023669999 0.75 0.00263 1.0794136e-38 302 238
-0.022265578 0.74699998 0.0026194798 8.9498635e-39 303 238
-0.020955838 0.74699998 0.0026194798 9.1428965e-39 304 238
-0.019646099 0.74699998 0.0026194798 1.181657e-38 305 238
-0.018115439 0.73799998 0.0025879198 1.4483756e-38 306 238
-0.016821479 0.73799998 0.0025879198 1.4576312e-38 307 238
-0.015527519 0.73799998 0.0025879198 1.3749008e-38 308 238
-0.014194986 0.736 0.0025809065 1.2089127e-38 309 238
-0.012904533 0.736 0.0025809065 9.9753911e-39 310 238
-0.011582521 0.73400003 0.0025738934 9.4222174e-39 311 238
-0.010281546 0.73299998 0.0025703865 7.8624489e-39 312 238
-0.0089718066 0.73100001 0.0025633732 9.0609907e-39 313 238
-0.0076795998 0.73000002 0.0025598668 1.1542421e-38 314 238
-0.0063996664 0.73000002 0.0025598668 1.2740964e-38 315 238
-0.0051197335 0.73000002 0.0025598668 1.3565316e-38 316 238
-0.0038292799 0.72799999 0.0025528532 1.2366774e-38 317 238
-0.0025528532 0.72799999 0.0025528532 1.0525987e-38 318 238
-0.0012764266 0.72799999 0.0025528532 9.6958671e-39 319 238
0 0.72799999 0.0025528532 9.6990481e-39 320 238
0.0012764266 0.72799999 0.0025528532 9.5150184e-39 321 238
0.0025528532 0.72799999 0.0025528532 9.4228241e-39 322 238
0.0038292799 0.72799999 0.0025528532 9.4228241e-39 323 238
0.0050986931 0.727 0.0025493465 9.1458827e-39 324 238
0.0063733663 0.727 0.0025493465 9.0536885e-39 325 238
0.0076585598 0.72799999 0.0025528532 9.2362861e-39 326 238
0.0089349858 0.72799999 0.0025528532 1.0065687e-38 327 238
0.010211413 0.72799999 0.0025528532 1.1352485e-38 328 238
0.01148784 0.72799999 0.0025528532 1.1260289e-38 329 238
0.012764266 0.72799999 0.0025528532 1.0340481e-38 330 238
0.014040692 0.72799999 0.0025528532 9.3263293e-39 331 238
0.0153592 0.73000002 0.0025598668 7.7644168e-39 332 238
0.016639132 0.73000002 0.0025598668 7.7644168e-39 333 238
0.017919067 0.73000002 0.0025598668 9.1420376e-39 334 238
0.019199001 0.73000002 0.0025598668 1.0801199e-38 335 238
0.020506985 0.73100001 0.0025633732 1.3003897e-38 336 238
0.021878093 0.73400003 0.0025738934 1.2266332e-38 337 238
0.023291279 0.73799998 0.0025879198 1.1250406e-38 338 238
0.024618553 0.73900002 0.0025914267 1.0512482e-38 339 238
0.025984399 0.741 0.0025984398 1.0972388e-38 340 238
0.027320439 0.74199998 0.0026019465 1.0972388e-38 341 238
0.028621411 0.74199998 0.0026019465 1.0974893e-38 342 238
0.030003037 0.74400002 0.00260896 1.1528066e-38 343 238
0.031307522 0.74400002 0.00260896 1.2356012e-38 344 238
0.032699663 0.74599999 0.0026159731 1.3185774e-38 345 238
0.034007654 0.74599999 0.0026159731 1.7607919e-38 346 238
-0.023733119 0.75199997 0.0013185065 1.3556763e-38 302 239
-0.022355 0.75 0.001315 1.2081631e-38 303 239
-0.020955838 0.74699998 0.0013097399 7.8485606e-39 304 239
-0.019646099 0.74699998 0.0013097399 8.0329519e-39 305 239
-0.018189078 0.741 0.0012992199 1.070483e-38 306 239
-0.016844273 0.73900002 0.0012957134 1.217996e-38 307 239
-0.01554856 0.73900002 0.0012957134 1.38362e-38 308 239
-0.014233559 0.73799998 0.0012939599 1.2637656e-38 309 239
-0.012939599 0.73799998 0.0012939599 1.089237e-38 310 239
-0.01161408 0.736 0.0012904532 1.1260792e-38 311 239
-0.010323626 0.736 0.0012904532 9.8843025e-39 312 239
-0.0090086265 0.73400003 0.0012869467 8.9627064e-39 313 239
-0.0077111595 0.73299998 0.0012851933 7.9564928e-39 314 239
-0.006408433 0.73100001 0.0012816866 9.1553961e-39 315 239
-0.0051267464 0.73100001 0.0012816866 1.2277838e-38 316 239
-0.0038397999 0.73000002 0.0012799334 1.2738815e-38 317 239
-0.0025598668 0.73000002 0.0012799334 1.2366376e-38 318 239
-0.0012799334 0.73000002 0.0012799334 1.1075996e-38 319 239
0 0.73000002 0.0012799334 1.0251545e-38 320 239
0.0012799334 0.73000002 0.0012799334 9.51398e-39 321 239
0.0025598668 0.73000002 0.0012799334 9.4221067e-39 322 239
0.0038292799 0.72799999 0.0012764266 9.3299124e-39 323 239
0.0051057064 0.72799999 0.0012764266 9.237721e-39 324 239
0.0063821329 0.72799999 0.0012764266 1.0160036e-38 325 239
0.0076795998 0.73000002 0.0012799334 1.1902447e-38 326 239
0.0089595336 0.73000002 0.0012799334 1.2179394e-38 327 239
0.010239467 0.73000002 0.0012799334 1.1994999e-38 328 239
0.011519399 0.73000002 0.0012799334 1.0888652e-38 329 239
0.012799333 0.73000002 0.0012799334 8.9597076e-39 330 239
0.014079267 0.73000002 0.0012799334 8.5912852e-39 331 239
0.01538024 0.73100001 0.0012816866 7.8541111e-39 332 239
0.016661927 0.73100001 0.0012816866 8.3147306e-39 333 239
0.017992707 0.73299998 0.0012851933 1.1350079e-38 334 239
0.019277899 0.73299998 0.0012851933 1.2180198e-38 335 239
0.020591147 0.73400003 0.0012869467 1.3003903e-38 336 239
0.021997318 0.73799998 0.0012939599 1.2266338e-38 337 239
0.023322839 0.73900002 0.0012957134 1.198617e-38 338 239
0.024685178 0.741 0.0012992199 1.115677e-38 339 239
0.026019465 0.74199998 0.0013009732 1.133901e-38 340 239
0.027320439 0.74199998 0.0013009732 1.133901e-38 341 239
0.02869856 0.74400002 0.00130448 1.1067807e-38 342 239
0.03008369 0.74599999 0.0013079866 1.1529145e-38 343 239
0.031391677 0.74599999 0.0013079866 1.2908467e-38 344 239
0.032743499 0.74699998 0.0013097399 1.3922259e-38 345 239
-0.02379624 0.75400001 -0 1.4021334e-38 302 240
-0.022414612 0.75199997 -0 1.3191573e-38 303 240
-0.02104 0.75 -0 1.0517184e-38 304 240
-0.019724999 0.75 -0 8.396324e-39 305 240
-0.018409999 0.75 -0 8.1262209e-39 306 240
-0.016889861 0.741 -0 9.6935466e-39 307 240
-0.01559064 0.741 -0 1.0796654e-38 308 240
-0.014252847 0.73900002 -0 1.042787e-38 309 240
-0.012957133 0.73900002 -0 9.6016915e-39 310 240
-0.011645639 0.73799998 -0 1.0615483e-38 311 240
-0.010351679 0.73799998 -0 1.1355515e-38 312 240
-0.0090577193 0.73799998 -0 1.0710145e-38 313 240
-0.0077427197 0.736 -0 9.1478137e-39 314 240
-0.0064522666 0.736 -0 9.0556181e-39 315 240
-0.005140773 0.73299998 -0 1.0530064e-38 316 240
-0.00384506 0.73100001 -0 1.1912999e-38 317 240
-0.0025633732 0.73100001 -0 1.2552986e-38 318 240
-0.0012816866 0.73100001 -0 1.1999812e-38 319 240
0 0.73100001 -0 1.1997954e-38 320 240
0.0012816866 0.73100001 -0 1.144478e-38 321 240
0.0025633732 0.73100001 -0 1.0709299e-38 322 240
0.00384506 0.73100001 -0 9.6029512e-39 323 240
0.0051267464 0.73100001 -0 9.2356107e-39 324 240
0.006408433 0.73100001 -0 1.0711099e-38 325 240
0.00769012 0.73100001 -0 1.135147e-38 326 240
0.0089963535 0.73299998 -0 1.1167078e-38 327 240
0.010281546 0.73299998 -0 1.0248308e-38 328 240
0.01153518 0.73100001 -0 8.9575692e-39 329 240
0.012816866 0.73100001 -0 8.3164934e-39 330 240
0.014098554 0.73100001 -0 8.5012406e-39 331 240
0.015422319 0.73299998 -0 7.8537748e-39 332 240
0.016707512 0.73299998 -0 8.6835355e-39 333 240
0.018017253 0.73400003 -0 1.2178416e-38 334 240
0.019356798 0.736 -0 1.2823785e-38 335 240
0.020703359 0.73799998 -0 1.2911707e-38 336 240
0.02208674 0.741 -0 1.2173783e-38 337 240
0.023385961 0.741 -0 1.1895054e-38 338 240
0.024718491 0.74199998 -0 1.1157489e-38 339 240
0.026019465 0.74199998 -0 1.1247536e-38 340 240
0.027394081 0.74400002 -0 1.1339732e-38 341 240
0.028775707 0.74599999 -0 1.1251482e-38 342 240
0.03008369 0.74599999 -0 1.1804656e-38 343 240
0.031433757 0.74699998 -0 1.3092501e-38 344 240
0.032743499 0.74699998 -0 1.419885e-38 345 240
-0.02379624 0.75400001 -0.0013220133 1.3193374e-38 302 241
-0.022414612 0.75199997 -0.0013185065 1.3653993e-38 303 241
-0.021096105 0.75199997 -0.0013185065 1.2911743e-38 304 241
-0.019830201 0.75400001 -0.0013220133 1.0975635e-38 305 241
-0.018459093 0.75199997 -0.0013185065 7.7556405e-39 306 241
-0.017003827 0.74599999 -0.0013079866 7.9403905e-39 307 241
-0.015611678 0.74199998 -0.0013009732 9.0424417e-39 308 241
-0.01429142 0.741 -0.0012992199 7.5673116e-39 309 241
-0.0129922 0.741 -0.0012992199 6.8315416e-39 310 241
-0.01166142 0.73900002 -0.0012957134 8.6754542e-39 311 241
-0.010365707 0.73900002 -0.0012957134 8.8680921e-39 312 241
-0.0090699932 0.73900002 -0.0012957134 1.1817992e-38 313 241
-0.0077637597 0.73799998 -0.0012939599 1.3471009e-38 314 241
-0.0064697997 0.73799998 -0.0012939599 1.2733442e-38 315 241
-0.0051477868 0.73400003 -0.0012869467 1.117403e-38 316 241
-0.0038608401 0.73400003 -0.0012869467 1.1266225e-38 317 241
-0.0025738934 0.73400003 -0.0012869467 1.227715e-38 318 241
-0.0012851933 0.73299998 -0.0012851933 1.2922519e-38 319 241
0 0.73299998 -0.0012851933 1.4206406e-38 320 241
0.0012851933 0.73299998 -0.0012851933 1.3837982e-38 321 241
0.0025703865 0.73299998 -0.0012851933 1.3378383e-38 322 241
0.0038555798 0.73299998 -0.0012851933 1.1350079e-38 323 241
0.005140773 0.73299998 -0.0012851933 1.0154368e-38 324 241
0.0064259665 0.73299998 -0.0012851933 1.0799737e-38 325 241
0.0077111595 0.73299998 -0.0012851933 1.0893327e-38 326 241
0.0089963535 0.73299998 -0.0012851933 8.7724689e-39 327 241
0.010281546 0.73299998 -0.0012851933 7.4888977e-39 328 241
0.011566739 0.73299998 -0.0012851933 7.581092e-39 329 241
0.012851933 0.73299998 -0.0012851933 7.8555307e-39 330 241
0.014137126 0.73299998 -0.0012851933 7.9477263e-39 331 241
0.01544336 0.73400003 -0.0012869467 8.4984632e-39 332 241
0.016730307 0.73400003 -0.0012869467 1.0065788e-38 333 241
0.018066347 0.736 -0.0012904532 1.2269202e-38 334 241
0.019409399 0.73799998 -0.0012939599 1.2546149e-38 335 241
0.020787518 0.741 -0.0012992199 1.2727688e-38 336 241
0.022116546 0.74199998 -0.0013009732 1.1805372e-38 337 241
0.023417519 0.74199998 -0.0013009732 1.1066385e-38 338 241
0.024718491 0.74199998 -0.0013009732 1.0789798e-38 339 241
0.026089599 0.74400002 -0.00130448 1.0878756e-38 340 241
0.027467718 0.74599999 -0.0013079866 1.0970952e-38 341 241
0.028775707 0.74599999 -0.0013079866 1.1159289e-38 342 241
0.030124018 0.74699998 -0.0013097399 1.1896854e-38 343 241
0.031517919 0.74900001 -0.0013132467 1.3276176e-38 344 241
-0.02379624 0.75400001 -0.0026440267 1.2457971e-38 302 242
-0.022414612 0.75199997 -0.0026370131 1.2918949e-38 303 242
-0.021096105 0.75199997 -0.0026370131 1.3191923e-38 304 242
-0.0197776 0.75199997 -0.0026370131 1.1808989e-38 305 242
-0.018459093 0.75199997 -0.0026370131 1.0150559e-38 306 242
-0.017095 0.75 -0.00263 1.0242755e-38 307 242
-0.01575896 0.74900001 -0.0026264933 1.0795956e-38 308 242
-0.01434928 0.74400002 -0.00260896 8.6750983e-39 309 242
-0.013009733 0.74199998 -0.0026019465 5.9128419e-39 310 242
-0.01169298 0.741 -0.0025984398 6.4660157e-39 311 242
-0.010393759 0.741 -0.0025984398 5.5516026e-39 312 242
-0.0090945391 0.741 -0.0025984398 1.043797e-38 313 242
-0.0077742799 0.73900002 -0.0025914267 1.43894e-38 314 242
-0.0064785667 0.73900002 -0.0025914267 1.4020257e-38 315 242
-0.0051758396 0.73799998 -0.0025879198 1.2736336e-38 316 242
-0.0038713599 0.736 -0.0025809065 1.2275718e-38 317 242
-0.0025809065 0.736 -0.0025809065 1.1447768e-38 318 242
-0.0012869467 0.73400003 -0.0025738934 1.2093137e-38 319 242
0 0.73400003 -0.0025738934 1.3839096e-38 320 242
0.0012869467 0.73400003 -0.0025738934 1.4115324e-38 321 242
0.0025738934 0.73400003 -0.0025738934 1.4482267e-38 322 242
0.0038608401 0.73400003 -0.0025738934 1.3284082e-38 323 242
0.0051477868 0.73400003 -0.0025738934 1.1444077e-38 324 242
0.006434733 0.73400003 -0.0025738934 1.1259684e-38 325 242
0.0077216802 0.73400003 -0.0025738934 1.1259977e-38 326 242
0.0090086265 0.73400003 -0.0025738934 9.6926512e-39 327 242
0.010323626 0.736 -0.0025809065 8.2257579e-39 328 242
0.01161408 0.736 -0.0025809065 8.4101506e-39 329 242
0.012904533 0.736 -0.0025809065 8.2240021e-39 330 242
0.014194986 0.736 -0.0025809065 8.5927846e-39 331 242
0.015485439 0.736 -0.0025809065 1.070688e-38 332 242
0.016821479 0.73799998 -0.0025879198 1.1628836e-38 333 242
0.018139986 0.73900002 -0.0025914267 1.2820234e-38 334 242
0.019488299 0.741 -0.0025984398 1.3004266e-38 335 242
0.020815572 0.74199998 -0.0026019465 1.3003199e-38 336 242
0.022116546 0.74199998 -0.0026019465 1.1620265e-38 337 242
0.023480639 0.74400002 -0.00260896 9.962914e-39 338 242
0.024851745 0.74599999 -0.0026159731 9.962914e-39 339 242
0.026159734 0.74599999 -0.0026159731 1.0788359e-38 340 242
0.027578179 0.74900001 -0.0026264933 1.1064587e-38 341 242
0.028891427 0.74900001 -0.0026264933 1.1251485e-38 342 242
0.030325651 0.75199997 -0.0026370131 1.1804659e-38 343 242
-0.02379624 0.75400001 -0.00396604 1.218211e-38 302 243
-0.022414612 0.75199997 -0.0039555198 1.2458695e-38 303 243
-0.021096105 0.75199997 -0.0039555198 1.2917485e-38 304 243
-0.0197776 0.75199997 -0.0039555198 1.2364311e-38 305 243
-0.018459093 0.75199997 -0.0039555198 1.2362865e-38 306 243
-0.017095 0.75 -0.003945 1.2547257e-38 307 243
-0.01575896 0.74900001 -0.0039397399 1.2178863e-38 308 243
-0.014387853 0.74599999 -0.0039239596 9.5051897e-39 309 243
-0.0130448 0.74400002 -0.0039134403 6.8301095e-39 310 243
-0.011740319 0.74400002 -0.0039134403 5.8163163e-39 311 243
-0.010407786 0.74199998 -0.0039029196 5.5436923e-39 312 243
-0.009106813 0.74199998 -0.0039029196 1.0706289e-38 313 243
-0.0077953199 0.741 -0.0038976599 1.2914631e-38 314 243
-0.0064960998 0.741 -0.0038976599 1.27306e-38 315 243
-0.0051828534 0.73900002 -0.00388714 1.2640917e-38 316 243
-0.00388714 0.73900002 -0.00388714 1.2548722e-38 317 243
-0.0025879198 0.73799998 -0.0038818798 1.0706978e-38 318 243
-0.0012904532 0.736 -0.0038713599 1.1075402e-38 319 243
0 0.736 -0.0038713599 1.3378485e-38 320 243
0.0012904532 0.736 -0.0038713599 1.3839463e-38 321 243
0.0025809065 0.736 -0.0038713599 1.4206424e-38 322 243
0.0038713599 0.736 -0.0038713599 1.3930197e-38 323 243
0.005161813 0.736 -0.0038713599 1.3653954e-38 324 243
0.0064522666 0.736 -0.0038713599 1.3192977e-38 325 243
0.0077427197 0.736 -0.0038713599 1.2732666e-38 326 243
0.0090331733 0.736 -0.0038713599 1.1349731e-38 327 243
0.010323626 0.736 -0.0038713599 1.061682e-38 328 243
0.011645639 0.73799998 -0.0038818798 1.0800851e-38 329 243
0.012939599 0.73799998 -0.0038818798 1.0983117e-38 330 243
0.014233559 0.73799998 -0.0038818798 1.1536291e-38 331 243
0.015527519 0.73799998 -0.0038818798 1.2730906e-38 332 243
0.016889861 0.741 -0.0038976599 1.2823103e-38 333 243
0.018213626 0.74199998 -0.0039029196 1.3003912e-38 334 243
0.0195146 0.74199998 -0.0039029196 1.2819881e-38 335 243
0.02087168 0.74400002 -0.0039134403 1.3003918e-38 336 243
0.022235774 0.74599999 -0.0039239596 1.1252202e-38 337 243
0.023543758 0.74599999 -0.0039239596 9.2271482e-39 338 243
0.024885058 0.74699998 -0.0039292197 9.6877662e-39 339 243
0.026264934 0.74900001 -0.0039397399 1.0514287e-38 340 243
0.027615 0.75 -0.003945 1.0698678e-38 341 243
0.029007144 0.75199997 -0.0039555198 1.1160003e-38 342 243
0.030325651 0.75199997 -0.0039555198 1.12522e-38 343 243
0.031644158 0.75199997 -0.0039555198 1.3276891e-38 344 243
-0.022414612 0.75199997 -0.0052740262 1.0708778e-38 303 244
-0.021096105 0.75199997 -0.0052740262 1.1721465e-38 304 244
-0.0198565 0.755 -0.0052950666 1.2274279e-38 305 244
-0.018508185 0.75400001 -0.0052880533 1.3285541e-38 306 244
-0.017140586 0.75199997 -0.0052740262 1.2732726e-38 307 244
-0.01578 0.75 -0.00526 1.0890628e-38 308 244
-0.014407139 0.74699998 -0.0052389596 1.0060868e-38 309 244
-0.013079867 0.74599999 -0.0052319462 9.8696618e-39 310 244
-0.011771879 0.74599999 -0.0052319462 8.3019773e-39 311 244
-0.01043584 0.74400002 -0.0052179201 8.3027088e-39 312 244
-0.0091313599 0.74400002 -0.0052179201 1.1805783e-38 313 244
-0.0078268806 0.74400002 -0.0052179201 1.0243849e-38 314 244
-0.0065048663 0.74199998 -0.0052038929 8.4002966e-39 315 244
-0.0051968796 0.741 -0.0051968796 8.6765262e-39 316 244
-0.0038976599 0.741 -0.0051968796 9.1375058e-39 317 244
-0.0025879198 0.73799998 -0.0051758396 9.7789249e-39 318 244
-0.0012939599 0.73799998 -0.0051758396 9.7789249e-39 319 244
0 0.73799998 -0.0051758396 1.0519361e-38 320 244
0.0012939599 0.73799998 -0.0051758396 1.0888502e-38 321 244
0.0025879198 0.73799998 -0.0051758396 1.0154881e-38 322 244
0.0038818798 0.73799998 -0.0051758396 1.0984641e-38 323 244
0.0051758396 0.73799998 -0.0051758396 1.2549796e-38 324 244
0.0064697997 0.73799998 -0.0051758396 1.2641992e-38 325 244
0.0077637597 0.73799998 -0.0051758396 1.3468122e-38 326 244
0.0090577193 0.73799998 -0.0051758396 1.3099338e-38 327 244
0.010351679 0.73799998 -0.0051758396 1.2731256e-38 328 244
0.011645639 0.73799998 -0.0051758396 1.2731256e-38 329 244
0.012957133 0.73900002 -0.0051828534 1.2914221e-38 330 244
0.014252847 0.73900002 -0.0051828534 1.3006418e-38 331 244
0.01559064 0.741 -0.0051968796 1.3097547e-38 332 244
0.016912652 0.74199998 -0.0052038929 1.3005352e-38 333 244
0.018213626 0.74199998 -0.0052038929 1.2820603e-38 334 244
0.019567199 0.74400002 -0.0052179201 1.2728407e-38 335 244
0.020927785 0.74599999 -0.0052319462 1.2911004e-38 336 244
0.022235774 0.74599999 -0.0052319462 1.1435515e-38 337 244
0.023575317 0.74699998 -0.0052389596 9.6863243e-39 338 244
0.024951685 0.74900001 -0.0052529867 1.0055107e-38 339 244
0.0263 0.75 -0.00526 1.0606483e-38 340 244
0.027688639 0.75199997 -0.0052740262 1.0790874e-38 341 244
0.029122867 0.755 -0.0052950666 1.1342955e-38 342 244
0.030446632 0.755 -0.0052950666 1.1342955e-38 343 244
-0.0198565 0.755 -0.0066188332 1.1999869e-38 305 245
-0.018532733 0.755 -0.0066188332 1.3469941e-38 306 245
-0.017186172 0.75400001 -0.0066100666 1.3008964e-38 307 245
-0.015822079 0.75199997 -0.0065925326 1.0890262e-38 308 245
-0.014465 0.75 -0.006575 1.1074294e-38 309 245
-0.013097399 0.74699998 -0.0065486995 1.2452556e-38 310 245
-0.011771879 0.74599999 -0.0065399334 1.1161817e-38 311 245
-0.010463892 0.74599999 -0.0065399334 9.6870656e-39 312 245
-0.0091559067 0.74599999 -0.0065399334 1.0700859e-38 313 245
-0.0078268806 0.74400002 -0.0065223998 8.4932266e-39 314 245
-0.0065223998 0.74400002 -0.0065223998 6.5571183e-39 315 245
-0.0052038929 0.74199998 -0.0065048663 5.819926e-39 316 245
-0.0039029196 0.74199998 -0.0065048663 5.9121231e-39 317 245
-0.0025984398 0.741 -0.0064960998 6.6457406e-39 318 245
-0.0012992199 0.741 -0.0064960998 6.461348e-39 319 245
0 0.73900002 -0.0064785667 6.8330032e-39 320 245
0.0012957134 0.73900002 -0.0064785667 7.9393493e-39 321 245
0.0025914267 0.73900002 -0.0064785667 6.0100598e-39 322 245
0.00388714 0.73900002 -0.0064785667 7.208603e-39 323 245
0.0051828534 0.73900002 -0.0064785667 1.1719337e-38 324 245
0.0064697997 0.73799998 -0.0064697997 1.2640933e-38 325 245
0.0077637597 0.73799998 -0.0064697997 1.3652178e-38 326 245
0.0090699932 0.73900002 -0.0064785667 1.3467787e-38 327 245
0.010365707 0.73900002 -0.0064785667 1.3283746e-38 328 245
0.01169298 0.741 -0.0064960998 1.3283746e-38 329 245
0.013009733 0.74199998 -0.0065048663 1.328266e-38 330 245
0.014310705 0.74199998 -0.0065048663 1.3190464e-38 331 245
0.015611678 0.74199998 -0.0065048663 1.3004996e-38 332 245
0.016958239 0.74400002 -0.0065223998 1.3004996e-38 333 245
0.018311813 0.74599999 -0.0065399334 1.2819887e-38 334 245
0.019646099 0.74699998 -0.0065486995 1.2727333e-38 335 245
0.020955838 0.74699998 -0.0065486995 1.2449672e-38 336 245
0.022325192 0.74900001 -0.0065662335 1.1527716e-38 337 245
0.02363844 0.74900001 -0.0065662335 1.0698681e-38 338 245
0.024984999 0.75 -0.006575 1.0513931e-38 339 245
0.026615599 0.759 -0.0066538998 1.0513931e-38 340 245
0.028020019 0.76099998 -0.0066714329 1.0698681e-38 341 245
0.029547172 0.76599997 -0.0067152665 1.0883779e-38 342 245
0.031011207 0.76899999 -0.0067415666 1.1252202e-38 343 245
-0.018581826 0.75700003 -0.0079636406 1.0059793e-38 306 246
-0.017208965 0.755 -0.0079425992 1.0889912e-38 307 246
-0.01586416 0.75400001 -0.00793208 1.1442706e-38 308 246
-0.014503572 0.75199997 -0.0079110395 1.2272468e-38 309 246
-0.013132467 0.74900001 -0.0078794798 1.2826736e-38 310 246
-0.01181922 0.74900001 -0.0078794798 1.2089171e-38 311 246
-0.010477919 0.74699998 -0.0078584393 1.1990528e-38 312 246
-0.0091681797 0.74699998 -0.0078584393 1.0976735e-38 313 246
-0.0078479191 0.74599999 -0.0078479191 7.5766624e-39 314 246
-0.0065223998 0.74400002 -0.0078268806 6.7469018e-39 315 246
-0.0052179201 0.74400002 -0.0078268806 5.8206463e-39 316 246
-0.0039029196 0.74199998 -0.0078058392 4.7146575e-39 317 246
-0.0026019465 0.74199998 -0.0078058392 6.6410743e-39 318 246
-0.0013009732 0.74199998 -0.0078058392 6.1800962e-39 319 246
0 0.74199998 -0.0078058392 4.8064972e-39 320 246
0.0012992199 0.741 -0.0077953199 7.6645603e-39 321 246
0.0025984398 0.741 -0.0077953199 8.1186833e-39 322 246
0.0039029196 0.74199998 -0.0078058392 8.8562483e-39 323 246
0.0052038929 0.74199998 -0.0078058392 1.1625339e-38 324 246
0.0065048663 0.74199998 -0.0078058392 1.3100828e-38 325 246
0.0078058392 0.74199998 -0.0078058392 1.3008977e-38 326 246
0.009106813 0.74199998 -0.0078058392 1.2824585e-38 327 246
0.010407786 0.74199998 -0.0078058392 1.3099007e-38 328 246
0.01170876 0.74199998 -0.0078058392 1.328304e-38 329 246
0.0130448 0.74400002 -0.0078268806 1.3190474e-38 330 246
0.014387853 0.74599999 -0.0078479191 1.3098279e-38 331 246
0.015695838 0.74599999 -0.0078479191 1.3097197e-38 332 246
0.017026618 0.74699998 -0.0078584393 1.2912445e-38 333 246
0.018385453 0.74900001 -0.0078794798 1.3003562e-38 334 246
0.0196987 0.74900001 -0.0078794798 1.2542944e-38 335 246
0.021011947 0.74900001 -0.0078794798 1.1897938e-38 336 246
0.022355 0.75 -0.00789 1.1344764e-38 337 246
0.023733119 0.75199997 -0.0079110395 1.1066738e-38 338 246
0.025284819 0.759 -0.0079846792 1.0605761e-38 339 246
0.026685731 0.76099998 -0.0080057196 1.0786555e-38 340 246
0.028020019 0.76099998 -0.0080057196 1.1247533e-38 341 246
0.029547172 0.76599997 -0.0080583189 1.1159637e-38 342 246
0.031011207 0.76899999 -0.0080898795 1.1620615e-38 343 246
-0.01863092 0.759 -0.00931546 8.0318546e-39 306 247
-0.017300138 0.759 -0.00931546 9.4147891e-39 307 247
-0.015885198 0.755 -0.0092663663 1.098353e-38 308 247
-0.014542146 0.75400001 -0.0092540924 1.2089519e-38 309 247
-0.013185065 0.75199997 -0.0092295464 1.1909472e-38 310 247
-0.011835 0.75 -0.0092049995 1.0618733e-38 311 247
-0.010505973 0.74900001 -0.0091927266 1.2087411e-38 312 247
-0.0091927266 0.74900001 -0.0091927266 1.1534238e-38 313 247
-0.0078584393 0.74699998 -0.0091681797 1.1164366e-38 314 247
-0.0065486995 0.74699998 -0.0091681797 1.0795225e-38 315 247
-0.0052389596 0.74699998 -0.0091681797 9.1389463e-39 316 247
-0.0039239596 0.74599999 -0.0091559067 7.4794263e-39 317 247
-0.0026159731 0.74599999 -0.0091559067 6.1908708e-39 318 247
-0.00130448 0.74400002 -0.0091313599 5.0848819e-39 319 247
0 0.74400002 -0.0091313599 7.0181035e-39 320 247
0.00130448 0.74400002 -0.0091313599 8.6772647e-39 321 247
0.00260896 0.74400002 -0.0091313599 6.2869928e-39 322 247
0.0039134403 0.74400002 -0.0091313599 6.9323622e-39 323 247
0.0052179201 0.74400002 -0.0091313599 1.1074683e-38 324 247
0.0065223998 0.74400002 -0.0091313599 1.2457976e-38 325 247
0.0078268806 0.74400002 -0.0091313599 1.3377039e-38 326 247
0.0091559067 0.74599999 -0.0091559067 1.2916062e-38 327 247
0.010463892 0.74599999 -0.0091559067 1.3006459e-38 328 247
0.011771879 0.74599999 -0.0091559067 1.2914263e-38 329 247
0.013079867 0.74599999 -0.0091559067 1.282242e-38 330 247
0.014407139 0.74699998 -0.0091681797 1.263767e-38 331 247
0.01575896 0.74900001 -0.0091927266 1.2912095e-38 332 247
0.017072206 0.74900001 -0.0091927266 1.2635508e-38 333 247
0.018385453 0.74900001 -0.0091927266 1.2542591e-38 334 247
0.019724999 0.75 -0.0092049995 1.2081613e-38 335 247
0.02104 0.75 -0.0092049995 1.1345846e-38 336 247
0.022474226 0.75400001 -0.0092540924 1.0700476e-38 337 247
0.02389092 0.75700003 -0.0092909131 1.0881993e-38 338 247
0.025351444 0.76099998 -0.0093400059 1.032882e-38 339 247
0.0267208 0.76200002 -0.0093522798 9.7785171e-39 340 247
0.028056841 0.76200002 -0.0093522798 1.0331691e-38 341 247
0.029547172 0.76599997 -0.0094013726 1.1711366e-38 342 247
-0.01870456 0.76200002 -0.01068832 8.8540777e-39 306 248
-0.017300138 0.759 -0.01064624 1.0421764e-38 307 248
-0.015885198 0.755 -0.010590133 1.2181382e-38 308 248
-0.014542146 0.75400001 -0.010576107 1.2642721e-38 309 248
-0.013220133 0.75400001 -0.010576107 1.1357031e-38 310 248
-0.011866559 0.75199997 -0.010548052 9.3287269e-39 311 248
-0.010548052 0.75199997 -0.010548052 8.685161e-39 312 248
-0.0092049995 0.75 -0.01052 9.7911498e-39 313 248
-0.00789 0.75 -0.01052 1.2177443e-38 314 248
-0.006575 0.75 -0.01052 1.2822813e-38 315 248
-0.0052529867 0.74900001 -0.010505973 1.2640214e-38 316 248
-0.0039397399 0.74900001 -0.010505973 1.2640214e-38 317 248
-0.0026194798 0.74699998 -0.010477919 1.2731686e-38 318 248
-0.0013097399 0.74699998 -0.010477919 1.2178513e-38 319 248
0 0.74699998 -0.010477919 1.2452586e-38 320 248
0.0013079866 0.74599999 -0.010463892 1.2452586e-38 321 248
0.0026159731 0.74599999 -0.010463892 1.0155607e-38 322 248
0.0039239596 0.74599999 -0.010463892 9.8786609e-39 323 248
0.0052319462 0.74599999 -0.010463892 1.1260149e-38 324 248
0.0065399334 0.74599999 -0.010463892 1.2458692e-38 325 248
0.0078479191 0.74599999 -0.010463892 1.355963e-38 326 248
0.0091681797 0.74699998 -0.010477919 1.2822065e-38 327 248
0.010477919 0.74699998 -0.010477919 1.2820618e-38 328 248
0.011787659 0.74699998 -0.010477919 1.2359642e-38 329 248
0.013132467 0.74900001 -0.010505973 1.2359642e-38 330 248
0.014445714 0.74900001 -0.010505973 1.2267446e-38 331 248
0.01578 0.75 -0.01052 1.2174527e-38 332 248
0.017095 0.75 -0.01052 1.2174527e-38 333 248
0.018409999 0.75 -0.01052 1.153096e-38 334 248
0.019724999 0.75 -0.01052 1.1161817e-38 335 248
0.021096105 0.75199997 -0.010548052 1.0425334e-38 336 248
0.022504034 0.755 -0.010590133 9.4108234e-39 337 248
0.023954039 0.759 -0.01064624 9.8678443e-39 338 248
0.02538476 0.76200002 -0.01068832 1.0144072e-38 339 248
0.0267208 0.76200002 -0.01068832 9.9629084e-39 340 248
0.028130481 0.764 -0.010716373 1.0516082e-38 341 248
0.029547172 0.76599997 -0.010744425 1.1436571e-38 342 248
-0.01736852 0.76200002 -0.01202436 9.4137255e-39 307 249
-0.01603248 0.76200002 -0.01202436 1.310084e-38 308 249
-0.014561433 0.755 -0.011913899 1.3377429e-38 309 249
-0.013220133 0.75400001 -0.01189812 1.1724021e-38 310 249
-0.01189812 0.75400001 -0.01189812 1.0433282e-38 311 249
