# .PCD v.7 - Point Cloud Data file format
FIELDS x y z rgb imX imY
SIZE 4 4 4 4 4 4
TYPE F F F F F F
COUNT 1 1 1 1 1 1
WIDTH 852
HEIGHT 1
VIEWPOINT 0 0 0 1 0 0 0
POINTS 852
DATA ascii
0.01005186 0.63700002 0.081531756 1.4947253e-38 329 167
0.011168733 0.63700002 0.081531756 1.4670296e-38 330 167
0.012304893 0.63800001 0.081659749 1.4394069e-38 331 167
0.01342352 0.63800001 0.081659749 1.4668131e-38 332 167
0.014587732 0.63999999 0.081915729 1.4575577e-38 333 167
0.015709866 0.63999999 0.081915729 1.4113156e-38 334 167
0.016831998 0.63999999 0.081915729 1.3652178e-38 335 167
0.017982185 0.64099997 0.082043722 1.4108469e-38 336 167
0.019135879 0.64200002 0.082171716 1.3924076e-38 337 167
0.020293079 0.64300001 0.082299709 1.3831159e-38 338 167
-0.0033874398 0.64399999 0.08129856 1.5964294e-38 317 168
-0.0022547867 0.64300001 0.081172317 1.6239805e-38 318 168
-0.0011273933 0.64300001 0.081172317 1.6239805e-38 319 168
0 0.64200002 0.081046082 1.6331284e-38 320 168
0.00112564 0.64200002 0.081046082 1.6239089e-38 321 168
0.0022477731 0.64099997 0.080919832 1.5963581e-38 322 168
0.0033716597 0.64099997 0.080919832 1.5778831e-38 323 168
0.0044885329 0.63999999 0.080793597 1.5778465e-38 324 168
0.0056106662 0.63999999 0.080793597 1.5686268e-38 325 168
0.0067117601 0.63800001 0.080541119 1.5685186e-38 326 168
0.007830387 0.63800001 0.080541119 1.5501155e-38 327 168
0.0089770658 0.63999999 0.080793597 1.5407155e-38 328 168
0.01006764 0.63800001 0.080541119 1.4946537e-38 329 168
0.011186266 0.63800001 0.080541119 1.4761773e-38 330 168
0.012343466 0.63999999 0.080793597 1.4485184e-38 331 168
0.013465599 0.63999999 0.080793597 1.4668131e-38 332 168
0.014610525 0.64099997 0.080919832 1.4207154e-38 333 168
0.015734414 0.64099997 0.080919832 1.3928039e-38 334 168
0.016884599 0.64200002 0.081046082 1.3559617e-38 335 168
0.01801024 0.64200002 0.081046082 1.4016625e-38 336 168
0.019165685 0.64300001 0.081172317 1.392443e-38 337 168
0.020513998 0.64999998 0.082055993 1.3831515e-38 338 168
0.021653665 0.64999998 0.082055993 1.3646765e-38 339 168
-0.0022582933 0.64399999 0.08016941 1.59643e-38 318 169
-0.0011291467 0.64399999 0.08016941 1.59643e-38 319 169
0 0.64300001 0.080044925 1.6147256e-38 320 169
0.00112564 0.64200002 0.079920441 1.5963225e-38 321 169
0.0022477731 0.64099997 0.079795949 1.5595521e-38 322 169
0.0033716597 0.64099997 0.079795949 1.541077e-38 323 169
0.0044955462 0.64099997 0.079795949 1.5594435e-38 324 169
0.0056194332 0.64099997 0.079795949 1.550224e-38 325 169
0.0067433193 0.64099997 0.079795949 1.5501155e-38 326 169
0.0078672068 0.64099997 0.079795949 1.5224208e-38 327 169
0.0089910924 0.64099997 0.079795949 1.5223119e-38 328 169
0.0100992 0.63999999 0.079671465 1.4762141e-38 329 169
0.011221332 0.63999999 0.079671465 1.4852889e-38 330 169
0.012362752 0.64099997 0.079795949 1.4484466e-38 331 169
0.013486639 0.64099997 0.079795949 1.4575214e-38 332 169
0.014610525 0.64099997 0.079795949 1.4206071e-38 333 169
0.01575896 0.64200002 0.079920441 1.4111708e-38 334 169
0.016884599 0.64200002 0.079920441 1.3650731e-38 335 169
0.018038293 0.64300001 0.080044925 1.3925507e-38 336 169
0.019314719 0.648 0.080667354 1.3741115e-38 337 169
0.020450879 0.648 0.080667354 1.4014825e-38 338 169
0.021653665 0.64999998 0.08091633 1.3646401e-38 339 169
-0.0022688133 0.64700001 0.079408467 1.6056493e-38 318 170
-0.0011326533 0.64600003 0.079285733 1.5964297e-38 319 170
0 0.64399999 0.079040259 1.5871745e-38 320 170
0.0011291467 0.64399999 0.079040259 1.577955e-38 321 170
0.0022547867 0.64300001 0.078917533 1.5686638e-38 322 170
0.00337692 0.64200002 0.0787948 1.5594441e-38 323 170
0.00450256 0.64200002 0.0787948 1.5593719e-38 324 170
0.0056281998 0.64200002 0.0787948 1.5409328e-38 325 170
0.00675384 0.64200002 0.0787948 1.531748e-38 326 170
0.0078794798 0.64200002 0.0787948 1.4856502e-38 327 170
0.0089910924 0.64099997 0.078672059 1.4947609e-38 328 170
0.010114979 0.64099997 0.078672059 1.4486631e-38 329 170
0.011238866 0.64099997 0.078672059 1.4759971e-38 330 170
0.01238204 0.64200002 0.0787948 1.4483384e-38 331 170
0.01350768 0.64200002 0.0787948 1.4390099e-38 332 170
0.01463332 0.64200002 0.0787948 1.4205708e-38 333 170
0.015783506 0.64300001 0.078917533 1.4111705e-38 334 170
0.0169372 0.64399999 0.079040259 1.3651087e-38 335 170
0.018066347 0.64399999 0.079040259 1.392551e-38 336 170
0.019284913 0.64700001 0.079408467 1.3648563e-38 337 170
0.02041932 0.64700001 0.079408467 1.3831515e-38 338 170
0.021653665 0.64999998 0.079776667 1.3186146e-38 339 170
-0.00227232 0.648 0.078395039 1.6516397e-38 318 171
-0.0011344067 0.64700001 0.078274064 1.6239452e-38 319 171
0 0.64600003 0.078153081 1.5596238e-38 320 171
0.0011326533 0.64600003 0.078153081 1.5411846e-38 321 171
0.0022582933 0.64399999 0.077911116 1.5685915e-38 322 171
0.0033874398 0.64399999 0.077911116 1.5593719e-38 323 171
0.0045165867 0.64399999 0.077911116 1.5501521e-38 324 171
0.0056369668 0.64300001 0.077790141 1.5409325e-38 325 171
0.0067643598 0.64300001 0.077790141 1.5133093e-38 326 171
0.0078794798 0.64200002 0.077669159 1.4764309e-38 327 171
0.00900512 0.64200002 0.077669159 1.5129846e-38 328 171
0.01013076 0.64200002 0.077669159 1.4761422e-38 329 171
0.0112564 0.64200002 0.077669159 1.4943286e-38 330 171
0.01238204 0.64200002 0.077669159 1.4667059e-38 331 171
0.01352872 0.64300001 0.077790141 1.4756724e-38 332 171
0.014656113 0.64300001 0.077790141 1.4388301e-38 333 171
0.015808053 0.64399999 0.077911116 1.4111708e-38 334 171
0.016989801 0.64600003 0.078153081 1.3743285e-38 335 171
0.018122453 0.64600003 0.078153081 1.374148e-38 336 171
0.019284913 0.64700001 0.078274064 1.3373058e-38 337 171
0.02041932 0.64700001 0.078274064 1.3095748e-38 338 171
-0.0022758266 0.64899999 0.077378102 1.6792621e-38 318 172
-0.00113616 0.648 0.077258877 1.6608233e-38 319 172
0 0.64700001 0.077139653 1.5872101e-38 320 172
0.0011344067 0.64700001 0.077139653 1.550332e-38 321 172
0.0022653067 0.64600003 0.077020429 1.586958e-38 322 172
0.00339796 0.64600003 0.077020429 1.586958e-38 323 172
0.0045306133 0.64600003 0.077020429 1.5776666e-38 324 172
0.0056632664 0.64600003 0.077020429 1.5592275e-38 325 172
0.0067748795 0.64399999 0.076781973 1.5133093e-38 326 172
0.0079040267 0.64399999 0.076781973 1.4672113e-38 327 172
0.0090331733 0.64399999 0.076781973 1.5129846e-38 328 172
0.01016232 0.64399999 0.076781973 1.4761422e-38 329 172
0.011273934 0.64300001 0.076662742 1.5035839e-38 330 172
0.012401327 0.64300001 0.076662742 1.4667056e-38 331 172
0.013549759 0.64399999 0.076781973 1.475708e-38 332 172
0.014678906 0.64399999 0.076781973 1.4480494e-38 333 172
0.015857147 0.64600003 0.077020429 1.4294654e-38 334 172
0.0170161 0.64700001 0.077139653 1.4018427e-38 335 172
0.018150507 0.64700001 0.077139653 1.3832957e-38 336 172
0.019284913 0.64700001 0.077139653 1.3187588e-38 337 172
0.02041932 0.64700001 0.077139653 1.1898641e-38 338 172
-0.0022758266 0.64899999 0.076240189 1.5134909e-38 318 173
-0.0011379133 0.64899999 0.076240189 1.6333444e-38 319 173
0 0.64700001 0.07600525 1.7159963e-38 320 173
0.0011344067 0.64700001 0.07600525 1.6606794e-38 321 173
0.0022688133 0.64700001 0.07600525 1.5963575e-38 322 173
0.0034032199 0.64700001 0.07600525 1.5502596e-38 323 173
0.0045376266 0.64700001 0.07600525 1.5408606e-38 324 173
0.0056720334 0.64700001 0.07600525 1.5316411e-38 325 173
0.00679592 0.64600003 0.075887777 1.4857224e-38 326 173
0.0079285735 0.64600003 0.075887777 1.430405e-38 327 173
0.0090612266 0.64600003 0.075887777 1.4854337e-38 328 173
0.01019388 0.64600003 0.075887777 1.4669946e-38 329 173
0.011326533 0.64600003 0.075887777 1.4759976e-38 330 173
0.012459187 0.64600003 0.075887777 1.4575226e-38 331 173
0.01359184 0.64600003 0.075887777 1.4573414e-38 332 173
0.014724494 0.64600003 0.075887777 1.4388664e-38 333 173
0.015857147 0.64600003 0.075887777 1.4479052e-38 334 173
0.0170161 0.64700001 0.07600525 1.3833683e-38 335 173
0.018150507 0.64700001 0.07600525 1.2911001e-38 336 173
0.019314719 0.648 0.076122716 1.1528066e-38 337 173
-0.0011379133 0.64899999 0.075102277 1.4395896e-38 319 174
0 0.64700001 0.07487084 1.5685562e-38 320 174
0.0011344067 0.64700001 0.07487084 1.6423127e-38 321 174
0.0022688133 0.64700001 0.07487084 1.6699342e-38 322 174
0.0034032199 0.64700001 0.07487084 1.6330559e-38 323 174
0.0045376266 0.64700001 0.07487084 1.5411476e-38 324 174
0.0056720334 0.64700001 0.07487084 1.5227085e-38 325 174
0.00679592 0.64600003 0.074755117 1.5591902e-38 326 174
0.0079285735 0.64600003 0.074755117 1.5315315e-38 327 174
0.0090612266 0.64600003 0.074755117 1.5222751e-38 328 174
0.01019388 0.64600003 0.074755117 1.4945804e-38 329 174
0.011326533 0.64600003 0.074755117 1.5035836e-38 330 174
0.012459187 0.64600003 0.074755117 1.4851443e-38 331 174
0.01359184 0.64600003 0.074755117 1.4848201e-38 332 174
0.014747286 0.64700001 0.07487084 1.4387583e-38 333 174
0.015881693 0.64700001 0.07487084 1.383296e-38 334 174
0.0170161 0.64700001 0.07487084 1.3095395e-38 335 174
0.018150507 0.64700001 0.07487084 1.1346552e-38 336 174
0 0.648 0.073850393 1.1353799e-38 320 175
0.00113616 0.648 0.073850393 1.3105158e-38 321 175
0.00227232 0.648 0.073850393 1.4856154e-38 322 175
0.0034032199 0.64700001 0.073736429 1.5593719e-38 323 175
0.0045376266 0.64700001 0.073736429 1.6053973e-38 324 175
0.0056720334 0.64700001 0.073736429 1.6053973e-38 325 175
0.0068064397 0.64700001 0.073736429 1.6603533e-38 326 175
0.0079408465 0.64700001 0.073736429 1.6234752e-38 327 175
0.0090752533 0.64700001 0.073736429 1.6050346e-38 328 175
0.01020966 0.64700001 0.073736429 1.5865597e-38 329 175
0.011344067 0.64700001 0.073736429 1.5403174e-38 330 175
0.012478473 0.64700001 0.073736429 1.4665609e-38 331 175
0.013612879 0.64700001 0.073736429 1.4386131e-38 332 175
0.014747286 0.64700001 0.073736429 1.3095392e-38 333 175
0.015881693 0.64700001 0.073736429 1.1530217e-38 334 175
0.0170424 0.648 0.073850393 1.0700098e-38 335 175
0.0011379133 0.64899999 0.072826453 1.1348379e-38 321 176
0.00227232 0.648 0.072714239 1.2267837e-38 322 176
0.00340848 0.648 0.072714239 1.2913206e-38 323 176
0.00454464 0.648 0.072714239 1.2823885e-38 324 176
0.0056807999 0.648 0.072714239 1.3469254e-38 325 176
0.0068064397 0.64700001 0.072602026 1.448051e-38 326 176
0.0079408465 0.64700001 0.072602026 1.4573064e-38 327 176
0.0090892799 0.648 0.072714239 1.374473e-38 328 176
0.01020966 0.64700001 0.072602026 1.309936e-38 329 176
0.011344067 0.64700001 0.072602026 1.2819534e-38 330 176
0.012478473 0.64700001 0.072602026 1.2081969e-38 331 176
0.013612879 0.64700001 0.072602026 1.1620265e-38 332 176
0.014747286 0.64700001 0.072602026 1.1435515e-38 333 176
0.0034189997 0.64999998 0.071798995 1.0603965e-38 323 177
0.0045516533 0.64899999 0.07168854 9.7778137e-39 324 177
0.0056895665 0.64899999 0.07168854 1.0054759e-38 325 177
0.0068274797 0.64899999 0.07168854 1.1066753e-38 326 177
0.0079531204 0.648 0.071578078 1.1066753e-38 327 177
0.0090892799 0.648 0.071578078 9.7785325e-39 328 177
0.01024122 0.64899999 0.07168854 9.1331631e-39 329 177
0.011396666 0.64999998 0.071798995 9.5901854e-39 330 177
0.012536332 0.64999998 0.071798995 9.5901854e-39 331 177
0.013675999 0.64999998 0.071798995 9.8664094e-39 332 177
0.014815666 0.64999998 0.071798995 1.0973117e-38 333 177
0.012536332 0.64999998 0.070659332 1.4381815e-38 331 178
0.013675999 0.64999998 0.070659332 1.4659844e-38 332 178
0.014815666 0.64999998 0.070659332 1.4844235e-38 333 178
-0.034156688 0.847 0.035641756 1.7147661e-38 297 216
-0.035641756 0.847 0.034156688 1.8068899e-38 296 217
-0.034076035 0.84500003 0.034076035 1.7239138e-38 297 217
-0.032594465 0.84500003 0.034076035 1.4940709e-38 298 217
-0.034076035 0.84500003 0.032594465 1.7424248e-38 297 218
-0.024451986 0.73400003 0.024451986 1.0248381e-38 301 221
-0.025738932 0.73400003 0.023165042 1.1815331e-38 300 222
-0.024451986 0.73400003 0.023165042 1.015617e-38 301 222
-0.023165042 0.73400003 0.023165042 1.0249474e-38 302 222
-0.024451986 0.73400003 0.021878093 1.0617497e-38 301 223
-0.023165042 0.73400003 0.021878093 1.0524592e-38 302 223
-0.024418673 0.73299998 0.020563092 1.0986281e-38 301 224
-0.02307036 0.73100001 0.020506985 1.1168144e-38 302 224
-0.021758866 0.73000002 0.020478934 1.0984113e-38 303 224
-0.020478934 0.73000002 0.020478934 1.0709735e-38 304 224
-0.024318734 0.73000002 0.019199001 1.144654e-38 301 225
-0.023038799 0.73000002 0.019199001 1.1630189e-38 302 225
-0.021758866 0.73000002 0.019199001 1.1445439e-38 303 225
-0.020422826 0.72799999 0.0191464 1.0801536e-38 304 225
-0.019120099 0.727 0.019120099 1.0801536e-38 305 225
-0.017845426 0.727 0.019120099 1.080195e-38 306 225
-0.024318734 0.73000002 0.017919067 1.1722767e-38 301 226
-0.023038799 0.73000002 0.017919067 1.2181908e-38 302 226
-0.021758866 0.73000002 0.017919067 1.1997517e-38 303 226
-0.020422826 0.72799999 0.017869972 1.0803294e-38 304 226
-0.019120099 0.727 0.017845426 1.0342316e-38 305 226
-0.017796334 0.72500002 0.017796334 1.0158687e-38 306 226
-0.01647958 0.72299999 0.017747238 1.0804056e-38 307 226
-0.015211919 0.72299999 0.017747238 1.1995113e-38 308 226
-0.024252106 0.72799999 0.016593546 1.172277e-38 301 227
-0.022975679 0.72799999 0.016593546 1.163233e-38 302 227
-0.021699252 0.72799999 0.016593546 1.1263549e-38 303 227
-0.020422826 0.72799999 0.016593546 1.0529207e-38 304 227
-0.019120099 0.727 0.016570752 1.0344457e-38 305 227
-0.017796334 0.72500002 0.016525166 1.0159725e-38 306 227
-0.01647958 0.72299999 0.01647958 1.0343756e-38 307 227
-0.015211919 0.72299999 0.01647958 1.0343097e-38 308 227
-0.01394426 0.72299999 0.01647958 1.0619684e-38 309 227
-0.012659066 0.722 0.016456785 1.162741e-38 310 227
-0.01139316 0.722 0.016456785 1.162741e-38 311 227
0.01134582 0.71899998 0.016388407 1.1802492e-38 329 227
0.0125714 0.71700001 0.016342819 1.226311e-38 330 227
0.013828539 0.71700001 0.016342819 1.226311e-38 331 227
0.026584039 0.722 0.016456785 1.0062901e-38 341 227
0.027849946 0.722 0.016456785 9.6948162e-39 342 227
-0.024252106 0.72799999 0.01531712 1.1722048e-38 301 228
-0.022975679 0.72799999 0.01531712 1.1448646e-38 302 228
-0.021699252 0.72799999 0.01531712 1.1172059e-38 303 228
-0.020422826 0.72799999 0.01531712 1.0529186e-38 304 228
-0.019120099 0.727 0.015296079 1.043699e-38 305 228
-0.017845426 0.727 0.015296079 1.0069649e-38 306 228
-0.016525166 0.72500002 0.015254001 9.7934227e-39 307 228
-0.015211919 0.72299999 0.015211919 9.7001887e-39 308 228
-0.01394426 0.72299999 0.015211919 1.0253363e-38 309 228
-0.012659066 0.722 0.015190879 1.0434587e-38 310 228
-0.01139316 0.722 0.015190879 1.0619338e-38 311 228
-0.010127253 0.722 0.015190879 1.1167881e-38 312 228
-0.0088613462 0.722 0.015190879 1.1167881e-38 313 228
0.01134582 0.71899998 0.01512776 1.2079798e-38 329 228
0.0125714 0.71700001 0.015085679 1.2356735e-38 330 228
0.013828539 0.71700001 0.015085679 1.2541127e-38 331 228
0.025353199 0.72299999 0.015211919 9.6962231e-39 340 228
0.026584039 0.722 0.015190879 9.97281e-39 341 228
0.027849946 0.722 0.015190879 1.0613528e-38 342 228
0.029438468 0.73000002 0.0153592 1.0429497e-38 343 228
-0.025528532 0.72799999 0.014040692 1.2827335e-38 300 229
-0.024252106 0.72799999 0.014040692 1.1629152e-38 301 229
-0.022975679 0.72799999 0.014040692 1.1356453e-38 302 229
-0.021758866 0.73000002 0.014079267 1.1263899e-38 303 229
-0.020422826 0.72799999 0.014040692 1.1081266e-38 304 229
-0.0191464 0.72799999 0.014040692 1.0712485e-38 305 229
-0.017869972 0.72799999 0.014040692 1.0253655e-38 306 229
-0.016570752 0.727 0.014021406 1.0161458e-38 307 229
-0.015296079 0.727 0.014021406 9.976735e-39 308 229
-0.013982833 0.72500002 0.013982833 1.0161485e-38 309 229
-0.012676599 0.72299999 0.01394426 9.7001859e-39 310 229
-0.01139316 0.722 0.013924973 9.6079903e-39 311 229
-0.010127253 0.722 0.013924973 9.9757415e-39 312 229
-0.0088613462 0.722 0.013924973 1.0528914e-38 313 229
0.0012553866 0.71600002 0.013809253 1.2635487e-38 321 229
0.0025037599 0.71399999 0.01377068 1.272696e-38 322 229
0.0037556398 0.71399999 0.01377068 1.272696e-38 323 229
0.0050215465 0.71600002 0.013809253 1.2634041e-38 324 229
0.0062769335 0.71600002 0.013809253 1.2726237e-38 325 229
0.00753232 0.71600002 0.013809253 1.272696e-38 326 229
0.0087877065 0.71600002 0.013809253 1.2819155e-38 327 229
0.01005712 0.71700001 0.013828539 1.2542927e-38 328 229
0.01131426 0.71700001 0.013828539 1.2450373e-38 329 229
0.0125714 0.71700001 0.013828539 1.2176653e-38 330 229
0.013828539 0.71700001 0.013828539 1.2176653e-38 331 229
0.02281788 0.72299999 0.01394426 9.6966014e-39 338 229
0.024085538 0.72299999 0.01394426 9.6040471e-39 339 229
0.025353199 0.72299999 0.01394426 1.0064658e-38 340 229
0.026620859 0.72299999 0.01394426 1.0156854e-38 341 229
0.02788852 0.72299999 0.01394426 1.0429497e-38 342 229
0.029438468 0.73000002 0.014079267 1.0337302e-38 343 229
0.030886721 0.73400003 0.014156413 1.1072381e-38 344 229
-0.025598666 0.73000002 0.012799333 1.3747149e-38 300 230
-0.024318734 0.73000002 0.012799333 1.2179464e-38 301 230
-0.023038799 0.73000002 0.012799333 1.2733287e-38 302 230
-0.021758866 0.73000002 0.012799333 1.2733287e-38 303 230
-0.020478934 0.73000002 0.012799333 1.2274422e-38 304 230
-0.019199001 0.73000002 0.012799333 1.1813444e-38 305 230
-0.017869972 0.72799999 0.012764266 1.0989409e-38 306 230
-0.016593546 0.72799999 0.012764266 1.0712826e-38 307 230
-0.015296079 0.727 0.012746733 1.0161813e-38 308 230
-0.013982833 0.72500002 0.012711667 1.0161813e-38 309 230
-0.012676599 0.72299999 0.012676599 9.793043e-39 310 230
-0.01140894 0.72299999 0.012676599 9.5168162e-39 311 230
-0.010127253 0.722 0.012659066 9.517224e-39 312 230
-0.0088367993 0.72000003 0.012624 1.0162593e-38 313 230
-0.0075743999 0.72000003 0.012624 1.0344544e-38 314 230
-0.0063120001 0.72000003 0.012624 1.0436739e-38 315 230
-0.0037714199 0.71700001 0.0125714 1.0618297e-38 317 230
-0.0025142799 0.71700001 0.0125714 1.0799468e-38 318 230
-0.00125714 0.71700001 0.0125714 1.1076054e-38 319 230
0 0.71600002 0.012553867 1.1442319e-38 320 230
0.0012553866 0.71600002 0.012553867 1.1442319e-38 321 230
0.0025037599 0.71399999 0.012518799 1.1716029e-38 322 230
0.0037556398 0.71399999 0.012518799 1.1808584e-38 323 230
0.0050215465 0.71600002 0.012553867 1.1991896e-38 324 230
0.0062769335 0.71600002 0.012553867 1.2176287e-38 325 230
0.00753232 0.71600002 0.012553867 1.1901142e-38 326 230
0.0087877065 0.71600002 0.012553867 1.153272e-38 327 230
0.01005712 0.71700001 0.0125714 1.0983134e-38 328 230
0.01131426 0.71700001 0.0125714 1.0983134e-38 329 230
0.0125714 0.71700001 0.0125714 1.1076035e-38 330 230
0.013867113 0.71899998 0.012606465 1.1076035e-38 331 230
0.0151488 0.72000003 0.012624 1.0156931e-38 332 230
0.016456785 0.722 0.012659066 1.0064734e-38 333 230
0.017722692 0.722 0.012659066 1.0249437e-38 334 230
0.0189886 0.722 0.012659066 9.8806564e-39 335 230
0.020254506 0.722 0.012659066 1.0063561e-38 336 230
0.02281788 0.72299999 0.012676599 9.6025827e-39 338 230
0.024085538 0.72299999 0.012676599 9.9713638e-39 339 230
0.025353199 0.72299999 0.012676599 9.9721093e-39 340 230
0.026804959 0.72799999 0.012764266 9.8799137e-39 341 230
0.028081384 0.72799999 0.012764266 1.0611384e-38 342 230
0.029438468 0.73000002 0.012799333 1.0980166e-38 343 230
0.030886721 0.73400003 0.012869466 1.1254624e-38 344 230
0.032173667 0.73400003 0.012869466 1.1254624e-38 345 230
-0.025633732 0.73100001 0.01153518 1.4667329e-38 300 231
-0.024352046 0.73100001 0.01153518 1.3007808e-38 301 231
-0.02307036 0.73100001 0.01153518 1.3376878e-38 302 231
-0.021788673 0.73100001 0.01153518 1.3192485e-38 303 231
-0.020506985 0.73100001 0.01153518 1.2550662e-38 304 231
-0.019199001 0.73000002 0.011519399 1.1905293e-38 305 231
-0.017919067 0.73000002 0.011519399 1.1264556e-38 306 231
-0.016593546 0.72799999 0.01148784 1.1080168e-38 307 231
-0.01531712 0.72799999 0.01148784 1.0713185e-38 308 231
-0.014021406 0.727 0.01147206 1.0529155e-38 309 231
-0.012711667 0.72500002 0.0114405 1.0344766e-38 310 231
-0.01140894 0.72299999 0.01140894 1.0160737e-38 311 231
-0.010127253 0.722 0.01139316 9.7012397e-39 312 231
-0.0088367993 0.72000003 0.011361601 1.0346609e-38 313 231
-0.0075743999 0.72000003 0.011361601 1.0528189e-38 314 231
-0.0063120001 0.72000003 0.011361601 1.0712941e-38 315 231
-0.0050496003 0.72000003 0.011361601 1.0802999e-38 316 231
-0.0037714199 0.71700001 0.01131426 1.0895196e-38 317 231
-0.0025142799 0.71700001 0.01131426 1.0801577e-38 318 231
-0.00125714 0.71700001 0.01131426 1.0893774e-38 319 231
0 0.71600002 0.01129848 1.0985245e-38 320 231
0.0012553866 0.71600002 0.01129848 1.0524269e-38 321 231
0.0025107733 0.71600002 0.01129848 1.0337354e-38 322 231
0.00376616 0.71600002 0.01129848 1.0522104e-38 323 231
0.0050215465 0.71600002 0.01129848 1.0797258e-38 324 231
0.0062769335 0.71600002 0.01129848 1.1350432e-38 325 231
0.00753232 0.71600002 0.01129848 1.0799776e-38 326 231
0.0087999795 0.71700001 0.01131426 1.0339157e-38 327 231
0.01005712 0.71700001 0.01131426 1.0065788e-38 328 231
0.01134582 0.71899998 0.01134582 1.0157983e-38 329 231
0.012606465 0.71899998 0.01134582 1.0341986e-38 330 231
0.0138864 0.72000003 0.011361601 9.9732051e-39 331 231
0.0151488 0.72000003 0.011361601 9.1466492e-39 332 231
0.016456785 0.722 0.01139316 9.3306803e-39 333 231
0.017722692 0.722 0.01139316 9.6969251e-39 334 231
0.0189886 0.722 0.01139316 9.6969251e-39 335 231
0.020254506 0.722 0.01139316 9.7873201e-39 336 231
0.021550218 0.72299999 0.01140894 9.3263419e-39 337 231
0.022944121 0.727 0.01147206 9.3252896e-39 338 231
0.024252106 0.72799999 0.01148784 9.6022352e-39 339 231
0.025528532 0.72799999 0.01148784 9.8770592e-39 340 231
0.026804959 0.72799999 0.01148784 9.8770592e-39 341 231
0.028158534 0.73000002 0.011519399 1.0335542e-38 342 231
0.029438468 0.73000002 0.011519399 1.0888715e-38 343 231
0.030886721 0.73400003 0.011582521 1.1437946e-38 344 231
-0.024418673 0.73299998 0.010281546 1.4480455e-38 301 232
-0.023133477 0.73299998 0.010281546 1.3286148e-38 302 232
-0.021878093 0.73400003 0.010295574 1.2271997e-38 303 232
-0.020563092 0.73299998 0.010281546 1.1907825e-38 304 232
-0.019225299 0.73100001 0.010253493 1.1539044e-38 305 232
-0.017943613 0.73100001 0.010253493 1.1355702e-38 306 232
-0.016639132 0.73000002 0.010239467 1.098728e-38 307 232
-0.01531712 0.72799999 0.010211413 1.0620643e-38 308 232
-0.014040692 0.72799999 0.010211413 1.0712838e-38 309 232
-0.012746733 0.727 0.010197386 1.0621349e-38 310 232
-0.01140894 0.72299999 0.01014128 1.0529155e-38 311 232
-0.010127253 0.722 0.010127253 1.0712132e-38 312 232
-0.0088613462 0.722 0.010127253 1.117311e-38 313 232
-0.0075743999 0.72000003 0.010099201 1.080511e-38 314 232
-0.0063120001 0.72000003 0.010099201 1.080511e-38 315 232
-0.0050496003 0.72000003 0.010099201 1.08959e-38 316 232
-0.0037714199 0.71700001 0.01005712 1.0988096e-38 317 232
-0.0025142799 0.71700001 0.01005712 1.0987395e-38 318 232
-0.00125714 0.71700001 0.01005712 1.0987395e-38 319 232
0 0.71700001 0.01005712 1.0711534e-38 320 232
0.00125714 0.71700001 0.01005712 1.0342391e-38 321 232
0.0025142799 0.71700001 0.01005712 1.0340226e-38 322 232
0.0037714199 0.71700001 0.01005712 1.0155835e-38 323 232
0.0050285598 0.71700001 0.01005712 1.033986e-38 324 232
0.0062857 0.71700001 0.01005712 1.0616087e-38 325 232
0.0075428397 0.71700001 0.01005712 1.0433848e-38 326 232
0.0087999795 0.71700001 0.01005712 1.0341293e-38 327 232
0.010085173 0.71899998 0.010085173 1.015904e-38 328 232
0.01134582 0.71899998 0.010085173 1.0066485e-38 329 232
0.012624 0.72000003 0.010099201 9.9746092e-39 330 232
0.0138864 0.72000003 0.010099201 9.6058253e-39 331 232
0.0151488 0.72000003 0.010099201 9.5135946e-39 332 232
0.016456785 0.722 0.010127253 9.5135946e-39 333 232
0.017747238 0.72299999 0.01014128 9.7880207e-39 334 232
0.019014901 0.72299999 0.01014128 9.6039896e-39 335 232
0.020282559 0.72299999 0.01014128 9.9695505e-39 336 232
0.021550218 0.72299999 0.01014128 9.7847991e-39 337 232
0.022944121 0.727 0.010197386 9.6000702e-39 338 232
0.024252106 0.72799999 0.010211413 9.7841027e-39 339 232
0.025528532 0.72799999 0.010211413 1.0059283e-38 340 232
0.026878599 0.73000002 0.010239467 1.0151478e-38 341 232
0.028197108 0.73100001 0.010253493 1.042809e-38 342 232
0.029882059 0.741 0.010393759 1.0704317e-38 343 232
-0.024451986 0.73400003 0.0090086265 1.5309879e-38 301 233
-0.023165042 0.73400003 0.0090086265 1.3930092e-38 302 233
-0.021937706 0.736 0.0090331733 1.2362767e-38 303 233
-0.020591147 0.73400003 0.0090086265 1.1445753e-38 304 233
-0.019277899 0.73299998 0.0089963535 1.1353557e-38 305 233
-0.017943613 0.73100001 0.0089718066 1.0987293e-38 306 233
-0.016639132 0.73000002 0.0089595336 1.1172044e-38 307 233
-0.0153592 0.73000002 0.0089595336 1.1447549e-38 308 233
-0.014040692 0.72799999 0.0089349858 1.1263156e-38 309 233
-0.012746733 0.727 0.0089227129 1.1446794e-38 310 233
-0.0114405 0.72500002 0.0088981669 1.1354239e-38 311 233
-0.01014128 0.72299999 0.0088736191 1.1446804e-38 312 233
-0.0088613462 0.722 0.0088613462 1.1907782e-38 313 233
-0.0075743999 0.72000003 0.0088367993 1.2732936e-38 314 233
-0.0063120001 0.72000003 0.0088367993 1.2825132e-38 315 233
-0.0050496003 0.72000003 0.0088367993 1.2456747e-38 316 233
-0.0037819401 0.71899998 0.0088245263 1.2732976e-38 317 233
-0.0025212932 0.71899998 0.0088245263 1.2548957e-38 318 233
-0.0012624001 0.72000003 0.0088367993 1.2364564e-38 319 233
0 0.71899998 0.0088245263 1.1630259e-38 320 233
0.0012606466 0.71899998 0.0088245263 1.1630259e-38 321 233
0.0025142799 0.71700001 0.0087999795 1.0892328e-38 322 233
0.0037714199 0.71700001 0.0087999795 1.0707937e-38 323 233
0.0050285598 0.71700001 0.0087999795 1.0708637e-38 324 233
0.0062857 0.71700001 0.0087999795 1.0893029e-38 325 233
0.0075428397 0.71700001 0.0087999795 1.1077044e-38 326 233
0.0088245263 0.71899998 0.0088245263 1.1077044e-38 327 233
0.010085173 0.71899998 0.0088245263 1.1260694e-38 328 233
0.011361601 0.72000003 0.0088367993 1.0892271e-38 329 233
0.012659066 0.722 0.0088613462 1.0799677e-38 330 233
0.013924973 0.722 0.0088613462 1.0431255e-38 331 233
0.015190879 0.722 0.0088613462 1.0430153e-38 332 233
0.016456785 0.722 0.0088613462 1.0337958e-38 333 233
0.017747238 0.72299999 0.0088736191 1.06131e-38 334 233
0.019014901 0.72299999 0.0088736191 1.0520904e-38 335 233
0.020282559 0.72299999 0.0088736191 1.070315e-38 336 233
0.021669446 0.727 0.0089227129 1.0334367e-38 337 233
0.022975679 0.72799999 0.0089349858 9.7830321e-39 338 233
0.024318734 0.73000002 0.0089595336 9.8752291e-39 339 233
0.025598666 0.73000002 0.0089595336 9.4171559e-39 340 233
0.026915418 0.73100001 0.0089718066 9.8781354e-39 341 233
0.028197108 0.73100001 0.0089718066 1.1346454e-38 342 233
0.029882059 0.741 0.0090945391 1.1253898e-38 343 233
0.03118128 0.741 0.0090945391 1.1805668e-38 344 233
-0.024518613 0.736 0.0077427197 1.5771599e-38 301 234
-0.023228159 0.736 0.0077427197 1.5310232e-38 302 234
-0.021937706 0.736 0.0077427197 1.4296439e-38 303 234
-0.020591147 0.73400003 0.0077216802 1.3011428e-38 304 234
-0.019277899 0.73299998 0.0077111595 1.3011428e-38 305 234
-0.017992707 0.73299998 0.0077111595 1.3196535e-38 306 234
-0.016661927 0.73100001 0.00769012 1.3749709e-38 307 234
-0.0153592 0.73000002 0.0076795998 1.4208888e-38 308 234
-0.014079267 0.73000002 0.0076795998 1.3563518e-38 309 234
-0.012764266 0.72799999 0.0076585598 1.3012787e-38 310 234
-0.01147206 0.727 0.0076480396 1.1353264e-38 311 234
-0.010169334 0.72500002 0.0076270006 1.2089365e-38 312 234
-0.0088736191 0.72299999 0.0076059597 1.3287908e-38 313 234
-0.0075954394 0.722 0.0075954394 1.3928635e-38 314 234
-0.0063295332 0.722 0.0075954394 1.3836079e-38 315 234
-0.0050636264 0.722 0.0075954394 1.3835335e-38 316 234
-0.0037977197 0.722 0.0075954394 1.328252e-38 317 234
-0.0025248001 0.72000003 0.0075743999 1.254817e-38 318 234
-0.0012624001 0.72000003 0.0075743999 1.2364138e-38 319 234
0 0.71899998 0.0075638802 1.2549256e-38 320 234
0.0012606466 0.71899998 0.0075638802 1.2272309e-38 321 234
0.0025212932 0.71899998 0.0075638802 1.1535472e-38 322 234
0.0037819401 0.71899998 0.0075638802 1.1443277e-38 323 234
0.0050425865 0.71899998 0.0075638802 1.1168497e-38 324 234
0.0063032326 0.71899998 0.0075638802 1.1168497e-38 325 234
0.0075743999 0.72000003 0.0075743999 1.171988e-38 326 234
0.0088367993 0.72000003 0.0075743999 1.1903911e-38 327 234
0.010127253 0.722 0.0075954394 1.1902803e-38 328 234
0.01139316 0.722 0.0075954394 1.0981207e-38 329 234
0.012676599 0.72299999 0.0076059597 1.0890415e-38 330 234
0.01394426 0.72299999 0.0076059597 1.0705664e-38 331 234
0.015211919 0.72299999 0.0076059597 1.0613824e-38 332 234
0.01647958 0.72299999 0.0076059597 1.0798217e-38 333 234
0.017747238 0.72299999 0.0076059597 1.0982964e-38 334 234
0.0190675 0.72500002 0.0076270006 1.0706017e-38 335 234
0.020394772 0.727 0.0076480396 1.0336162e-38 336 234
0.021699252 0.72799999 0.0076585598 1.0059576e-38 337 234
0.022975679 0.72799999 0.0076585598 9.8748494e-39 338 234
0.024352046 0.73100001 0.00769012 9.5986226e-39 339 234
0.025633732 0.73100001 0.00769012 9.4160685e-39 340 234
0.026915418 0.73100001 0.00769012 1.0890838e-38 341 234
0.028505694 0.73900002 0.0077742799 1.162089e-38 342 234
0.029882059 0.741 0.0077953199 1.1344301e-38 343 234
0.031223357 0.74199998 0.0078058392 1.226629e-38 344 234
0.032524332 0.74199998 0.0078058392 1.3372998e-38 345 234
-0.023228159 0.736 0.0064522666 1.5403898e-38 302 235
-0.021937706 0.736 0.0064522666 1.4205355e-38 303 235
-0.020591147 0.73400003 0.006434733 1.3378814e-38 304 235
-0.019304199 0.73400003 0.006434733 1.3655403e-38 305 235
-0.017992707 0.73299998 0.0064259665 1.4668832e-38 306 235
-0.016707512 0.73299998 0.0064259665 1.4853224e-38 307 235
-0.01538024 0.73100001 0.006408433 1.4577715e-38 308 235
-0.014098554 0.73100001 0.006408433 1.4393324e-38 309 235
-0.012799333 0.73000002 0.0063996664 1.4300717e-38 310 235
-0.01148784 0.72799999 0.0063821329 1.3286205e-38 311 235
-0.010197386 0.727 0.0063733663 1.3286175e-38 312 235
-0.0088981669 0.72500002 0.0063558333 1.3562401e-38 313 235
-0.0076059597 0.72299999 0.0063382997 1.3376918e-38 314 235
-0.0063382997 0.72299999 0.0063382997 1.3284723e-38 315 235
-0.0050706398 0.72299999 0.0063382997 1.3102442e-38 316 235
-0.0037977197 0.722 0.0063295332 1.2641464e-38 317 235
-0.0025318132 0.722 0.0063295332 1.2732901e-38 318 235
-0.0012659066 0.722 0.0063295332 1.2640706e-38 319 235
0 0.72000003 0.0063120001 1.2824721e-38 320 235
0.0012624001 0.72000003 0.0063120001 1.2271548e-38 321 235
0.0025248001 0.72000003 0.0063120001 1.2087179e-38 322 235
0.0037872 0.72000003 0.0063120001 1.2363407e-38 323 235
0.0050496003 0.72000003 0.0063120001 1.2178688e-38 324 235
0.0063120001 0.72000003 0.0063120001 1.2178688e-38 325 235
0.0075954394 0.722 0.0063295332 1.2454552e-38 326 235
0.0088613462 0.722 0.0063295332 1.1993573e-38 327 235
0.01014128 0.72299999 0.0063382997 1.1810236e-38 328 235
0.01140894 0.72299999 0.0063382997 1.1257062e-38 329 235
0.012676599 0.72299999 0.0063382997 1.1440718e-38 330 235
0.01394426 0.72299999 0.0063382997 1.1348163e-38 331 235
0.015296079 0.727 0.0063733663 1.2084285e-38 332 235
0.016570752 0.727 0.0063733663 1.2084285e-38 333 235
0.017845426 0.727 0.0063733663 1.1350314e-38 334 235
0.019120099 0.727 0.0063733663 1.0612749e-38 335 235
0.020422826 0.72799999 0.0063821329 9.8755528e-39 336 235
0.021699252 0.72799999 0.0063821329 9.8755528e-39 337 235
0.023038799 0.73000002 0.0063996664 1.0241484e-38 338 235
0.024352046 0.73100001 0.006408433 1.0149288e-38 339 235
0.025703866 0.73299998 0.0064259665 9.7834245e-39 340 235
0.02702588 0.73400003 0.006434733 1.0797218e-38 341 235
0.028582839 0.741 0.0064960998 1.162198e-38 342 235
0.029922385 0.74199998 0.0065048663 1.1898568e-38 343 235
0.031223357 0.74199998 0.0065048663 1.3461609e-38 344 235
0.032524332 0.74199998 0.0065048663 1.4199534e-38 345 235
0.033825304 0.74199998 0.0065048663 1.7606476e-38 346 235
-0.024518613 0.736 0.005161813 1.5405346e-38 301 236
-0.023228159 0.736 0.005161813 1.4944366e-38 302 236
-0.021937706 0.736 0.005161813 1.3653627e-38 303 236
-0.020647252 0.736 0.005161813 1.3008614e-38 304 236
-0.019304199 0.73400003 0.0051477868 1.3284841e-38 305 236
-0.018017253 0.73400003 0.0051477868 1.4668131e-38 306 236
-0.016730307 0.73400003 0.0051477868 1.4760327e-38 307 236
-0.015422319 0.73299998 0.005140773 1.4117828e-38 308 236
-0.014137126 0.73299998 0.005140773 1.4025274e-38 309 236
-0.012816866 0.73100001 0.0051267464 1.4484788e-38 310 236
-0.011519399 0.73000002 0.0051197335 1.420856e-38 311 236
-0.010211413 0.72799999 0.0051057064 1.4208169e-38 312 236
-0.0089349858 0.72799999 0.0051057064 1.3378049e-38 313 236
-0.0076480396 0.727 0.0050986931 1.3285834e-38 314 236
-0.0063558333 0.72500002 0.0050846669 1.3285834e-38 315 236
-0.0050846669 0.72500002 0.0050846669 1.292065e-38 316 236
-0.0038029798 0.72299999 0.0050706398 1.3197238e-38 317 236
-0.0025353199 0.72299999 0.0050706398 1.3655698e-38 318 236
-0.0012659066 0.722 0.0050636264 1.3563503e-38 319 236
0 0.722 0.0050636264 1.2824839e-38 320 236
0.0012659066 0.722 0.0050636264 1.2271665e-38 321 236
0.0025318132 0.722 0.0050636264 1.2546805e-38 322 236
0.0037977197 0.722 0.0050636264 1.3099978e-38 323 236
0.0050636264 0.722 0.0050636264 1.3007783e-38 324 236
0.0063295332 0.722 0.0050636264 1.2546805e-38 325 236
0.0076059597 0.72299999 0.0050706398 1.2546763e-38 326 236
0.0088736191 0.72299999 0.0050706398 1.1625166e-38 327 236
0.01014128 0.72299999 0.0050706398 1.1809167e-38 328 236
0.0114405 0.72500002 0.0050846669 1.1716971e-38 329 236
0.012676599 0.72299999 0.0050706398 1.1533339e-38 330 236
0.01394426 0.72299999 0.0050706398 1.1902123e-38 331 236
0.015296079 0.727 0.0050986931 1.3004543e-38 332 236
0.016593546 0.72799999 0.0051057064 1.2820152e-38 333 236
0.017869972 0.72799999 0.0051057064 1.1532265e-38 334 236
0.0191464 0.72799999 0.0051057064 1.07947e-38 335 236
0.020422826 0.72799999 0.0051057064 9.5068292e-39 336 236
0.021758866 0.73000002 0.0051197335 9.9678059e-39 337 236
0.02307036 0.73100001 0.0051267464 1.1069863e-38 338 236
0.024451986 0.73400003 0.0051477868 1.1254254e-38 339 236
0.025809066 0.736 0.005161813 1.0611795e-38 340 236
0.027283618 0.741 0.0051968796 1.1072772e-38 341 236
0.028582839 0.741 0.0051968796 1.2081921e-38 342 236
0.029922385 0.74199998 0.0052038929 1.2819486e-38 343 236
0.031223357 0.74199998 0.0052038929 1.4014089e-38 344 236
0.032524332 0.74199998 0.0052038929 1.4475067e-38 345 236
0.033825304 0.74199998 0.0052038929 1.7513927e-38 346 236
-0.023291279 0.73799998 0.0038818798 1.540499e-38 302 237
-0.021997318 0.73799998 0.0038818798 1.4299002e-38 303 237
-0.020647252 0.736 0.0038713599 9.6031488e-39 304 237
-0.019356798 0.736 0.0038713599 8.9577794e-39 305 237
-0.018017253 0.73400003 0.0038608401 1.2550172e-38 306 237
-0.016730307 0.73400003 0.0038608401 1.3656161e-38 307 237
-0.01544336 0.73400003 0.0038608401 1.2552298e-38 308 237
-0.014156413 0.73400003 0.0038608401 1.1538147e-38 309 237
-0.012851933 0.73299998 0.0038555798 1.1080017e-38 310 237
-0.01153518 0.73100001 0.00384506 1.1172212e-38 311 237
-0.010239467 0.73000002 0.0038397999 1.1448761e-38 312 237
-0.0089595336 0.73000002 0.0038397999 1.1172174e-38 313 237
-0.0076585598 0.72799999 0.0038292799 1.1447667e-38 314 237
-0.0063733663 0.727 0.0038240198 1.1539862e-38 315 237
-0.0050986931 0.727 0.0038240198 1.1724272e-38 316 237
-0.0038135003 0.72500002 0.0038135003 1.1909023e-38 317 237
-0.0025423334 0.72500002 0.0038135003 1.2183825e-38 318 237
-0.0012711667 0.72500002 0.0038135003 1.2183825e-38 319 237
0 0.72500002 0.0038135003 1.1261146e-38 320 237
0.0012711667 0.72500002 0.0038135003 1.1353341e-38 321 237
0.0025353199 0.72299999 0.0038029798 1.2180215e-38 322 237
0.0038029798 0.72299999 0.0038029798 1.2640833e-38 323 237
0.0050706398 0.72299999 0.0038029798 1.2733382e-38 324 237
0.0063382997 0.72299999 0.0038029798 1.2641186e-38 325 237
0.0076270006 0.72500002 0.0038135003 1.2731905e-38 326 237
0.0088981669 0.72500002 0.0038135003 1.2362764e-38 327 237
0.010169334 0.72500002 0.0038135003 1.2270186e-38 328 237
0.0114405 0.72500002 0.0038135003 1.2085794e-38 329 237
0.012746733 0.727 0.0038240198 1.2178751e-38 330 237
0.014021406 0.727 0.0038240198 1.2363142e-38 331 237
0.01531712 0.72799999 0.0038292799 1.2913464e-38 332 237
0.016593546 0.72799999 0.0038292799 1.2820908e-38 333 237
0.017869972 0.72799999 0.0038292799 1.2910928e-38 334 237
0.019199001 0.73000002 0.0038397999 1.2541785e-38 335 237
0.020478934 0.73000002 0.0038397999 1.1530154e-38 336 237
0.021788673 0.73100001 0.00384506 1.1714906e-38 337 237
0.023133477 0.73299998 0.0038555798 1.2450332e-38 338 237
0.024585238 0.73799998 0.0038818798 1.2450332e-38 339 237
0.025914267 0.73900002 0.00388714 1.2266317e-38 340 237
0.027320439 0.74199998 0.0039029196 1.2542902e-38 341 237
0.028621411 0.74199998 0.0039029196 1.3093579e-38 342 237
0.029922385 0.74199998 0.0039029196 1.346236e-38 343 237
0.031307522 0.74400002 0.0039134403 1.3646398e-38 344 237
0.032612 0.74400002 0.0039134403 1.4291767e-38 345 237
0.033916477 0.74400002 0.0039134403 1.7146589e-38 346 237
-0.02379624 0.75400001 0.0026440267 1.5589385e-38 302 238
-0.022474226 0.75400001 0.0026440267 1.4759624e-38 303 238
-0.021152213 0.75400001 0.0026440267 7.7621299e-39 304 238
-0.019567199 0.74400002 0.00260896 5.7338246e-39 305 238
-0.018066347 0.736 0.0025809065 1.1444916e-38 306 238
-0.016775893 0.736 0.0025809065 1.2920046e-38 307 238
-0.015485439 0.736 0.0025809065 1.2182771e-38 308 238
-0.014194986 0.736 0.0025809065 1.0707641e-38 309 238
-0.012904533 0.736 0.0025809065 8.9630301e-39 310 238
-0.011582521 0.73400003 0.0025738934 8.6868033e-39 311 238
-0.010281546 0.73299998 0.0025703865 8.9640656e-39 312 238
-0.0089963535 0.73299998 0.0025703865 9.2410127e-39 313 238
-0.0076795998 0.73000002 0.0025598668 9.6080155e-39 314 238
-0.0063996664 0.73000002 0.0025598668 9.6080155e-39 315 238
-0.0051057064 0.72799999 0.0025528532 9.3321727e-39 316 238
-0.0038292799 0.72799999 0.0025528532 9.3321727e-39 317 238
-0.0025528532 0.72799999 0.0025528532 9.5158746e-39 318 238
-0.0012764266 0.72799999 0.0025528532 9.9768513e-39 319 238
0 0.72799999 0.0025528532 1.0985988e-38 320 238
0.0012764266 0.72799999 0.0025528532 1.1078184e-38 321 238
0.0025528532 0.72799999 0.0025528532 1.199655e-38 322 238
0.0038292799 0.72799999 0.0025528532 1.2088745e-38 323 238
0.0050846669 0.72500002 0.0025423334 1.1446613e-38 324 238
0.0063558333 0.72500002 0.0025423334 1.1538809e-38 325 238
0.0076270006 0.72500002 0.0025423334 1.2089096e-38 326 238
0.0088981669 0.72500002 0.0025423334 1.1904703e-38 327 238
0.010169334 0.72500002 0.0025423334 1.1904697e-38 328 238
0.0114405 0.72500002 0.0025423334 1.1904697e-38 329 238
0.012746733 0.727 0.0025493465 1.2088392e-38 330 238
0.014021406 0.727 0.0025493465 1.1996197e-38 331 238
0.01531712 0.72799999 0.0025528532 1.2179161e-38 332 238
0.016593546 0.72799999 0.0025528532 1.2179161e-38 333 238
0.017919067 0.73000002 0.0025598668 1.2912055e-38 334 238
0.019225299 0.73100001 0.0025633732 1.300425e-38 335 238
0.020506985 0.73100001 0.0025633732 1.2727313e-38 336 238
0.021848286 0.73299998 0.0025703865 1.2819509e-38 337 238
0.023322839 0.73900002 0.0025914267 1.3186143e-38 338 238
0.024685178 0.741 0.0025984398 1.3093947e-38 339 238
0.026019465 0.74199998 0.0026019465 1.2726607e-38 340 238
0.027320439 0.74199998 0.0026019465 1.2910998e-38 341 238
0.02869856 0.74400002 0.00260896 1.3461654e-38 342 238
0.030003037 0.74400002 0.00260896 1.3553849e-38 343 238
0.031391677 0.74599999 0.0026159731 1.3554205e-38 344 238
0.032699663 0.74599999 0.0026159731 1.4199575e-38 345 238
0.034007654 0.74599999 0.0026159731 1.7147311e-38 346 238
-0.02379624 0.75400001 0.0013220133 1.4668874e-38 302 239
-0.022474226 0.75400001 0.0013220133 1.4484482e-38 303 239
-0.021152213 0.75400001 0.0013220133 8.9574305e-39 304 239
-0.019646099 0.74699998 0.0013097399 7.3901034e-39 305 239
-0.018115439 0.73799998 0.0012939599 1.2085967e-38 306 239
-0.016821479 0.73799998 0.0012939599 1.3376705e-38 307 239
-0.015527519 0.73799998 0.0012939599 1.402239e-38 308 239
-0.014233559 0.73799998 0.0012939599 1.3192629e-38 309 239
-0.012904533 0.736 0.0012904532 1.1538443e-38 310 239
-0.01161408 0.736 0.0012904532 1.1261496e-38 311 239
-0.010295574 0.73400003 0.0012869467 9.8853437e-39 312 239
-0.0090086265 0.73400003 0.0012869467 9.1477787e-39 313 239
-0.0077111595 0.73299998 0.0012851933 9.6069365e-39 314 239
-0.0064259665 0.73299998 0.0012851933 9.6069365e-39 315 239
-0.0051267464 0.73100001 0.0012816866 9.3303693e-39 316 239
-0.0038397999 0.73000002 0.0012799334 9.4225649e-39 317 239
-0.0025598668 0.73000002 0.0012799334 9.2421771e-39 318 239
-0.0012799334 0.73000002 0.0012799334 1.0072298e-38 319 239
0 0.73000002 0.0012799334 1.2276039e-38 320 239
0.0012799334 0.73000002 0.0012799334 1.2368234e-38 321 239
0.0025528532 0.72799999 0.0012764266 1.2366074e-38 322 239
0.0038292799 0.72799999 0.0012764266 1.1259726e-38 323 239
0.0051057064 0.72799999 0.0012764266 8.2298203e-39 324 239
0.0063821329 0.72799999 0.0012764266 7.7692009e-39 325 239
0.0076480396 0.727 0.0012746733 8.7789962e-39 326 239
0.0089227129 0.727 0.0012746733 8.9630273e-39 327 239
0.010197386 0.727 0.0012746733 9.2399715e-39 328 239
0.01147206 0.727 0.0012746733 9.3321671e-39 329 239
0.012764266 0.72799999 0.0012764266 9.3311162e-39 330 239
0.014040692 0.72799999 0.0012764266 9.3311162e-39 331 239
0.0153592 0.73000002 0.0012799334 9.1453152e-39 332 239
0.016639132 0.73000002 0.0012799334 9.3297064e-39 333 239
0.017943613 0.73100001 0.0012816866 1.0522524e-38 334 239
0.019277899 0.73299998 0.0012851933 1.0891667e-38 335 239
0.020731414 0.73900002 0.0012957134 1.1992274e-38 336 239
0.02208674 0.741 0.0012992199 1.2268503e-38 337 239
0.023385961 0.741 0.0012992199 1.2632975e-38 338 239
0.024718491 0.74199998 0.0013009732 1.1895051e-38 339 239
0.026019465 0.74199998 0.0013009732 1.1622783e-38 340 239
0.027394081 0.74400002 0.00130448 1.2360348e-38 341 239
0.02869856 0.74400002 0.00130448 1.3552777e-38 342 239
0.03008369 0.74599999 0.0013079866 1.3460582e-38 343 239
0.031433757 0.74699998 0.0013097399 1.2909199e-38 344 239
0.032743499 0.74699998 0.0013097399 1.3831515e-38 345 239
0.034053236 0.74699998 0.0013097399 1.7146592e-38 346 239
-0.025118252 0.75400001 -0 1.3471049e-38 301 240
-0.02379624 0.75400001 -0 1.4300811e-38 302 240
-0.022474226 0.75400001 -0 1.4393366e-38 303 240
-0.021152213 0.75400001 -0 1.0246007e-38 304 240
-0.019724999 0.75 -0 8.2173445e-39 305 240
-0.018409999 0.75 -0 1.0243502e-38 306 240
-0.016844273 0.73900002 -0 1.1257295e-38 307 240
-0.01554856 0.73900002 -0 1.3742945e-38 308 240
-0.014252847 0.73900002 -0 1.3466718e-38 309 240
-0.012939599 0.73799998 -0 1.162565e-38 310 240
-0.011645639 0.73799998 -0 1.162565e-38 311 240
-0.010351679 0.73799998 -0 1.1262218e-38 312 240
-0.0090577193 0.73799998 -0 1.0709045e-38 313 240
-0.0077427197 0.736 -0 1.0066485e-38 314 240
-0.0064522666 0.736 -0 9.6058673e-39 315 240
-0.0051477868 0.73400003 -0 9.1477787e-39 316 240
-0.0038608401 0.73400003 -0 9.7005937e-39 317 240
-0.0025633732 0.73100001 -0 1.0804856e-38 318 240
-0.0012816866 0.73100001 -0 1.1911204e-38 319 240
0 0.73100001 -0 1.3194793e-38 320 240
0.0012816866 0.73100001 -0 1.328699e-38 321 240
0.0025633732 0.73100001 -0 1.3470641e-38 322 240
0.0038397999 0.73000002 -0 1.2548326e-38 323 240
0.0051197335 0.73000002 -0 1.0894454e-38 324 240
0.0063996664 0.73000002 -0 9.2349338e-39 325 240
0.0076795998 0.73000002 -0 8.5030342e-39 326 240
0.0089595336 0.73000002 -0 8.7796197e-39 327 240
0.010239467 0.73000002 -0 8.7799757e-39 328 240
0.011519399 0.73000002 -0 8.7799757e-39 329 240
0.012799333 0.73000002 -0 9.2373735e-39 330 240
0.014079267 0.73000002 -0 9.5139604e-39 331 240
0.01538024 0.73100001 -0 9.6036967e-39 332 240
0.016661927 0.73100001 -0 1.0064673e-38 333 240
0.018139986 0.73900002 -0 1.1348659e-38 334 240
0.0194357 0.73900002 -0 1.1348659e-38 335 240
0.020787518 0.741 -0 1.1529145e-38 336 240
0.022116546 0.74199998 -0 1.1529145e-38 337 240
0.023417519 0.74199998 -0 1.161919e-38 338 240
0.024718491 0.74199998 -0 1.0605037e-38 339 240
0.026019465 0.74199998 -0 1.0424959e-38 340 240
0.027394081 0.74400002 -0 1.2269231e-38 341 240
0.028775707 0.74599999 -0 1.3368386e-38 342 240
0.030124018 0.74699998 -0 1.2538624e-38 343 240
0.031433757 0.74699998 -0 1.2357464e-38 344 240
0.032831166 0.74900001 -0 1.3832234e-38 345 240
-0.025118252 0.75400001 -0.0013220133 1.3193741e-38 301 241
-0.02379624 0.75400001 -0.0013220133 1.3840558e-38 302 241
-0.022474226 0.75400001 -0.0013220133 1.4485927e-38 303 241
-0.021096105 0.75199997 -0.0013185065 1.1534591e-38 304 241
-0.0197776 0.75199997 -0.0013185065 9.0453101e-39 305 241
-0.018409999 0.75 -0.001315 7.941852e-39 306 241
-0.017072206 0.74900001 -0.0013132467 7.7574594e-39 307 241
-0.015611678 0.74199998 -0.0013009732 8.5829054e-39 308 241
-0.01429142 0.741 -0.0012992199 7.2921666e-39 309 241
-0.0129922 0.741 -0.0012992199 6.1872442e-39 310 241
-0.01166142 0.73900002 -0.0012957134 7.7545713e-39 311 241
-0.010365707 0.73900002 -0.0012957134 9.7853569e-39 312 241
-0.0090699932 0.73900002 -0.0012957134 1.1998052e-38 313 241
-0.0077637597 0.73799998 -0.0012939599 1.2182055e-38 314 241
-0.0064697997 0.73799998 -0.0012939599 1.1812912e-38 315 241
-0.0051477868 0.73400003 -0.0012869467 1.1080019e-38 316 241
-0.0038608401 0.73400003 -0.0012869467 1.1264411e-38 317 241
-0.0025738934 0.73400003 -0.0012869467 1.2275335e-38 318 241
-0.0012851933 0.73299998 -0.0012851933 1.218314e-38 319 241
0 0.73299998 -0.0012851933 1.2366109e-38 320 241
0.0012851933 0.73299998 -0.0012851933 1.25505e-38 321 241
0.0025703865 0.73299998 -0.0012851933 1.3009668e-38 322 241
0.00384506 0.73100001 -0.0012816866 1.2917472e-38 323 241
0.0051267464 0.73100001 -0.0012816866 1.2915625e-38 324 241
0.006408433 0.73100001 -0.0012816866 1.1994029e-38 325 241
0.00769012 0.73100001 -0.0012816866 1.0526044e-38 326 241
0.0089718066 0.73100001 -0.0012816866 9.9728702e-39 327 241
0.010253493 0.73100001 -0.0012816866 9.790274e-39 328 241
0.01153518 0.73100001 -0.0012816866 9.8824696e-39 329 241
0.012816866 0.73100001 -0.0012816866 1.0709028e-38 330 241
0.014098554 0.73100001 -0.0012816866 1.1077811e-38 331 241
0.01544336 0.73400003 -0.0012869467 1.2269189e-38 332 241
0.016775893 0.736 -0.0012904532 1.2637613e-38 333 241
0.018139986 0.73900002 -0.0012957134 1.3279413e-38 334 241
0.0194357 0.73900002 -0.0012957134 1.208087e-38 335 241
0.020787518 0.741 -0.0012992199 9.4093871e-39 336 241
0.022116546 0.74199998 -0.0013009732 9.2249958e-39 337 241
0.023417519 0.74199998 -0.0013009732 8.6714717e-39 338 241
0.024718491 0.74199998 -0.0013009732 7.9339067e-39 339 241
0.026089599 0.74400002 -0.00130448 1.005548e-38 340 241
0.027467718 0.74599999 -0.0013079866 1.2083783e-38 341 241
0.028814279 0.74699998 -0.0013097399 1.2262407e-38 342 241
0.030204674 0.74900001 -0.0013132467 1.051105e-38 343 241
0.031517919 0.74900001 -0.0013132467 1.1895404e-38 344 241
0.032831166 0.74900001 -0.0013132467 1.3923708e-38 345 241
-0.029855758 0.77399999 -0.0027141599 1.6133179e-38 298 242
-0.028461859 0.773 -0.0027106532 1.419707e-38 299 242
-0.027106533 0.773 -0.0027106532 1.1903002e-38 300 242
-0.025118252 0.75400001 -0.0026440267 1.2825317e-38 301 242
-0.02379624 0.75400001 -0.0026440267 1.3288106e-38 302 242
-0.022474226 0.75400001 -0.0026440267 1.3841279e-38 303 242
-0.021096105 0.75199997 -0.0026370131 1.2823529e-38 304 242
-0.0197776 0.75199997 -0.0026370131 1.1072171e-38 305 242
-0.018409999 0.75 -0.00263 1.0333534e-38 306 242
-0.017072206 0.74900001 -0.0026264933 9.0427948e-39 307 242
-0.015716879 0.74699998 -0.0026194798 6.0061096e-39 308 242
-0.01434928 0.74400002 -0.00260896 5.6376872e-39 309 242
-0.013009733 0.74199998 -0.0026019465 6.0032411e-39 310 242
-0.01169298 0.741 -0.0025984398 6.2801881e-39 311 242
-0.010393759 0.741 -0.0025984398 8.2177131e-39 312 242
-0.0090945391 0.741 -0.0025984398 1.1813703e-38 313 242
-0.0077953199 0.741 -0.0025984398 1.3099024e-38 314 242
-0.0064697997 0.73799998 -0.0025879198 1.2453655e-38 315 242
