# .PCD v.7 - Point Cloud Data file format
FIELDS x y z rgb imX imY
SIZE 4 4 4 4 4 4
TYPE F F F F F F
COUNT 1 1 1 1 1 1
WIDTH 831
HEIGHT 1
VIEWPOINT 0 0 0 1 0 0 0
POINTS 831
DATA ascii
-0.030420333 0.69400001 0.0085176928 7.5707097e-39 295 233
-0.029161438 0.69300002 0.0085054198 8.581301e-39 296 233
-0.027946379 0.69300002 0.0085054198 9.8720384e-39 297 233
-0.02673132 0.69300002 0.0085054198 1.1525854e-38 298 233
-0.025442619 0.69099998 0.008480873 1.1710605e-38 299 233
-0.024231065 0.69099998 0.008480873 1.1342208e-38 300 233
-0.023019511 0.69099998 0.008480873 1.1434403e-38 301 233
-0.021871079 0.69300002 0.0085054198 1.0697172e-38 302 233
-0.020656019 0.69300002 0.0085054198 8.4844768e-39 303 233
-0.01944096 0.69300002 0.0085054198 5.8140055e-39 304 233
-0.018225901 0.69300002 0.0085054198 5.3530288e-39 305 233
-0.01701084 0.69300002 0.0085054198 5.905848e-39 306 233
-0.015795778 0.69300002 0.0085054198 6.4590218e-39 307 233
-0.014580719 0.69300002 0.0085054198 7.2866217e-39 308 233
-0.01336566 0.69300002 0.0085054198 7.6550441e-39 309 233
-0.012150601 0.69300002 0.0085054198 8.0223847e-39 310 233
-0.01095132 0.69400001 0.0085176928 8.2071361e-39 311 233
-0.0097345067 0.69400001 0.0085176928 8.5744893e-39 312 233
-0.0085176928 0.69400001 0.0085176928 8.942913e-39 313 233
-0.0073008798 0.69400001 0.0085176928 9.1276784e-39 314 233
-0.0061015999 0.69599998 0.0085422397 9.4042667e-39 315 233
-0.0048882933 0.69700003 0.0085545136 9.496468e-39 316 233
-0.0036714801 0.69800001 0.0085667865 9.7726947e-39 317 233
-0.0024476533 0.69800001 0.0085667865 9.9567174e-39 318 233
-0.0012238267 0.69800001 0.0085667865 1.0233304e-38 319 233
0 0.69800001 0.0085667865 1.0969797e-38 320 233
0.0012273333 0.69999999 0.0085913334 1.0324428e-38 321 233
0.0024546667 0.69999999 0.0085913334 7.4667698e-39 322 233
0.0036819996 0.69999999 0.0085913334 6.0838354e-39 323 233
0.0049163462 0.70099998 0.0086036054 5.531054e-39 324 233
0.0061717331 0.704 0.0086404262 6.8217928e-39 325 233
0.0074060797 0.704 0.0086404262 9.8602661e-39 326 233
0.008689519 0.708 0.008689519 8.3847773e-39 327 233
0.0099729598 0.71100003 0.0087263398 5.8083247e-39 328 233
0.011266919 0.71399999 0.0087631596 3.9644121e-39 329 233
0.012518799 0.71399999 0.0087631596 8.941181e-39 330 233
0.01377068 0.71399999 0.0087631596 1.4288167e-38 331 233
-0.0563346 0.71399999 0.0075112795 1.5582862e-38 275 234
-0.05508272 0.71399999 0.0075112795 1.5673979e-38 276 234
-0.053830836 0.71399999 0.0075112795 1.585837e-38 277 234
-0.052578956 0.71399999 0.0075112795 1.5029332e-38 278 234
-0.051255193 0.713 0.0075007593 1.401518e-38 279 234
-0.049864799 0.71100003 0.0074797203 1.1065287e-38 280 234
-0.048549797 0.70999998 0.0074691991 1.1157842e-38 281 234
-0.047038425 0.70599997 0.0074271196 1.1435145e-38 282 234
-0.045670826 0.704 0.0074060797 1.1619896e-38 283 234
-0.04437336 0.70300001 0.0073955595 1.2170902e-38 284 234
-0.043018032 0.70099998 0.0073745195 1.1986152e-38 285 234
-0.041729331 0.69999999 0.0073639993 1.0974144e-38 286 234
-0.040386278 0.69800001 0.0073429602 1.0144744e-38 287 234
-0.039162453 0.69800001 0.0073429602 9.1305721e-39 288 234
-0.037938625 0.69800001 0.0073429602 7.7476377e-39 289 234
-0.036662199 0.69700003 0.00733244 7.8473709e-39 290 234
-0.035440128 0.69700003 0.00733244 8.9537185e-39 291 234
-0.034168959 0.69599998 0.0073219193 9.0404812e-39 292 234
-0.032948639 0.69599998 0.0073219193 8.3951118e-39 293 234
-0.031637147 0.69400001 0.0073008798 8.3054357e-39 294 234
-0.030420333 0.69400001 0.0073008798 9.6883716e-39 295 234
-0.029203519 0.69400001 0.0073008798 1.1895362e-38 296 234
-0.027946379 0.69300002 0.0072903596 1.2079755e-38 297 234
-0.02673132 0.69300002 0.0072903596 1.1894661e-38 298 234
-0.02551626 0.69300002 0.0072903596 1.1433685e-38 299 234
-0.024301201 0.69300002 0.0072903596 1.1248223e-38 300 234
-0.02308614 0.69300002 0.0072903596 1.1248223e-38 301 234
-0.021902639 0.69400001 0.0073008798 1.1064179e-38 302 234
-0.020685827 0.69400001 0.0073008798 1.0603201e-38 303 234
-0.019469013 0.69400001 0.0073008798 1.0141847e-38 304 234
-0.0182522 0.69400001 0.0073008798 1.0234402e-38 305 234
-0.01701084 0.69300002 0.0072903596 1.0419513e-38 306 234
-0.015795778 0.69300002 0.0072903596 1.0603904e-38 307 234
-0.014580719 0.69300002 0.0072903596 1.0328396e-38 308 234
-0.01336566 0.69300002 0.0072903596 1.0789016e-38 309 234
-0.012150601 0.69300002 0.0072903596 1.1522989e-38 310 234
-0.01095132 0.69400001 0.0073008798 1.0601033e-38 311 234
-0.0097345067 0.69400001 0.0073008798 1.0229011e-38 312 234
-0.0085422397 0.69599998 0.0073219193 1.0136815e-38 313 234
-0.0073219193 0.69599998 0.0073219193 9.7723416e-39 314 234
-0.0061015999 0.69599998 0.0073219193 1.0141484e-38 315 234
-0.0048882933 0.69700003 0.00733244 9.9588909e-39 316 234
-0.0036714801 0.69800001 0.0073429602 1.0051086e-38 317 234
-0.0024476533 0.69800001 0.0073429602 1.0234046e-38 318 234
-0.0012238267 0.69800001 0.0073429602 1.014185e-38 319 234
0 0.69999999 0.0073639993 1.0968393e-38 320 234
0.0012273333 0.69999999 0.0073639993 1.0138633e-38 321 234
0.0024546667 0.69999999 0.0073639993 5.351329e-39 322 234
0.0036872597 0.70099998 0.0073745195 4.8907096e-39 323 234
0.0049163462 0.70099998 0.0073745195 6.4522872e-39 324 234
0.0061892662 0.70599997 0.0074271196 7.0976566e-39 325 234
0.0074271196 0.70599997 0.0074271196 7.2802346e-39 326 234
0.008689519 0.708 0.0074481601 5.6203531e-39 327 234
0.0099729598 0.71100003 0.0074797203 4.2410186e-39 328 234
0.011251139 0.713 0.0075007593 4.0566259e-39 329 234
0.012518799 0.71399999 0.0075112795 9.3096132e-39 330 234
0.01377068 0.71399999 0.0075112795 1.4380014e-38 331 234
-0.0563346 0.71399999 0.0062593995 1.5490311e-38 275 235
-0.05508272 0.71399999 0.0062593995 1.5490311e-38 276 235
-0.053830836 0.71399999 0.0062593995 1.5582506e-38 277 235
-0.052578956 0.71399999 0.0062593995 1.5029337e-38 278 235
-0.05132708 0.71399999 0.0062593995 1.4199575e-38 279 235
-0.049864799 0.71100003 0.0062330998 1.0697583e-38 280 235
-0.048549797 0.70999998 0.0062243328 1.0605387e-38 281 235
-0.047038425 0.70599997 0.0061892662 1.1340079e-38 282 235
-0.045670826 0.704 0.0061717331 1.1432634e-38 283 235
-0.044436477 0.704 0.0061717331 1.1893252e-38 284 235
-0.043140765 0.70300001 0.0061629666 1.1985449e-38 285 235
-0.041788943 0.70099998 0.0061454331 1.1618444e-38 286 235
-0.040502001 0.69999999 0.0061366665 1.0973075e-38 287 235
-0.039274666 0.69999999 0.0061366665 1.0601756e-38 288 235
-0.037938625 0.69800001 0.006119133 8.7578436e-39 289 235
-0.0367148 0.69800001 0.006119133 8.3976762e-39 290 235
-0.035440128 0.69700003 0.0061103669 9.5962194e-39 291 235
-0.034218054 0.69700003 0.0061103669 8.3082916e-39 292 235
-0.032948639 0.69599998 0.0061015999 7.8473134e-39 293 235
-0.031728316 0.69599998 0.0061015999 8.2143177e-39 294 235
-0.030420333 0.69400001 0.0060840664 9.5050551e-39 295 235
-0.029203519 0.69400001 0.0060840664 1.0883032e-38 296 235
-0.027946379 0.69300002 0.0060753003 9.6844886e-39 297 235
-0.02673132 0.69300002 0.0060753003 9.0340997e-39 298 235
-0.02551626 0.69300002 0.0060753003 8.2043377e-39 299 235
-0.024301201 0.69300002 0.0060753003 7.1984646e-39 300 235
-0.02308614 0.69300002 0.0060753003 8.7657903e-39 301 235
-0.021902639 0.69400001 0.0060840664 1.0605018e-38 302 235
-0.020685827 0.69400001 0.0060840664 1.1250388e-38 303 235
-0.019469013 0.69400001 0.0060840664 1.0603567e-38 304 235
-0.0182522 0.69400001 0.0060840664 9.5897748e-39 305 235
-0.017035386 0.69400001 0.0060840664 8.2983101e-39 306 235
-0.015818574 0.69400001 0.0060840664 8.1139189e-39 307 235
-0.01460176 0.69400001 0.0060840664 8.2975899e-39 308 235
-0.013384946 0.69400001 0.0060840664 1.0233698e-38 309 235
-0.012168133 0.69400001 0.0060840664 1.1615928e-38 310 235
-0.01095132 0.69400001 0.0060840664 1.0048601e-38 311 235
-0.0097625591 0.69599998 0.0061015999 7.6558344e-39 312 235
-0.0085422397 0.69599998 0.0061015999 7.9320612e-39 313 235
-0.0073219193 0.69599998 0.0061015999 1.0139346e-38 314 235
-0.0061015999 0.69599998 0.0061015999 1.0876911e-38 315 235
-0.0048953067 0.69800001 0.006119133 1.0876898e-38 316 235
-0.0036714801 0.69800001 0.006119133 1.0784701e-38 317 235
-0.0024476533 0.69800001 0.006119133 1.0599238e-38 318 235
-0.0012238267 0.69800001 0.006119133 9.9538686e-39 319 235
0 0.69999999 0.0061366665 9.7658998e-39 320 235
0.0012273333 0.69999999 0.0061366665 8.752108e-39 321 235
0.0024546667 0.69999999 0.0061366665 4.8878355e-39 322 235
0.0036872597 0.70099998 0.0061454331 4.8878355e-39 323 235
0.0049303733 0.70300001 0.0061629666 5.8090828e-39 324 235
0.0061717331 0.704 0.0061717331 6.0860284e-39 325 235
0.0074481601 0.708 0.0062067998 6.6373973e-39 326 235
0.0087140659 0.70999998 0.0062243328 5.6236055e-39 327 235
0.0099729598 0.71100003 0.0062330998 5.1601036e-39 328 235
0.011251139 0.713 0.0062506334 4.2381473e-39 329 235
0.012518799 0.71399999 0.0062593995 8.941551e-39 330 235
0.01377068 0.71399999 0.0062593995 1.4104505e-38 331 235
-0.056492399 0.71600002 0.0050215465 1.5490311e-38 275 236
-0.05508272 0.71399999 0.0050075199 1.5398112e-38 276 236
-0.053830836 0.71399999 0.0050075199 1.5398112e-38 277 236
-0.052726239 0.71600002 0.0050215465 1.5029332e-38 278 236
-0.05132708 0.71399999 0.0050075199 1.4107376e-38 279 236
-0.050005067 0.713 0.0050005065 1.0604668e-38 280 236
-0.048618179 0.71100003 0.0049864799 1.0327721e-38 281 236
-0.047171678 0.708 0.0049654399 1.0693997e-38 282 236
-0.04580057 0.70599997 0.0049514128 1.06018e-38 283 236
-0.044436477 0.704 0.0049373866 1.0419571e-38 284 236
-0.043202132 0.704 0.0049373866 1.0696157e-38 285 236
-0.041908171 0.70300001 0.0049303733 1.0789057e-38 286 236
-0.040559858 0.70099998 0.0049163462 1.134223e-38 287 236
-0.039274666 0.69999999 0.0049093333 1.1340062e-38 288 236
-0.038047329 0.69999999 0.0049093333 9.219563e-39 289 236
-0.0367148 0.69800001 0.0048953067 8.7646777e-39 290 236
-0.035490975 0.69800001 0.0048953067 9.3178501e-39 291 236
-0.034218054 0.69700003 0.0048882933 7.9377294e-39 292 236
-0.03299598 0.69700003 0.0048882933 7.8455338e-39 293 236
-0.031728316 0.69599998 0.0048812795 7.6615153e-39 294 236
-0.030507999 0.69599998 0.0048812795 8.9522541e-39 295 236
-0.029287677 0.69599998 0.0048812795 9.7759612e-39 296 236
-0.027986705 0.69400001 0.0048672534 6.825701e-39 297 236
-0.02673132 0.69300002 0.00486024 4.2374215e-39 298 236
-0.02551626 0.69300002 0.00486024 3.0388783e-39 299 236
-0.024301201 0.69300002 0.00486024 3.7829327e-39 300 236
-0.02308614 0.69300002 0.00486024 8.6693025e-39 301 236
-0.021902639 0.69400001 0.0048672534 1.069758e-38 302 236
-0.020685827 0.69400001 0.0048672534 1.1066722e-38 303 236
-0.019469013 0.69400001 0.0048672534 9.9578469e-39 304 236
-0.0182522 0.69400001 0.0048672534 7.6533163e-39 305 236
-0.017035386 0.69400001 0.0048672534 4.1488061e-39 306 236
-0.015818574 0.69400001 0.0048672534 3.1342955e-39 307 236
-0.01460176 0.69400001 0.0048672534 4.3303233e-39 308 236
-0.013384946 0.69400001 0.0048672534 8.8479092e-39 309 236
-0.012168133 0.69400001 0.0048672534 1.1523027e-38 310 236
-0.010982879 0.69599998 0.0048812795 9.679116e-39 311 236
-0.0097625591 0.69599998 0.0048812795 6.827887e-39 312 236
-0.0085545136 0.69700003 0.0048882933 6.827887e-39 313 236
-0.00733244 0.69700003 0.0048882933 1.0230838e-38 314 236
-0.0061103669 0.69700003 0.0048882933 1.0784012e-38 315 236
-0.0048953067 0.69800001 0.0048953067 1.0874746e-38 316 236
-0.0036714801 0.69800001 0.0048953067 1.0413768e-38 317 236
-0.0024476533 0.69800001 0.0048953067 1.0136109e-38 318 236
-0.0012238267 0.69800001 0.0048953067 8.7531744e-39 319 236
0 0.69999999 0.0049093333 6.8152908e-39 320 236
0.0012273333 0.69999999 0.0049093333 6.4465068e-39 321 236
0.0024581731 0.70099998 0.0049163462 5.2544657e-39 322 236
0.0036977797 0.70300001 0.0049303733 5.3466627e-39 323 236
0.0049373866 0.704 0.0049373866 5.5317756e-39 324 236
0.0061717331 0.704 0.0049373866 6.177145e-39 325 236
0.0074481601 0.708 0.0049654399 6.6388308e-39 326 236
0.0087140659 0.70999998 0.0049794666 5.7168731e-39 327 236
0.0099729598 0.71100003 0.0049864799 5.2519293e-39 328 236
0.011266919 0.71399999 0.0050075199 4.2374187e-39 329 236
0.012518799 0.71399999 0.0050075199 9.0315788e-39 330 236
0.013809253 0.71600002 0.0050215465 1.447112e-38 331 236
-0.056492399 0.71600002 0.00376616 1.5398112e-38 275 237
-0.055237014 0.71600002 0.00376616 1.5398112e-38 276 237
-0.053981625 0.71600002 0.00376616 1.5398112e-38 277 237
-0.052726239 0.71600002 0.00376616 1.5212645e-38 278 237
-0.05132708 0.71399999 0.0037556398 1.447508e-38 279 237
-0.050075196 0.71399999 0.0037556398 1.1340435e-38 280 237
-0.048754938 0.713 0.0037503797 1.0787261e-38 281 237
-0.047304932 0.70999998 0.0037345996 1.0327372e-38 282 237
-0.045865446 0.70700002 0.0037188199 1.0051144e-38 283 237
-0.044562716 0.70599997 0.0037135598 1.0234459e-38 284 237
-0.043202132 0.704 0.0037030398 1.0234459e-38 285 237
-0.041967787 0.704 0.0037030398 1.0419921e-38 286 237
-0.040559858 0.70099998 0.0036872597 1.1618463e-38 287 237
-0.039330769 0.70099998 0.0036872597 1.0974527e-38 288 237
-0.038047329 0.69999999 0.0036819996 9.3146453e-39 289 237
-0.0367148 0.69800001 0.0036714801 1.0879432e-38 290 237
-0.035490975 0.69800001 0.0036714801 1.1340769e-38 291 237
-0.034267146 0.69800001 0.0036714801 9.5918558e-39 292 237
-0.03299598 0.69700003 0.00366622 8.3933126e-39 293 237
-0.03177391 0.69700003 0.00366622 7.4771184e-39 294 237
-0.030551834 0.69700003 0.00366622 9.0448029e-39 295 237
-0.029287677 0.69599998 0.0036609597 1.1431164e-38 296 237
-0.027986705 0.69400001 0.0036504399 9.5876098e-39 297 237
-0.026769891 0.69400001 0.0036504399 6.3572021e-39 298 237
-0.025553079 0.69400001 0.0036504399 4.2367026e-39 299 237
-0.024301201 0.69300002 0.0036451798 6.3557756e-39 300 237
-0.02308614 0.69300002 0.0036451798 1.1426537e-38 301 237
-0.021902639 0.69400001 0.0036504399 1.1063122e-38 302 237
-0.020685827 0.69400001 0.0036504399 1.0878731e-38 303 237
-0.019469013 0.69400001 0.0036504399 1.0230122e-38 304 237
-0.0182522 0.69400001 0.0036504399 8.0174255e-39 305 237
-0.017035386 0.69400001 0.0036504399 4.7923931e-39 306 237
-0.015818574 0.69400001 0.0036504399 3.7782426e-39 307 237
-0.01460176 0.69400001 0.0036504399 4.9739145e-39 308 237
-0.013384946 0.69400001 0.0036504399 8.3855115e-39 309 237
-0.012168133 0.69400001 0.0036504399 1.1059898e-38 310 237
-0.01099866 0.69700003 0.00366622 9.4925724e-39 311 237
-0.0097765867 0.69700003 0.00366622 8.2039873e-39 312 237
-0.0085545136 0.69700003 0.00366622 7.3738679e-39 313 237
-0.00733244 0.69700003 0.00366622 8.2922117e-39 314 237
-0.0061103669 0.69700003 0.00366622 7.6468423e-39 315 237
-0.0048953067 0.69800001 0.0036714801 7.0925741e-39 316 237
-0.0036714801 0.69800001 0.0036714801 6.8163473e-39 317 237
-0.0024546667 0.69999999 0.0036819996 6.4504543e-39 318 237
-0.0012273333 0.69999999 0.0036819996 6.726681e-39 319 237
0 0.69999999 0.0036819996 5.6225097e-39 320 237
0.0012290865 0.70099998 0.0036872597 5.7147067e-39 321 237
0.0024651866 0.70300001 0.0036977797 5.2562649e-39 322 237
0.0037030398 0.704 0.0037030398 5.0718737e-39 323 237
0.0049373866 0.704 0.0037030398 5.1629945e-39 324 237
0.0061892662 0.70599997 0.0037135598 5.9931139e-39 325 237
0.0074481601 0.708 0.00372408 6.6395497e-39 326 237
0.0087140659 0.70999998 0.0037345996 5.717592e-39 327 237
0.0099729598 0.71100003 0.0037398601 4.7938224e-39 328 237
0.011266919 0.71399999 0.0037556398 4.7938224e-39 329 237
0.012553867 0.71600002 0.00376616 1.0320871e-38 330 237
0.013809253 0.71600002 0.00376616 1.4746262e-38 331 237
-0.055237014 0.71600002 0.0025107733 1.5030409e-38 276 238
-0.053830836 0.71399999 0.0025037599 1.5122604e-38 277 238
-0.052578956 0.71399999 0.0025037599 1.5120449e-38 278 238
-0.05132708 0.71399999 0.0025037599 1.4382884e-38 279 238
-0.050075196 0.71399999 0.0025037599 1.1156767e-38 280 238
-0.048754938 0.713 0.0025002533 1.0511398e-38 281 238
-0.047371563 0.71100003 0.0024932399 9.8671156e-39 282 238
-0.045865446 0.70700002 0.0024792133 9.8671156e-39 283 238
-0.044562716 0.70599997 0.0024757064 9.499059e-39 284 238
-0.043324865 0.70599997 0.0024757064 9.5912546e-39 285 238
-0.041967787 0.704 0.0024686933 9.8689149e-39 286 238
-0.040559858 0.70099998 0.0024581731 1.0883426e-38 287 238
-0.039330769 0.70099998 0.0024581731 1.0974895e-38 288 238
-0.038101684 0.70099998 0.0024581731 9.1309827e-39 289 238
-0.036819998 0.69999999 0.0024546667 1.1063476e-38 290 238
-0.035490975 0.69800001 0.0024476533 1.2354214e-38 291 238
-0.034267146 0.69800001 0.0024476533 1.0788974e-38 292 238
-0.03299598 0.69700003 0.0024441467 8.6684743e-39 293 238
-0.03177391 0.69700003 0.0024441467 7.7504613e-39 294 238
-0.030551834 0.69700003 0.0024441467 9.7791239e-39 295 238
-0.029287677 0.69599998 0.0024406398 1.2354196e-38 296 238
-0.027986705 0.69400001 0.0024336267 1.1063457e-38 297 238
-0.026769891 0.69400001 0.0024336267 8.0206723e-39 298 238
-0.025553079 0.69400001 0.0024336267 5.2544446e-39 299 238
-0.024336265 0.69400001 0.0024336267 7.2806059e-39 300 238
-0.023119451 0.69400001 0.0024336267 9.7695292e-39 301 238
-0.021902639 0.69400001 0.0024336267 9.2206616e-39 302 238
-0.020685827 0.69400001 0.0024336267 8.9437146e-39 303 238
-0.019525118 0.69599998 0.0024406398 8.8479064e-39 304 238
-0.018304799 0.69599998 0.0024406398 7.5571676e-39 305 238
-0.017084479 0.69599998 0.0024406398 5.7143508e-39 306 238
-0.015818574 0.69400001 0.0024336267 4.7923931e-39 307 238
-0.01460176 0.69400001 0.0024336267 5.8962435e-39 308 238
-0.013384946 0.69400001 0.0024336267 7.5557635e-39 309 238
-0.0122032 0.69599998 0.0024406398 8.755736e-39 310 238
-0.01099866 0.69700003 0.0024441467 8.3865933e-39 311 238
-0.0097765867 0.69700003 0.0024441467 7.5586179e-39 312 238
-0.0085545136 0.69700003 0.0024441467 6.0831291e-39 313 238
-0.0073429602 0.69800001 0.0024476533 5.7125389e-39 314 238
-0.006119133 0.69800001 0.0024476533 5.3433963e-39 315 238
-0.0048953067 0.69800001 0.0024476533 5.0624976e-39 316 238
-0.0036819996 0.69999999 0.0024546667 4.6018782e-39 317 238
-0.0024546667 0.69999999 0.0024546667 4.3299926e-39 318 238
-0.0012273333 0.69999999 0.0024546667 5.3441446e-39 319 238
0 0.70099998 0.0024581731 5.531054e-39 320 238
0.0012325933 0.70300001 0.0024651866 5.715804e-39 321 238
0.0024686933 0.704 0.0024686933 5.7158011e-39 322 238
0.0037030398 0.704 0.0024686933 5.5314099e-39 323 238
0.0049514128 0.70599997 0.0024757064 5.5317728e-39 324 238
0.0061980332 0.70700002 0.0024792133 5.8087198e-39 325 238
0.0074481601 0.708 0.00248272 6.3604447e-39 326 238
0.0087263398 0.71100003 0.0024932399 5.9916622e-39 327 238
0.010001013 0.713 0.0025002533 5.8061723e-39 328 238
0.01129848 0.71600002 0.0025107733 7.2813038e-39 329 238
0.012553867 0.71600002 0.0025107733 1.1336102e-38 330 238
0.013809253 0.71600002 0.0025107733 1.4286004e-38 331 238
-0.053830836 0.71399999 0.00125188 1.4937493e-38 277 239
-0.052578956 0.71399999 0.00125188 1.4752027e-38 278 239
-0.05132708 0.71399999 0.00125188 1.4382884e-38 279 239
-0.050075196 0.71399999 0.00125188 1.032917e-38 280 239
-0.048754938 0.713 0.0012501266 9.4994093e-39 281 239
-0.047371563 0.71100003 0.00124662 8.5760265e-39 282 239
-0.046060063 0.70999998 0.0012448666 8.9451691e-39 283 239
-0.044625837 0.70700002 0.0012396066 9.3135887e-39 284 239
-0.043324865 0.70599997 0.0012378532 9.4983401e-39 285 239
-0.041967787 0.704 0.0012343467 1.0143337e-38 286 239
-0.040733438 0.704 0.0012343467 1.1157489e-38 287 239
-0.039442986 0.70300001 0.0012325933 1.1066016e-38 288 239
-0.038101684 0.70099998 0.0012290865 9.2217434e-39 289 239
-0.036819998 0.69999999 0.0012273333 1.0144043e-38 290 239
-0.035592664 0.69999999 0.0012273333 1.1618813e-38 291 239
-0.034267146 0.69800001 0.0012238267 1.1525491e-38 292 239
-0.033043321 0.69800001 0.0012238267 1.0695371e-38 293 239
-0.03177391 0.69700003 0.0012220733 9.4996994e-39 294 239
-0.030551834 0.69700003 0.0012220733 1.0790438e-38 295 239
-0.02932976 0.69700003 0.0012220733 1.2079057e-38 296 239
-0.028067358 0.69599998 0.0012203199 1.0880514e-38 297 239
-0.026847038 0.69599998 0.0012203199 7.5625794e-39 298 239
-0.025553079 0.69400001 0.0012168133 3.321579e-39 299 239
-0.024336265 0.69400001 0.0012168133 5.4388611e-39 300 239
-0.023119451 0.69400001 0.0012168133 6.0842305e-39 301 239
-0.021965759 0.69599998 0.0012203199 4.70741e-39 302 239
-0.020745439 0.69599998 0.0012203199 4.0620405e-39 303 239
-0.019525118 0.69599998 0.0012203199 2.8667217e-39 304 239
-0.018304799 0.69599998 0.0012203199 2.8667217e-39 305 239
-0.017084479 0.69599998 0.0012203199 4.3332198e-39 306 239
-0.015864158 0.69599998 0.0012203199 4.2406655e-39 307 239
-0.014643839 0.69599998 0.0012203199 5.3419894e-39 308 239
-0.013423519 0.69599998 0.0012203199 5.5267408e-39 309 239
-0.0122032 0.69599998 0.0012203199 5.3491794e-39 310 239
-0.01099866 0.69700003 0.0012220733 6.2711371e-39 311 239
-0.0097765867 0.69700003 0.0012220733 6.1785744e-39 312 239
-0.0085545136 0.69700003 0.0012220733 3.1357598e-39 313 239
-0.0073429602 0.69800001 0.0012238267 3.7814852e-39 314 239
-0.006119133 0.69800001 0.0012238267 4.5190502e-39 315 239
-0.0049093333 0.69999999 0.0012273333 5.3444921e-39 316 239
-0.0036819996 0.69999999 0.0012273333 4.6991227e-39 317 239
-0.0024546667 0.69999999 0.0012273333 4.8817217e-39 318 239
-0.0012290865 0.70099998 0.0012290865 5.5270911e-39 319 239
0 0.70300001 0.0012325933 5.6210846e-39 320 239
0.0012343467 0.704 0.0012343467 6.8196278e-39 321 239
0.0024686933 0.704 0.0012343467 5.7183193e-39 322 239
0.0037135598 0.70599997 0.0012378532 5.533928e-39 323 239
0.0049584266 0.70700002 0.0012396066 5.5328518e-39 324 239
0.0061980332 0.70700002 0.0012396066 5.1640693e-39 325 239
0.0074481601 0.708 0.00124136 6.0802649e-39 326 239
0.0087263398 0.71100003 0.00124662 6.8178299e-39 327 239
0.010001013 0.713 0.0012501266 8.2036188e-39 328 239
0.011266919 0.71399999 0.00125188 9.402162e-39 329 239
0.012518799 0.71399999 0.00125188 1.170416e-38 330 239
0.013809253 0.71600002 0.0012553866 1.382466e-38 331 239
-0.052726239 0.71600002 -0 1.4476163e-38 278 240
-0.051470853 0.71600002 -0 1.410702e-38 279 240
-0.050075196 0.71399999 -0 1.0790148e-38 280 240
-0.048754938 0.713 -0 9.5916049e-39 281 240
-0.047371563 0.71100003 -0 7.4714838e-39 282 240
-0.046060063 0.70999998 -0 7.5636794e-39 283 240
-0.044688959 0.708 -0 8.7604205e-39 284 240
-0.043386232 0.70700002 -0 9.22104e-39 285 240
-0.042087011 0.70599997 -0 9.5908833e-39 286 240
-0.040733438 0.704 -0 1.0881622e-38 287 240
-0.039442986 0.70300001 -0 1.106529e-38 288 240
-0.038101684 0.70099998 -0 9.4061277e-39 289 240
-0.036872596 0.70099998 -0 1.0051494e-38 290 240
-0.035592664 0.69999999 -0 1.161846e-38 291 240
-0.034365334 0.69999999 -0 1.1986141e-38 292 240
-0.033043321 0.69800001 -0 1.1617e-38 293 240
-0.031819493 0.69800001 -0 1.1249645e-38 294 240
-0.030551834 0.69700003 -0 1.1341841e-38 295 240
-0.02932976 0.69700003 -0 1.1801391e-38 296 240
-0.028067358 0.69599998 -0 1.0695402e-38 297 240
-0.026847038 0.69599998 -0 8.115386e-39 298 240
-0.025626717 0.69599998 -0 3.7818313e-39 299 240
-0.0244064 0.69599998 -0 5.7147221e-39 300 240
-0.023186078 0.69599998 -0 6.5444828e-39 301 240
-0.021965759 0.69599998 -0 5.4428212e-39 302 240
-0.020745439 0.69599998 -0 3.5992673e-39 303 240
-0.019525118 0.69599998 -0 2.7680815e-39 304 240
-0.018304799 0.69599998 -0 3.2286996e-39 305 240
-0.017084479 0.69599998 -0 4.0545044e-39 306 240
-0.015864158 0.69599998 -0 3.869753e-39 307 240
-0.014643839 0.69599998 -0 4.510791e-39 308 240
-0.013423519 0.69599998 -0 4.510791e-39 309 240
-0.012220734 0.69700003 -0 4.7009205e-39 310 240
-0.01099866 0.69700003 -0 6.5448331e-39 311 240
-0.0097765867 0.69700003 -0 5.9009127e-39 312 240
-0.0085545136 0.69700003 -0 3.6882162e-39 313 240
-0.0073429602 0.69800001 -0 4.790968e-39 314 240
-0.0061366665 0.69999999 -0 6.0817068e-39 315 240
-0.0049093333 0.69999999 -0 7.0915231e-39 316 240
-0.0036819996 0.69999999 -0 5.9851756e-39 317 240
-0.0024581731 0.70099998 -0 4.9746334e-39 318 240
-0.0012325933 0.70300001 -0 4.8824377e-39 319 240
0 0.70300001 -0 7.2798814e-39 320 240
0.0012343467 0.704 -0 8.4784232e-39 321 240
0.0024686933 0.704 -0 6.2696756e-39 322 240
0.0037135598 0.70599997 -0 5.9005329e-39 323 240
0.0049584266 0.70700002 -0 7.5560984e-39 324 240
0.0062067998 0.708 -0 7.2791514e-39 325 240
0.0074481601 0.708 -0 6.729202e-39 326 240
0.0087508867 0.713 -0 8.6653102e-39 327 240
0.010001013 0.713 -0 9.9531624e-39 328 240
0.011266919 0.71399999 -0 9.8609667e-39 329 240
0.012518799 0.71399999 -0 1.1062024e-38 330 240
0.013809253 0.71600002 -0 1.3090328e-38 331 240
-0.050075196 0.71399999 -0.00125188 1.1249684e-38 280 241
-0.048754938 0.713 -0.0012501266 9.9589455e-39 281 241
-0.047371563 0.71100003 -0.00124662 7.6551492e-39 282 241
-0.046124939 0.71100003 -0.00124662 7.5625948e-39 283 241
-0.044815198 0.70999998 -0.0012448666 8.0217807e-39 284 241
-0.043447599 0.708 -0.00124136 8.1139763e-39 285 241
-0.042087011 0.70599997 -0.0012378532 8.8547658e-39 286 241
-0.040849157 0.70599997 -0.0012378532 1.0606483e-38 287 241
-0.039499093 0.704 -0.0012343467 1.1157489e-38 288 241
-0.038210396 0.70300001 -0.0012325933 9.4057717e-39 289 241
-0.036872596 0.70099998 -0.0012290865 9.9596616e-39 290 241
-0.035643511 0.70099998 -0.0012290865 1.12504e-38 291 241
-0.034365334 0.69999999 -0.0012273333 1.152553e-38 292 241
-0.033043321 0.69800001 -0.0012238267 1.152553e-38 293 241
-0.031819493 0.69800001 -0.0012238267 1.1250735e-38 294 241
-0.030595668 0.69800001 -0.0012238267 1.1250735e-38 295 241
-0.02932976 0.69700003 -0.0012220733 1.1619166e-38 296 241
-0.028107686 0.69700003 -0.0012220733 1.0420624e-38 297 241
-0.026847038 0.69599998 -0.0012203199 8.4830966e-39 298 241
-0.025626717 0.69599998 -0.0012203199 3.596368e-39 299 241
-0.0244064 0.69599998 -0.0012203199 6.6323596e-39 300 241
-0.023186078 0.69599998 -0.0012203199 7.2777291e-39 301 241
-0.021965759 0.69599998 -0.0012203199 5.1665832e-39 302 241
-0.020775247 0.69700003 -0.0012220733 3.9680414e-39 303 241
-0.019553173 0.69700003 -0.0012220733 3.8708124e-39 304 241
-0.018331099 0.69700003 -0.0012220733 3.8708124e-39 305 241
-0.017109027 0.69700003 -0.0012220733 4.1455986e-39 306 241
-0.015864158 0.69599998 -0.0012203199 4.1455986e-39 307 241
-0.014643839 0.69599998 -0.0012203199 4.6040558e-39 308 241
-0.013423519 0.69599998 -0.0012203199 4.2356334e-39 309 241
-0.012220734 0.69700003 -0.0012220733 4.8824377e-39 310 241
-0.01099866 0.69700003 -0.0012220733 7.0954916e-39 311 241
-0.0097765867 0.69700003 -0.0012220733 6.4522844e-39 312 241
-0.0085545136 0.69700003 -0.0012220733 3.6864155e-39 313 241
-0.0073429602 0.69800001 -0.0012238267 4.0544721e-39 314 241
-0.0061366665 0.69999999 -0.0012273333 5.7143536e-39 315 241
-0.0049093333 0.69999999 -0.0012273333 6.6323442e-39 316 241
-0.0036819996 0.69999999 -0.0012273333 5.8947792e-39 317 241
-0.0024581731 0.70099998 -0.0012290865 4.7016296e-39 318 241
-0.0012325933 0.70300001 -0.0012325933 4.9778578e-39 319 241
0 0.70300001 -0.0012325933 7.924155e-39 320 241
0.0012343467 0.704 -0.0012343467 8.5695245e-39 321 241
0.0024686933 0.704 -0.0012343467 7.0065147e-39 322 241
0.0037135598 0.70599997 -0.0012378532 7.375656e-39 323 241
0.0049654399 0.708 -0.00124136 9.493273e-39 324 241
0.0062067998 0.708 -0.00124136 9.8624143e-39 325 241
0.0074691991 0.70999998 -0.0012448666 1.0415219e-38 326 241
0.0087508867 0.713 -0.0012501266 1.0599251e-38 327 241
0.010001013 0.713 -0.0012501266 9.4010606e-39 328 241
0.011266919 0.71399999 -0.00125188 8.5712999e-39 329 241
0.012518799 0.71399999 -0.00125188 1.0141147e-38 330 241
0.013809253 0.71600002 -0.0012553866 1.2999212e-38 331 241
-0.048754938 0.713 -0.0025002533 9.8674659e-39 281 242
-0.047504812 0.713 -0.0025002533 8.0228527e-39 282 242
-0.046124939 0.71100003 -0.0024932399 7.6544303e-39 283 242
-0.044815198 0.70999998 -0.0024897333 7.5615256e-39 284 242
-0.043447599 0.708 -0.00248272 8.0225024e-39 285 242
-0.042087011 0.70599997 -0.0024757064 8.8536868e-39 286 242
-0.040849157 0.70599997 -0.0024757064 1.0789795e-38 287 242
-0.039499093 0.704 -0.0024686933 1.1249682e-38 288 242
-0.038264744 0.704 -0.0024686933 9.8667471e-39 289 242
-0.036977798 0.70300001 -0.0024651866 1.0327002e-38 290 242
-0.035643511 0.70099998 -0.0024581731 1.143335e-38 291 242
-0.034365334 0.69999999 -0.0024546667 1.1617728e-38 292 242
-0.033137999 0.69999999 -0.0024546667 1.1617728e-38 293 242
-0.031819493 0.69800001 -0.0024476533 1.1618081e-38 294 242
-0.030595668 0.69800001 -0.0024476533 1.1618081e-38 295 242
-0.029371841 0.69800001 -0.0024476533 1.1893592e-38 296 242
-0.028107686 0.69700003 -0.0024441467 1.0971277e-38 297 242
-0.026885614 0.69700003 -0.0024441467 8.9419167e-39 298 242
-0.025663542 0.69700003 -0.0024441467 3.4105377e-39 299 242
-0.024441468 0.69700003 -0.0024441467 5.4341892e-39 300 242
-0.023219392 0.69700003 -0.0024441467 5.9873616e-39 301 242
-0.02199732 0.69700003 -0.0024441467 5.2562621e-39 302 242
-0.020775247 0.69700003 -0.0024441467 4.7030884e-39 303 242
-0.019553173 0.69700003 -0.0024441467 4.0537589e-39 304 242
-0.018331099 0.69700003 -0.0024441467 3.9612045e-39 305 242
-0.017109027 0.69700003 -0.0024441467 3.9630052e-39 306 242
-0.015886955 0.69700003 -0.0024441467 3.8708096e-39 307 242
-0.01466488 0.69700003 -0.0024441467 4.6040558e-39 308 242
-0.013442807 0.69700003 -0.0024441467 4.8810028e-39 309 242
-0.012238266 0.69800001 -0.0024476533 4.5165293e-39 310 242
-0.01101444 0.69800001 -0.0024476533 5.34629e-39 311 242
-0.0097906133 0.69800001 -0.0024476533 5.4374122e-39 312 242
-0.0085667865 0.69800001 -0.0024476533 3.8700879e-39 313 242
-0.0073639993 0.69999999 -0.0024546667 4.2385033e-39 314 242
-0.0061366665 0.69999999 -0.0024546667 6.2668071e-39 315 242
-0.0049163462 0.70099998 -0.0024581731 7.0007568e-39 316 242
-0.0036872597 0.70099998 -0.0024581731 6.3553874e-39 317 242
-0.0024581731 0.70099998 -0.0024581731 5.7161234e-39 318 242
-0.0012325933 0.70300001 -0.0024651866 6.3614929e-39 319 242
0 0.704 -0.0024686933 6.8217507e-39 320 242
0.0012343467 0.704 -0.0024686933 6.8217507e-39 321 242
0.0024686933 0.704 -0.0024686933 7.6497191e-39 322 242
0.0037135598 0.70599997 -0.0024757064 8.5716754e-39 323 242
0.0049654399 0.708 -0.00248272 1.0323021e-38 324 242
0.0062243328 0.70999998 -0.0024897333 1.0046433e-38 325 242
0.0074691991 0.70999998 -0.0024897333 9.6787265e-39 326 242
0.0087508867 0.713 -0.0025002533 9.1255527e-39 327 242
0.010001013 0.713 -0.0025002533 8.7528213e-39 328 242
0.011266919 0.71399999 -0.0025037599 7.6468325e-39 329 242
0.012518799 0.71399999 -0.0025037599 9.8634877e-39 330 242
0.013809253 0.71600002 -0.0025107733 1.3366922e-38 331 242
-0.048823316 0.71399999 -0.0037556398 1.0051141e-38 281 243
-0.047504812 0.713 -0.0037503797 8.2072454e-39 282 243
-0.046254687 0.713 -0.0037503797 7.7466259e-39 283 243
-0.044815198 0.70999998 -0.0037345996 7.6547932e-39 284 243
-0.043447599 0.708 -0.00372408 7.7469889e-39 285 243
-0.042146627 0.70700002 -0.0037188199 8.5774558e-39 286 243
-0.040849157 0.70599997 -0.0037135598 1.0789792e-38 287 243
-0.039499093 0.704 -0.0037030398 1.1066372e-38 288 243
-0.038264744 0.704 -0.0037030398 9.6834376e-39 289 243
-0.036977798 0.70300001 -0.0036977797 1.0052216e-38 290 243
-0.035745207 0.70300001 -0.0036977797 1.0974174e-38 291 243
-0.034414422 0.70099998 -0.0036872597 1.1525898e-38 292 243
-0.033137999 0.69999999 -0.0036819996 1.1618094e-38 293 243
-0.031910665 0.69999999 -0.0036819996 1.1618091e-38 294 243
-0.030595668 0.69800001 -0.0036714801 1.1525896e-38 295 243
-0.029371841 0.69800001 -0.0036714801 1.1801041e-38 296 243
-0.028148014 0.69800001 -0.0036714801 1.097128e-38 297 243
-0.026885614 0.69700003 -0.00366622 9.3099608e-39 298 243
-0.025663542 0.69700003 -0.00366622 3.6863861e-39 299 243
-0.024441468 0.69700003 -0.00366622 3.4069377e-39 300 243
-0.023252707 0.69800001 -0.0036714801 4.6976765e-39 301 243
-0.02202888 0.69800001 -0.0036714801 5.2566153e-39 302 243
-0.020805053 0.69800001 -0.0036714801 5.2566153e-39 303 243
-0.019581227 0.69800001 -0.0036714801 4.4214498e-39 304 243
-0.0183574 0.69800001 -0.0036714801 4.1445028e-39 305 243
-0.017133573 0.69800001 -0.0036714801 3.6867658e-39 306 243
-0.015886955 0.69700003 -0.00366622 3.5027347e-39 307 243
-0.01466488 0.69700003 -0.00366622 4.514014e-39 308 243
-0.013442807 0.69700003 -0.00366622 5.5278071e-39 309 243
-0.012238266 0.69800001 -0.0036714801 4.6087249e-39 310 243
-0.01101444 0.69800001 -0.0036714801 4.4243337e-39 311 243
-0.0097906133 0.69800001 -0.0036714801 4.7913211e-39 312 243
-0.0085913334 0.69999999 -0.0036819996 3.5005823e-39 313 243
-0.0073639993 0.69999999 -0.0036819996 3.5938527e-39 314 243
-0.0061454331 0.70099998 -0.0036872597 6.359723e-39 315 243
-0.0049163462 0.70099998 -0.0036872597 7.2780696e-39 316 243
-0.0036872597 0.70099998 -0.0036872597 6.8167313e-39 317 243
-0.0024651866 0.70300001 -0.0036977797 6.5465932e-39 318 243
-0.0012343467 0.704 -0.0037030398 7.6529407e-39 319 243
0 0.704 -0.0037030398 7.5600038e-39 320 243
0.0012343467 0.704 -0.0037030398 7.4678082e-39 321 243
0.0024686933 0.704 -0.0037030398 8.2936214e-39 322 243
0.0037135598 0.70599997 -0.0037135598 9.399969e-39 323 243
0.0049794666 0.70999998 -0.0037345996 9.6787237e-39 324 243
0.0062243328 0.70999998 -0.0037345996 9.2177455e-39 325 243
0.0074797203 0.71100003 -0.0037398601 9.0319319e-39 326 243
0.0087631596 0.71399999 -0.0037556398 8.1099742e-39 327 243
0.01001504 0.71399999 -0.0037556398 7.8301573e-39 328 243
0.01129848 0.71600002 -0.00376616 7.461735e-39 329 243
0.012553867 0.71600002 -0.00376616 9.9553302e-39 330 243
0.013809253 0.71600002 -0.00376616 1.3643154e-38 331 243
-0.048823316 0.71399999 -0.0050075199 9.6830817e-39 281 244
-0.047504812 0.713 -0.0050005065 8.483112e-39 282 244
-0.046254687 0.713 -0.0050005065 8.1143295e-39 283 244
-0.044878319 0.71100003 -0.0049864799 7.7462728e-39 284 244
-0.043570329 0.70999998 -0.0049794666 7.7462728e-39 285 244
-0.042206239 0.708 -0.0049654399 8.485263e-39 286 244
-0.040907022 0.70700002 -0.0049584266 1.0605764e-38 287 244
-0.039499093 0.704 -0.0049373866 1.0973821e-38 288 244
-0.038264744 0.704 -0.0049373866 9.5908861e-39 289 244
-0.036977798 0.70300001 -0.0049303733 9.4090115e-39 290 244
-0.035745207 0.70300001 -0.0049303733 1.0423524e-38 291 244
-0.034414422 0.70099998 -0.0049163462 1.1341151e-38 292 244
-0.033137999 0.69999999 -0.0049093333 1.1433347e-38 293 244
-0.031910665 0.69999999 -0.0049093333 1.1525177e-38 294 244
-0.030683333 0.69999999 -0.0049093333 1.1525177e-38 295 244
-0.029371841 0.69800001 -0.0048953067 1.1801043e-38 296 244
-0.028148014 0.69800001 -0.0048953067 1.1155674e-38 297 244
-0.026924185 0.69800001 -0.0048953067 9.7709347e-39 298 244
-0.025663542 0.69700003 -0.0048882933 5.9909153e-39 299 244
-0.024441468 0.69700003 -0.0048882933 5.3451955e-39 300 244
-0.023252707 0.69800001 -0.0048953067 5.5299455e-39 301 244
-0.02202888 0.69800001 -0.0048953067 5.0722198e-39 302 244
-0.020805053 0.69800001 -0.0048953067 5.1644168e-39 303 244
-0.019581227 0.69800001 -0.0048953067 4.9771375e-39 304 244
-0.0183574 0.69800001 -0.0048953067 5.0693345e-39 305 244
-0.017133573 0.69800001 -0.0048953067 5.2565998e-39 306 244
-0.015909746 0.69800001 -0.0048953067 5.440631e-39 307 244
-0.01468592 0.69800001 -0.0048953067 6.6337848e-39 308 244
-0.013462093 0.69800001 -0.0048953067 8.1089162e-39 309 244
-0.012238266 0.69800001 -0.0048953067 7.7437295e-39 310 244
-0.01101444 0.69800001 -0.0048953067 6.7295775e-39 311 244
-0.0097906133 0.69800001 -0.0048953067 7.096195e-39 312 244
-0.0085913334 0.69999999 -0.0049093333 7.096195e-39 313 244
-0.0073639993 0.69999999 -0.0049093333 7.1909088e-39 314 244
-0.0061454331 0.70099998 -0.0049163462 8.5738433e-39 315 244
-0.0049163462 0.70099998 -0.0049163462 9.6762223e-39 316 244
-0.0036872597 0.70099998 -0.0049163462 9.0308529e-39 317 244
-0.0024651866 0.70300001 -0.0049303733 8.9411404e-39 318 244
-0.0012343467 0.704 -0.0049373866 9.4021171e-39 319 244
0 0.704 -0.0049373866 8.8517992e-39 320 244
0.0012343467 0.704 -0.0049373866 8.667408e-39 321 244
0.0024686933 0.704 -0.0049373866 8.5745047e-39 322 244
0.0037135598 0.70599997 -0.0049514128 8.7588973e-39 323 244
0.0049794666 0.70999998 -0.0049794666 8.9411558e-39 324 244
0.0062330998 0.71100003 -0.0049864799 8.2035908e-39 325 244
0.0074797203 0.71100003 -0.0049864799 8.3851332e-39 326 244
0.0087631596 0.71399999 -0.0050075199 7.924155e-39 327 244
0.010043093 0.71600002 -0.0050215465 7.5582494e-39 328 244
0.01129848 0.71600002 -0.0050215465 7.4660538e-39 329 244
0.012553867 0.71600002 -0.0050215465 1.0415938e-38 330 244
-0.048960082 0.71600002 -0.0062769335 9.4064934e-39 281 245
-0.047571439 0.71399999 -0.0062593995 9.1277597e-39 282 245
-0.046254687 0.713 -0.0062506334 8.5745859e-39 283 245
-0.044878319 0.71100003 -0.0062330998 8.0228555e-39 284 245
-0.043570329 0.70999998 -0.0062243328 8.0228555e-39 285 245
-0.042206239 0.708 -0.0062067998 8.7607709e-39 286 245
-0.040907022 0.70700002 -0.0061980332 1.0789076e-38 287 245
-0.039611302 0.70599997 -0.0061892662 1.0606117e-38 288 245
-0.038264744 0.704 -0.0061717331 9.3153782e-39 289 245
-0.037030395 0.704 -0.0061717331 8.9498327e-39 290 245
-0.035796054 0.704 -0.0061717331 9.8717875e-39 291 245
-0.034414422 0.70099998 -0.0061454331 1.0606469e-38 292 245
-0.03318534 0.70099998 -0.0061454331 1.0882697e-38 293 245
-0.031910665 0.69999999 -0.0061366665 1.1157839e-38 294 245
-0.030683333 0.69999999 -0.0061366665 1.1157839e-38 295 245
-0.029455997 0.69999999 -0.0061366665 1.1432984e-38 296 245
-0.028148014 0.69800001 -0.006119133 1.1248233e-38 297 245
-0.026924185 0.69800001 -0.006119133 1.0876207e-38 298 245
-0.025700359 0.69800001 -0.006119133 9.3092419e-39 299 245
-0.024476532 0.69800001 -0.006119133 9.0315788e-39 300 245
-0.023252707 0.69800001 -0.006119133 8.6627949e-39 301 245
-0.022091998 0.69999999 -0.0061366665 7.1008754e-39 302 245
-0.020864666 0.69999999 -0.0061366665 7.1934297e-39 303 245
-0.019637333 0.69999999 -0.0061366665 7.4674999e-39 304 245
-0.018409999 0.69999999 -0.0061366665 7.3753029e-39 305 245
-0.017182667 0.69999999 -0.0061366665 7.9291899e-39 306 245
-0.015909746 0.69800001 -0.006119133 8.2983326e-39 307 245
-0.01468592 0.69800001 -0.006119133 9.0323005e-39 308 245
-0.013462093 0.69800001 -0.006119133 9.7698655e-39 309 245
-0.012238266 0.69800001 -0.006119133 1.0415235e-38 310 245
-0.011045999 0.69999999 -0.0061366665 9.9542582e-39 311 245
-0.0098186666 0.69999999 -0.0061366665 9.6773013e-39 312 245
-0.0085913334 0.69999999 -0.0061366665 1.0230475e-38 313 245
-0.0073639993 0.69999999 -0.0061366665 1.0416289e-38 314 245
-0.0061629666 0.70300001 -0.0061629666 1.0508484e-38 315 245
-0.0049303733 0.70300001 -0.0061629666 1.0324794e-38 316 245
-0.0036977797 0.70300001 -0.0061629666 9.6794243e-39 317 245
-0.0024686933 0.704 -0.0061717331 9.3120571e-39 318 245
-0.0012343467 0.704 -0.0061717331 9.3120571e-39 319 245
0 0.70599997 -0.0061892662 9.2209279e-39 320 245
0.0012378532 0.70599997 -0.0061892662 9.1287322e-39 321 245
0.0024792133 0.70700002 -0.0061980332 8.8514461e-39 322 245
0.00372408 0.708 -0.0062067998 8.8514461e-39 323 245
0.0049794666 0.70999998 -0.0062243328 8.6656507e-39 324 245
0.0062330998 0.71100003 -0.0062330998 7.927727e-39 325 245
0.0074797203 0.71100003 -0.0062330998 8.2914984e-39 326 245
0.0087631596 0.71399999 -0.0062593995 8.6599222e-39 327 245
0.010043093 0.71600002 -0.0062769335 8.2043321e-39 328 245
0.01129848 0.71600002 -0.0062769335 8.1121364e-39 329 245
0.012553867 0.71600002 -0.0062769335 1.0692155e-38 330 245
-0.048960082 0.71600002 -0.00753232 9.8663939e-39 281 246
-0.047571439 0.71399999 -0.0075112795 9.2199553e-39 282 246
-0.046254687 0.713 -0.0075007593 8.8511714e-39 283 246
-0.045004558 0.713 -0.0075007593 8.2072454e-39 284 246
-0.043570329 0.70999998 -0.0074691991 8.2997997e-39 285 246
-0.042206239 0.708 -0.0074481601 8.6685724e-39 286 246
-0.040907022 0.70700002 -0.0074376399 1.0789432e-38 287 246
-0.039611302 0.70599997 -0.0074271196 9.7788731e-39 288 246
-0.038264744 0.704 -0.0074060797 9.0409493e-39 289 246
-0.037030395 0.704 -0.0074060797 9.3157411e-39 290 246
-0.035796054 0.704 -0.0074060797 9.9611105e-39 291 246
-0.034561705 0.704 -0.0074060797 1.0880179e-38 292 246
-0.033280019 0.70300001 -0.0073955595 1.106457e-38 293 246
-0.031956252 0.70099998 -0.0073745195 1.115712e-38 294 246
-0.030727165 0.70099998 -0.0073745195 1.1064923e-38 295 246
-0.029455997 0.69999999 -0.0073639993 1.1248235e-38 296 246
-0.028228667 0.69999999 -0.0073639993 1.1432628e-38 297 246
-0.026924185 0.69800001 -0.0073429602 1.1521577e-38 298 246
-0.025700359 0.69800001 -0.0073429602 1.0230838e-38 299 246
-0.024476532 0.69800001 -0.0073429602 1.032232e-38 300 246
-0.023319334 0.69999999 -0.0073639993 1.2166233e-38 301 246
-0.022091998 0.69999999 -0.0073639993 1.1340435e-38 302 246
-0.020864666 0.69999999 -0.0073639993 1.1248238e-38 303 246
-0.019637333 0.69999999 -0.0073639993 1.1340068e-38 304 246
-0.018409999 0.69999999 -0.0073639993 1.1155318e-38 305 246
-0.017182667 0.69999999 -0.0073639993 1.1246069e-38 306 246
-0.015955333 0.69999999 -0.0073639993 1.1061676e-38 307 246
-0.014727999 0.69999999 -0.0073639993 1.0966961e-38 308 246
-0.013500666 0.69999999 -0.0073639993 1.0045364e-38 309 246
-0.012273333 0.69999999 -0.0073639993 1.0138279e-38 310 246
-0.011045999 0.69999999 -0.0073639993 1.0414866e-38 311 246
-0.0098186666 0.69999999 -0.0073639993 1.041666e-38 312 246
-0.0085913334 0.69999999 -0.0073639993 1.0601053e-38 313 246
-0.0073745195 0.70099998 -0.0073745195 1.041701e-38 314 246
-0.0061629666 0.70300001 -0.0073955595 9.9560336e-39 315 246
-0.0049303733 0.70300001 -0.0073955595 9.8623862e-39 316 246
-0.0036977797 0.70300001 -0.0073955595 9.5861595e-39 317 246
-0.0024686933 0.704 -0.0074060797 9.3113536e-39 318 246
-0.0012343467 0.704 -0.0074060797 9.1266036e-39 319 246
0 0.70599997 -0.0074271196 9.2191524e-39 320 246
0.0012378532 0.70599997 -0.0074271196 8.8503699e-39 321 246
0.00248272 0.708 -0.0074481601 8.8492965e-39 322 246
0.00372408 0.708 -0.0074481601 9.0336892e-39 323 246
0.0049794666 0.70999998 -0.0074691991 8.6663668e-39 324 246
0.0062330998 0.71100003 -0.0074797203 8.39014e-39 325 246
0.0074797203 0.71100003 -0.0074797203 8.3880031e-39 326 246
0.0087508867 0.713 -0.0075007593 8.5723957e-39 327 246
0.010043093 0.71600002 -0.00753232 8.2064845e-39 328 246
0.01129848 0.71600002 -0.00753232 7.8377005e-39 329 246
0.012553867 0.71600002 -0.00753232 1.0967663e-38 330 246
0.016456785 0.722 -0.0075954394 1.6956413e-38 333 246
-0.04902846 0.71700001 -0.0087999795 9.866031e-39 281 247
-0.047704693 0.71600002 -0.0087877065 8.3934331e-39 282 247
-0.046449307 0.71600002 -0.0087877065 8.1168476e-39 283 247
-0.045004558 0.713 -0.0087508867 8.0239359e-39 284 247
-0.043631699 0.71100003 -0.0087263398 8.207967e-39 285 247
-0.042325463 0.70999998 -0.0087140659 8.8511686e-39 286 247
-0.040964879 0.708 -0.008689519 1.1064224e-38 287 247
-0.039667413 0.70700002 -0.008677247 1.0606833e-38 288 247
-0.038373452 0.70599997 -0.0086649731 9.869268e-39 289 247
-0.037030395 0.704 -0.0086404262 9.7767151e-39 290 247
-0.035796054 0.704 -0.0086404262 9.8692708e-39 291 247
-0.034561705 0.704 -0.0086404262 9.9621853e-39 292 247
-0.033280019 0.70300001 -0.0086281532 1.0054381e-38 293 247
-0.031956252 0.70099998 -0.0086036054 1.0329526e-38 294 247
-0.030727165 0.70099998 -0.0086036054 1.0329526e-38 295 247
-0.029498078 0.70099998 -0.0086036054 1.0512835e-38 296 247
-0.028228667 0.69999999 -0.0085913334 1.0512835e-38 297 247
-0.027001332 0.69999999 -0.0085913334 9.684504e-39 298 247
-0.025773998 0.69999999 -0.0085913334 8.0253414e-39 299 247
-0.024546666 0.69999999 -0.0085913334 9.4940045e-39 300 247
-0.023319334 0.69999999 -0.0085913334 1.1153167e-38 301 247
-0.022123558 0.70099998 -0.0086036054 1.0696864e-38 302 247
-0.020894472 0.70099998 -0.0086036054 1.0696864e-38 303 247
-0.019637333 0.69999999 -0.0085913334 1.1431179e-38 304 247
-0.018409999 0.69999999 -0.0085913334 1.1431179e-38 305 247
-0.017182667 0.69999999 -0.0085913334 1.0876207e-38 306 247
-0.015955333 0.69999999 -0.0085913334 9.9546113e-39 307 247
-0.014749039 0.70099998 -0.0086036054 9.4025123e-39 308 247
-0.013519952 0.70099998 -0.0086036054 9.1255653e-39 309 247
-0.012290866 0.70099998 -0.0086036054 9.3099608e-39 310 247
-0.011061779 0.70099998 -0.0086036054 9.7709375e-39 311 247
-0.0098326923 0.70099998 -0.0086036054 1.0414866e-38 312 247
-0.0086281532 0.70300001 -0.0086281532 1.0691452e-38 313 247
-0.0073955595 0.70300001 -0.0086281532 1.0414138e-38 314 247
-0.0061629666 0.70300001 -0.0086281532 9.6765727e-39 315 247
-0.0049303733 0.70300001 -0.0086281532 8.9422348e-39 316 247
-0.0037030398 0.704 -0.0086404262 8.9422348e-39 317 247
-0.0024686933 0.704 -0.0086404262 8.5755977e-39 318 247
-0.0012343467 0.704 -0.0086404262 8.483402e-39 319 247
0 0.70599997 -0.0086649731 8.0206288e-39 320 247
0.0012378532 0.70599997 -0.0086649731 7.7440405e-39 321 247
0.00248272 0.708 -0.008689519 7.7472874e-39 322 247
0.00372408 0.708 -0.008689519 8.2079068e-39 323 247
0.0049794666 0.70999998 -0.0087140659 8.4834231e-39 324 247
0.0062330998 0.71100003 -0.0087263398 8.4834231e-39 325 247
0.0074797203 0.71100003 -0.0087263398 8.4827168e-39 326 247
0.0087508867 0.713 -0.0087508867 8.4827168e-39 327 247
0.010043093 0.71600002 -0.0087877065 8.2986857e-39 328 247
0.01131426 0.71700001 -0.0087999795 7.8373474e-39 329 247
0.0125714 0.71700001 -0.0087999795 1.1059863e-38 330 247
0.013924973 0.722 -0.0088613462 1.428671e-38 331 247
0.015190879 0.722 -0.0088613462 1.6680184e-38 332 247
0.016456785 0.722 -0.0088613462 1.7048966e-38 333 247
-0.051758397 0.72000003 -0.010099201 1.6221026e-38 279 248
-0.050425861 0.71899998 -0.010085173 1.1062769e-38 280 248
-0.04902846 0.71700001 -0.01005712 9.5876393e-39 281 248
-0.047704693 0.71600002 -0.010043093 7.2888848e-39 282 248
-0.046449307 0.71600002 -0.010043093 7.2888848e-39 283 248
-0.045067675 0.71399999 -0.01001504 8.1150511e-39 284 248
-0.043754432 0.713 -0.010001013 8.2994438e-39 285 248
-0.042325463 0.70999998 -0.0099589331 8.7607681e-39 286 248
-0.041080594 0.70999998 -0.0099589331 1.0696876e-38 287 248
-0.039723519 0.708 -0.0099308798 1.0239128e-38 288 248
-0.038427804 0.70700002 -0.0099168532 9.7781514e-39 289 248
-0.037030395 0.704 -0.0098747732 9.5030092e-39 290 248
-0.035796054 0.704 -0.0098747732 9.4108136e-39 291 248
-0.034561705 0.704 -0.0098747732 9.8689149e-39 292 248
-0.033280019 0.70300001 -0.0098607466 9.8689149e-39 293 248
-0.032047424 0.70300001 -0.0098607466 1.0144779e-38 294 248
-0.030727165 0.70099998 -0.0098326923 9.9607476e-39 295 248
-0.029498078 0.70099998 -0.0098326923 9.9607448e-39 296 248
-0.028268991 0.70099998 -0.0098326923 9.4994065e-39 297 248
-0.027001332 0.69999999 -0.0098186666 7.5701352e-39 298 248
-0.025773998 0.69999999 -0.0098186666 5.2656032e-39 299 248
-0.024546666 0.69999999 -0.0098186666 7.8362908e-39 300 248
-0.023319334 0.69999999 -0.0098186666 8.1132378e-39 301 248
-0.022123558 0.70099998 -0.0098326923 8.1150329e-39 302 248
-0.020894472 0.70099998 -0.0098326923 8.5760111e-39 303 248
-0.019665385 0.70099998 -0.0098326923 9.4940017e-39 304 248
-0.018436298 0.70099998 -0.0098326923 9.2174148e-39 305 248
-0.017207211 0.70099998 -0.0098326923 8.2039817e-39 306 248
-0.015978126 0.70099998 -0.0098326923 7.0979943e-39 307 248
-0.014749039 0.70099998 -0.0098326923 6.6377378e-39 308 248
-0.013519952 0.70099998 -0.0098326923 7.1905529e-39 309 248
-0.012290866 0.70099998 -0.0098326923 7.8391495e-39 310 248
-0.011061779 0.70099998 -0.0098326923 7.9313451e-39 311 248
-0.0098607466 0.70300001 -0.0098607466 8.3872842e-39 312 248
-0.0086281532 0.70300001 -0.0098607466 8.3872842e-39 313 248
-0.0074060797 0.704 -0.0098747732 7.926306e-39 314 248
-0.0061717331 0.704 -0.0098747732 7.8341104e-39 315 248
-0.0049373866 0.704 -0.0098747732 8.572746e-39 316 248
-0.0037030398 0.704 -0.0098747732 8.6649417e-39 317 248
-0.0024686933 0.704 -0.0098747732 8.2075438e-39 318 248
-0.0012378532 0.70599997 -0.0099028256 7.9305968e-39 319 248
0 0.70599997 -0.0099028256 7.7429686e-39 320 248
0.0012396066 0.70700002 -0.0099168532 7.6507729e-39 321 248
