# .PCD v.7 - Point Cloud Data file format
FIELDS x y z rgb imX imY
SIZE 4 4 4 4 4 4
TYPE F F F F F F
COUNT 1 1 1 1 1 1
WIDTH 846
HEIGHT 1
VIEWPOINT 0 0 0 1 0 0 0
POINTS 846
DATA ascii
0.01050948 0.66600001 -0.01284492 1.4294288e-38 329 251
-0.013037786 0.676 -0.014223038 1.1529706e-38 309 252
-0.011852534 0.676 -0.014223038 1.0056374e-38 310 252
-0.01066728 0.676 -0.014223038 9.2266129e-39 311 252
0.0070063197 0.66600001 -0.014012639 1.22685e-38 326 252
0.0081494926 0.66399997 -0.013970559 1.245325e-38 327 252
0.0093137063 0.66399997 -0.013970559 1.2821672e-38 328 252
0.010477919 0.66399997 -0.013970559 1.3098619e-38 329 252
0.011642133 0.66399997 -0.013970559 1.383366e-38 330 252
-0.015453878 0.67799997 -0.015453878 1.2815115e-38 307 253
-0.014265119 0.67799997 -0.015453878 1.300197e-38 308 253
-0.013037786 0.676 -0.015408293 1.2632829e-38 309 253
-0.011852534 0.676 -0.015408293 1.125455e-38 310 253
-0.0106515 0.67500001 -0.0153855 1.0977604e-38 311 253
-0.0094259195 0.67199999 -0.01531712 9.1408843e-39 312 253
-0.00824768 0.67199999 -0.01531712 8.3107649e-39 313 253
-0.0070694401 0.67199999 -0.01531712 7.1190614e-39 314 253
-0.0058824331 0.671 -0.015294326 7.2112571e-39 315 253
-0.0047059464 0.671 -0.015294326 7.577897e-39 316 253
0.0069852793 0.66399997 -0.015134773 5.0015691e-39 326 253
0.0081372196 0.66299999 -0.015111978 5.6469385e-39 327 253
0.009285653 0.662 -0.015089186 7.9457154e-39 328 253
0.01044636 0.662 -0.015089186 8.7758362e-39 329 253
0.011607066 0.662 -0.015089186 9.5998319e-39 330 253
0.012767773 0.662 -0.015089186 9.2306907e-39 331 253
0.033914726 0.667 -0.015203152 9.4118029e-39 349 253
0.035031598 0.66600001 -0.01518036 9.0451686e-39 350 253
0.03619932 0.66600001 -0.01518036 9.1373642e-39 351 253
-0.016667187 0.67900002 -0.016667187 1.4199511e-38 306 254
-0.015453878 0.67799997 -0.016642639 1.2816577e-38 307 254
-0.014265119 0.67799997 -0.016642639 1.2451327e-38 308 254
-0.013037786 0.676 -0.016593546 1.217474e-38 309 254
-0.011852534 0.676 -0.016593546 1.1164854e-38 310 254
-0.01063572 0.67400002 -0.016544454 1.0887907e-38 311 254
-0.0094259195 0.67199999 -0.01649536 9.6043427e-39 312 254
-0.00824768 0.67199999 -0.01649536 8.9593419e-39 313 254
-0.0070589199 0.671 -0.016470812 7.6729275e-39 314 254
-0.0058736666 0.67000002 -0.016446266 8.0413456e-39 315 254
-0.0046989331 0.67000002 -0.016446266 8.4058374e-39 316 254
-0.0035241998 0.67000002 -0.016446266 8.0370549e-39 317 254
0.0069642398 0.662 -0.016249891 4.4469114e-39 326 254
0.0081249457 0.662 -0.016249891 4.0781303e-39 327 254
0.009285653 0.662 -0.016249891 4.8167701e-39 328 254
0.01043058 0.66100001 -0.016225345 6.2919002e-39 329 254
0.011589534 0.66100001 -0.016225345 8.4945157e-39 330 254
0.012709912 0.65899998 -0.016176252 8.1257346e-39 331 254
0.013865359 0.65899998 -0.016176252 6.0088211e-39 332 254
0.015020805 0.65899998 -0.016176252 5.3634517e-39 333 254
0.032745253 0.667 -0.016372627 1.0240822e-38 348 254
0.033914726 0.667 -0.016372627 1.0056431e-38 349 254
0.035031598 0.66600001 -0.016348081 1.0331207e-38 350 254
0.03619932 0.66600001 -0.016348081 1.0331207e-38 351 254
0.038824059 0.671 -0.016470812 1.0975834e-38 353 254
0.040000543 0.671 -0.016470812 1.134244e-38 354 254
0.041238401 0.67199999 -0.01649536 1.152719e-38 355 254
-0.016667187 0.67900002 -0.017857701 1.4569739e-38 306 255
-0.015453878 0.67799997 -0.0178314 1.3371196e-38 307 255
-0.014265119 0.67799997 -0.0178314 1.2084345e-38 308 255
-0.013037786 0.676 -0.017778801 1.180776e-38 309 255
-0.011852534 0.676 -0.017778801 1.0890781e-38 310 255
-0.01063572 0.67400002 -0.0177262 1.0521998e-38 311 255
-0.0094259195 0.67199999 -0.017673599 9.4217479e-39 312 255
-0.00824768 0.67199999 -0.017673599 9.2373595e-39 313 255
-0.0070589199 0.671 -0.0176473 8.5023168e-39 314 255
-0.0058561331 0.66799998 -0.017568398 8.4097638e-39 315 255
-0.0046849065 0.66799998 -0.017568398 8.3161403e-39 316 255
-0.0035084197 0.667 -0.0175421 7.9473577e-39 317 255
-0.0023389466 0.667 -0.0175421 7.7626316e-39 318 255
-0.0011694733 0.667 -0.0175421 7.3938505e-39 319 255
0.0058035329 0.662 -0.017410601 5.6407644e-39 325 255
0.0069642398 0.662 -0.017410601 5.0893941e-39 326 255
0.0081249457 0.662 -0.017410601 4.4440261e-39 327 255
0.009285653 0.662 -0.017410601 4.1713951e-39 328 255
0.01043058 0.66100001 -0.0173843 5.6468839e-39 329 255
0.011589534 0.66100001 -0.0173843 7.6669061e-39 330 255
0.012709912 0.65899998 -0.017331699 7.5743517e-39 331 255
0.013865359 0.65899998 -0.017331699 5.733316e-39 332 255
0.014998012 0.65799999 -0.017305398 5.8255116e-39 333 255
0.016151706 0.65799999 -0.017305398 5.732244e-39 334 255
0.026736578 0.66299999 -0.017436899 9.9681983e-39 343 255
0.027899038 0.66299999 -0.017436899 9.8752992e-39 344 255
0.029061496 0.66299999 -0.017436899 9.8752992e-39 345 255
0.030223956 0.66299999 -0.017436899 9.8734845e-39 346 255
0.031528439 0.66600001 -0.017515799 9.7812889e-39 347 255
0.032745253 0.667 -0.0175421 1.0700333e-38 348 255
0.033914726 0.667 -0.0175421 1.0700333e-38 349 255
0.035084199 0.667 -0.0175421 1.0884702e-38 350 255
0.036253672 0.667 -0.0175421 1.0884702e-38 351 255
0.037647571 0.671 -0.0176473 1.1251677e-38 352 255
0.038824059 0.671 -0.0176473 1.1251677e-38 353 255
0.040000543 0.671 -0.0176473 1.1526837e-38 354 255
0.041238401 0.67199999 -0.017673599 1.1711229e-38 355 255
0.042606 0.67500001 -0.0177525 1.1710176e-38 356 255
-0.016691733 0.68000001 -0.019076265 1.4293878e-38 306 256
-0.015453878 0.67799997 -0.019020159 1.3648508e-38 307 256
-0.014265119 0.67799997 -0.019020159 1.2361655e-38 308 256
-0.013037786 0.676 -0.018964052 1.1623732e-38 309 256
-0.011852534 0.676 -0.018964052 1.0891134e-38 310 256
-0.01063572 0.67400002 -0.018907947 1.0614549e-38 311 256
-0.0094259195 0.67199999 -0.018851839 9.6057777e-39 312 256
-0.00824768 0.67199999 -0.018851839 9.4210305e-39 313 256
-0.0070589199 0.671 -0.018823786 8.8703762e-39 314 256
-0.0058561331 0.66799998 -0.018739626 8.6863465e-39 315 256
-0.0046849065 0.66799998 -0.018739626 8.4097638e-39 316 256
-0.0035084197 0.667 -0.018711573 8.1335399e-39 317 256
-0.0023389466 0.667 -0.018711573 8.2235915e-39 318 256
-0.0011694733 0.667 -0.018711573 8.039559e-39 319 256
0 0.66600001 -0.018683519 7.4860517e-39 320 256
0.0011642133 0.66399997 -0.018627413 6.7484866e-39 321 256
0.0023284266 0.66399997 -0.018627413 6.4697642e-39 322 256
0.0046498398 0.66299999 -0.018599359 5.3656069e-39 324 256
0.0058035329 0.662 -0.018571306 5.2734098e-39 325 256
0.0069642398 0.662 -0.018571306 4.9971929e-39 326 256
0.0081249457 0.662 -0.018571306 4.9049972e-39 327 256
0.0092716264 0.66100001 -0.018543253 4.9064294e-39 328 256
0.01043058 0.66100001 -0.018543253 6.0127769e-39 329 256
0.011589534 0.66100001 -0.018543253 6.5655822e-39 330 256
0.012709912 0.65899998 -0.018487146 6.4733865e-39 331 256
0.013865359 0.65899998 -0.018487146 6.2868345e-39 332 256
0.014998012 0.65799999 -0.018459093 5.9184107e-39 333 256
0.016151706 0.65799999 -0.018459093 6.2843219e-39 334 256
0.017305398 0.65799999 -0.018459093 6.4687132e-39 335 256
0.022020113 0.66100001 -0.018543253 9.2345569e-39 339 256
0.023179067 0.66100001 -0.018543253 1.0428444e-38 340 256
0.02433802 0.66100001 -0.018543253 1.0243694e-38 341 256
0.025535546 0.662 -0.018571306 1.0427011e-38 342 256
0.026696252 0.662 -0.018571306 1.0427011e-38 343 256
0.027899038 0.66299999 -0.018599359 1.0793633e-38 344 256
0.029061496 0.66299999 -0.018599359 1.0793633e-38 345 256
0.030223956 0.66299999 -0.018599359 1.152793e-38 346 256
0.031528439 0.66600001 -0.018683519 1.1435733e-38 347 256
0.032745253 0.667 -0.018711573 1.18956e-38 348 256
0.033914726 0.667 -0.018711573 1.18956e-38 349 256
0.035136797 0.66799998 -0.018739626 1.1620452e-38 350 256
0.036308024 0.66799998 -0.018739626 1.1620452e-38 351 256
0.037647571 0.671 -0.018823786 1.1711582e-38 352 256
0.038824059 0.671 -0.018823786 1.1711582e-38 353 256
0.040060159 0.67199999 -0.018851839 1.1895292e-38 354 256
0.041361131 0.67400002 -0.018907947 1.2448107e-38 355 256
0.042606 0.67500001 -0.018935999 1.2906962e-38 356 256
0.043789499 0.67500001 -0.018935999 1.3275385e-38 357 256
-0.017936599 0.68199998 -0.020328145 1.6685236e-38 305 257
-0.016691733 0.68000001 -0.020268533 1.3925818e-38 306 257
-0.015453878 0.67799997 -0.020208918 1.3741426e-38 307 257
-0.014265119 0.67799997 -0.020208918 1.2363101e-38 308 257
-0.013037786 0.676 -0.020149305 1.1256754e-38 309 257
-0.011852534 0.676 -0.020149305 1.0798585e-38 310 257
-0.01063572 0.67400002 -0.020089693 1.0614554e-38 311 257
-0.0094259195 0.67199999 -0.020030079 9.4217479e-39 312 257
-0.00824768 0.67199999 -0.020030079 9.3295537e-39 313 257
-0.0070589199 0.671 -0.020000271 8.9625705e-39 314 257
-0.0058736666 0.67000002 -0.019970467 8.8700175e-39 315 257
-0.0046849065 0.66799998 -0.019910853 8.4111987e-39 316 257
-0.0035084197 0.667 -0.019881045 8.3190045e-39 317 257
-0.0023389466 0.667 -0.019881045 8.3190045e-39 318 257
-0.0011694733 0.667 -0.019881045 8.2268103e-39 319 257
0 0.66600001 -0.019851239 8.0409953e-39 320 257
0.0011642133 0.66399997 -0.019791625 7.6725715e-39 321 257
0.0023284266 0.66399997 -0.019791625 7.300587e-39 322 257
0.0034926396 0.66399997 -0.019791625 7.0236414e-39 323 257
0.0046498398 0.66299999 -0.019761819 6.7449245e-39 324 257
0.0058035329 0.662 -0.019732011 6.4686978e-39 325 257
0.0069642398 0.662 -0.019732011 5.2755622e-39 326 257
0.0081249457 0.662 -0.019732011 5.3677578e-39 327 257
0.0092716264 0.66100001 -0.019702207 5.8287164e-39 328 257
0.01043058 0.66100001 -0.019702207 6.2896945e-39 329 257
0.011589534 0.66100001 -0.019702207 7.0254421e-39 330 257
0.012709912 0.65899998 -0.019642593 6.9332465e-39 331 257
0.013865359 0.65899998 -0.019642593 6.3800741e-39 332 257
0.014998012 0.65799999 -0.019612785 6.1956814e-39 333 257
0.016151706 0.65799999 -0.019612785 6.6534296e-39 334 257
0.017305398 0.65799999 -0.019612785 6.6534296e-39 335 257
0.018487146 0.65899998 -0.019642593 7.0232785e-39 336 257
0.019702207 0.66100001 -0.019702207 7.6686479e-39 337 257
0.02086116 0.66100001 -0.019702207 8.4044081e-39 338 257
0.022020113 0.66100001 -0.019702207 9.41856e-39 339 257
0.023179067 0.66100001 -0.019702207 1.0703205e-38 340 257
0.02433802 0.66100001 -0.019702207 1.0703205e-38 341 257
0.025535546 0.662 -0.019732011 1.1253157e-38 342 257
0.026696252 0.662 -0.019732011 1.1160961e-38 343 257
0.027899038 0.66299999 -0.019761819 1.1528639e-38 344 257
0.029061496 0.66299999 -0.019761819 1.1712671e-38 345 257
0.030269546 0.66399997 -0.019791625 1.2356926e-38 346 257
0.031528439 0.66600001 -0.019851239 1.2356926e-38 347 257
0.032745253 0.667 -0.019881045 1.2448759e-38 348 257
0.033914726 0.667 -0.019881045 1.2448759e-38 349 257
0.035136797 0.66799998 -0.019910853 1.2173279e-38 350 257
0.036416732 0.67000002 -0.019970467 1.2265474e-38 351 257
0.037647571 0.671 -0.020000271 1.2356267e-38 352 257
0.03888192 0.67199999 -0.020030079 1.2356267e-38 353 257
0.040060159 0.67199999 -0.020030079 1.2265203e-38 354 257
0.041361131 0.67400002 -0.020089693 1.2910572e-38 355 257
0.042606 0.67500001 -0.020119499 1.3644935e-38 356 257
0.043789499 0.67500001 -0.020119499 1.4105912e-38 357 257
-0.017936599 0.68199998 -0.021523919 1.7146574e-38 305 258
-0.016740825 0.68199998 -0.021523919 1.3739272e-38 306 258
-0.015476674 0.67900002 -0.021429239 1.3555241e-38 307 258
-0.01428616 0.67900002 -0.021429239 1.2823369e-38 308 258
-0.013076359 0.67799997 -0.021397678 1.153263e-38 309 258
-0.011852534 0.676 -0.021334561 1.0613845e-38 310 258
-0.01063572 0.67400002 -0.021271439 1.0521648e-38 311 258
-0.0094539737 0.67400002 -0.021271439 9.3299166e-39 312 258
-0.00824768 0.67199999 -0.021208318 9.237721e-39 313 258
-0.0070589199 0.671 -0.021176759 8.9622131e-39 314 258
-0.0058824331 0.671 -0.021176759 8.9622131e-39 315 258
-0.0046989331 0.67000002 -0.0211452 8.4119162e-39 316 258
-0.0035136798 0.66799998 -0.021082079 8.319722e-39 317 258
-0.0023389466 0.667 -0.021050518 8.2278865e-39 318 258
-0.0011694733 0.667 -0.021050518 8.0438568e-39 319 258
0 0.66600001 -0.02101896 7.8580334e-39 320 258
0.00116772 0.66600001 -0.02101896 7.8580334e-39 321 258
0.0023354399 0.66600001 -0.02101896 8.128547e-39 322 258
0.0034926396 0.66399997 -0.020955838 7.8519601e-39 323 258
0.0046568532 0.66399997 -0.020955838 8.1264143e-39 324 258
0.0058035329 0.662 -0.020892721 8.3108055e-39 325 258
0.0069642398 0.662 -0.020892721 7.5782767e-39 326 258
0.0081249457 0.662 -0.020892721 7.7630267e-39 327 258
0.0092716264 0.66100001 -0.02086116 7.9481214e-39 328 258
0.01043058 0.66100001 -0.02086116 8.0403171e-39 329 258
0.011589534 0.66100001 -0.02086116 8.68279e-39 330 258
0.012748486 0.66100001 -0.02086116 8.4065632e-39 331 258
0.01390744 0.66100001 -0.02086116 8.6806292e-39 332 258
0.015020805 0.65899998 -0.020798039 8.7728248e-39 333 258
0.016176252 0.65899998 -0.020798039 8.8646673e-39 334 258
0.017331699 0.65899998 -0.020798039 8.8646673e-39 335 258
0.018487146 0.65899998 -0.020798039 9.14125e-39 336 258
0.019702207 0.66100001 -0.02086116 9.4178383e-39 337 258
0.02086116 0.66100001 -0.02086116 1.0336188e-38 338 258
0.022053426 0.662 -0.020892721 1.070461e-38 339 258
0.023214132 0.662 -0.020892721 1.1346394e-38 340 258
0.024374841 0.662 -0.020892721 1.1346394e-38 341 258
0.025574118 0.66299999 -0.020924279 1.1712668e-38 342 258
0.026736578 0.66299999 -0.020924279 1.1712668e-38 343 258
0.027941117 0.66399997 -0.020955838 1.1804848e-38 344 258
0.02910533 0.66399997 -0.020955838 1.2081433e-38 345 258
0.030360719 0.66600001 -0.02101896 1.2173629e-38 346 258
0.031528439 0.66600001 -0.02101896 1.2265825e-38 347 258
0.032745253 0.667 -0.021050518 1.2541731e-38 348 258
0.033914726 0.667 -0.021050518 1.300235e-38 349 258
0.035136797 0.66799998 -0.021082079 1.3278612e-38 350 258
0.036416732 0.67000002 -0.0211452 1.3370807e-38 351 258
0.037647571 0.671 -0.021176759 1.3276466e-38 352 258
0.03888192 0.67199999 -0.021208318 1.2999879e-38 353 258
0.040179387 0.67400002 -0.021271439 1.2632559e-38 354 258
0.041422497 0.67500001 -0.021303 1.3001341e-38 355 258
0.042669121 0.676 -0.021334561 1.3462344e-38 356 258
0.043854371 0.676 -0.021334561 1.4107714e-38 357 258
-0.016740825 0.68199998 -0.022719691 1.3187547e-38 306 259
-0.015499466 0.68000001 -0.022653066 1.3095351e-38 307 259
-0.01428616 0.67900002 -0.022619752 1.2824821e-38 308 259
-0.013076359 0.67799997 -0.022586439 1.1534082e-38 309 259
-0.011852534 0.676 -0.022519812 9.9717169e-39 310 259
-0.0106515 0.67500001 -0.022486499 9.9717169e-39 311 259
-0.0094539737 0.67400002 -0.022453187 9.7883739e-39 312 259
-0.00824768 0.67199999 -0.022386558 9.7883739e-39 313 259
-0.0070589199 0.671 -0.022353247 9.3295537e-39 314 259
-0.0058824331 0.671 -0.022353247 9.2373595e-39 315 259
-0.0046989331 0.67000002 -0.022319933 8.870735e-39 316 259
-0.0035136798 0.66799998 -0.022253305 8.870735e-39 317 259
-0.0023389466 0.667 -0.022219993 8.5952285e-39 318 259
-0.0011694733 0.667 -0.022219993 8.5952285e-39 319 259
0 0.667 -0.022219993 8.4101225e-39 320 259
0.00116772 0.66600001 -0.02218668 8.4101225e-39 321 259
0.0023354399 0.66600001 -0.02218668 8.2228909e-39 322 259
0.0034926396 0.66399997 -0.022120051 7.8541083e-39 323 259
0.0046568532 0.66399997 -0.022120051 8.5877231e-39 324 259
0.0058035329 0.662 -0.022053426 8.7724745e-39 325 259
0.0069642398 0.662 -0.022053426 8.9593447e-39 326 259
0.0081249457 0.662 -0.022053426 9.1437359e-39 327 259
0.0092716264 0.66100001 -0.022020113 8.9614943e-39 328 259
0.01043058 0.66100001 -0.022020113 8.9614943e-39 329 259
0.011589534 0.66100001 -0.022020113 9.32776e-39 330 259
0.012748486 0.66100001 -0.022020113 9.2355658e-39 331 259
0.01390744 0.66100001 -0.022020113 9.6029078e-39 332 259
0.015020805 0.65899998 -0.021953486 9.7872963e-39 333 259
0.016176252 0.65899998 -0.021953486 9.7862201e-39 334 259
0.0173843 0.66100001 -0.022020113 9.8784143e-39 335 259
0.018543253 0.66100001 -0.022020113 1.0153921e-38 336 259
0.019732011 0.662 -0.022053426 1.0246474e-38 337 259
0.020892721 0.662 -0.022053426 1.0796052e-38 338 259
0.022053426 0.662 -0.022053426 1.1164471e-38 339 259
0.023214132 0.662 -0.022053426 1.1714428e-38 340 259
0.024374841 0.662 -0.022053426 1.1806623e-38 341 259
0.025574118 0.66299999 -0.02208674 1.2264374e-38 342 259
0.026736578 0.66299999 -0.02208674 1.2264374e-38 343 259
0.027941117 0.66399997 -0.022120051 1.2541667e-38 344 259
0.02910533 0.66399997 -0.022120051 1.2541667e-38 345 259
0.030360719 0.66600001 -0.02218668 1.2174372e-38 346 259
0.03157578 0.667 -0.022219993 1.2082176e-38 347 259
0.032745253 0.667 -0.022219993 1.2265924e-38 348 259
0.033965573 0.66799998 -0.022253305 1.3188239e-38 349 259
0.035136797 0.66799998 -0.022253305 1.3187547e-38 350 259
0.036471087 0.671 -0.022353247 1.3187547e-38 351 259
0.037703678 0.67199999 -0.022386558 1.31854e-38 352 259
0.03888192 0.67199999 -0.022386558 1.1618076e-38 353 259
0.040179387 0.67400002 -0.022453187 1.1621313e-38 354 259
0.041422497 0.67500001 -0.022486499 1.1806063e-38 355 259
0.042669121 0.676 -0.022519812 1.2451429e-38 356 259
0.043854371 0.676 -0.022519812 1.3465581e-38 357 259
-0.016765373 0.68300003 -0.023950534 1.3004238e-38 306 260
-0.015499466 0.68000001 -0.023845334 1.3004238e-38 307 260
-0.01428616 0.67900002 -0.023810266 1.3009583e-38 308 260
-0.013095647 0.67900002 -0.023810266 1.1811042e-38 309 260
-0.011852534 0.676 -0.023705067 1.0339069e-38 310 260
-0.0106515 0.67500001 -0.023669999 9.970645e-39 311 260
-0.0094539737 0.67400002 -0.023634933 9.7883767e-39 312 260
-0.0082722269 0.67400002 -0.023634933 9.7883767e-39 313 260
-0.0070694401 0.67199999 -0.023564799 9.6050644e-39 314 260
-0.0058824331 0.671 -0.023529733 9.5128688e-39 315 260
-0.0046989331 0.67000002 -0.023494666 9.0540472e-39 316 260
-0.0035136798 0.66799998 -0.023424532 8.961853e-39 317 260
-0.0023389466 0.667 -0.023389466 8.5948697e-39 318 260
-0.0011694733 0.667 -0.023389466 8.5948697e-39 319 260
0 0.667 -0.023389466 8.3186458e-39 320 260
0.00116772 0.66600001 -0.023354398 8.3186458e-39 321 260
0.0023354399 0.66600001 -0.023354398 8.5930985e-39 322 260
0.0035031599 0.66600001 -0.023354398 8.5009029e-39 323 260
0.0046568532 0.66399997 -0.023284266 8.6838494e-39 324 260
0.0058122999 0.66299999 -0.0232492 8.6838494e-39 325 260
0.0069747595 0.66299999 -0.0232492 8.7767471e-39 326 260
0.0081249457 0.662 -0.023214132 8.7767471e-39 327 260
0.009285653 0.662 -0.023214132 9.1448065e-39 328 260
0.01044636 0.662 -0.023214132 9.1448065e-39 329 260
0.011589534 0.66100001 -0.023179067 9.4199543e-39 330 260
0.012748486 0.66100001 -0.023179067 9.603984e-39 331 260
0.01390744 0.66100001 -0.023179067 9.3284775e-39 332 260
0.015066394 0.66100001 -0.023179067 9.3284775e-39 333 260
0.016225345 0.66100001 -0.023179067 9.6032665e-39 334 260
0.0173843 0.66100001 -0.023179067 9.6954608e-39 335 260
0.018543253 0.66100001 -0.023179067 1.0154638e-38 336 260
0.019732011 0.662 -0.023214132 1.0246832e-38 337 260
0.020892721 0.662 -0.023214132 1.134707e-38 338 260
0.022053426 0.662 -0.023214132 1.1439266e-38 339 260
0.023214132 0.662 -0.023214132 1.1990317e-38 340 260
0.024374841 0.662 -0.023214132 1.1990317e-38 341 260
0.025574118 0.66299999 -0.0232492 1.2356615e-38 342 260
0.026736578 0.66299999 -0.0232492 1.2817592e-38 343 260
0.027941117 0.66399997 -0.023284266 1.3094941e-38 344 260
0.029192999 0.66600001 -0.023354398 1.3279691e-38 345 260
0.030360719 0.66600001 -0.023354398 1.2358841e-38 346 260
0.03157578 0.667 -0.023389466 1.1713472e-38 347 260
0.032745253 0.667 -0.023389466 1.1621274e-38 348 260
0.033965573 0.66799998 -0.023424532 1.1252851e-38 349 260
0.035241999 0.67000002 -0.023494666 1.079294e-38 350 260
0.036471087 0.671 -0.023529733 1.033232e-38 351 260
0.037703678 0.67199999 -0.023564799 8.7703768e-39 352 260
0.03888192 0.67199999 -0.023564799 7.4796379e-39 353 260
0.040179387 0.67400002 -0.023634933 8.0360585e-39 354 260
0.041483864 0.676 -0.023705067 8.8658192e-39 355 260
0.042795356 0.67799997 -0.023775198 1.052178e-38 356 260
0.043984115 0.67799997 -0.023775198 1.1812519e-38 357 260
-0.016765373 0.68300003 -0.02514806 1.3832566e-38 306 261
-0.015545053 0.68199998 -0.025111238 1.3555978e-38 307 261
-0.014307199 0.68000001 -0.025037598 1.3652096e-38 308 261
-0.013095647 0.67900002 -0.025000781 1.3098922e-38 309 261
-0.011852534 0.676 -0.024890319 1.2269439e-38 310 261
-0.0106515 0.67500001 -0.0248535 1.09787e-38 311 261
-0.0094679995 0.67500001 -0.0248535 1.1074078e-38 312 261
-0.0082722269 0.67400002 -0.024816679 1.0981881e-38 313 261
-0.0070694401 0.67199999 -0.024743039 1.070637e-38 314 261
-0.0058824331 0.671 -0.024706218 1.0614174e-38 315 261
-0.0047059464 0.671 -0.024706218 9.7883725e-39 316 261
-0.0035241998 0.67000002 -0.024669399 9.603984e-39 317 261
-0.0023424532 0.66799998 -0.02459576 8.6867052e-39 318 261
-0.0011712266 0.66799998 -0.02459576 8.6867052e-39 319 261
0 0.667 -0.024558939 8.6863465e-39 320 261
0.0011694733 0.667 -0.024558939 8.5937935e-39 321 261
0.0023354399 0.66600001 -0.02452212 8.6859878e-39 322 261
0.0035031599 0.66600001 -0.02452212 8.6859878e-39 323 261
0.0046568532 0.66399997 -0.024448479 8.9607768e-39 324 261
0.0058210664 0.66399997 -0.024448479 8.9607768e-39 325 261
0.0069747595 0.66299999 -0.024411658 9.0526123e-39 326 261
0.0081372196 0.66299999 -0.024411658 9.1448065e-39 327 261
0.009285653 0.662 -0.024374841 9.3284775e-39 328 261
0.01044636 0.662 -0.024374841 9.4206717e-39 329 261
0.011607066 0.662 -0.024374841 9.8791318e-39 330 261
0.012748486 0.66100001 -0.02433802 9.8791318e-39 331 261
0.01390744 0.66100001 -0.02433802 9.8791318e-39 332 261
0.015066394 0.66100001 -0.02433802 9.8791318e-39 333 261
0.016225345 0.66100001 -0.02433802 9.9706085e-39 334 261
0.017410601 0.662 -0.024374841 1.0154638e-38 335 261
0.018571306 0.662 -0.024374841 1.0521263e-38 336 261
0.019732011 0.662 -0.024374841 1.0613457e-38 337 261
0.020892721 0.662 -0.024374841 1.0887194e-38 338 261
0.022053426 0.662 -0.024374841 1.116342e-38 339 261
0.023214132 0.662 -0.024374841 1.198926e-38 340 261
0.024411658 0.66299999 -0.024411658 1.2450238e-38 341 261
0.025574118 0.66299999 -0.024411658 1.254212e-38 342 261
0.026736578 0.66299999 -0.024411658 1.318749e-38 343 261
0.027941117 0.66399997 -0.024448479 1.3187181e-38 344 261
0.029192999 0.66600001 -0.02452212 1.3187181e-38 345 261
0.030360719 0.66600001 -0.02452212 1.2082643e-38 346 261
0.03157578 0.667 -0.024558939 1.1068492e-38 347 261
0.032745253 0.667 -0.024558939 1.0149741e-38 348 261
0.033965573 0.66799998 -0.02459576 9.7813169e-39 349 261
0.035241999 0.67000002 -0.024669399 9.4142846e-39 350 261
0.036471087 0.671 -0.024706218 9.0455035e-39 351 261
0.037703678 0.67199999 -0.024743039 8.310067e-39 352 261
0.038997639 0.67400002 -0.024816679 7.7568933e-39 353 261
0.040179387 0.67400002 -0.024816679 8.3093636e-39 354 261
0.041606598 0.67799997 -0.024963958 9.7844937e-39 355 261
0.042795356 0.67799997 -0.024963958 1.0980576e-38 356 261
-0.014370319 0.68300003 -0.026345588 1.4110595e-38 308 262
-0.013114933 0.68000001 -0.026229866 1.3926562e-38 309 262
-0.011852534 0.676 -0.026075572 1.3741385e-38 310 262
-0.0106515 0.67500001 -0.026037 1.1989668e-38 311 262
-0.0094679995 0.67500001 -0.026037 1.2174359e-38 312 262
-0.0082722269 0.67400002 -0.025998428 1.1989608e-38 313 262
-0.0070694401 0.67199999 -0.025921278 1.0614567e-38 314 262
-0.0058911997 0.67199999 -0.025921278 1.0430174e-38 315 262
-0.0047059464 0.671 -0.025882706 9.5125128e-39 316 262
-0.0035294599 0.671 -0.025882706 9.4203172e-39 317 262
-0.0023494666 0.67000002 -0.025844134 8.687064e-39 318 262
-0.0011712266 0.66799998 -0.025766984 8.594511e-39 319 262
0 0.66799998 -0.025766984 8.6863465e-39 320 262
0.0011694733 0.667 -0.025728412 8.6863465e-39 321 262
0.0023389466 0.667 -0.025728412 8.5941523e-39 322 262
0.0035084197 0.667 -0.025728412 8.5941523e-39 323 262
0.0046708798 0.66600001 -0.02568984 8.9611355e-39 324 262
0.0058385995 0.66600001 -0.02568984 8.9611355e-39 325 262
0.0069852793 0.66399997 -0.025612691 9.0526123e-39 326 262
0.0081494926 0.66399997 -0.025612691 9.0526123e-39 327 262
0.0092996797 0.66299999 -0.025574118 9.4195955e-39 328 262
0.01046214 0.66299999 -0.025574118 9.4195955e-39 329 262
0.0116246 0.66299999 -0.025574118 9.9702498e-39 330 262
0.012767773 0.662 -0.025535546 9.9702498e-39 331 262
0.01392848 0.662 -0.025535546 9.9706085e-39 332 262
0.015089186 0.662 -0.025535546 9.8784143e-39 333 262
0.016249891 0.662 -0.025535546 1.0153921e-38 334 262
0.017436899 0.66299999 -0.025574118 1.0246115e-38 335 262
0.018599359 0.66299999 -0.025574118 1.0613457e-38 336 262
0.019761819 0.66299999 -0.025574118 1.042871e-38 337 262
0.020924279 0.66299999 -0.025574118 1.070173e-38 338 262
0.02208674 0.66299999 -0.025574118 1.1162348e-38 339 262
0.0232492 0.66299999 -0.025574118 1.2265514e-38 340 262
0.024411658 0.66299999 -0.025574118 1.2726492e-38 341 262
0.025612691 0.66399997 -0.025612691 1.3096404e-38 342 262
0.026776904 0.66399997 -0.025612691 1.3188959e-38 343 262
0.027941117 0.66399997 -0.025612691 1.2359937e-38 344 262
0.029192999 0.66600001 -0.02568984 1.125359e-38 345 262
0.030406304 0.667 -0.025728412 1.0516744e-38 346 262
0.03157578 0.667 -0.025728412 1.0148321e-38 347 262
0.032794341 0.66799998 -0.025766984 9.7813113e-39 348 262
0.033965573 0.66799998 -0.025766984 9.1359419e-39 349 262
0.035241999 0.67000002 -0.025844134 8.7692655e-39 350 262
0.036471087 0.671 -0.025882706 9.0458538e-39 351 262
0.037703678 0.67199999 -0.025921278 9.3234903e-39 352 262
0.038997639 0.67400002 -0.025998428 8.4940898e-39 353 262
0.040179387 0.67400002 -0.025998428 9.0436916e-39 354 262
0.041361131 0.67400002 -0.025998428 1.09798e-38 355 262
0.043110959 0.68300003 -0.026345588 1.1807833e-38 356 262
-0.014370319 0.68300003 -0.027543113 1.4937137e-38 308 263
-0.013153506 0.68199998 -0.027502786 1.4937137e-38 309 263
-0.011905133 0.67900002 -0.027381808 1.4751613e-38 310 263
-0.01066728 0.676 -0.027260827 1.3276483e-38 311 263
-0.0094820261 0.676 -0.027260827 1.3001617e-38 312 263
-0.0082722269 0.67400002 -0.027180174 1.2356248e-38 313 263
-0.0070904801 0.67400002 -0.027180174 1.0064267e-38 314 263
-0.0058911997 0.67199999 -0.027099518 9.8795157e-39 315 263
-0.0047129598 0.67199999 -0.027099518 9.0533368e-39 316 263
-0.0035294599 0.671 -0.027059194 8.9611411e-39 317 263
-0.0023494666 0.67000002 -0.027018867 8.594511e-39 318 263
-0.0011712266 0.66799998 -0.026938211 8.594511e-39 319 263
0 0.66799998 -0.026938211 8.5948697e-39 320 263
0.0011712266 0.66799998 -0.026938211 8.5948697e-39 321 263
0.0023389466 0.667 -0.026897885 8.7774645e-39 322 263
0.0035084197 0.667 -0.026897885 8.7774645e-39 323 263
0.0046708798 0.66600001 -0.026857559 8.9611355e-39 324 263
0.0058385995 0.66600001 -0.026857559 8.9611355e-39 325 263
0.0070063197 0.66600001 -0.026857559 9.1444478e-39 326 263
0.0081494926 0.66399997 -0.026776904 9.1444478e-39 327 263
0.0093137063 0.66399997 -0.026776904 9.6943874e-39 328 263
0.010477919 0.66399997 -0.026776904 9.6943874e-39 329 263
0.011642133 0.66399997 -0.026776904 1.0152847e-38 330 263
0.012787059 0.66299999 -0.026736578 1.0152847e-38 331 263
0.013949519 0.66299999 -0.026736578 9.9688289e-39 332 263
0.015111978 0.66299999 -0.026736578 1.0429806e-38 333 263
0.016274439 0.66299999 -0.026736578 1.0981572e-38 334 263
0.017436899 0.66299999 -0.026736578 1.1258161e-38 335 263
0.018599359 0.66299999 -0.026736578 1.1717365e-38 336 263
0.019761819 0.66299999 -0.026736578 1.1717365e-38 337 263
0.020955838 0.66399997 -0.026776904 1.1715227e-38 338 263
0.022120051 0.66399997 -0.026776904 1.1992174e-38 339 263
0.023284266 0.66399997 -0.026776904 1.2542489e-38 340 263
0.024448479 0.66399997 -0.026776904 1.272688e-38 341 263
0.025612691 0.66399997 -0.026776904 1.2083694e-38 342 263
0.026776904 0.66399997 -0.026776904 1.1623076e-38 343 263
0.028025279 0.66600001 -0.026857559 9.32358e-39 344 263
0.029192999 0.66600001 -0.026857559 8.5856548e-39 345 263
0.030406304 0.667 -0.026897885 1.0148316e-38 346 263
0.03157578 0.667 -0.026897885 1.1439054e-38 347 263
0.032794341 0.66799998 -0.026938211 1.1991132e-38 348 263
0.033965573 0.66799998 -0.026938211 1.0884785e-38 349 263
0.035241999 0.67000002 -0.027018867 9.5068292e-39 350 263
0.036471087 0.671 -0.027059194 9.5993835e-39 351 263
0.037703678 0.67199999 -0.027099518 9.6011562e-39 352 263
0.038997639 0.67400002 -0.027180174 8.402613e-39 353 263
0.040417835 0.67799997 -0.027341479 9.8709538e-39 354 263
0.041852064 0.68199998 -0.027502786 1.2359877e-38 355 263
0.043110959 0.68300003 -0.027543113 1.3370499e-38 356 263
0.044308487 0.68300003 -0.027543113 1.3277943e-38 357 263
0.045506012 0.68300003 -0.027543113 1.5764005e-38 358 263
-0.013172794 0.68300003 -0.028740639 1.5121535e-38 309 264
-0.011922667 0.68000001 -0.028614398 1.5028223e-38 310 264
-0.010714619 0.67900002 -0.028572321 1.4013711e-38 311 264
-0.0095100794 0.67799997 -0.028530238 1.3004488e-38 312 264
-0.0082844999 0.67500001 -0.028404001 1.171375e-38 313 264
-0.0071010003 0.67500001 -0.028404001 9.4221123e-39 314 264
-0.0059087332 0.67400002 -0.02836192 9.3299166e-39 315 264
-0.0047129598 0.67199999 -0.02827776 8.7789009e-39 316 264
-0.0035294599 0.671 -0.028235679 8.5941523e-39 317 264
-0.0023494666 0.67000002 -0.028193599 8.5026755e-39 318 264
-0.0011747333 0.67000002 -0.028193599 8.5026755e-39 319 264
0 0.67000002 -0.028193599 8.5941523e-39 320 264
0.0011712266 0.66799998 -0.028109439 8.5941523e-39 321 264
0.0023424532 0.66799998 -0.028109439 8.7774645e-39 322 264
0.0035084197 0.667 -0.028067358 8.8696588e-39 323 264
0.0046778931 0.667 -0.028067358 9.0526123e-39 324 264
0.0058385995 0.66600001 -0.028025279 9.1448065e-39 325 264
0.0070063197 0.66600001 -0.028025279 9.4188781e-39 326 264
0.0081740404 0.66600001 -0.028025279 9.4188781e-39 327 264
0.0093417596 0.66600001 -0.028025279 9.8773521e-39 328 264
0.010477919 0.66399997 -0.027941117 9.8773521e-39 329 264
0.011642133 0.66399997 -0.027941117 9.969182e-39 330 264
0.012806346 0.66399997 -0.027941117 9.969182e-39 331 264
0.013970559 0.66399997 -0.027941117 1.0152906e-38 332 264
0.015134773 0.66399997 -0.027941117 1.1351091e-38 333 264
0.016298985 0.66399997 -0.027941117 1.1994382e-38 334 264
0.0174632 0.66399997 -0.027941117 1.2547556e-38 335 264
0.018627413 0.66399997 -0.027941117 1.3374465e-38 336 264
0.019791625 0.66399997 -0.027941117 1.346666e-38 337 264
0.020955838 0.66399997 -0.027941117 1.3833638e-38 338 264
0.022120051 0.66399997 -0.027941117 1.3280464e-38 339 264
0.023284266 0.66399997 -0.027941117 1.2636149e-38 340 264
0.024448479 0.66399997 -0.027941117 1.1622355e-38 341 264
0.02568984 0.66600001 -0.028025279 1.0243346e-38 342 264
0.026857559 0.66600001 -0.028025279 8.9526072e-39 343 264
0.028025279 0.66600001 -0.028025279 7.0208178e-39 344 264
0.029236831 0.667 -0.028067358 7.5736328e-39 345 264
0.030451892 0.66799998 -0.028109439 1.1162113e-38 346 264
0.031623118 0.66799998 -0.028109439 1.2729799e-38 347 264
0.032794341 0.66799998 -0.028109439 1.3555259e-38 348 264
0.033965573 0.66799998 -0.028109439 1.3094281e-38 349 264
0.035241999 0.67000002 -0.028193599 1.1715972e-38 350 264
0.036525436 0.67199999 -0.02827776 1.0978407e-38 351 264
0.037815895 0.67400002 -0.02836192 1.0243681e-38 352 264
0.039113361 0.676 -0.028446076 9.5983115e-39 353 264
0.040477451 0.67900002 -0.028572321 1.1251046e-38 354 264
0.041852064 0.68199998 -0.02869856 1.3556297e-38 355 264
0.043110959 0.68300003 -0.028740639 1.4288874e-38 356 264
0.044308487 0.68300003 -0.028740639 1.3643504e-38 357 264
0.045506012 0.68300003 -0.028740639 1.5580693e-38 358 264
0.04670354 0.68300003 -0.028740639 1.7885224e-38 359 264
-0.013172794 0.68300003 -0.029938167 1.392516e-38 309 265
-0.011957732 0.68199998 -0.029894331 1.4843496e-38 310 265
-0.0107304 0.68000001 -0.029806666 1.456691e-38 311 265
-0.0095381327 0.68000001 -0.029806666 1.2824073e-38 312 265
-0.0082967728 0.676 -0.029631332 9.9663682e-39 313 265
-0.0071010003 0.67500001 -0.0295875 8.8696644e-39 314 265
-0.0059087332 0.67400002 -0.029543666 9.1462513e-39 315 265
-0.0047129598 0.67199999 -0.029455997 8.6867178e-39 316 265
-0.00353472 0.67199999 -0.029455997 8.5026867e-39 317 265
-0.0023529732 0.671 -0.029412165 8.503393e-39 318 265
-0.0011747333 0.67000002 -0.029368332 8.3186458e-39 319 265
0 0.67000002 -0.029368332 8.5026755e-39 320 265
0.0011747333 0.67000002 -0.029368332 8.5026755e-39 321 265
0.0023494666 0.67000002 -0.029368332 8.8693e-39 322 265
0.0035136798 0.66799998 -0.029280664 8.961853e-39 323 265
0.0046778931 0.667 -0.029236831 9.235933e-39 324 265
0.0058473665 0.667 -0.029236831 9.4199641e-39 325 265
0.0070168395 0.667 -0.029236831 9.7855292e-39 326 265
0.0081740404 0.66600001 -0.029192999 9.7855292e-39 327 265
0.0093417596 0.66600001 -0.029192999 9.9688443e-39 328 265
0.01050948 0.66600001 -0.029192999 9.9688443e-39 329 265
0.011677199 0.66600001 -0.029192999 9.8781088e-39 330 265
0.01284492 0.66600001 -0.029192999 1.070823e-38 331 265
0.014012639 0.66600001 -0.029192999 1.1995804e-38 332 265
0.01518036 0.66600001 -0.029192999 1.2641174e-38 333 265
0.016348081 0.66600001 -0.029192999 1.3283361e-38 334 265
0.0174632 0.66399997 -0.02910533 1.3467392e-38 335 265
0.018627413 0.66399997 -0.02910533 1.3926579e-38 336 265
0.019791625 0.66399997 -0.02910533 1.3373405e-38 337 265
0.020955838 0.66399997 -0.02910533 1.2361382e-38 338 265
0.022120051 0.66399997 -0.02910533 1.1255034e-38 339 265
0.023354398 0.66600001 -0.029192999 9.8756523e-39 340 265
0.02452212 0.66600001 -0.029192999 9.1380873e-39 341 265
0.02568984 0.66600001 -0.029192999 8.495201e-39 342 265
0.026857559 0.66600001 -0.029192999 7.9420272e-39 343 265
0.028067358 0.667 -0.029236831 8.5866988e-39 344 265
0.029280664 0.66799998 -0.029280664 9.6004906e-39 345 265
0.030543067 0.67000002 -0.029368332 1.2544334e-38 346 265
0.0317178 0.67000002 -0.029368332 1.3097149e-38 347 265
0.032941625 0.671 -0.029412165 1.3279042e-38 348 265
0.034118112 0.671 -0.029412165 1.3094651e-38 349 265
0.035347197 0.67199999 -0.029455997 1.2543237e-38 350 265
0.036634147 0.67400002 -0.029543666 1.1990063e-38 351 265
0.037928104 0.676 -0.029631332 1.162198e-38 352 265
0.039286941 0.67900002 -0.029762832 1.1161002e-38 353 265
0.040477451 0.67900002 -0.029762832 1.2996319e-38 354 265
0.041913435 0.68300003 -0.029938167 1.4564003e-38 355 265
0.043110959 0.68300003 -0.029938167 1.391758e-38 356 265
0.044308487 0.68300003 -0.029938167 1.2995265e-38 357 265
0.045506012 0.68300003 -0.029938167 1.5487777e-38 358 265
0.04670354 0.68300003 -0.029938167 1.8069255e-38 359 265
-0.013230653 0.68599999 -0.031272452 1.3280159e-38 309 266
-0.011975267 0.68300003 -0.031135695 1.4659841e-38 310 266
-0.010761959 0.68199998 -0.031090107 1.4752395e-38 311 266
-0.0095381327 0.68000001 -0.030998932 1.3561287e-38 312 266
-0.0083335936 0.67900002 -0.030953348 1.0519192e-38 313 266
-0.0071115191 0.676 -0.030816587 9.1440891e-39 314 266
-0.0059174998 0.67500001 -0.030771 9.512866e-39 315 266
-0.0047269869 0.67400002 -0.030725412 8.5041216e-39 316 266
-0.00353472 0.67199999 -0.030634239 8.2278949e-39 317 266
-0.0023529732 0.671 -0.030588651 8.3193632e-39 318 266
-0.0011764866 0.671 -0.030588651 8.227169e-39 319 266
0 0.671 -0.030588651 8.594511e-39 320 266
0.0011747333 0.67000002 -0.030543067 8.5023168e-39 321 266
0.0023494666 0.67000002 -0.030543067 8.9611411e-39 322 266
0.0035136798 0.66799998 -0.030451892 8.9611411e-39 323 266
0.0046849065 0.66799998 -0.030451892 9.5107374e-39 324 266
0.0058473665 0.667 -0.030406304 9.6032918e-39 325 266
0.0070168395 0.667 -0.030406304 1.0061043e-38 326 266
0.0081863133 0.667 -0.030406304 9.9688471e-39 327 266
0.0093557863 0.667 -0.030406304 9.6015065e-39 328 266
0.010525259 0.667 -0.030406304 9.7858978e-39 329 266
0.011677199 0.66600001 -0.030360719 1.0430959e-38 330 266
0.01284492 0.66600001 -0.030360719 1.1537305e-38 331 266
0.014012639 0.66600001 -0.030360719 1.3099673e-38 332 266
0.01518036 0.66600001 -0.030360719 1.3652488e-38 333 266
0.016348081 0.66600001 -0.030360719 1.374328e-38 334 266
0.017515799 0.66600001 -0.030360719 1.3651084e-38 335 266
0.018683519 0.66600001 -0.030360719 1.3467392e-38 336 266
0.019851239 0.66600001 -0.030360719 1.2176653e-38 337 266
0.02101896 0.66600001 -0.030360719 1.0980926e-38 338 266
0.02218668 0.66600001 -0.030360719 9.4139609e-39 339 266
0.023354398 0.66600001 -0.030360719 8.312232e-39 340 266
0.02452212 0.66600001 -0.030360719 8.1281995e-39 341 266
0.025728412 0.667 -0.030406304 7.9445215e-39 342 266
0.026897885 0.667 -0.030406304 7.5760991e-39 343 266
0.028067358 0.667 -0.030406304 9.5997885e-39 344 266
0.029280664 0.66799998 -0.030451892 1.1075277e-38 345 266
0.030588651 0.671 -0.030588651 1.3187568e-38 346 266
0.031765141 0.671 -0.030588651 1.2910983e-38 347 266
0.03299072 0.67199999 -0.030634239 1.2542922e-38 348 266
0.034168959 0.67199999 -0.030634239 1.2450726e-38 349 266
0.035452399 0.67400002 -0.030725412 1.2358515e-38 350 266
0.036742851 0.676 -0.030816587 1.2081927e-38 351 266
0.038040318 0.67799997 -0.030907756 1.2448914e-38 352 266
0.039344799 0.68000001 -0.030998932 1.1158175e-38 353 266
0.040537067 0.68000001 -0.030998932 1.0788333e-38 354 266
0.041852064 0.68199998 -0.031090107 1.2263464e-38 355 266
0.043110959 0.68300003 -0.031135695 1.2812318e-38 356 266
0.044308487 0.68300003 -0.031135695 1.1613775e-38 357 266
0.045506012 0.68300003 -0.031135695 1.5485976e-38 358 266
0.04670354 0.68300003 -0.031135695 1.8436235e-38 359 266
-0.015795778 0.69300002 -0.03280662 1.3550979e-38 307 267
-0.014475521 0.68800002 -0.032569919 1.2172379e-38 308 267
-0.013230653 0.68599999 -0.032475237 1.3186891e-38 309 267
-0.011975267 0.68300003 -0.032333218 1.4846406e-38 310 267
-0.010761959 0.68199998 -0.032285877 1.5399579e-38 311 267
-0.0095381327 0.68000001 -0.032191198 1.5123661e-38 312 267
-0.0083335936 0.67900002 -0.032143861 1.3555975e-38 313 267
-0.0071430802 0.67900002 -0.032143861 1.1535472e-38 314 267
-0.0059262668 0.676 -0.032001842 9.5993639e-39 315 267
-0.0047339997 0.67500001 -0.031954501 8.3193632e-39 316 267
-0.00354524 0.67400002 -0.03190716 8.5037559e-39 317 267
-0.0023564799 0.67199999 -0.031812478 8.2275418e-39 318 267
-0.0011782399 0.67199999 -0.031812478 8.2275418e-39 319 267
0 0.67199999 -0.031812478 8.5026839e-39 320 267
0.0011764866 0.671 -0.031765141 8.4104869e-39 321 267
0.0023529732 0.671 -0.031765141 9.0511998e-39 322 267
0.0035241998 0.67000002 -0.0317178 9.3281468e-39 323 267
0.0046989331 0.67000002 -0.0317178 9.7859132e-39 324 267
0.0058561331 0.66799998 -0.031623118 9.9706646e-39 325 267
0.0070273597 0.66799998 -0.031623118 9.8777431e-39 326 267
0.0081985854 0.66799998 -0.031623118 9.8777431e-39 327 267
0.0093698129 0.66799998 -0.031623118 9.3256427e-39 328 267
0.010525259 0.667 -0.03157578 9.4178383e-39 329 267
0.011694733 0.667 -0.03157578 1.0800848e-38 330 267
0.012864206 0.667 -0.03157578 1.2275979e-38 331 267
0.014033679 0.667 -0.03157578 1.3743267e-38 332 267
0.015203152 0.667 -0.03157578 1.365107e-38 333 267
0.016348081 0.66600001 -0.031528439 1.3284082e-38 334 267
0.017515799 0.66600001 -0.031528439 1.2269932e-38 335 267
0.018683519 0.66600001 -0.031528439 1.0336303e-38 336 267
0.019851239 0.66600001 -0.031528439 8.8611725e-39 337 267
0.02101896 0.66600001 -0.031528439 8.0367494e-39 338 267
0.02218668 0.66600001 -0.031528439 8.3129761e-39 339 267
0.023354398 0.66600001 -0.031528439 8.9568812e-39 340 267
0.024558939 0.667 -0.03157578 8.9568812e-39 341 267
0.025728412 0.667 -0.03157578 8.9565449e-39 342 267
0.026938211 0.66799998 -0.031623118 9.4178818e-39 343 267
0.028193599 0.67000002 -0.0317178 1.1717791e-38 344 267
0.029412165 0.671 -0.031765141 1.217841e-38 345 267
0.030634239 0.67199999 -0.031812478 1.2174492e-38 346 267
0.03190716 0.67400002 -0.03190716 1.2174492e-38 347 267
0.033088908 0.67400002 -0.03190716 1.2449284e-38 348 267
0.034321502 0.67500001 -0.031954501 1.2449284e-38 349 267
0.035505001 0.67500001 -0.031954501 1.2358162e-38 350 267
0.036851559 0.67799997 -0.03209652 1.2081574e-38 351 267
0.038040318 0.67799997 -0.03209652 1.0239478e-38 352 267
0.039286941 0.67900002 -0.032143861 8.7639896e-39 353 267
0.040537067 0.68000001 -0.032191198 6.7418193e-39 354 267
0.041852064 0.68199998 -0.032285877 8.1247537e-39 355 267
0.043047838 0.68199998 -0.032285877 1.0232658e-38 356 267
0.044308487 0.68300003 -0.032333218 1.0048627e-38 357 267
0.045506012 0.68300003 -0.032333218 1.5395228e-38 358 267
0.04670354 0.68300003 -0.032333218 1.834513e-38 359 267
-0.017133573 0.69800001 -0.034267146 1.3645695e-38 306 268
-0.015795778 0.69300002 -0.034021679 1.2354956e-38 307 268
-0.014475521 0.68800002 -0.033776212 1.0054406e-38 308 268
-0.013249939 0.68699998 -0.033727121 1.060758e-38 309 268
-0.0119928 0.68400002 -0.033579841 1.2269262e-38 310 268
-0.01077774 0.68300003 -0.033530746 1.4021339e-38 311 268
-0.009566186 0.68199998 -0.03348165 1.5583958e-38 312 268
-0.0083458666 0.68000001 -0.033383466 1.4938589e-38 313 268
-0.0071430802 0.67900002 -0.033334374 1.3191436e-38 314 268
-0.0059262668 0.676 -0.033187091 1.0609958e-38 315 268
-0.0047410131 0.676 -0.033187091 8.9600593e-39 316 268
-0.0035505001 0.67500001 -0.033137999 8.9600593e-39 317 268
-0.0023634934 0.67400002 -0.033088908 8.41084e-39 318 268
-0.0011817467 0.67400002 -0.033088908 8.5030342e-39 319 268
0 0.67400002 -0.033088908 8.4104869e-39 320 268
0.0011782399 0.67199999 -0.03299072 8.4104869e-39 321 268
0.0023564799 0.67199999 -0.03299072 9.0512068e-39 322 268
0.0035294599 0.671 -0.032941625 9.3277937e-39 323 268
0.0047059464 0.671 -0.032941625 9.5114815e-39 324 268
0.0058824331 0.671 -0.032941625 9.5114815e-39 325 268
0.0070589199 0.671 -0.032941625 9.7866194e-39 326 268
0.0082231332 0.67000002 -0.032892533 9.6025883e-39 327 268
0.0093978662 0.67000002 -0.032892533 9.7862929e-39 328 268
0.01054104 0.66799998 -0.032794341 1.0892639e-38 329 268
0.011712266 0.66799998 -0.032794341 1.2364253e-38 330 268
0.012883492 0.66799998 -0.032794341 1.3286208e-38 331 268
0.014033679 0.667 -0.032745253 1.3743633e-38 332 268
0.015203152 0.667 -0.032745253 1.3190459e-38 333 268
0.016372627 0.667 -0.032745253 1.0888773e-38 334 268
0.0175421 0.667 -0.032745253 1.0243403e-38 335 268
0.018711573 0.667 -0.032745253 8.5881309e-39 336 268
0.019881045 0.667 -0.032745253 7.7587304e-39 337 268
0.021050518 0.667 -0.032745253 7.9445243e-39 338 268
0.022219993 0.667 -0.032745253 8.3133082e-39 339 268
0.023389466 0.667 -0.032745253 8.4987771e-39 340 268
0.024558939 0.667 -0.032745253 8.8672009e-39 341 268
0.025766984 0.66799998 -0.032794341 9.049116e-39 342 268
0.027018867 0.67000002 -0.032892533 9.9710709e-39 343 268
0.02827776 0.67199999 -0.03299072 1.116536e-38 344 268
0.029455997 0.67199999 -0.03299072 1.1349391e-38 345 268
0.030771 0.67500001 -0.033137999 1.2081944e-38 346 268
0.031954501 0.67500001 -0.033137999 1.2081944e-38 347 268
0.033137999 0.67500001 -0.033137999 1.2540758e-38 348 268
0.034372345 0.676 -0.033187091 1.3001735e-38 349 268
0.035557602 0.676 -0.033187091 1.3553483e-38 350 268
0.036851559 0.67799997 -0.033285279 1.1801406e-38 351 268
0.038096428 0.67900002 -0.033334374 7.9367751e-39 352 268
0.039286941 0.67900002 -0.033334374 8.0289708e-39 353 268
0.040537067 0.68000001 -0.033383466 9.4047152e-39 354 268
0.041852064 0.68199998 -0.03348165 1.0603258e-38 355 268
0.043047838 0.68199998 -0.03348165 1.0694715e-38 356 268
0.044308487 0.68300003 -0.033530746 1.0694715e-38 357 268
0.045506012 0.68300003 -0.033530746 1.6130998e-38 358 268
-0.018304799 0.69599998 -0.035389278 1.862064e-38 305 269
-0.017035386 0.69400001 -0.035287585 1.3368752e-38 306 269
-0.015818574 0.69400001 -0.035287585 1.0879828e-38 307 269
-0.014580719 0.69300002 -0.035236739 7.6576869e-39 308 269
-0.013269227 0.68800002 -0.03498251 7.3811e-39 309 269
-0.0119928 0.68400002 -0.03477912 7.0180783e-39 310 269
-0.01077774 0.68300003 -0.034728274 1.0521512e-38 311 269
-0.009566186 0.68199998 -0.034677424 1.4111008e-38 312 269
-0.0083704125 0.68199998 -0.034677424 1.5032965e-38 313 269
-0.0071535995 0.68000001 -0.034575731 1.4663399e-38 314 269
-0.0059525664 0.67900002 -0.034524884 1.272729e-38 315 269
-0.0047550397 0.67799997 -0.034474038 1.0614958e-38 316 269
-0.0035557596 0.676 -0.034372345 9.324219e-39 317 269
-0.0023705065 0.676 -0.034372345 8.2257341e-39 318 269
-0.0011834999 0.67500001 -0.034321502 8.594511e-39 319 269
0 0.67500001 -0.034321502 8.4104869e-39 320 269
0.0011817467 0.67400002 -0.034270655 8.3182913e-39 321 269
0.0023634934 0.67400002 -0.034270655 8.3143648e-39 322 269
0.00353472 0.67199999 -0.034168959 8.6831459e-39 323 269
0.0047129598 0.67199999 -0.034168959 9.2345261e-39 324 269
0.0058911997 0.67199999 -0.034168959 9.1423304e-39 325 269
0.0070589199 0.671 -0.034118112 9.0508761e-39 326 269
0.0082354061 0.671 -0.034118112 9.9724722e-39 327 269
0.0093978662 0.67000002 -0.034067266 1.1720306e-38 328 269
0.0105726 0.67000002 -0.034067266 1.2734818e-38 329 269
0.011747333 0.67000002 -0.034067266 1.355959e-38 330 269
0.012922067 0.67000002 -0.034067266 1.3651787e-38 331 269
0.014054719 0.66799998 -0.033965573 1.3099686e-38 332 269
0.015225946 0.66799998 -0.033965573 1.1808947e-38 333 269
0.016397171 0.66799998 -0.033965573 7.113026e-39 334 269
0.0175421 0.667 -0.033914726 6.5598537e-39 335 269
0.018711573 0.667 -0.033914726 6.4719166e-39 336 269
0.019881045 0.667 -0.033914726 6.7485021e-39 337 269
0.021050518 0.667 -0.033914726 7.2083914e-39 338 269
0.022219993 0.667 -0.033914726 7.8537608e-39 339 269
0.023389466 0.667 -0.033914726 8.8664848e-39 340 269
0.024743039 0.67199999 -0.034168959 9.3271028e-39 341 269
0.025921278 0.67199999 -0.034168959 9.9696458e-39 342 269
0.027180174 0.67400002 -0.034270655 1.0430624e-38 343 269
0.028404001 0.67500001 -0.034321502 1.1256126e-38 344 269
0.0295875 0.67500001 -0.034321502 1.1533073e-38 345 269
0.030816587 0.676 -0.034372345 1.2450729e-38 346 269
0.032001842 0.676 -0.034372345 1.2542924e-38 347 269
0.033187091 0.676 -0.034372345 1.346236e-38 348 269
0.034372345 0.676 -0.034372345 1.3738947e-38 349 269
0.0356628 0.67799997 -0.034474038 1.4105951e-38 350 269
0.036851559 0.67799997 -0.034474038 1.1340082e-38 351 269
0.038096428 0.67900002 -0.034524884 7.1988598e-39 352 269
0.039286941 0.67900002 -0.034524884 8.3048472e-39 353 269
0.040537067 0.68000001 -0.034575731 1.0603977e-38 354 269
0.041852064 0.68199998 -0.034677424 1.1249347e-38 355 269
0.043047838 0.68199998 -0.034677424 1.1248238e-38 356 269
0.044308487 0.68300003 -0.034728274 1.1340435e-38 357 269
0.045506012 0.68300003 -0.034728274 1.6499052e-38 358 269
0.04670354 0.68300003 -0.034728274 1.9264921e-38 359 269
-0.018304799 0.69599998 -0.036609598 1.8345132e-38 305 270
-0.017035386 0.69400001 -0.036504399 1.4566929e-38 306 270
-0.015818574 0.69400001 -0.036504399 1.2077647e-38 307 270
-0.014580719 0.69300002 -0.036451802 8.9444601e-39 308 270
-0.013327086 0.69099998 -0.036346599 8.2990907e-39 309 270
-0.012027865 0.68599999 -0.036083598 7.5633417e-39 310 270
-0.01079352 0.68400002 -0.035978399 9.0384732e-39 311 270
-0.0095802136 0.68300003 -0.035925802 1.0062326e-38 312 270
-0.0083704125 0.68199998 -0.035873197 1.292075e-38 313 270
-0.00717464 0.68199998 -0.035873197 1.5124772e-38 314 270
-0.0059525664 0.67900002 -0.035715401 1.4294651e-38 315 270
-0.0047620535 0.67900002 -0.035715401 1.3008877e-38 316 270
-0.0035662798 0.67799997 -0.0356628 1.1718138e-38 317 270
-0.0023705065 0.676 -0.035557602 1.0708245e-38 318 270
-0.0011852533 0.676 -0.035557602 1.043166e-38 319 270
0 0.676 -0.035557602 9.8788445e-39 320 270
0.0011834999 0.67500001 -0.035505001 1.0155071e-38 321 270
0.0023669999 0.67500001 -0.035505001 9.605517e-39 322 270
0.00354524 0.67400002 -0.035452399 9.6977126e-39 323 270
0.0047129598 0.67199999 -0.035347197 1.0522801e-38 324 270
0.0058911997 0.67199999 -0.035347197 1.033841e-38 325 270
0.0070694401 0.67199999 -0.035347197 1.0524266e-38 326 270
0.0082354061 0.671 -0.0352946 1.209159e-38 327 270
0.0094118929 0.671 -0.0352946 1.3559943e-38 328 270
0.01058838 0.671 -0.0352946 1.4113117e-38 329 270
0.011764866 0.671 -0.0352946 1.392803e-38 330 270
0.012922067 0.67000002 -0.035241999 1.374328e-38 331 270
0.014096799 0.67000002 -0.035241999 1.1535237e-38 332 270
0.015271533 0.67000002 -0.035241999 1.0152302e-38 333 270
0.016446266 0.67000002 -0.035241999 7.2066706e-39 334 270
