# .PCD v.7 - Point Cloud Data file format
FIELDS x y z rgb imX imY
SIZE 4 4 4 4 4 4
TYPE F F F F F F
COUNT 1 1 1 1 1 1
WIDTH 851
HEIGHT 1
VIEWPOINT 0 0 0 1 0 0 0
POINTS 851
DATA ascii
0.0011694733 0.667 0.022219993 4.0640906e-39 321 221
0.0023424532 0.66799998 0.022253305 4.5236437e-39 322 221
0.0035241998 0.67000002 0.022319933 4.7998704e-39 323 221
0.0046989331 0.67000002 0.022319933 4.892422e-39 324 221
0.0058824331 0.671 0.022353247 4.892422e-39 325 221
0.0070589199 0.671 0.022353247 4.8938471e-39 326 221
0.0082354061 0.671 0.022353247 5.3548267e-39 327 221
0.0094118929 0.671 0.022353247 5.8179334e-39 328 221
0.0105726 0.67000002 0.022319933 6.0945203e-39 329 221
0.011712266 0.66799998 0.022253305 6.3703701e-39 330 221
0.012883492 0.66799998 0.022253305 6.0012344e-39 331 221
0.014096799 0.67000002 0.022319933 5.7235756e-39 332 221
0.015294326 0.671 0.022353247 5.5395458e-39 333 221
0.016470812 0.671 0.022353247 5.9072465e-39 334 221
0.0176473 0.671 0.022353247 6.2760235e-39 335 221
0.018851839 0.67199999 0.022386558 6.3685764e-39 336 221
0.020089693 0.67400002 0.022453187 6.5529649e-39 337 221
0.021334561 0.676 0.022519812 6.4614881e-39 338 221
0.022586439 0.67799997 0.022586439 6.4614881e-39 339 221
0.023775198 0.67799997 0.022586439 6.1859816e-39 340 221
0.025000781 0.67900002 0.022619752 6.2781759e-39 341 221
0.026191294 0.67900002 0.022619752 6.2781857e-39 342 221
0.027381808 0.67900002 0.022619752 6.4625769e-39 343 221
0.02869856 0.68199998 0.022719691 6.8278114e-39 344 221
0.029938167 0.68300003 0.022753006 6.5512231e-39 345 221
-0.028908957 0.68699998 0.021681719 8.305014e-39 296 222
-0.027664091 0.68599999 0.021650158 8.6737923e-39 297 222
-0.026345588 0.68300003 0.02155548 8.6741496e-39 298 222
-0.025111238 0.68199998 0.021523919 8.7663438e-39 299 222
-0.023845334 0.68000001 0.0214608 8.765269e-39 300 222
-0.022586439 0.67799997 0.021397678 8.0277138e-39 301 222
-0.021397678 0.67799997 0.021397678 7.8408142e-39 302 222
-0.020149305 0.676 0.021334561 7.7482613e-39 303 222
-0.018935999 0.67500001 0.021303 7.107596e-39 304 222
-0.0177525 0.67500001 0.021303 7.384543e-39 305 222
-0.016544454 0.67400002 0.021271439 7.2902342e-39 306 222
-0.01531712 0.67199999 0.021208318 7.3824299e-39 307 222
-0.01413888 0.67199999 0.021208318 7.7501432e-39 308 222
-0.012941353 0.671 0.021176759 8.02637e-39 309 222
-0.011764866 0.671 0.021176759 8.5791752e-39 310 222
-0.0105726 0.67000002 0.0211452 8.5791752e-39 311 222
-0.0093978662 0.67000002 0.0211452 8.4866096e-39 312 222
-0.0082231332 0.67000002 0.0211452 8.117467e-39 313 222
-0.0070273597 0.66799998 0.021082079 7.473178e-39 314 222
-0.0058561331 0.66799998 0.021082079 7.473178e-39 315 222
-0.0046778931 0.667 0.021050518 7.6590168e-39 316 222
-0.0035084197 0.667 0.021050518 8.2118304e-39 317 222
-0.0023389466 0.667 0.021050518 8.396579e-39 318 222
-0.0011694733 0.667 0.021050518 8.5809703e-39 319 222
0 0.667 0.021050518 5.9987639e-39 320 222
0.0011694733 0.667 0.021050518 4.3396013e-39 321 222
0.0023424532 0.66799998 0.021082079 4.8009298e-39 322 222
0.0035241998 0.67000002 0.0211452 4.8009298e-39 323 222
0.0046989331 0.67000002 0.0211452 5.0764251e-39 324 222
0.0058736666 0.67000002 0.0211452 5.1686207e-39 325 222
0.0070483997 0.67000002 0.0211452 5.444123e-39 326 222
0.0082231332 0.67000002 0.0211452 5.9972898e-39 327 222
0.0093978662 0.67000002 0.0211452 6.0927112e-39 328 222
0.0105726 0.67000002 0.0211452 6.3692939e-39 329 222
0.011747333 0.67000002 0.0211452 6.3685764e-39 330 222
0.012922067 0.67000002 0.0211452 5.907964e-39 331 222
0.01411784 0.671 0.021176759 5.9054529e-39 332 222
0.015294326 0.671 0.021176759 6.0902001e-39 333 222
0.016470812 0.671 0.021176759 6.367859e-39 334 222
0.0176473 0.671 0.021176759 6.5518887e-39 335 222
0.018851839 0.67199999 0.021208318 6.6444416e-39 336 222
0.020089693 0.67400002 0.021271439 6.6444416e-39 337 222
0.021334561 0.676 0.021334561 6.4611294e-39 338 222
0.022586439 0.67799997 0.021397678 6.4611294e-39 339 222
0.023810266 0.67900002 0.021429239 6.2781759e-39 340 222
0.025000781 0.67900002 0.021429239 6.2781759e-39 341 222
0.026191294 0.67900002 0.021429239 6.462214e-39 342 222
0.027422134 0.68000001 0.0214608 6.7384421e-39 343 222
0.02869856 0.68199998 0.021523919 7.4713787e-39 344 222
0.029938167 0.68300003 0.02155548 7.5635757e-39 345 222
-0.031363625 0.68800002 0.020506985 1.0608901e-38 294 223
-0.030157333 0.68800002 0.020506985 8.6727931e-39 295 223
-0.028908957 0.68699998 0.020477179 8.3060901e-39 296 223
-0.027664091 0.68599999 0.020447372 8.4904786e-39 297 223
-0.026345588 0.68300003 0.020357953 8.3990018e-39 298 223
-0.025111238 0.68199998 0.020328145 8.4915548e-39 299 223
-0.023810266 0.67900002 0.020238725 8.5833903e-39 300 223
-0.022586439 0.67799997 0.020208918 8.3068076e-39 301 223
-0.021397678 0.67799997 0.020208918 8.5812379e-39 302 223
-0.020149305 0.676 0.020149305 8.6734321e-39 303 223
-0.018935999 0.67500001 0.020119499 8.3972278e-39 304 223
-0.0177525 0.67500001 0.020119499 7.844054e-39 305 223
-0.016544454 0.67400002 0.020089693 7.4720849e-39 306 223
-0.01531712 0.67199999 0.020030079 7.1951393e-39 307 223
-0.01413888 0.67199999 0.020030079 7.6561301e-39 308 223
-0.012960639 0.67199999 0.020030079 8.2089437e-39 309 223
-0.011782399 0.67199999 0.020030079 8.946136e-39 310 223
-0.0105726 0.67000002 0.019970467 8.946136e-39 311 223
-0.0093978662 0.67000002 0.019970467 8.8532187e-39 312 223
-0.0082231332 0.67000002 0.019970467 8.3000449e-39 313 223
-0.0070273597 0.66799998 0.019910853 7.6568433e-39 314 223
-0.0058561331 0.66799998 0.019910853 7.5646477e-39 315 223
-0.0046849065 0.66799998 0.019910853 7.1058374e-39 316 223
-0.0035136798 0.66799998 0.019910853 7.382783e-39 317 223
-0.0023389466 0.667 0.019881045 8.3022128e-39 318 223
-0.0011694733 0.667 0.019881045 8.1178201e-39 319 223
0 0.667 0.019881045 5.816874e-39 320 223
0.0011694733 0.667 0.019881045 4.6183308e-39 321 223
0.0023494666 0.67000002 0.019970467 4.8945478e-39 322 223
0.0035241998 0.67000002 0.019970467 4.9867434e-39 323 223
0.0046989331 0.67000002 0.019970467 5.3547986e-39 324 223
0.0058736666 0.67000002 0.019970467 5.3547986e-39 325 223
0.0070483997 0.67000002 0.019970467 5.9061703e-39 326 223
0.0082231332 0.67000002 0.019970467 6.0909175e-39 327 223
0.0093978662 0.67000002 0.019970467 6.1856229e-39 328 223
0.01058838 0.671 0.020000271 6.3696526e-39 329 223
0.011747333 0.67000002 0.019970467 6.5522474e-39 330 223
0.012922067 0.67000002 0.019970467 6.1838292e-39 331 223
0.01411784 0.671 0.020000271 6.4586183e-39 332 223
0.015294326 0.671 0.020000271 6.7348422e-39 333 223
0.016470812 0.671 0.020000271 7.1039779e-39 334 223
0.0176473 0.671 0.020000271 7.1039779e-39 335 223
0.018851839 0.67199999 0.020030079 6.9195894e-39 336 223
0.020089693 0.67400002 0.020089693 6.8273952e-39 337 223
0.021334561 0.676 0.020149305 6.4611294e-39 338 223
0.022586439 0.67799997 0.020208918 6.4611294e-39 339 223
0.023810266 0.67900002 0.020238725 6.4618468e-39 340 223
0.025000781 0.67900002 0.020238725 6.4618468e-39 341 223
0.026229866 0.68000001 0.020268533 6.8288385e-39 342 223
0.027422134 0.68000001 0.020268533 7.0132312e-39 343 223
0.028740639 0.68300003 0.020357953 7.5642946e-39 344 223
0.029982001 0.68400002 0.020387759 7.656849e-39 345 223
-0.032711938 0.69099998 0.019384852 1.5122236e-38 293 224
-0.031363625 0.68800002 0.019300694 1.0793649e-38 294 224
-0.030157333 0.68800002 0.019300694 8.5805947e-39 295 224
-0.028908957 0.68699998 0.019272638 7.9380307e-39 296 224
-0.027664091 0.68599999 0.019244585 8.1224192e-39 297 224
-0.026345588 0.68300003 0.019160427 8.1234954e-39 298 224
-0.025111238 0.68199998 0.019132372 8.2156896e-39 299 224
-0.023810266 0.67900002 0.019048214 8.3990018e-39 300 224
-0.022586439 0.67799997 0.019020159 8.4911961e-39 301 224
-0.021397678 0.67799997 0.019020159 8.9500148e-39 302 224
-0.020149305 0.676 0.018964052 9.042209e-39 303 224
-0.018935999 0.67500001 0.018935999 8.7641914e-39 304 224
-0.0177525 0.67500001 0.018935999 7.8422491e-39 305 224
-0.016544454 0.67400002 0.018907947 7.5631679e-39 306 224
-0.01531712 0.67199999 0.018851839 7.3787753e-39 307 224
-0.01413888 0.67199999 0.018851839 8.2989337e-39 308 224
-0.012960639 0.67199999 0.018851839 8.9443031e-39 309 224
-0.011782399 0.67199999 0.018851839 9.4978146e-39 310 224
-0.01058838 0.671 0.018823786 9.4978146e-39 311 224
-0.0094118929 0.671 0.018823786 9.0375581e-39 312 224
-0.0082231332 0.67000002 0.018795732 8.7606125e-39 313 224
-0.0070483997 0.67000002 0.018795732 8.4844012e-39 314 224
-0.0058736666 0.67000002 0.018795732 8.023423e-39 315 224
-0.0046989331 0.67000002 0.018795732 7.3791705e-39 316 224
-0.0035241998 0.67000002 0.018795732 7.6553972e-39 317 224
-0.0023424532 0.66799998 0.018739626 8.0245399e-39 318 224
-0.0011712266 0.66799998 0.018739626 8.0245399e-39 319 224
0 0.66799998 0.018739626 7.0125137e-39 320 224
0.0011712266 0.66799998 0.018739626 6.3671443e-39 321 224
0.0023494666 0.67000002 0.018795732 6.2763822e-39 322 224
0.0035241998 0.67000002 0.018795732 6.2763822e-39 323 224
0.0046989331 0.67000002 0.018795732 6.6440829e-39 324 224
0.0058736666 0.67000002 0.018795732 6.5515299e-39 325 224
0.0070483997 0.67000002 0.018795732 6.8273952e-39 326 224
0.0082354061 0.671 0.018823786 6.9195894e-39 327 224
0.0094118929 0.671 0.018823786 7.0128598e-39 328 224
0.01058838 0.671 0.018823786 7.1050541e-39 329 224
0.011764866 0.671 0.018823786 6.9206656e-39 330 224
0.012941353 0.671 0.018823786 6.9206656e-39 331 224
0.01411784 0.671 0.018823786 7.0121424e-39 332 224
0.015294326 0.671 0.018823786 7.1043366e-39 333 224
0.01649536 0.67199999 0.018851839 7.5642315e-39 334 224
0.017673599 0.67199999 0.018851839 7.4720373e-39 335 224
0.018907947 0.67400002 0.018907947 7.2876488e-39 336 224
0.020089693 0.67400002 0.018907947 7.1032604e-39 337 224
0.021334561 0.676 0.018964052 6.6448004e-39 338 224
0.022586439 0.67799997 0.019020159 6.7373533e-39 339 224
0.023845334 0.68000001 0.019076265 6.5536823e-39 340 224
0.025037598 0.68000001 0.019076265 6.6458766e-39 341 224
0.026229866 0.68000001 0.019076265 6.9210369e-39 342 224
0.027502786 0.68199998 0.019132372 7.1976252e-39 343 224
0.028740639 0.68300003 0.019160427 7.6564958e-39 344 224
0.030069664 0.68599999 0.019244585 7.5643002e-39 345 224
-0.034021679 0.69300002 0.018225901 1.5675772e-38 292 225
-0.032711938 0.69099998 0.0181733 1.5122957e-38 293 225
-0.031454802 0.69 0.018146999 1.097841e-38 294 225
-0.030244999 0.69 0.018146999 8.5813234e-39 295 225
-0.028951041 0.68800002 0.0180944 7.2926711e-39 296 225
-0.027664091 0.68599999 0.018041799 7.5696153e-39 297 225
-0.02638416 0.68400002 0.0179892 8.1220604e-39 298 225
-0.025111238 0.68199998 0.017936599 8.3064489e-39 299 225
-0.023810266 0.67900002 0.017857701 8.6745083e-39 300 225
-0.022586439 0.67799997 0.0178314 8.6745083e-39 301 225
-0.021397678 0.67799997 0.0178314 8.7659851e-39 302 225
-0.020149305 0.676 0.017778801 8.1206255e-39 303 225
-0.018935999 0.67500001 0.0177525 8.0237677e-39 304 225
-0.0177525 0.67500001 0.0177525 7.4706024e-39 305 225
-0.016544454 0.67400002 0.0177262 7.9301386e-39 306 225
-0.015362706 0.67400002 0.0177262 8.5754982e-39 307 225
-0.01413888 0.67199999 0.017673599 1.0049888e-38 308 225
-0.012960639 0.67199999 0.017673599 1.0049888e-38 309 225
-0.011782399 0.67199999 0.017673599 1.0235353e-38 310 225
-0.01058838 0.671 0.0176473 1.0235353e-38 311 225
-0.0094118929 0.671 0.0176473 9.9584116e-39 312 225
-0.0082231332 0.67000002 0.017620999 1.01428e-38 313 225
-0.0070483997 0.67000002 0.017620999 1.0231766e-38 314 225
-0.0058736666 0.67000002 0.017620999 9.125435e-39 315 225
-0.0046989331 0.67000002 0.017620999 7.6539146e-39 316 225
-0.0035241998 0.67000002 0.017620999 8.1148928e-39 317 225
-0.0023494666 0.67000002 0.017620999 8.4851172e-39 318 225
-0.0011747333 0.67000002 0.017620999 8.7620629e-39 319 225
0 0.67000002 0.017620999 9.1283048e-39 320 225
0.0011747333 0.67000002 0.017620999 8.8517221e-39 321 225
0.0023529732 0.671 0.0176473 8.3929034e-39 322 225
0.0035241998 0.67000002 0.017620999 8.5769331e-39 323 225
0.0046989331 0.67000002 0.017620999 8.3925447e-39 324 225
0.0058824331 0.671 0.0176473 8.115962e-39 325 225
0.0070589199 0.671 0.0176473 7.656067e-39 326 225
0.00824768 0.67199999 0.017673599 7.656067e-39 327 225
0.0094259195 0.67199999 0.017673599 7.564949e-39 328 225
0.010604159 0.67199999 0.017673599 7.472396e-39 329 225
0.011782399 0.67199999 0.017673599 6.9217418e-39 330 225
0.012960639 0.67199999 0.017673599 6.8295476e-39 331 225
0.01413888 0.67199999 0.017673599 7.5631553e-39 332 225
0.01531712 0.67199999 0.017673599 7.7479025e-39 333 225
0.01649536 0.67199999 0.017673599 7.9301386e-39 334 225
0.017673599 0.67199999 0.017673599 7.8379444e-39 335 225
0.018935999 0.67500001 0.0177525 7.1954546e-39 336 225
0.020119499 0.67500001 0.0177525 7.1032604e-39 337 225
0.021334561 0.676 0.017778801 6.7362771e-39 338 225
0.022586439 0.67799997 0.0178314 6.9203069e-39 339 225
0.023845334 0.68000001 0.017883999 6.6455178e-39 340 225
0.025037598 0.68000001 0.017883999 6.6455178e-39 341 225
0.026229866 0.68000001 0.017883999 7.0125165e-39 342 225
0.027502786 0.68199998 0.017936599 7.4731359e-39 343 225
0.028740639 0.68300003 0.017962901 7.9312877e-39 344 225
0.030069664 0.68599999 0.018041799 7.3781139e-39 345 225
-0.034021679 0.69300002 0.01701084 1.5582857e-38 292 226
-0.032711938 0.69099998 0.016961746 1.5398465e-38 293 226
-0.031500384 0.69099998 0.016961746 1.1254644e-38 294 226
-0.030244999 0.69 0.0169372 8.8575557e-39 295 226
-0.028951041 0.68800002 0.016888106 7.0146563e-39 296 226
-0.027704418 0.68699998 0.01686356 7.3837975e-39 297 226
-0.026461305 0.68599999 0.016839013 8.02879e-39 298 226
-0.025111238 0.68199998 0.016740825 8.4894024e-39 299 226
-0.023845334 0.68000001 0.016691733 8.6748671e-39 300 226
-0.022586439 0.67799997 0.016642639 8.8592555e-39 301 226
-0.021397678 0.67799997 0.016642639 8.9464275e-39 302 226
-0.020149305 0.676 0.016593546 7.3791256e-39 303 226
-0.018935999 0.67500001 0.016569 6.5493776e-39 304 226
-0.0177525 0.67500001 0.016569 6.826319e-39 305 226
-0.016544454 0.67400002 0.016544454 8.3925447e-39 306 226
-0.015362706 0.67400002 0.016544454 8.9453569e-39 307 226
-0.01418096 0.67400002 0.016544454 1.051086e-38 308 226
-0.012960639 0.67199999 0.01649536 1.0603054e-38 309 226
-0.011782399 0.67199999 0.01649536 1.1154784e-38 310 226
-0.010604159 0.67199999 0.01649536 1.087856e-38 311 226
-0.0094118929 0.671 0.016470812 1.0693813e-38 312 226
-0.0082354061 0.671 0.016470812 1.0693813e-38 313 226
-0.0070589199 0.671 0.016470812 1.0599108e-38 314 226
-0.0058824331 0.671 0.016470812 9.5853299e-39 315 226
-0.0047059464 0.671 0.016470812 8.4822278e-39 316 226
-0.0035241998 0.67000002 0.016446266 9.0357519e-39 317 226
-0.0023494666 0.67000002 0.016446266 9.1290223e-39 318 226
-0.0011747333 0.67000002 0.016446266 9.2212165e-39 319 226
0 0.671 0.016470812 9.5885585e-39 320 226
0.0011764866 0.671 0.016470812 9.5885585e-39 321 226
0.0023529732 0.671 0.016470812 8.8535158e-39 322 226
0.0035294599 0.671 0.016470812 8.7613216e-39 323 226
0.0047059464 0.671 0.016470812 8.6687686e-39 324 226
0.0058824331 0.671 0.016470812 8.4843802e-39 325 226
0.0070589199 0.671 0.016470812 8.4836627e-39 326 226
0.0082354061 0.671 0.016470812 8.2989155e-39 327 226
0.0094118929 0.671 0.016470812 8.2077975e-39 328 226
0.010604159 0.67199999 0.01649536 8.1156032e-39 329 226
0.011782399 0.67199999 0.01649536 7.564949e-39 330 226
0.012960639 0.67199999 0.01649536 7.3805605e-39 331 226
0.01413888 0.67199999 0.01649536 7.3791256e-39 332 226
0.01531712 0.67199999 0.01649536 7.5631553e-39 333 226
0.016544454 0.67400002 0.016544454 7.3791256e-39 334 226
0.0177262 0.67400002 0.016544454 7.2869314e-39 335 226
0.018935999 0.67500001 0.016569 6.9203069e-39 336 226
0.020149305 0.676 0.016593546 6.7362771e-39 337 226
0.021397678 0.67799997 0.016642639 6.5536823e-39 338 226
0.022586439 0.67799997 0.016642639 6.830265e-39 339 226
0.023845334 0.68000001 0.016691733 7.1961721e-39 340 226
0.025037598 0.68000001 0.016691733 7.3802018e-39 341 226
0.026229866 0.68000001 0.016691733 7.3798739e-39 342 226
0.027502786 0.68199998 0.016740825 7.7482963e-39 343 226
0.02878272 0.68400002 0.016789921 8.1149783e-39 344 226
0.030069664 0.68599999 0.016839013 7.9302283e-39 345 226
0.031318039 0.68699998 0.01686356 8.6656661e-39 346 226
-0.034070771 0.69400001 0.015818574 1.5583212e-38 292 227
-0.03280662 0.69300002 0.015795778 1.5306267e-38 293 227
-0.031500384 0.69099998 0.015750192 1.153051e-38 294 227
-0.030244999 0.69 0.015727401 8.9490325e-39 295 227
-0.028951041 0.68800002 0.015681813 6.9213845e-39 296 227
-0.027704418 0.68699998 0.015659019 7.5667539e-39 297 227
-0.026461305 0.68599999 0.015636226 8.305014e-39 298 227
-0.02514806 0.68300003 0.015567848 8.6734363e-39 299 227
-0.023845334 0.68000001 0.015499466 9.1354963e-39 300 227
-0.022619752 0.67900002 0.015476674 9.1354963e-39 301 227
-0.021429239 0.67900002 0.015476674 9.0375553e-39 302 227
-0.020149305 0.676 0.015408293 6.824884e-39 303 227
-0.018964052 0.676 0.015408293 5.9987233e-39 304 227
-0.0177525 0.67500001 0.0153855 7.3816367e-39 305 227
-0.016544454 0.67400002 0.015362706 1.0142834e-38 306 227
-0.015362706 0.67400002 0.015362706 1.0695649e-38 307 227
-0.01418096 0.67400002 0.015362706 1.1248119e-38 308 227
-0.012999214 0.67400002 0.015362706 1.1155922e-38 309 227
-0.011782399 0.67199999 0.01531712 1.1246673e-38 310 227
-0.010604159 0.67199999 0.01531712 1.0601304e-38 311 227
-0.0094118929 0.671 0.015294326 1.0508725e-38 312 227
-0.0082354061 0.671 0.015294326 1.0692758e-38 313 227
-0.0070589199 0.671 0.015294326 1.0141732e-38 314 227
-0.0058824331 0.671 0.015294326 9.957341e-39 315 227
-0.0047059464 0.671 0.015294326 9.6821877e-39 316 227
-0.0035294599 0.671 0.015294326 9.405605e-39 317 227
-0.0023529732 0.671 0.015294326 9.4981579e-39 318 227
-0.0011764866 0.671 0.015294326 9.4981579e-39 319 227
0 0.671 0.015294326 9.4059637e-39 320 227
0.0011764866 0.671 0.015294326 9.129381e-39 321 227
0.0023529732 0.671 0.015294326 8.8535158e-39 322 227
0.0035294599 0.671 0.015294326 8.7613216e-39 323 227
0.0047059464 0.671 0.015294326 8.5765744e-39 324 227
0.0058824331 0.671 0.015294326 8.3921859e-39 325 227
0.0070589199 0.671 0.015294326 8.574422e-39 326 227
0.0082354061 0.671 0.015294326 8.4822278e-39 327 227
0.0094118929 0.671 0.015294326 8.1152445e-39 328 227
0.010604159 0.67199999 0.01531712 8.0230503e-39 329 227
0.011782399 0.67199999 0.01531712 7.472396e-39 330 227
0.012960639 0.67199999 0.01531712 7.3802018e-39 331 227
0.01413888 0.67199999 0.01531712 7.3791256e-39 332 227
0.01531712 0.67199999 0.01531712 7.2869314e-39 333 227
0.016544454 0.67400002 0.015362706 7.2876488e-39 334 227
0.0177525 0.67500001 0.0153855 7.1954546e-39 335 227
0.018964052 0.676 0.015408293 6.9206656e-39 336 227
0.020149305 0.676 0.015408293 6.7366359e-39 337 227
0.021397678 0.67799997 0.015453878 7.0128598e-39 338 227
0.022586439 0.67799997 0.015453878 7.1972483e-39 339 227
0.023810266 0.67900002 0.015476674 7.6578607e-39 340 227
0.025037598 0.68000001 0.015499466 7.2890838e-39 341 227
0.026307013 0.68199998 0.015545053 7.7468515e-39 342 227
0.027502786 0.68199998 0.015545053 8.2081898e-39 343 227
0.02878272 0.68400002 0.01559064 8.9422124e-39 344 227
0.030069664 0.68599999 0.015636226 8.296843e-39 345 227
0.031318039 0.68699998 0.015659019 9.6773013e-39 346 227
-0.034070771 0.69400001 0.01460176 1.5674329e-38 292 228
-0.03280662 0.69300002 0.014580719 1.5397744e-38 293 228
-0.031454802 0.69 0.014517599 1.1713825e-38 294 228
-0.030244999 0.69 0.014517599 9.0401519e-39 295 228
-0.028951041 0.68800002 0.014475521 6.4622112e-39 296 228
-0.027704418 0.68699998 0.014454478 7.3838087e-39 297 228
-0.026461305 0.68599999 0.01443344 8.3972376e-39 298 228
-0.025184879 0.68400002 0.01439136 9.6879764e-39 299 228
-0.023915464 0.68199998 0.01434928 1.0790033e-38 300 228
-0.022653066 0.68000001 0.014307199 1.0697838e-38 301 228
-0.0214608 0.68000001 0.014307199 1.0602752e-38 302 228
-0.020238725 0.67900002 0.01428616 8.6666442e-39 303 228
-0.018964052 0.676 0.014223038 7.6567887e-39 304 228
-0.017778801 0.676 0.014223038 8.8553319e-39 305 228
-0.016544454 0.67400002 0.01418096 1.0787863e-38 306 228
-0.015362706 0.67400002 0.01418096 1.1248841e-38 307 228
-0.01418096 0.67400002 0.01418096 1.1341076e-38 308 228
-0.012999214 0.67400002 0.01418096 1.143363e-38 309 228
-0.011817466 0.67400002 0.01418096 1.1157039e-38 310 228
-0.010604159 0.67199999 0.01413888 9.4975189e-39 311 228
-0.0094118929 0.671 0.01411784 9.2212656e-39 312 228
-0.0082354061 0.671 0.01411784 1.0419809e-38 313 228
-0.0070589199 0.671 0.01411784 1.0603106e-38 314 228
-0.0058824331 0.671 0.01411784 1.0603106e-38 315 228
-0.0047059464 0.671 0.01411784 1.0784954e-38 316 228
-0.0035294599 0.671 0.01411784 1.0323975e-38 317 228
-0.0023529732 0.671 0.01411784 1.004953e-38 318 228
-0.0011764866 0.671 0.01411784 9.8651412e-39 319 228
0 0.671 0.01411784 9.4974405e-39 320 228
0.0011764866 0.671 0.01411784 9.313052e-39 321 228
0.0023529732 0.671 0.01411784 8.7613216e-39 322 228
0.0035294599 0.671 0.01411784 8.5769331e-39 323 228
0.0047059464 0.671 0.01411784 8.5758569e-39 324 228
0.0058824331 0.671 0.01411784 8.3911097e-39 325 228
0.0070589199 0.671 0.01411784 8.3911097e-39 326 228
0.0082354061 0.671 0.01411784 8.3911097e-39 327 228
0.0094259195 0.67199999 0.01413888 8.2077975e-39 328 228
0.010604159 0.67199999 0.01413888 8.1156032e-39 329 228
0.011782399 0.67199999 0.01413888 7.656067e-39 330 228
0.012960639 0.67199999 0.01413888 7.5638728e-39 331 228
0.01418096 0.67400002 0.01418096 7.0121424e-39 332 228
0.015362706 0.67400002 0.01418096 7.0121424e-39 333 228
0.016569 0.67500001 0.014202001 6.6448004e-39 334 228
0.0177525 0.67500001 0.014202001 6.6448004e-39 335 228
0.018964052 0.676 0.014223038 6.6448004e-39 336 228
0.020149305 0.676 0.014223038 6.7369946e-39 337 228
0.021397678 0.67799997 0.014265119 7.197607e-39 338 228
0.022619752 0.67900002 0.01428616 7.4741897e-39 339 228
0.023810266 0.67900002 0.01428616 7.9319322e-39 340 228
0.025037598 0.68000001 0.014307199 7.839738e-39 341 228
0.026307013 0.68199998 0.01434928 7.3798739e-39 342 228
0.027543113 0.68300003 0.014370319 8.1174389e-39 343 228
0.02878272 0.68400002 0.01439136 8.7592659e-39 344 228
0.030069664 0.68599999 0.01443344 7.7454727e-39 345 228
0.031318039 0.68699998 0.014454478 8.4820008e-39 346 228
-0.034168959 0.69599998 0.013423519 1.5582857e-38 292 229
-0.03280662 0.69300002 0.01336566 1.530627e-38 293 229
-0.031454802 0.69 0.0133078 1.1804946e-38 294 229
-0.030244999 0.69 0.0133078 9.1312728e-39 295 229
-0.028951041 0.68800002 0.013269227 6.555483e-39 296 229
-0.027704418 0.68699998 0.013249939 7.5692748e-39 297 229
-0.026461305 0.68599999 0.013230653 9.2259501e-39 298 229
-0.025184879 0.68400002 0.01319208 1.1254254e-38 299 229
-0.023950534 0.68300003 0.013172794 1.226307e-38 300 229
-0.022719691 0.68199998 0.013153506 1.2170873e-38 301 229
-0.021523919 0.68199998 0.013153506 1.2077946e-38 302 229
-0.020238725 0.67900002 0.013095647 1.1340022e-38 303 229
-0.019020159 0.67799997 0.013076359 1.0420567e-38 304 229
-0.0178314 0.67799997 0.013076359 1.0697154e-38 305 229
-0.016569 0.67500001 0.0130185 1.1710599e-38 306 229
-0.0153855 0.67500001 0.0130185 1.1803154e-38 307 229
-0.01418096 0.67400002 0.012999214 1.180245e-38 308 229
-0.012999214 0.67400002 0.012999214 1.180245e-38 309 229
-0.011817466 0.67400002 0.012999214 1.1158498e-38 310 229
-0.010604159 0.67199999 0.012960639 8.57702e-39 311 229
-0.0094259195 0.67199999 0.012960639 7.5679127e-39 312 229
-0.00824768 0.67199999 0.012960639 1.0057195e-38 313 229
-0.0070694401 0.67199999 0.012960639 1.1616627e-38 314 229
-0.0058824331 0.671 0.012941353 1.134004e-38 315 229
-0.0047059464 0.671 0.012941353 1.1338913e-38 316 229
-0.0035294599 0.671 0.012941353 1.0693544e-38 317 229
-0.0023529732 0.671 0.012941353 1.0509446e-38 318 229
-0.0011782399 0.67199999 0.012960639 1.0048467e-38 319 229
0 0.67199999 0.012960639 9.4974405e-39 320 229
0.0011782399 0.67199999 0.012960639 9.4052462e-39 321 229
0.0023564799 0.67199999 0.012960639 9.1272286e-39 322 229
0.00353472 0.67199999 0.012960639 8.9424814e-39 323 229
0.0047129598 0.67199999 0.012960639 8.6666162e-39 324 229
0.0058911997 0.67199999 0.012960639 8.6666162e-39 325 229
0.0070694401 0.67199999 0.012960639 8.6666162e-39 326 229
0.00824768 0.67199999 0.012960639 8.574422e-39 327 229
0.0094259195 0.67199999 0.012960639 8.0241265e-39 328 229
0.010604159 0.67199999 0.012960639 7.9319322e-39 329 229
0.011782399 0.67199999 0.012960639 7.5635141e-39 330 229
0.012999214 0.67400002 0.012999214 7.3794843e-39 331 229
0.01418096 0.67400002 0.012999214 6.9206656e-39 332 229
0.0153855 0.67500001 0.0130185 6.7366359e-39 333 229
0.016569 0.67500001 0.0130185 6.6448004e-39 334 229
0.017778801 0.676 0.013037786 6.6448004e-39 335 229
0.018964052 0.676 0.013037786 6.7366359e-39 336 229
0.020208918 0.67799997 0.013076359 7.1050541e-39 337 229
0.021397678 0.67799997 0.013076359 7.473831e-39 338 229
0.022619752 0.67900002 0.013095647 7.6578607e-39 339 229
0.023810266 0.67900002 0.013095647 7.7479081e-39 340 229
0.025111238 0.68199998 0.013153506 7.5635183e-39 341 229
0.026307013 0.68199998 0.013153506 7.3798739e-39 342 229
0.027543113 0.68300003 0.013172794 8.1174389e-39 343 229
0.02886688 0.68599999 0.013230653 8.7592631e-39 344 229
0.030113498 0.68699998 0.013249939 7.5610786e-39 345 229
0.031318039 0.68699998 0.013249939 7.9306262e-39 346 229
-0.034218054 0.69700003 0.012220734 1.5490661e-38 292 230
-0.03280662 0.69300002 0.012150601 1.5122238e-38 293 230
-0.031500384 0.69099998 0.012115533 1.1620908e-38 294 230
-0.030244999 0.69 0.012097999 9.4078527e-39 295 230
-0.029035198 0.69 0.012097999 7.3838116e-39 296 230
-0.027744746 0.68800002 0.012062933 8.3983222e-39 297 230
-0.026499879 0.68699998 0.012045399 1.0053575e-38 298 230
-0.025258519 0.68599999 0.012027865 1.1621261e-38 299 230
-0.023950534 0.68300003 0.011975267 1.1803912e-38 300 230
-0.022753006 0.68300003 0.011975267 1.1988303e-38 301 230
-0.02155548 0.68300003 0.011975267 1.2261999e-38 302 230
-0.020328145 0.68199998 0.011957732 1.161663e-38 303 230
-0.019048214 0.67900002 0.011905133 1.0603178e-38 304 230
-0.0178314 0.67799997 0.011887599 1.01422e-38 305 230
-0.016593546 0.676 0.011852534 9.7759415e-39 306 230
-0.0153855 0.67500001 0.011835 9.7759415e-39 307 230
-0.014202001 0.67500001 0.011835 9.6833956e-39 308 230
-0.0130185 0.67500001 0.011835 9.6833956e-39 309 230
-0.011835 0.67500001 0.011835 9.3167556e-39 310 230
-0.01063572 0.67400002 0.011817466 8.2104081e-39 311 230
-0.0094539737 0.67400002 0.011817466 7.5679282e-39 312 230
-0.00824768 0.67199999 0.011782399 9.2278096e-39 313 230
-0.0070694401 0.67199999 0.011782399 1.0605725e-38 314 230
-0.0058911997 0.67199999 0.011782399 1.069792e-38 315 230
-0.0047129598 0.67199999 0.011782399 1.1247829e-38 316 230
-0.00353472 0.67199999 0.011782399 1.1063078e-38 317 230
-0.0023564799 0.67199999 0.011782399 1.1062307e-38 318 230
-0.0011782399 0.67199999 0.011782399 1.0509133e-38 319 230
0 0.67199999 0.011782399 1.0325071e-38 320 230
0.0011782399 0.67199999 0.011782399 1.0140679e-38 321 230
0.0023564799 0.67199999 0.011782399 1.0046329e-38 322 230
0.00353472 0.67199999 0.011782399 9.7701009e-39 323 230
0.0047129598 0.67199999 0.011782399 9.2187194e-39 324 230
0.0058911997 0.67199999 0.011782399 9.0346883e-39 325 230
0.0070694401 0.67199999 0.011782399 8.7591692e-39 326 230
0.00824768 0.67199999 0.011782399 8.4829452e-39 327 230
0.0094259195 0.67199999 0.011782399 7.8404555e-39 328 230
0.01063572 0.67400002 0.011817466 7.7482613e-39 329 230
0.011817466 0.67400002 0.011817466 7.3802018e-39 330 230
0.012999214 0.67400002 0.011817466 7.2880076e-39 331 230
0.014202001 0.67500001 0.011835 6.9206656e-39 332 230
0.0153855 0.67500001 0.011835 6.7366359e-39 333 230
0.016593546 0.676 0.011852534 6.4614881e-39 334 230
0.017778801 0.676 0.011852534 6.5536823e-39 335 230
0.018964052 0.676 0.011852534 7.0125011e-39 336 230
0.020208918 0.67799997 0.011887599 7.3816367e-39 337 230
0.021397678 0.67799997 0.011887599 8.0248481e-39 338 230
0.022619752 0.67900002 0.011905133 7.8400982e-39 339 230
0.023810266 0.67900002 0.011905133 7.6546391e-39 340 230
0.025111238 0.68199998 0.011957732 7.3780536e-39 341 230
0.026307013 0.68199998 0.011957732 7.1969274e-39 342 230
0.027543113 0.68300003 0.011975267 8.4876662e-39 343 230
0.02886688 0.68599999 0.012027865 9.4014011e-39 344 230
0.030113498 0.68699998 0.012045399 8.0181079e-39 345 230
0.031318039 0.68699998 0.012045399 8.5741936e-39 346 230
0.032569919 0.68800002 0.012062933 1.2354214e-38 347 230
-0.034267146 0.69800001 0.01101444 1.5398465e-38 292 231
-0.032948639 0.69599998 0.010982879 1.530627e-38 293 231
-0.031500384 0.69099998 0.01090398 1.1713101e-38 294 231
-0.030244999 0.69 0.010888199 9.5004056e-39 295 231
-0.029035198 0.69 0.010888199 7.8433632e-39 296 231
-0.027744746 0.68800002 0.010856641 9.2262976e-39 297 231
-0.026499879 0.68699998 0.010840859 1.0881918e-38 298 231
-0.025258519 0.68599999 0.010825079 1.1896068e-38 299 231
-0.0239856 0.68400002 0.01079352 1.171136e-38 300 231
-0.022753006 0.68300003 0.01077774 1.1803915e-38 301 231
-0.02155548 0.68300003 0.01077774 1.1526233e-38 302 231
-0.020328145 0.68199998 0.010761959 1.0511721e-38 303 231
-0.019048214 0.67900002 0.010714619 9.3135186e-39 304 231
-0.017857701 0.67900002 0.010714619 8.2990066e-39 305 231
-0.016642639 0.67799997 0.010698839 7.0129439e-39 306 231
-0.015408293 0.676 0.01066728 6.4597701e-39 307 231
-0.014223038 0.676 0.01066728 5.908397e-39 308 231
-0.013037786 0.676 0.01066728 5.8158426e-39 309 231
-0.011835 0.67500001 0.0106515 6.0016632e-39 310 231
-0.01063572 0.67400002 0.01063572 7.015455e-39 311 231
-0.0094539737 0.67400002 0.01063572 7.8434206e-39 312 231
-0.00824768 0.67199999 0.010604159 8.2125633e-39 313 231
-0.0070694401 0.67199999 0.010604159 8.5802822e-39 314 231
-0.0058911997 0.67199999 0.010604159 9.0412604e-39 315 231
-0.0047129598 0.67199999 0.010604159 1.0236567e-38 316 231
-0.00353472 0.67199999 0.010604159 1.0881936e-38 317 231
-0.0023564799 0.67199999 0.010604159 1.1247829e-38 318 231
-0.0011782399 0.67199999 0.010604159 1.0879046e-38 319 231
0 0.67199999 0.010604159 1.0787201e-38 320 231
0.0011817467 0.67400002 0.01063572 1.0695006e-38 321 231
0.0023634934 0.67400002 0.01063572 1.0785033e-38 322 231
0.00353472 0.67199999 0.010604159 1.0600642e-38 323 231
0.0047129598 0.67199999 0.010604159 1.0232543e-38 324 231
0.0058911997 0.67199999 0.010604159 9.6793697e-39 325 231
0.0070694401 0.67199999 0.010604159 9.3116213e-39 326 231
0.00824768 0.67199999 0.010604159 8.7584517e-39 327 231
0.0094539737 0.67400002 0.01063572 8.0241265e-39 328 231
0.01063572 0.67400002 0.01063572 8.0241265e-39 329 231
0.011835 0.67500001 0.0106515 7.3802018e-39 330 231
0.0130185 0.67500001 0.0106515 7.2880076e-39 331 231
0.014202001 0.67500001 0.0106515 6.9206656e-39 332 231
0.015408293 0.676 0.01066728 6.7366359e-39 333 231
0.016593546 0.676 0.01066728 6.7366359e-39 334 231
0.017778801 0.676 0.01066728 7.0128598e-39 335 231
0.019020159 0.67799997 0.010698839 7.4716786e-39 336 231
0.020208918 0.67799997 0.010698839 7.8404555e-39 337 231
0.021429239 0.67900002 0.010714619 7.9319463e-39 338 231
0.022619752 0.67900002 0.010714619 7.4709681e-39 339 231
0.023845334 0.68000001 0.0107304 7.2862293e-39 340 231
0.025111238 0.68199998 0.010761959 7.2862293e-39 341 231
0.026345588 0.68300003 0.01077774 7.4735311e-39 342 231
0.027583439 0.68400002 0.01079352 9.133051e-39 343 231
0.02886688 0.68599999 0.010825079 1.0044985e-38 344 231
0.030113498 0.68699998 0.010840859 7.9248459e-39 345 231
0.031318039 0.68699998 0.010840859 8.8497043e-39 346 231
0.032569919 0.68800002 0.010856641 1.2445694e-38 347 231
-0.034365334 0.69999999 0.0098186666 1.5215153e-38 292 232
-0.03299598 0.69700003 0.0097765867 1.5030403e-38 293 232
-0.031591557 0.69300002 0.0097204801 1.2265558e-38 294 232
-0.030288832 0.69099998 0.0096924258 9.9603076e-39 295 232
-0.029035198 0.69 0.0096783992 8.8550194e-39 296 232
-0.027744746 0.68800002 0.0096503468 1.0791128e-38 297 232
-0.026499879 0.68699998 0.0096363192 1.189429e-38 298 232
-0.025295338 0.68699998 0.0096363192 1.2355268e-38 299 232
-0.024055731 0.68599999 0.0096222926 1.1618079e-38 300 232
-0.022753006 0.68300003 0.0095802136 8.9444054e-39 301 232
-0.02155548 0.68300003 0.0095802136 6.8231548e-39 302 232
-0.020357953 0.68300003 0.0095802136 4.4264272e-39 303 232
-0.019132372 0.68199998 0.009566186 2.958113e-39 304 232
-0.017883999 0.68000001 0.0095381327 3.2346985e-39 305 232
-0.016667187 0.67900002 0.009524107 3.2365076e-39 306 232
-0.015453878 0.67799997 0.0095100794 3.2365076e-39 307 232
-0.014265119 0.67799997 0.0095100794 2.8684524e-39 308 232
-0.013037786 0.676 0.0094820261 3.6982144e-39 309 232
-0.011852534 0.676 0.0094820261 5.7218492e-39 310 232
-0.0106515 0.67500001 0.0094679995 8.487718e-39 311 232
-0.0094539737 0.67400002 0.0094539737 9.1319944e-39 312 232
-0.0082722269 0.67400002 0.0094539737 5.7207561e-39 313 232
-0.0070904801 0.67400002 0.0094539737 3.6982004e-39 314 232
-0.0059087332 0.67400002 0.0094539737 4.1588198e-39 315 232
-0.0047129598 0.67199999 0.0094259195 4.806357e-39 316 232
-0.00353472 0.67199999 0.0094259195 6.2818459e-39 317 232
-0.0023564799 0.67199999 0.0094259195 8.3029596e-39 318 232
-0.0011782399 0.67199999 0.0094259195 8.7639378e-39 319 232
0 0.67400002 0.0094539737 9.684099e-39 320 232
0.0011817467 0.67400002 0.0094539737 1.0144718e-38 321 232
0.0023634934 0.67400002 0.0094539737 1.106308e-38 322 232
0.00354524 0.67400002 0.0094539737 1.0879049e-38 323 232
0.0047269869 0.67400002 0.0094539737 1.0877955e-38 324 232
0.0059087332 0.67400002 0.0094539737 1.0693203e-38 325 232
0.0070904801 0.67400002 0.0094539737 1.0782475e-38 326 232
0.0082722269 0.67400002 0.0094539737 9.3995402e-39 327 232
0.0094539737 0.67400002 0.0094539737 8.2077975e-39 328 232
0.01063572 0.67400002 0.0094539737 8.1156032e-39 329 232
0.011835 0.67500001 0.0094679995 7.5635141e-39 330 232
0.0130185 0.67500001 0.0094679995 7.3791256e-39 331 232
0.014202001 0.67500001 0.0094679995 6.7373533e-39 332 232
0.015408293 0.676 0.0094820261 6.7373533e-39 333 232
0.016593546 0.676 0.0094820261 7.0125011e-39 334 232
0.017778801 0.676 0.0094820261 7.1972483e-39 335 232
0.019020159 0.67799997 0.0095100794 7.840101e-39 336 232
0.020208918 0.67799997 0.0095100794 7.9322966e-39 337 232
0.021429239 0.67900002 0.009524107 7.7464802e-39 338 232
0.022619752 0.67900002 0.009524107 7.5620875e-39 339 232
0.023845334 0.68000001 0.0095381327 7.0107158e-39 340 232
0.025111238 0.68199998 0.009566186 7.1029115e-39 341 232
0.026345588 0.68300003 0.0095802136 8.392965e-39 342 232
0.027583439 0.68400002 0.0095942402 9.8680965e-39 343 232
0.028908957 0.68699998 0.0096363192 9.8605982e-39 344 232
0.030113498 0.68699998 0.0096363192 7.7400973e-39 345 232
0.031363625 0.68800002 0.0096503468 9.1255681e-39 346 232
0.032664597 0.69 0.0096783992 1.2629003e-38 347 232
-0.03299598 0.69700003 0.0085545136 1.5305551e-38 293 233
-0.031591557 0.69300002 0.0085054198 1.3460877e-38 294 233
-0.030288832 0.69099998 0.008480873 1.1524769e-38 295 233
-0.029077278 0.69099998 0.008480873 1.0879397e-38 296 233
-0.027825398 0.69 0.0084686 1.207794e-38 297 233
-0.026538454 0.68800002 0.0084440531 1.244676e-38 298 233
-0.025295338 0.68699998 0.0084317802 1.1893587e-38 299 233
-0.024055731 0.68599999 0.0084195063 8.4012916e-39 300 233
-0.022786319 0.68400002 0.0083949603 4.2521295e-39 301 233
-0.02155548 0.68300003 0.0083826864 2.8655629e-39 302 233
-0.020357953 0.68300003 0.0083826864 1.851418e-39 303 233
-0.019132372 0.68199998 0.0083704125 2.3127478e-39 304 233
-0.017883999 0.68000001 0.0083458666 2.958113e-39 305 233
-0.016667187 0.67900002 0.0083335936 3.4194555e-39 306 233
-0.015453878 0.67799997 0.0083213197 3.1432288e-39 307 233
-0.014265119 0.67799997 0.0083213197 2.3159792e-39 308 233
-0.013037786 0.676 0.0082967728 3.606718e-39 309 233
-0.011852534 0.676 0.0082967728 7.3817264e-39 310 233
-0.0106515 0.67500001 0.0082844999 9.7788128e-39 311 233
-0.0094679995 0.67500001 0.0082844999 1.1433289e-38 312 233
-0.0082844999 0.67500001 0.0082844999 8.1142468e-39 313 233
-0.0071010003 0.67500001 0.0082844999 4.4314214e-39 314 233
-0.0059174998 0.67500001 0.0082844999 3.5098379e-39 315 233
-0.0047269869 0.67400002 0.0082722269 3.2397124e-39 316 233
-0.00354524 0.67400002 0.0082722269 4.8073968e-39 317 233
-0.0023634934 0.67400002 0.0082722269 6.5537356e-39 318 233
-0.0011817467 0.67400002 0.0082722269 7.1069094e-39 319 233
0 0.67400002 0.0082722269 7.6572371e-39 320 233
0.0011817467 0.67400002 0.0082722269 8.3026065e-39 321 233
0.0023634934 0.67400002 0.0082722269 9.6837613e-39 322 233
0.00354524 0.67400002 0.0082722269 1.0329131e-38 323 233
0.0047269869 0.67400002 0.0082722269 1.106238e-38 324 233
0.0059087332 0.67400002 0.0082722269 1.106238e-38 325 233
0.0070904801 0.67400002 0.0082722269 1.1521522e-38 326 233
0.0082722269 0.67400002 0.0082722269 9.862361e-39 327 233
0.0094539737 0.67400002 0.0082722269 9.309843e-39 328 233
0.0106515 0.67500001 0.0082844999 8.4800824e-39 329 233
0.011835 0.67500001 0.0082844999 7.7471851e-39 330 233
0.0130185 0.67500001 0.0082844999 7.7471851e-39 331 233
0.014223038 0.676 0.0082967728 7.2880076e-39 332 233
0.015408293 0.676 0.0082967728 7.2880076e-39 333 233
0.016593546 0.676 0.0082967728 7.5631553e-39 334 233
0.0178314 0.67799997 0.0083213197 7.8400968e-39 335 233
0.019020159 0.67799997 0.0083213197 8.023779e-39 336 233
0.020208918 0.67799997 0.0083213197 7.7468333e-39 337 233
0.021429239 0.67900002 0.0083335936 7.3784194e-39 338 233
0.022653066 0.68000001 0.0083458666 7.1940281e-39 339 233
0.023915464 0.68199998 0.0083704125 6.5522558e-39 340 233
0.02514806 0.68300003 0.0083826864 6.9210369e-39 341 233
0.02638416 0.68400002 0.0083949603 8.7613986e-39 342 233
0.027704418 0.68699998 0.0084317802 1.0328723e-38 343 233
0.028908957 0.68699998 0.0084317802 1.0229023e-38 344 233
0.030113498 0.68699998 0.0084317802 7.9244928e-39 345 233
0.031363625 0.68800002 0.0084440531 9.2177623e-39 346 233
0.032664597 0.69 0.0084686 1.2721555e-38 347 233
-0.031591557 0.69300002 0.0072903596 1.4380348e-38 294 234
-0.030288832 0.69099998 0.0072693196 1.3089609e-38 295 234
-0.029077278 0.69099998 0.0072693196 1.2076536e-38 296 234
-0.027825398 0.69 0.0072587994 1.2537514e-38 297 234
-0.026538454 0.68800002 0.0072377604 1.2263801e-38 298 234
-0.025295338 0.68699998 0.0072272392 9.405378e-39 299 234
-0.024055731 0.68599999 0.0072167199 4.4361326e-39 300 234
-0.022786319 0.68400002 0.0071956799 6.5612157e-40 301 234
-0.02158704 0.68400002 0.0071956799 1.9454058e-39 302 234
-0.020357953 0.68300003 0.0071851597 2.8677181e-39 303 234
-0.019132372 0.68199998 0.00717464 3.6942473e-39 304 234
-0.017883999 0.68000001 0.0071535995 3.7864444e-39 305 234
-0.016667187 0.67900002 0.0071430802 3.6956837e-39 306 234
-0.015453878 0.67799997 0.0071325595 3.6956837e-39 307 234
-0.014265119 0.67799997 0.0071325595 5.3526939e-39 308 234
-0.013076359 0.67799997 0.0071325595 8.0263672e-39 309 234
-0.011852534 0.676 0.0071115191 1.1248921e-38 310 234
-0.01066728 0.676 0.0071115191 1.189429e-38 311 234
-0.0094679995 0.67500001 0.0071010003 1.2260198e-38 312 234
-0.0082844999 0.67500001 0.0071010003 1.1246405e-38 313 234
-0.0071010003 0.67500001 0.0071010003 8.6666821e-39 314 234
-0.0059174998 0.67500001 0.0071010003 5.1632481e-39 315 234
-0.0047339997 0.67500001 0.0071010003 4.3413796e-39 316 234
-0.00354524 0.67400002 0.0070904801 5.7243112e-39 317 234
-0.0023634934 0.67400002 0.0070904801 5.3577007e-39 318 234
-0.0011817467 0.67400002 0.0070904801 5.0807537e-39 319 234
0 0.67400002 0.0070904801 3.9675888e-39 320 234
0.0011834999 0.67500001 0.0071010003 4.4289271e-39 321 234
0.0023669999 0.67500001 0.0071010003 5.4481391e-39 322 234
0.0035505001 0.67500001 0.0071010003 7.3842474e-39 323 234
0.0047339997 0.67500001 0.0071010003 9.5901252e-39 324 234
0.0059174998 0.67500001 0.0071010003 1.0235495e-38 325 234
0.0071010003 0.67500001 0.0071010003 1.0695024e-38 326 234
0.0082844999 0.67500001 0.0071010003 1.0234046e-38 327 234
0.0094679995 0.67500001 0.0071010003 1.0229672e-38 328 234
0.01066728 0.676 0.0071115191 8.9389334e-39 329 234
0.011852534 0.676 0.0071115191 8.11489e-39 330 234
0.013037786 0.676 0.0071115191 8.2074443e-39 331 234
0.014265119 0.67799997 0.0071325595 7.5642399e-39 332 234
0.015453878 0.67799997 0.0071325595 7.4720443e-39 333 234
0.016642639 0.67799997 0.0071325595 7.6546391e-39 334 234
0.0178314 0.67799997 0.0071325595 7.8390318e-39 335 234
0.019020159 0.67799997 0.0071325595 7.8386786e-39 336 234
0.020238725 0.67900002 0.0071430802 7.654286e-39 337 234
0.021429239 0.67900002 0.0071430802 7.1943784e-39 338 234
0.022653066 0.68000001 0.0071535995 7.1021842e-39 339 234
0.023950534 0.68300003 0.0071851597 6.8284714e-39 340 234
0.025184879 0.68400002 0.0071956799 6.9206656e-39 341 234
0.026461305 0.68599999 0.0072167199 8.5780794e-39 342 234
0.027704418 0.68699998 0.0072272392 1.0053209e-38 343 234
0.028951041 0.68800002 0.0072377604 1.0321578e-38 344 234
0.030157333 0.68800002 0.0072377604 9.0308389e-39 345 234
0.031363625 0.68800002 0.0072377604 9.3103139e-39 346 234
0.032664597 0.69 0.0072587994 1.2721552e-38 347 234
-0.033137999 0.69999999 0.0061366665 1.5305198e-38 293 235
-0.031591557 0.69300002 0.0060753003 1.4197771e-38 294 235
-0.030288832 0.69099998 0.0060577663 1.2538608e-38 295 235
-0.029077278 0.69099998 0.0060577663 9.6841383e-39 296 235
-0.027825398 0.69 0.0060489997 1.0329508e-38 297 235
-0.026538454 0.68800002 0.0060314666 1.1617703e-38 298 235
-0.025295338 0.68699998 0.0060226996 1.0050736e-38 299 235
-0.024055731 0.68599999 0.0060139326 6.1806427e-39 300 235
-0.022786319 0.68400002 0.0059964 4.7977082e-39 301 235
-0.02158704 0.68400002 0.0059964 3.3265284e-39 302 235
-0.020357953 0.68300003 0.0059876335 3.418724e-39 303 235
-0.019160427 0.68300003 0.0059876335 3.2354216e-39 304 235
-0.017936599 0.68199998 0.005978866 3.4194527e-39 305 235
-0.016691733 0.68000001 0.0059613334 3.4194555e-39 306 235
-0.015476674 0.67900002 0.0059525664 4.341772e-39 307 235
-0.014265119 0.67799997 0.0059437994 8.2078914e-39 308 235
-0.013076359 0.67799997 0.0059437994 1.0144e-38 309 235
-0.011852534 0.676 0.0059262668 1.1801022e-38 310 235
-0.01066728 0.676 0.0059262668 1.1708827e-38 311 235
-0.0094820261 0.676 0.0059262668 1.1892145e-38 312 235
-0.0082967728 0.676 0.0059262668 1.1892145e-38 313 235
-0.0071115191 0.676 0.0059262668 1.1062349e-38 314 235
-0.0059262668 0.676 0.0059262668 7.9273374e-39 315 235
-0.0047339997 0.67500001 0.0059174998 5.6288758e-39 316 235
-0.0035505001 0.67500001 0.0059174998 6.1820496e-39 317 235
-0.0023669999 0.67500001 0.0059174998 5.5409934e-39 318 235
-0.0011834999 0.67500001 0.0059174998 5.2644065e-39 319 235
0 0.67500001 0.0059174998 3.6956613e-39 320 235
0.0011834999 0.67500001 0.0059174998 3.3268843e-39 321 235
0.0023669999 0.67500001 0.0059174998 4.7080307e-39 322 235
0.0035505001 0.67500001 0.0059174998 5.8147384e-39 323 235
0.0047339997 0.67500001 0.0059174998 6.737443e-39 324 235
0.0059174998 0.67500001 0.0059174998 8.2129318e-39 325 235
0.0071010003 0.67500001 0.0059174998 1.0234399e-38 326 235
0.0082844999 0.67500001 0.0059174998 1.0326594e-38 327 235
0.0094820261 0.676 0.0059262668 1.0508074e-38 328 235
0.01066728 0.676 0.0059262668 9.5861174e-39 329 235
0.011852534 0.676 0.0059262668 9.4035086e-39 330 235
0.013076359 0.67799997 0.0059437994 9.4035086e-39 331 235
0.014265119 0.67799997 0.0059437994 9.4017038e-39 332 235
0.015453878 0.67799997 0.0059437994 8.6641387e-39 333 235
0.016642639 0.67799997 0.0059437994 7.9283561e-39 334 235
0.0178314 0.67799997 0.0059437994 8.204943e-39 335 235
0.019020159 0.67799997 0.0059437994 7.3794913e-39 336 235
0.020238725 0.67900002 0.0059525664 7.1032646e-39 337 235
0.0214608 0.68000001 0.0059613334 7.0114249e-39 338 235
0.022719691 0.68199998 0.005978866 6.9192307e-39 339 235
0.023950534 0.68300003 0.0059876335 6.6451591e-39 340 235
0.025184879 0.68400002 0.0059964 7.0139402e-39 341 235
0.026461305 0.68599999 0.0060139326 8.7606728e-39 342 235
0.027704418 0.68699998 0.0060226996 1.0143607e-38 343 235
0.028951041 0.68800002 0.0060314666 1.0597084e-38 344 235
0.030157333 0.68800002 0.0060314666 9.398541e-39 345 235
0.031454802 0.69 0.0060489997 9.6780174e-39 346 235
0.032664597 0.69 0.0060489997 1.2904864e-38 347 235
-0.033137999 0.69999999 0.0049093333 1.5305198e-38 293 236
-0.031637147 0.69400001 0.0048672534 1.4013736e-38 294 236
-0.0303765 0.69300002 0.00486024 1.1893236e-38 295 236
-0.029161438 0.69300002 0.00486024 7.5647052e-39 296 236
-0.027865725 0.69099998 0.0048462129 7.3806726e-39 297 236
-0.026538454 0.68800002 0.0048251734 9.4046605e-39 298 236
-0.025295338 0.68699998 0.0048181596 1.0879432e-38 299 236
-0.024055731 0.68599999 0.0048111463 1.0327317e-38 300 236
-0.022852944 0.68599999 0.0048111463 8.6677961e-39 301 236
-0.021650158 0.68599999 0.0048111463 7.0104047e-39 302 236
-0.020357953 0.68300003 0.0047901068 5.7196659e-39 303 236
-0.019160427 0.68300003 0.0047901068 3.8818658e-39 304 236
-0.017936599 0.68199998 0.004783093 3.2364964e-39 305 236
-0.016691733 0.68000001 0.0047690663 3.1435973e-39 306 236
-0.015476674 0.67900002 0.0047620535 5.4484895e-39 307 236
-0.01428616 0.67900002 0.0047620535 1.0328046e-38 308 236
-0.013076359 0.67799997 0.0047550397 1.1434035e-38 309 236
-0.011887599 0.67799997 0.0047550397 1.1433687e-38 310 236
-0.01066728 0.676 0.0047410131 1.1248936e-38 311 236
-0.0094820261 0.676 0.0047410131 1.1616284e-38 312 236
-0.0082967728 0.676 0.0047410131 1.2076902e-38 313 236
-0.0071115191 0.676 0.0047410131 1.1891424e-38 314 236
-0.0059262668 0.676 0.0047410131 1.032374e-38 315 236
-0.0047410131 0.676 0.0047410131 8.4826566e-39 316 236
-0.0035505001 0.67500001 0.0047339997 7.0997221e-39 317 236
-0.0023669999 0.67500001 0.0047339997 5.8172145e-39 318 236
-0.0011852533 0.676 0.0047410131 5.3562364e-39 319 236
0 0.67500001 0.0047339997 5.2597345e-39 320 236
0.0011834999 0.67500001 0.0047339997 4.8913164e-39 321 236
0.0023669999 0.67500001 0.0047339997 5.1664711e-39 322 236
0.0035505001 0.67500001 0.0047339997 4.79769e-39 323 236
0.0047410131 0.676 0.0047410131 4.15881e-39 324 236
0.0059262668 0.676 0.0047410131 6.0945595e-39 325 236
0.0071115191 0.676 0.0047410131 8.1171433e-39 326 236
0.0082967728 0.676 0.0047410131 9.3156865e-39 327 236
0.0094820261 0.676 0.0047410131 1.0509193e-38 328 236
0.01066728 0.676 0.0047410131 1.0232248e-38 329 236
0.011887599 0.67799997 0.0047550397 1.0692134e-38 330 236
0.013076359 0.67799997 0.0047550397 1.0692134e-38 331 236
0.014265119 0.67799997 0.0047550397 1.0506998e-38 332 236
0.015453878 0.67799997 0.0047550397 9.40065e-39 333 236
0.016642639 0.67799997 0.0047550397 8.0198287e-39 334 236
0.0178314 0.67799997 0.0047550397 7.9272743e-39 335 236
0.019048214 0.67900002 0.0047620535 7.5627966e-39 336 236
0.020268533 0.68000001 0.0047690663 7.3787669e-39 337 236
0.0214608 0.68000001 0.0047690663 6.7362771e-39 338 236
0.022719691 0.68199998 0.004783093 6.7362771e-39 339 236
0.023950534 0.68300003 0.0047901068 6.9206712e-39 340 236
0.025258519 0.68599999 0.0048111463 7.473845e-39 341 236
0.026499879 0.68699998 0.0048181596 9.2198559e-39 342 236
0.027744746 0.68800002 0.0048251734 1.0418399e-38 343 236
0.029035198 0.69 0.0048391996 1.0504884e-38 344 236
0.030244999 0.69 0.0048391996 9.398897e-39 345 236
0.031454802 0.69 0.0048391996 9.6780174e-39 346 236
0.032664597 0.69 0.0048391996 1.2812669e-38 347 236
-0.033043321 0.69800001 0.0036714801 1.5488513e-38 293 237
-0.03177391 0.69700003 0.00366622 1.4013736e-38 294 237
-0.030507999 0.69599998 0.0036609597 1.2538606e-38 295 237
-0.029203519 0.69400001 0.0036504399 9.3124621e-39 296 237
-0.027865725 0.69099998 0.0036346598 7.4685495e-39 297 237
-0.026538454 0.68800002 0.0036188802 8.757859e-39 298 237
-0.025295338 0.68699998 0.0036136196 1.0970914e-38 299 237
-0.024055731 0.68599999 0.00360836 1.0514968e-38 300 237
-0.022852944 0.68599999 0.00360836 9.3167837e-39 301 237
-0.021650158 0.68599999 0.00360836 9.9574531e-39 302 237
