# .PCD v.7 - Point Cloud Data file format
FIELDS x y z rgb imX imY
SIZE 4 4 4 4 4 4
TYPE F F F F F F
COUNT 1 1 1 1 1 1
WIDTH 833
HEIGHT 1
VIEWPOINT 0 0 0 1 0 0 0
POINTS 833
DATA ascii
0.0059876335 0.68300003 -0.02155548 1.2731684e-38 325 258
0.00717464 0.68199998 -0.021523919 1.2453292e-38 326 258
0.0083704125 0.68199998 -0.021523919 1.226854e-38 327 258
0.009524107 0.67900002 -0.021429239 1.2913913e-38 328 258
0.010698839 0.67799997 -0.021397678 1.2729521e-38 329 258
0.011887599 0.67799997 -0.021397678 1.2176348e-38 330 258
0.013076359 0.67799997 -0.021397678 1.0977804e-38 331 258
0.014265119 0.67799997 -0.021397678 8.9491474e-39 332 258
0.015453878 0.67799997 -0.021397678 8.1193867e-39 333 258
0.016642639 0.67799997 -0.021397678 7.0188041e-39 334 258
0.0178314 0.67799997 -0.021397678 8.2173473e-39 335 258
0.019020159 0.67799997 -0.021397678 9.7839472e-39 336 258
0.020149305 0.676 -0.021334561 1.0337121e-38 337 258
0.021334561 0.676 -0.021334561 1.1805764e-38 338 258
0.022519812 0.676 -0.021334561 1.1068199e-38 339 258
0.023705067 0.676 -0.021334561 1.1249697e-38 340 258
0.024890319 0.676 -0.021334561 1.1434448e-38 341 258
0.026075572 0.676 -0.021334561 1.1620597e-38 342 258
0.027260827 0.676 -0.021334561 1.1067423e-38 343 258
0.028446076 0.676 -0.021334561 9.3207213e-39 344 258
0.029631332 0.676 -0.021334561 8.9522989e-39 345 258
0.030816587 0.676 -0.021334561 8.7679133e-39 346 258
0.03209652 0.67799997 -0.021397678 8.3994909e-39 347 258
0.033285279 0.67799997 -0.021397678 8.4009132e-39 348 258
0.034524884 0.67900002 -0.021429239 8.3087176e-39 349 258
0.035715401 0.67900002 -0.021429239 8.4920144e-39 350 258
0.036905911 0.67900002 -0.021429239 8.4920144e-39 351 258
0.038152531 0.68000001 -0.0214608 8.3093888e-39 352 258
0.039344799 0.68000001 -0.0214608 8.3093888e-39 353 258
0.040656291 0.68199998 -0.021523919 7.7597589e-39 354 258
0.041852064 0.68199998 -0.021523919 7.8523133e-39 355 258
0.043110959 0.68300003 -0.02155548 8.1281743e-39 356 258
0.044308487 0.68300003 -0.02155548 8.4047612e-39 357 258
0.045572639 0.68400002 -0.02158704 9.0465727e-39 358 258
0.046977058 0.68699998 -0.021681719 9.4157153e-39 359 258
0.048251733 0.68800002 -0.021713281 1.033197e-38 360 258
0.049601797 0.69 -0.021776399 1.0700394e-38 361 258
0.050885238 0.69099998 -0.021807959 1.0420624e-38 362 258
0.05224758 0.69300002 -0.021871079 1.0420624e-38 363 258
0.053462639 0.69300002 -0.021871079 1.2353858e-38 364 258
0.054677699 0.69300002 -0.021871079 1.6410825e-38 365 258
-0.011045999 0.69999999 -0.023319334 1.9909214e-38 311 259
-0.0098186666 0.69999999 -0.023319334 1.8989075e-38 312 259
-0.0085667865 0.69800001 -0.023252707 1.7513945e-38 313 259
-0.0073429602 0.69800001 -0.023252707 1.6044946e-38 314 259
-0.006119133 0.69800001 -0.023252707 1.5583968e-38 315 259
-0.0048882933 0.69700003 -0.023219392 1.4385793e-38 316 259
-0.0036504399 0.69400001 -0.023119451 1.3279806e-38 317 259
-0.00243012 0.69300002 -0.02308614 1.217418e-38 318 259
-0.0012097999 0.69 -0.022986198 1.198943e-38 319 259
0 0.68800002 -0.022919573 1.1435543e-38 320 259
0.0012062934 0.68800002 -0.022919573 1.1343347e-38 321 259
0.0024090798 0.68699998 -0.022886258 1.0884903e-38 322 259
0.00360836 0.68599999 -0.022852944 1.1714663e-38 323 259
0.0047971201 0.68400002 -0.022786319 1.3005755e-38 324 259
0.0059964 0.68400002 -0.022786319 1.3466733e-38 325 259
0.0071851597 0.68300003 -0.022753006 1.4203204e-38 326 259
0.0083704125 0.68199998 -0.022719691 1.3834421e-38 327 259
0.009566186 0.68199998 -0.022719691 1.4202837e-38 328 259
0.0107304 0.68000001 -0.022653066 1.4295034e-38 329 259
0.011905133 0.67900002 -0.022619752 1.4478346e-38 330 259
0.013076359 0.67799997 -0.022586439 1.4017368e-38 331 259
0.014265119 0.67799997 -0.022586439 1.2173461e-38 332 259
0.015453878 0.67799997 -0.022586439 1.0421384e-38 333 259
0.016642639 0.67799997 -0.022586439 1.0056571e-38 334 259
0.0178314 0.67799997 -0.022586439 1.0148767e-38 335 259
0.019020159 0.67799997 -0.022586439 9.1385777e-39 336 259
0.020208918 0.67799997 -0.022586439 9.7839472e-39 337 259
0.021397678 0.67799997 -0.022586439 1.1898685e-38 338 259
0.022586439 0.67799997 -0.022586439 1.1253315e-38 339 259
0.023775198 0.67799997 -0.022586439 1.1344051e-38 340 259
0.024963958 0.67799997 -0.022586439 1.1712473e-38 341 259
0.026152719 0.67799997 -0.022586439 1.2541845e-38 342 259
0.027341479 0.67799997 -0.022586439 1.1620249e-38 343 259
0.028530238 0.67799997 -0.022586439 9.2292544e-39 344 259
0.029718997 0.67799997 -0.022586439 9.0448631e-39 345 259
0.030907756 0.67799997 -0.022586439 8.859746e-39 346 259
0.03209652 0.67799997 -0.022586439 8.7675503e-39 347 259
0.033334374 0.67900002 -0.022619752 8.3998412e-39 348 259
0.034524884 0.67900002 -0.022619752 8.3998412e-39 349 259
0.035767999 0.68000001 -0.022653066 8.4916585e-39 350 259
0.036960267 0.68000001 -0.022653066 8.3076274e-39 351 259
0.038264744 0.68199998 -0.022719691 8.1257136e-39 352 259
0.039460517 0.68199998 -0.022719691 7.9416825e-39 353 259
0.040656291 0.68199998 -0.022719691 7.4835476e-39 354 259
0.041913435 0.68300003 -0.022753006 7.6679388e-39 355 259
0.043110959 0.68300003 -0.022753006 8.0367199e-39 356 259
0.04437336 0.68400002 -0.022786319 8.4058626e-39 357 259
0.045705888 0.68599999 -0.022852944 9.2309724e-39 358 259
0.046977058 0.68699998 -0.022886258 9.415365e-39 359 259
0.048391998 0.69 -0.022986198 1.0331262e-38 360 259
0.049601797 0.69 -0.022986198 1.0239065e-38 361 259
0.050885238 0.69099998 -0.023019511 9.6841411e-39 362 259
0.05224758 0.69300002 -0.02308614 1.032951e-38 363 259
0.053462639 0.69300002 -0.02308614 1.2812316e-38 364 259
0.054677699 0.69300002 -0.02308614 1.6961478e-38 365 259
-0.011045999 0.69999999 -0.024546666 1.9909214e-38 311 260
-0.0098186666 0.69999999 -0.024546666 1.9081628e-38 312 260
-0.0085913334 0.69999999 -0.024546666 1.7513942e-38 313 260
-0.0073639993 0.69999999 -0.024546666 1.6137497e-38 314 260
-0.006119133 0.69800001 -0.024476532 1.5676519e-38 315 260
-0.0048882933 0.69700003 -0.024441468 1.4294681e-38 316 260
-0.0036609597 0.69599998 -0.0244064 1.3096137e-38 317 260
-0.0024336267 0.69400001 -0.024336265 1.1990879e-38 318 260
-0.0012115532 0.69099998 -0.024231065 1.1806486e-38 319 260
0 0.69 -0.024195999 1.162102e-38 320 260
0.0012062934 0.68800002 -0.024125867 1.162102e-38 321 260
0.0024125867 0.68800002 -0.024125867 1.1530628e-38 322 260
0.0036136196 0.68699998 -0.024090799 1.1161847e-38 323 260
0.0048111463 0.68599999 -0.024055731 1.1254761e-38 324 260
0.0059964 0.68400002 -0.0239856 1.0978173e-38 325 260
0.0071956799 0.68400002 -0.0239856 1.1346231e-38 326 260
0.0083826864 0.68300003 -0.023950534 1.1715372e-38 327 260
0.009566186 0.68199998 -0.023915464 1.2451853e-38 328 260
0.0107304 0.68000001 -0.023845334 1.2820995e-38 329 260
0.011922667 0.68000001 -0.023845334 1.3189052e-38 330 260
0.013095647 0.67900002 -0.023810266 1.3742226e-38 331 260
0.01428616 0.67900002 -0.023810266 1.4019889e-38 332 260
0.015476674 0.67900002 -0.023810266 1.3835496e-38 333 260
0.016667187 0.67900002 -0.023810266 1.3741863e-38 334 260
0.017857701 0.67900002 -0.023810266 1.2358928e-38 335 260
0.019048214 0.67900002 -0.023810266 1.0425351e-38 336 260
0.020238725 0.67900002 -0.023810266 1.0609742e-38 337 260
0.021429239 0.67900002 -0.023810266 1.1162916e-38 338 260
0.022619752 0.67900002 -0.023810266 1.0978523e-38 339 260
0.023810266 0.67900002 -0.023810266 1.0975638e-38 340 260
0.024963958 0.67799997 -0.023775198 1.134406e-38 341 260
0.026152719 0.67799997 -0.023775198 1.1347271e-38 342 260
0.027341479 0.67799997 -0.023775198 1.0794098e-38 343 260
0.028530238 0.67799997 -0.023775198 8.7690119e-39 344 260
0.029718997 0.67799997 -0.023775198 8.6768163e-39 345 260
0.030953348 0.67900002 -0.023810266 8.4917019e-39 346 260
0.032143861 0.67900002 -0.023810266 8.3995063e-39 347 260
0.033334374 0.67900002 -0.023810266 8.4920551e-39 348 260
0.034575731 0.68000001 -0.023845334 8.3998594e-39 349 260
0.035873197 0.68199998 -0.023915464 8.399844e-39 350 260
0.037068974 0.68199998 -0.023915464 8.3076484e-39 351 260
0.038264744 0.68199998 -0.023915464 7.7580325e-39 352 260
0.039460517 0.68199998 -0.023915464 7.7580325e-39 353 260
0.040715907 0.68300003 -0.023950534 7.5750425e-39 354 260
0.041913435 0.68300003 -0.023950534 7.6672382e-39 355 260
0.043174081 0.68400002 -0.0239856 8.6781475e-39 356 260
0.044503104 0.68599999 -0.024055731 9.0469286e-39 357 260
0.045772515 0.68699998 -0.024090799 9.4139343e-39 358 260
0.047045439 0.68800002 -0.024125867 9.4139343e-39 359 260
0.048391998 0.69 -0.024195999 1.0792242e-38 360 260
0.049601797 0.69 -0.024195999 1.0884437e-38 361 260
0.050885238 0.69099998 -0.024231065 1.0512104e-38 362 260
0.05224758 0.69300002 -0.024301201 1.0880526e-38 363 260
0.053539783 0.69400001 -0.024336265 1.3548083e-38 364 260
0.054756597 0.69400001 -0.024336265 1.7697245e-38 365 260
-0.011045999 0.69999999 -0.025773998 1.9909214e-38 311 261
-0.0098186666 0.69999999 -0.025773998 1.8713918e-38 312 261
-0.0085913334 0.69999999 -0.025773998 1.7146592e-38 313 261
-0.0073639993 0.69999999 -0.025773998 1.6137495e-38 314 261
-0.006119133 0.69800001 -0.025700359 1.5676516e-38 315 261
-0.0048953067 0.69800001 -0.025700359 1.4203204e-38 316 261
-0.00366622 0.69700003 -0.025663542 1.3096856e-38 317 261
-0.0024406398 0.69599998 -0.025626717 1.2726279e-38 318 261
-0.00121506 0.69300002 -0.02551626 1.2541888e-38 319 261
0 0.69 -0.025405798 1.1988717e-38 320 261
0.0012097999 0.69 -0.025405798 1.2080912e-38 321 261
0.0024125867 0.68800002 -0.02533216 1.1806133e-38 322 261
0.0036136196 0.68699998 -0.025295338 1.1806133e-38 323 261
0.0048111463 0.68599999 -0.025258519 1.2175276e-38 324 261
0.0059964 0.68400002 -0.025184879 1.2543698e-38 325 261
0.0071956799 0.68400002 -0.025184879 1.1625695e-38 326 261
0.0083826864 0.68300003 -0.02514806 1.1625695e-38 327 261
0.0095802136 0.68300003 -0.02514806 1.2358941e-38 328 261
0.010761959 0.68199998 -0.025111238 1.2451137e-38 329 261
0.011922667 0.68000001 -0.025037598 1.2451134e-38 330 261
0.013114933 0.68000001 -0.025037598 1.2635884e-38 331 261
0.014307199 0.68000001 -0.025037598 1.2361809e-38 332 261
0.015476674 0.67900002 -0.025000781 1.2546559e-38 333 261
0.016667187 0.67900002 -0.025000781 1.2912465e-38 334 261
0.017857701 0.67900002 -0.025000781 1.2267096e-38 335 261
0.019048214 0.67900002 -0.025000781 9.9665265e-39 336 261
0.020238725 0.67900002 -0.025000781 1.033495e-38 337 261
0.021429239 0.67900002 -0.025000781 1.1345865e-38 338 261
0.022619752 0.67900002 -0.025000781 1.1161114e-38 339 261
0.023810266 0.67900002 -0.025000781 1.1161101e-38 340 261
0.025000781 0.67900002 -0.025000781 1.1714275e-38 341 261
0.026191294 0.67900002 -0.025000781 1.2541139e-38 342 261
0.027381808 0.67900002 -0.025000781 1.208052e-38 343 261
0.028572321 0.67900002 -0.025000781 9.1345574e-39 344 261
0.029762832 0.67900002 -0.025000781 9.0420031e-39 345 261
0.030953348 0.67900002 -0.025000781 8.7675644e-39 346 261
0.032191198 0.68000001 -0.025037598 8.7675644e-39 347 261
0.033383466 0.68000001 -0.025037598 8.7679161e-39 348 261
0.034575731 0.68000001 -0.025037598 8.583885e-39 349 261
0.035873197 0.68199998 -0.025111238 8.6749862e-39 350 261
0.037068974 0.68199998 -0.025111238 8.6749862e-39 351 261
0.038320854 0.68300003 -0.02514806 8.5841918e-39 352 261
0.039518382 0.68300003 -0.02514806 8.7689418e-39 353 261
0.040715907 0.68300003 -0.02514806 8.7689124e-39 354 261
0.041974798 0.68400002 -0.025184879 8.40049e-39 355 261
0.043174081 0.68400002 -0.025184879 8.3093832e-39 356 261
0.044503104 0.68599999 -0.025258519 8.7703613e-39 357 261
0.045772515 0.68699998 -0.025295338 8.9544023e-39 358 261
0.047045439 0.68800002 -0.02533216 9.2309892e-39 359 261
0.048391998 0.69 -0.025405798 1.1252867e-38 360 261
0.049601797 0.69 -0.025405798 1.1437258e-38 361 261
0.050885238 0.69099998 -0.025442619 1.0326286e-38 362 261
0.05224758 0.69300002 -0.02551626 1.1155687e-38 363 261
0.053462639 0.69300002 -0.02551626 1.3825031e-38 364 261
-0.011061779 0.70099998 -0.027039904 1.963335e-38 311 262
-0.0098326923 0.70099998 -0.027039904 1.8714284e-38 312 262
-0.0086036054 0.70099998 -0.027039904 1.7146958e-38 313 262
-0.0073745195 0.70099998 -0.027039904 1.6136779e-38 314 262
-0.0061366665 0.69999999 -0.027001332 1.5767636e-38 315 262
-0.0048953067 0.69800001 -0.026924185 1.4111004e-38 316 262
-0.00366622 0.69700003 -0.026885614 1.3004658e-38 317 262
-0.0024406398 0.69599998 -0.026847038 1.2450774e-38 318 262
-0.0012168133 0.69400001 -0.026769891 1.2173827e-38 319 262
0 0.69099998 -0.026654173 1.180577e-38 320 262
0.0012115532 0.69099998 -0.026654173 1.162102e-38 321 262
0.0024195998 0.69 -0.026615599 1.1713218e-38 322 262
0.0036188802 0.68800002 -0.026538454 1.189761e-38 323 262
0.0048181596 0.68699998 -0.026499879 1.2635528e-38 324 262
0.0060139326 0.68599999 -0.026461305 1.3834071e-38 325 262
0.0071956799 0.68400002 -0.02638416 1.3744747e-38 326 262
0.0083826864 0.68300003 -0.026345588 1.3560354e-38 327 262
0.0095802136 0.68300003 -0.026345588 1.3465639e-38 328 262
0.010761959 0.68199998 -0.026307013 1.3004661e-38 329 262
0.011957732 0.68199998 -0.026307013 1.2452209e-38 330 262
0.013153506 0.68199998 -0.026307013 1.2083427e-38 331 262
0.01434928 0.68199998 -0.026307013 9.2311265e-39 332 262
0.015499466 0.68000001 -0.026229866 8.4935615e-39 333 262
0.016691733 0.68000001 -0.026229866 9.5059211e-39 334 262
0.017883999 0.68000001 -0.026229866 9.7821479e-39 335 262
0.019076265 0.68000001 -0.026229866 1.0241686e-38 336 262
0.020268533 0.68000001 -0.026229866 1.0517912e-38 337 262
0.0214608 0.68000001 -0.026229866 1.143878e-38 338 262
0.022653066 0.68000001 -0.026229866 1.1162553e-38 339 262
0.023845334 0.68000001 -0.026229866 1.107035e-38 340 262
0.025037598 0.68000001 -0.026229866 1.1992307e-38 341 262
0.026191294 0.67900002 -0.026191294 1.3369831e-38 342 262
0.027381808 0.67900002 -0.026191294 1.2908851e-38 343 262
0.028572321 0.67900002 -0.026191294 9.5022637e-39 344 262
0.029762832 0.67900002 -0.026191294 8.8568943e-39 345 262
0.030998932 0.68000001 -0.026229866 8.9515955e-39 346 262
0.032191198 0.68000001 -0.026229866 8.8590411e-39 347 262
0.03348165 0.68199998 -0.026307013 8.7679161e-39 348 262
0.034677424 0.68199998 -0.026307013 8.7679161e-39 349 262
0.035925802 0.68300003 -0.026345588 8.7675503e-39 350 262
0.037123326 0.68300003 -0.026345588 8.7675503e-39 351 262
0.038320854 0.68300003 -0.026345588 9.1359741e-39 352 262
0.039518382 0.68300003 -0.026345588 9.5051154e-39 353 262
0.040775519 0.68400002 -0.02638416 9.5036552e-39 354 262
0.041974798 0.68400002 -0.02638416 8.5813388e-39 355 262
0.043174081 0.68400002 -0.02638416 8.4916291e-39 356 262
0.044503104 0.68599999 -0.026461305 9.4132266e-39 357 262
0.045772515 0.68699998 -0.026499879 8.9533261e-39 358 262
0.047045439 0.68800002 -0.026538454 9.1377173e-39 359 262
0.04846213 0.69099998 -0.026654173 1.1713849e-38 360 262
0.049673684 0.69099998 -0.026654173 1.1344706e-38 361 262
0.051106159 0.69400001 -0.026769891 1.013974e-38 362 262
0.052322973 0.69400001 -0.026769891 1.1338283e-38 363 262
0.053694077 0.69599998 -0.026847038 1.4286733e-38 364 262
0.054914396 0.69599998 -0.026847038 1.7882002e-38 365 262
-0.011061779 0.70099998 -0.028268991 1.9265291e-38 311 263
-0.0098326923 0.70099998 -0.028268991 1.8254028e-38 312 263
-0.0086036054 0.70099998 -0.028268991 1.6594866e-38 313 263
-0.0073745195 0.70099998 -0.028268991 1.6045302e-38 314 263
-0.0061366665 0.69999999 -0.028228667 1.5768715e-38 315 263
-0.0048953067 0.69800001 -0.028148014 1.3558913e-38 316 263
-0.00366622 0.69700003 -0.028107686 1.2083783e-38 317 263
-0.0024406398 0.69599998 -0.028067358 1.1898682e-38 318 263
-0.0012203199 0.69599998 -0.028067358 1.1898682e-38 319 263
0 0.69300002 -0.027946379 1.180577e-38 320 263
0.0012115532 0.69099998 -0.027865725 1.180577e-38 321 263
0.0024195998 0.69 -0.027825398 1.1622821e-38 322 263
0.0036188802 0.68800002 -0.027744746 1.1807213e-38 323 263
0.0048181596 0.68699998 -0.027704418 1.2175273e-38 324 263
0.0060226996 0.68699998 -0.027704418 1.2728447e-38 325 263
0.0072167199 0.68599999 -0.027664091 1.3006108e-38 326 263
0.0083949603 0.68400002 -0.027583439 1.2913913e-38 327 263
0.0095942402 0.68400002 -0.027583439 1.3006461e-38 328 263
0.01077774 0.68300003 -0.027543113 1.3098658e-38 329 263
0.011975267 0.68300003 -0.027543113 1.3558913e-38 330 263
0.013172794 0.68300003 -0.027543113 1.3189771e-38 331 263
0.01434928 0.68199998 -0.027502786 1.0609745e-38 332 263
0.015545053 0.68199998 -0.027502786 9.2268105e-39 333 263
0.016740825 0.68199998 -0.027502786 9.9647413e-39 334 263
0.017936599 0.68199998 -0.027502786 9.9647413e-39 335 263
0.019132372 0.68199998 -0.027502786 1.0241686e-38 336 263
0.020328145 0.68199998 -0.027502786 1.0702662e-38 337 263
0.021523919 0.68199998 -0.027502786 1.1347666e-38 338 263
0.022719691 0.68199998 -0.027502786 1.1162916e-38 339 263
0.023915464 0.68199998 -0.027502786 1.0794489e-38 340 263
0.025037598 0.68000001 -0.027422134 1.1716087e-38 341 263
0.026229866 0.68000001 -0.027422134 1.3186891e-38 342 263
0.027422134 0.68000001 -0.027422134 1.2541522e-38 343 263
0.028614398 0.68000001 -0.027422134 1.0606463e-38 344 263
0.029806666 0.68000001 -0.027422134 9.9610937e-39 345 263
0.031090107 0.68199998 -0.027502786 9.8685253e-39 346 263
0.032285877 0.68199998 -0.027502786 9.4075472e-39 347 263
0.03348165 0.68199998 -0.027502786 8.3995063e-39 348 263
0.034728274 0.68300003 -0.027543113 8.3995063e-39 349 263
0.035925802 0.68300003 -0.027543113 8.7668441e-39 350 263
0.037123326 0.68300003 -0.027543113 8.7668441e-39 351 263
0.038376961 0.68400002 -0.027583439 9.6877284e-39 352 263
0.03957624 0.68400002 -0.027583439 1.0425293e-38 353 263
0.040775519 0.68400002 -0.027583439 1.0238732e-38 354 263
0.042097531 0.68599999 -0.027664091 9.0401884e-39 355 263
0.043300316 0.68599999 -0.027664091 1.0147576e-38 356 263
0.044567976 0.68699998 -0.027704418 1.1253565e-38 357 263
0.045772515 0.68699998 -0.027704418 1.0238324e-38 358 263
0.047182199 0.69 -0.027825398 1.0422715e-38 359 263
0.048602402 0.69300002 -0.027946379 1.2265589e-38 360 263
0.049817458 0.69300002 -0.027946379 1.1436189e-38 361 263
0.051253434 0.69599998 -0.028067358 9.861715e-39 362 263
0.052473757 0.69599998 -0.028067358 1.1520876e-38 363 263
0.053694077 0.69599998 -0.028067358 1.4747711e-38 364 263
0.054914396 0.69599998 -0.028067358 1.7974558e-38 365 263
-0.01129848 0.71600002 -0.03012928 1.9173094e-38 311 264
-0.0099028256 0.70599997 -0.029708479 1.8343706e-38 312 264
-0.0086649731 0.70599997 -0.029708479 1.6500153e-38 313 264
-0.0073955595 0.70300001 -0.029582238 1.5860912e-38 314 264
-0.0061454331 0.70099998 -0.029498078 1.5860912e-38 315 264
-0.0049093333 0.69999999 -0.029455997 1.3925541e-38 316 264
-0.0036714801 0.69800001 -0.029371841 1.1713206e-38 317 264
-0.0024441467 0.69700003 -0.02932976 1.1437711e-38 318 264
-0.0012203199 0.69599998 -0.029287677 1.1622102e-38 319 264
0 0.69400001 -0.029203519 1.1529906e-38 320 264
0.00121506 0.69300002 -0.029161438 1.1622102e-38 321 264
0.0024231065 0.69099998 -0.029077278 1.1807932e-38 322 264
0.0036293997 0.69 -0.029035198 1.1807932e-38 323 264
0.0048251734 0.68800002 -0.028951041 1.1715372e-38 324 264
0.0060226996 0.68699998 -0.028908957 1.2083796e-38 325 264
0.0072167199 0.68599999 -0.02886688 1.2819563e-38 326 264
0.0084195063 0.68599999 -0.02886688 1.2358944e-38 327 264
0.0095942402 0.68400002 -0.02878272 1.2452936e-38 328 264
0.01077774 0.68300003 -0.028740639 1.3098305e-38 329 264
0.011975267 0.68300003 -0.028740639 1.392734e-38 330 264
0.013172794 0.68300003 -0.028740639 1.3558916e-38 331 264
0.014370319 0.68300003 -0.028740639 1.1345509e-38 332 264
0.015545053 0.68199998 -0.02869856 1.0054771e-38 333 264
0.016740825 0.68199998 -0.02869856 1.0518268e-38 334 264
0.017936599 0.68199998 -0.02869856 1.0610464e-38 335 264
0.019132372 0.68199998 -0.02869856 1.0518621e-38 336 264
0.020328145 0.68199998 -0.02869856 1.0795208e-38 337 264
0.021523919 0.68199998 -0.02869856 1.143878e-38 338 264
0.022719691 0.68199998 -0.02869856 1.1162553e-38 339 264
0.023915464 0.68199998 -0.02869856 1.0793413e-38 340 264
0.025111238 0.68199998 -0.02869856 1.1530978e-38 341 264
0.026307013 0.68199998 -0.02869856 1.2819549e-38 342 264
0.027502786 0.68199998 -0.02869856 1.217418e-38 343 264
0.02869856 0.68199998 -0.02869856 1.1251482e-38 344 264
0.029894331 0.68199998 -0.02869856 1.1067091e-38 345 264
0.031090107 0.68199998 -0.02869856 1.0513191e-38 346 264
0.032285877 0.68199998 -0.02869856 9.4990394e-39 347 264
0.03348165 0.68199998 -0.02869856 8.5832011e-39 348 264
0.034728274 0.68300003 -0.028740639 8.6753968e-39 349 264
0.035925802 0.68300003 -0.028740639 9.3185984e-39 350 264
0.037177678 0.68400002 -0.02878272 9.5948251e-39 351 264
0.03848917 0.68599999 -0.02886688 1.0607534e-38 352 264
0.039691959 0.68599999 -0.02886688 1.1345457e-38 353 264
0.040894743 0.68599999 -0.02886688 1.1526246e-38 354 264
0.042097531 0.68599999 -0.02886688 1.0420257e-38 355 264
0.043363437 0.68699998 -0.028908957 1.1803892e-38 356 264
0.044567976 0.68699998 -0.028908957 1.3002435e-38 357 264
0.045839146 0.68800002 -0.028951041 1.22627e-38 358 264
0.047250576 0.69099998 -0.029077278 1.1986113e-38 359 264
0.048602402 0.69300002 -0.029161438 1.2816972e-38 360 264
0.049889345 0.69400001 -0.029203519 1.2079407e-38 361 264
0.051253434 0.69599998 -0.029287677 1.0136853e-38 362 264
0.052473757 0.69599998 -0.029287677 1.1796374e-38 363 264
0.053694077 0.69599998 -0.029287677 1.4840978e-38 364 264
0.054914396 0.69599998 -0.029287677 1.779124e-38 365 264
-0.01129848 0.71600002 -0.031384666 1.9265291e-38 311 265
-0.010043093 0.71600002 -0.031384666 1.8251866e-38 312 265
-0.0087140659 0.70999998 -0.031121666 1.6038812e-38 313 265
-0.0074271196 0.70599997 -0.030946331 1.5216261e-38 314 265
-0.0061454331 0.70099998 -0.030727165 1.5769435e-38 315 265
-0.0049093333 0.69999999 -0.030683333 1.4109932e-38 316 265
-0.0036714801 0.69800001 -0.030595668 1.1989433e-38 317 265
-0.0024476533 0.69800001 -0.030595668 1.1252599e-38 318 265
-0.0012220733 0.69700003 -0.030551834 1.1528827e-38 319 265
0 0.69599998 -0.030507999 1.1344439e-38 320 265
0.0012168133 0.69400001 -0.030420333 1.1805417e-38 321 265
0.00243012 0.69300002 -0.0303765 1.2083077e-38 322 265
0.0036346598 0.69099998 -0.030288832 1.1990882e-38 323 265
0.0048391996 0.69 -0.030244999 1.1348385e-38 324 265
0.0060314666 0.68800002 -0.030157333 1.2638765e-38 325 265
0.0072272392 0.68699998 -0.030113498 1.3924825e-38 326 265
0.0084317802 0.68699998 -0.030113498 1.3279455e-38 327 265
0.0096222926 0.68599999 -0.030069664 1.2546922e-38 328 265
0.010825079 0.68599999 -0.030069664 1.3192292e-38 329 265
0.0119928 0.68400002 -0.029982001 1.3651828e-38 330 265
0.01319208 0.68400002 -0.029982001 1.3467437e-38 331 265
0.014370319 0.68300003 -0.029938167 1.0610098e-38 332 265
0.015567848 0.68300003 -0.029938167 9.4115549e-39 333 265
0.016765373 0.68300003 -0.029938167 1.0151641e-38 334 265
0.017936599 0.68199998 -0.029894331 1.0427868e-38 335 265
0.019132372 0.68199998 -0.029894331 1.0702294e-38 336 265
0.020328145 0.68199998 -0.029894331 1.1070717e-38 337 265
0.021523919 0.68199998 -0.029894331 1.143878e-38 338 265
0.022753006 0.68300003 -0.029938167 1.1069997e-38 339 265
0.023915464 0.68199998 -0.029894331 1.0882372e-38 340 265
0.025111238 0.68199998 -0.029894331 1.11586e-38 341 265
0.026307013 0.68199998 -0.029894331 1.1991951e-38 342 265
0.027502786 0.68199998 -0.029894331 1.1991951e-38 343 265
0.02869856 0.68199998 -0.029894331 1.1436599e-38 344 265
0.029894331 0.68199998 -0.029894331 1.1436599e-38 345 265
0.031135695 0.68300003 -0.029938167 1.1529148e-38 346 265
0.032333218 0.68300003 -0.029938167 1.1529148e-38 347 265
0.033530746 0.68300003 -0.029938167 1.1990486e-38 348 265
0.03477912 0.68400002 -0.029982001 1.2175236e-38 349 265
0.035978399 0.68400002 -0.029982001 1.2450379e-38 350 265
0.037286382 0.68599999 -0.030069664 1.2358183e-38 351 265
0.03848917 0.68599999 -0.030069664 1.235818e-38 352 265
0.039749816 0.68699998 -0.030113498 1.2911354e-38 353 265
0.040954359 0.68699998 -0.030113498 1.309071e-38 354 265
0.042158898 0.68699998 -0.030113498 1.1338633e-38 355 265
0.043363437 0.68699998 -0.030113498 1.2078704e-38 356 265
0.044632856 0.68800002 -0.030157333 1.3553834e-38 357 265
0.045972396 0.69 -0.030244999 1.3644938e-38 358 265
0.047387339 0.69300002 -0.0303765 1.3460186e-38 359 265
0.048672531 0.69400001 -0.030420333 1.3827897e-38 360 265
0.050033119 0.69599998 -0.030507999 1.309033e-38 361 265
0.051253434 0.69599998 -0.030507999 1.1522661e-38 362 265
0.052473757 0.69599998 -0.030507999 1.2997431e-38 363 265
0.053694077 0.69599998 -0.030507999 1.5301233e-38 364 265
0.0550722 0.69800001 -0.030595668 1.8067104e-38 365 265
-0.012553867 0.71600002 -0.032640055 1.9726265e-38 310 266
-0.01129848 0.71600002 -0.032640055 1.9357842e-38 311 266
-0.01001504 0.71399999 -0.032548878 1.8343709e-38 312 266
-0.0087263398 0.71100003 -0.032412119 1.5485644e-38 313 266
-0.0074376399 0.70700002 -0.032229774 1.4756011e-38 314 266
-0.0061454331 0.70099998 -0.031956252 1.5677968e-38 315 266
-0.0049163462 0.70099998 -0.031956252 1.3836223e-38 316 266
-0.0036819996 0.69999999 -0.031910665 1.1623527e-38 317 266
-0.0024476533 0.69800001 -0.031819493 1.1528107e-38 318 266
-0.0012220733 0.69700003 -0.03177391 1.1620304e-38 319 266
0 0.69599998 -0.031728316 1.1252959e-38 320 266
0.0012168133 0.69400001 -0.031637147 1.1437711e-38 321 266
0.00243012 0.69300002 -0.031591557 1.1623177e-38 322 266
0.0036451798 0.69300002 -0.031591557 1.1623177e-38 323 266
0.0048462129 0.69099998 -0.031500384 1.1255836e-38 324 266
0.0060489997 0.69 -0.031454802 1.2362185e-38 325 266
0.0072377604 0.68800002 -0.031363625 1.4202498e-38 326 266
0.0084440531 0.68800002 -0.031363625 1.3557128e-38 327 266
0.0096363192 0.68699998 -0.031318039 1.3008258e-38 328 266
0.010840859 0.68699998 -0.031318039 1.3192289e-38 329 266
0.012027865 0.68599999 -0.031272452 1.3743301e-38 330 266
0.013230653 0.68599999 -0.031272452 1.3466715e-38 331 266
0.01443344 0.68599999 -0.031272452 1.2083433e-38 332 266
0.01559064 0.68400002 -0.03118128 1.0515747e-38 333 266
0.016789921 0.68400002 -0.03118128 1.1345512e-38 334 266
0.017962901 0.68300003 -0.031135695 1.1437708e-38 335 266
0.019160427 0.68300003 -0.031135695 1.0978158e-38 336 266
0.020357953 0.68300003 -0.031135695 1.1070353e-38 337 266
0.02155548 0.68300003 -0.031135695 1.1438061e-38 338 266
0.022753006 0.68300003 -0.031135695 1.1161114e-38 339 266
0.023950534 0.68300003 -0.031135695 1.1434464e-38 340 266
0.02514806 0.68300003 -0.031135695 1.1618855e-38 341 266
0.026307013 0.68199998 -0.031090107 1.1622808e-38 342 266
0.027502786 0.68199998 -0.031090107 1.1991232e-38 343 266
0.028740639 0.68300003 -0.031135695 1.2725906e-38 344 266
0.029938167 0.68300003 -0.031135695 1.2541875e-38 345 266
0.031135695 0.68300003 -0.031135695 1.2817733e-38 346 266
0.032333218 0.68300003 -0.031135695 1.3186514e-38 347 266
0.033579841 0.68400002 -0.03118128 1.3555301e-38 348 266
0.03477912 0.68400002 -0.03118128 1.3831528e-38 349 266
0.036083598 0.68599999 -0.031272452 1.3830809e-38 350 266
0.037340738 0.68699998 -0.031318039 1.3369831e-38 351 266
0.038545277 0.68699998 -0.031318039 1.3001045e-38 352 266
0.039749816 0.68699998 -0.031318039 1.373861e-38 353 266
0.040954359 0.68699998 -0.031318039 1.2909932e-38 354 266
0.042220265 0.68800002 -0.031363625 1.0604681e-38 355 266
0.043426562 0.68800002 -0.031363625 1.1802139e-38 356 266
0.0447626 0.69 -0.031454802 1.3830443e-38 357 266
0.046039023 0.69099998 -0.031500384 1.3921543e-38 358 266
0.047455717 0.69400001 -0.031637147 1.3644597e-38 359 266
0.048812799 0.69599998 -0.031728316 1.3644234e-38 360 266
0.050033119 0.69599998 -0.031728316 1.3552039e-38 361 266
0.051327083 0.69700003 -0.03177391 1.3091426e-38 362 266
0.052549154 0.69700003 -0.03177391 1.3552404e-38 363 266
0.053848371 0.69800001 -0.031819493 1.4933887e-38 364 266
0.0550722 0.69800001 -0.031819493 1.7607919e-38 365 266
-0.012553867 0.71600002 -0.03389544 1.9450757e-38 310 267
-0.01129848 0.71600002 -0.03389544 1.9358561e-38 311 267
-0.01001504 0.71399999 -0.033800758 1.8343709e-38 312 267
-0.0087263398 0.71100003 -0.033658739 1.4840275e-38 313 267
-0.0074691991 0.70999998 -0.033611398 1.392697e-38 314 267
-0.0061980332 0.70700002 -0.033469379 1.5309905e-38 315 267
-0.0049303733 0.70300001 -0.033280019 1.3559998e-38 316 267
-0.0036872597 0.70099998 -0.03318534 1.1439859e-38 317 267
-0.0024546667 0.69999999 -0.033137999 1.0885253e-38 318 267
-0.0012238267 0.69800001 -0.033043321 1.0977807e-38 319 267
0 0.69599998 -0.032948639 1.1437708e-38 320 267
0.0012203199 0.69599998 -0.032948639 1.1622458e-38 321 267
0.0024336267 0.69400001 -0.032853961 1.1439506e-38 322 267
0.0036451798 0.69300002 -0.03280662 1.1623537e-38 323 267
0.00486024 0.69300002 -0.03280662 1.1715737e-38 324 267
0.0060577663 0.69099998 -0.032711938 1.1439508e-38 325 267
0.0072587994 0.69 -0.032664597 1.1717888e-38 326 267
0.0084440531 0.68800002 -0.032569919 1.2824235e-38 327 267
0.0096503468 0.68800002 -0.032569919 1.3008258e-38 328 267
0.010840859 0.68699998 -0.032522578 1.3192289e-38 329 267
0.012045399 0.68699998 -0.032522578 1.3558911e-38 330 267
0.013249939 0.68699998 -0.032522578 1.3835496e-38 331 267
0.01443344 0.68599999 -0.032475237 1.4571263e-38 332 267
0.015636226 0.68599999 -0.032475237 1.4571263e-38 333 267
0.016789921 0.68400002 -0.032380559 1.3926976e-38 334 267
0.017962901 0.68300003 -0.032333218 1.2543683e-38 335 267
0.019160427 0.68300003 -0.032333218 1.0977086e-38 336 267
0.020357953 0.68300003 -0.032333218 1.0977086e-38 337 267
0.02155548 0.68300003 -0.032333218 1.1807922e-38 338 267
0.022753006 0.68300003 -0.032333218 1.1069997e-38 339 267
0.023950534 0.68300003 -0.032333218 1.134406e-38 340 267
0.02514806 0.68300003 -0.032333218 1.2819549e-38 341 267
0.026345588 0.68300003 -0.032333218 1.3465272e-38 342 267
0.027543113 0.68300003 -0.032333218 1.3925891e-38 343 267
0.028740639 0.68300003 -0.032333218 1.4476897e-38 344 267
0.029938167 0.68300003 -0.032333218 1.420067e-38 345 267
0.03118128 0.68400002 -0.032380559 1.4383617e-38 346 267
0.032380559 0.68400002 -0.032380559 1.4014474e-38 347 267
0.033579841 0.68400002 -0.032380559 1.3095395e-38 348 267
0.034880809 0.68599999 -0.032475237 1.2726254e-38 349 267
0.036083598 0.68599999 -0.032475237 1.2724817e-38 350 267
0.037340738 0.68699998 -0.032522578 1.2632622e-38 351 267
0.038545277 0.68699998 -0.032522578 1.3001045e-38 352 267
0.039807681 0.68800002 -0.032569919 1.3370187e-38 353 267
0.041013971 0.68800002 -0.032569919 1.3093247e-38 354 267
0.042220265 0.68800002 -0.032569919 1.0603965e-38 355 267
0.043552797 0.69 -0.032664597 1.1710307e-38 356 267
0.044827472 0.69099998 -0.032711938 1.3554218e-38 357 267
0.04617228 0.69300002 -0.03280662 1.3737152e-38 358 267
0.047592476 0.69599998 -0.032948639 1.3644597e-38 359 267
0.048812799 0.69599998 -0.032948639 1.3553837e-38 360 267
0.050105009 0.69700003 -0.03299598 1.3461641e-38 361 267
0.051327083 0.69700003 -0.03299598 1.3367293e-38 362 267
0.052549154 0.69700003 -0.03299598 1.3459489e-38 363 267
0.053848371 0.69800001 -0.033043321 1.4381797e-38 364 267
0.0550722 0.69800001 -0.033043321 1.7424251e-38 365 267
-0.01129848 0.71600002 -0.035150826 1.9082335e-38 311 268
-0.01001504 0.71399999 -0.035052639 1.8251513e-38 312 268
-0.0087263398 0.71100003 -0.034905359 1.474772e-38 313 268
-0.0074691991 0.70999998 -0.034856264 1.3189408e-38 314 268
-0.0062067998 0.708 -0.034758076 1.4756373e-38 315 268
-0.0049514128 0.70599997 -0.034659892 1.3651831e-38 316 268
-0.0036977797 0.70300001 -0.034512613 1.2176342e-38 317 268
-0.0024546667 0.69999999 -0.034365334 1.1620654e-38 318 268
-0.0012238267 0.69800001 -0.034267146 1.1528457e-38 319 268
0 0.69700003 -0.034218054 1.1623171e-38 320 268
0.0012203199 0.69599998 -0.034168959 1.1715367e-38 321 268
0.0024406398 0.69599998 -0.034168959 1.1439862e-38 322 268
0.0036504399 0.69400001 -0.034070771 1.171609e-38 323 268
0.00486024 0.69300002 -0.034021679 1.1623537e-38 324 268
0.0060753003 0.69300002 -0.034021679 1.1439506e-38 325 268
0.0072693196 0.69099998 -0.033923492 1.079701e-38 326 268
0.0084686 0.69 -0.0338744 1.2179945e-38 327 268
0.0096503468 0.68800002 -0.033776212 1.3467081e-38 328 268
0.010856641 0.68800002 -0.033776212 1.3559635e-38 329 268
0.012062933 0.68800002 -0.033776212 1.355963e-38 330 268
0.013249939 0.68699998 -0.033727121 1.3652184e-38 331 268
0.014454478 0.68699998 -0.033727121 1.309973e-38 332 268
0.015659019 0.68699998 -0.033727121 1.3007535e-38 333 268
0.016839013 0.68599999 -0.033678025 1.3557116e-38 334 268
0.0179892 0.68400002 -0.033579841 1.2819549e-38 335 268
0.01918848 0.68400002 -0.033579841 1.0977439e-38 336 268
0.020387759 0.68400002 -0.033579841 1.1345862e-38 337 268
0.02158704 0.68400002 -0.033579841 1.199303e-38 338 268
0.022786319 0.68400002 -0.033579841 1.0702291e-38 339 268
0.0239856 0.68400002 -0.033579841 1.0240592e-38 340 268
0.025184879 0.68400002 -0.033579841 1.1715723e-38 341 268
0.02638416 0.68400002 -0.033579841 1.3096491e-38 342 268
0.027583439 0.68400002 -0.033579841 1.3096491e-38 343 268
0.02878272 0.68400002 -0.033579841 1.3095042e-38 344 268
0.029982001 0.68400002 -0.033579841 1.3095042e-38 345 268
0.031272452 0.68599999 -0.033678025 1.327871e-38 346 268
0.032475237 0.68599999 -0.033678025 1.2909929e-38 347 268
0.033727121 0.68699998 -0.033727121 1.2541142e-38 348 268
0.034931656 0.68699998 -0.033727121 1.2172361e-38 349 268
0.036136195 0.68699998 -0.033727121 1.1712107e-38 350 268
0.037395094 0.68800002 -0.033776212 1.1712107e-38 351 268
0.038601387 0.68800002 -0.033776212 1.2540789e-38 352 268
0.039807681 0.68800002 -0.033776212 1.3463105e-38 353 268
0.041133199 0.69 -0.0338744 1.3093247e-38 354 268
0.042342998 0.69 -0.0338744 1.0603965e-38 355 268
0.043615919 0.69099998 -0.033923492 1.1711388e-38 356 268
0.044957221 0.69300002 -0.034021679 1.3463105e-38 357 268
0.046372157 0.69599998 -0.034168959 1.3737515e-38 358 268
0.047660861 0.69700003 -0.034218054 1.3461288e-38 359 268
0.048882935 0.69700003 -0.034218054 1.318578e-38 360 268
0.050176892 0.69800001 -0.034267146 1.3001029e-38 361 268
0.051327083 0.69700003 -0.034218054 1.2446423e-38 362 268
0.052549154 0.69700003 -0.034218054 1.272337e-38 363 268
0.053848371 0.69800001 -0.034267146 1.4749506e-38 364 268
0.0550722 0.69800001 -0.034267146 1.760721e-38 365 268
-0.0099729598 0.71100003 -0.036151983 1.8343712e-38 312 269
-0.0087140659 0.70999998 -0.036101133 1.4839919e-38 313 269
-0.0074691991 0.70999998 -0.036101133 1.3004661e-38 314 269
-0.0062243328 0.70999998 -0.036101133 1.42954e-38 315 269
-0.0049654399 0.708 -0.03599944 1.3742591e-38 316 269
-0.0037135598 0.70599997 -0.035897743 1.2913191e-38 317 269
-0.0024581731 0.70099998 -0.035643511 1.2357139e-38 318 269
-0.0012273333 0.69999999 -0.035592664 1.2173108e-38 319 269
0 0.69800001 -0.035490975 1.1623171e-38 320 269
0.0012220733 0.69700003 -0.035440128 1.1715367e-38 321 269
0.0024406398 0.69599998 -0.035389278 1.1623177e-38 322 269
0.0036504399 0.69400001 -0.035287585 1.1623177e-38 323 269
0.0048672534 0.69400001 -0.035287585 1.1807213e-38 324 269
0.0060753003 0.69300002 -0.035236739 1.226819e-38 325 269
0.0072903596 0.69300002 -0.035236739 1.2361459e-38 326 269
0.008480873 0.69099998 -0.035135046 1.254585e-38 327 269
0.0096783992 0.69 -0.035084199 1.3466362e-38 328 269
0.010888199 0.69 -0.035084199 1.3742947e-38 329 269
0.012062933 0.68800002 -0.03498251 1.383514e-38 330 269
0.013269227 0.68800002 -0.03498251 1.3742945e-38 331 269
0.014475521 0.68800002 -0.03498251 1.061226e-38 332 269
0.015659019 0.68699998 -0.034931656 9.4140758e-39 333 269
0.01686356 0.68699998 -0.034931656 1.1438427e-38 334 269
0.018068098 0.68699998 -0.034931656 1.1438427e-38 335 269
0.019244585 0.68599999 -0.034880809 1.1253665e-38 336 269
0.020447372 0.68599999 -0.034880809 1.1438058e-38 337 269
0.021650158 0.68599999 -0.034880809 1.1900837e-38 338 269
0.022786319 0.68400002 -0.03477912 1.0610098e-38 339 269
0.0239856 0.68400002 -0.03477912 9.8725302e-39 340 269
0.025258519 0.68599999 -0.034880809 1.1255465e-38 341 269
0.026461305 0.68599999 -0.034880809 1.2819183e-38 342 269
0.027664091 0.68599999 -0.034880809 1.2634433e-38 343 269
0.028908957 0.68699998 -0.034931656 1.1896503e-38 344 269
0.030113498 0.68699998 -0.034931656 1.1619556e-38 345 269
0.031318039 0.68699998 -0.034931656 1.1711754e-38 346 269
0.032522578 0.68699998 -0.034931656 1.1711754e-38 347 269
0.033776212 0.68800002 -0.03498251 1.1619561e-38 348 269
0.03498251 0.68800002 -0.03498251 1.1527007e-38 349 269
0.0361888 0.68800002 -0.03498251 1.1252218e-38 350 269
0.037503798 0.69 -0.035084199 1.1252218e-38 351 269
0.038713597 0.69 -0.035084199 1.1897222e-38 352 269
0.039981257 0.69099998 -0.035135046 1.318796e-38 353 269
0.041312039 0.69300002 -0.035236739 1.3093247e-38 354 269
0.042527102 0.69300002 -0.035236739 1.0603965e-38 355 269
0.043805279 0.69400001 -0.035287585 1.1712104e-38 356 269
0.045151837 0.69599998 -0.035389278 1.3371626e-38 357 269
0.046438783 0.69700003 -0.035440128 1.355313e-38 358 269
0.047729239 0.69800001 -0.035490975 1.3368739e-38 359 269
0.048953064 0.69800001 -0.035490975 1.3000681e-38 360 269
0.050320663 0.69999999 -0.035592664 1.2447509e-38 361 269
0.051400717 0.69800001 -0.035490975 1.1250406e-38 362 269
0.052624546 0.69800001 -0.035490975 1.2172364e-38 363 269
0.053848371 0.69800001 -0.035490975 1.484314e-38 364 269
0.0550722 0.69800001 -0.035490975 1.7516814e-38 365 269
-0.0099729598 0.71100003 -0.037398599 1.871177e-38 312 270
-0.0087140659 0.70999998 -0.037345998 1.511578e-38 313 270
-0.0074481601 0.708 -0.0372408 1.2729153e-38 314 270
-0.0062067998 0.708 -0.0372408 1.3742945e-38 315 270
-0.0049654399 0.708 -0.0372408 1.3282336e-38 316 270
-0.0037188199 0.70700002 -0.037188202 1.2913913e-38 317 270
-0.0024651866 0.70300001 -0.036977798 1.2266745e-38 318 270
-0.0012290865 0.70099998 -0.036872596 1.1990158e-38 319 270
0 0.69999999 -0.036819998 1.1806486e-38 320 270
0.0012238267 0.69800001 -0.0367148 1.1806486e-38 321 270
0.0024441467 0.69700003 -0.036662199 1.1530622e-38 322 270
0.0036609597 0.69599998 -0.036609598 1.1715372e-38 323 270
0.0048672534 0.69400001 -0.036504399 1.2083077e-38 324 270
0.0060840664 0.69400001 -0.036504399 1.3189423e-38 325 270
0.0072903596 0.69300002 -0.036451802 1.3741154e-38 326 270
0.008480873 0.69099998 -0.036346599 1.4017739e-38 327 270
0.0096924258 0.69099998 -0.036346599 1.3742945e-38 328 270
0.01090398 0.69099998 -0.036346599 1.383514e-38 329 270
0.012097999 0.69 -0.036293998 1.3927696e-38 330 270
0.013269227 0.68800002 -0.0361888 1.3927696e-38 331 270
0.014475521 0.68800002 -0.0361888 1.1162916e-38 332 270
0.015681813 0.68800002 -0.0361888 9.5037533e-39 333 270
0.016888106 0.68800002 -0.0361888 1.1345512e-38 334 270
0.018068098 0.68699998 -0.036136195 1.1529903e-38 335 270
0.019272638 0.68699998 -0.036136195 1.1346581e-38 336 270
0.020477179 0.68699998 -0.036136195 1.1438777e-38 337 270
0.021681719 0.68699998 -0.036136195 1.1808638e-38 338 270
0.022886258 0.68699998 -0.036136195 1.0978876e-38 339 270
0.024090799 0.68699998 -0.036136195 1.0148394e-38 340 270
0.025295338 0.68699998 -0.036136195 1.1531329e-38 341 270
0.026499879 0.68699998 -0.036136195 1.29103e-38 342 270
0.027704418 0.68699998 -0.036136195 1.272555e-38 343 270
0.028908957 0.68699998 -0.036136195 1.2172729e-38 344 270
0.030113498 0.68699998 -0.036136195 1.1804306e-38 345 270
0.031363625 0.68800002 -0.0361888 1.189615e-38 346 270
0.032569919 0.68800002 -0.0361888 1.1619561e-38 347 270
0.033776212 0.68800002 -0.0361888 1.1527007e-38 348 270
0.03498251 0.68800002 -0.0361888 1.1527007e-38 349 270
0.036293998 0.69 -0.036293998 1.1343695e-38 350 270
0.037503798 0.69 -0.036293998 1.1343695e-38 351 270
0.038769703 0.69099998 -0.036346599 1.2172011e-38 352 270
0.04009698 0.69300002 -0.036451802 1.3370552e-38 353 270
0.041312039 0.69300002 -0.036451802 1.2817736e-38 354 270
0.042588469 0.69400001 -0.036504399 1.0789432e-38 355 270
0.043805279 0.69400001 -0.036504399 1.1987971e-38 356 270
0.045151837 0.69599998 -0.036609598 1.3370905e-38 357 270
0.046505414 0.69800001 -0.0367148 1.3093594e-38 358 270
0.047865998 0.69999999 -0.036819998 1.272517e-38 359 270
0.049093332 0.69999999 -0.036819998 1.2723738e-38 360 270
0.050320663 0.69999999 -0.036819998 1.2447153e-38 361 270
0.051547997 0.69999999 -0.036819998 1.1710309e-38 362 270
0.052775331 0.69999999 -0.036819998 1.2447874e-38 363 270
0.054002665 0.69999999 -0.036819998 1.4844219e-38 364 270
-0.0099729598 0.71100003 -0.038645219 1.8803965e-38 312 271
-0.0087140659 0.70999998 -0.038590867 1.5392727e-38 313 271
-0.0074481601 0.708 -0.038482159 1.2636954e-38 314 271
-0.0062067998 0.708 -0.038482159 1.3466715e-38 315 271
-0.0049654399 0.708 -0.038482159 1.2913913e-38 316 271
-0.00372408 0.708 -0.038482159 1.2821717e-38 317 271
-0.0024686933 0.704 -0.038264744 1.2358941e-38 318 271
-0.0012290865 0.70099998 -0.038101684 1.2266745e-38 319 271
0 0.69999999 -0.038047329 1.1990158e-38 320 271
0.0012238267 0.69800001 -0.037938625 1.1897963e-38 321 271
0.0024476533 0.69800001 -0.037938625 1.1622458e-38 322 271
0.00366622 0.69700003 -0.037884273 1.1990882e-38 323 271
0.0048812795 0.69599998 -0.037829921 1.2267827e-38 324 271
0.0060840664 0.69400001 -0.037721213 1.2820642e-38 325 271
0.0073008798 0.69400001 -0.037721213 1.3465286e-38 326 271
0.0085054198 0.69300002 -0.037666857 1.4295046e-38 327 271
0.0096924258 0.69099998 -0.03755815 1.3927696e-38 328 271
0.01090398 0.69099998 -0.03755815 1.383514e-38 329 271
0.012097999 0.69 -0.037503798 1.3927696e-38 330 271
0.0133078 0.69 -0.037503798 1.3927696e-38 331 271
0.014475521 0.68800002 -0.037395094 1.1255112e-38 332 271
0.015681813 0.68800002 -0.037395094 9.8721771e-39 333 271
0.016888106 0.68800002 -0.037395094 1.1253315e-38 334 271
0.0180944 0.68800002 -0.037395094 1.1437708e-38 335 271
0.019300694 0.68800002 -0.037395094 1.1163272e-38 336 271
0.020506985 0.68800002 -0.037395094 1.1347663e-38 337 271
0.021713281 0.68800002 -0.037395094 1.1715723e-38 338 271
0.022919573 0.68800002 -0.037395094 1.1070353e-38 339 271
0.024125867 0.68800002 -0.037395094 1.0884158e-38 340 271
0.02533216 0.68800002 -0.037395094 1.1898669e-38 341 271
0.026538454 0.68800002 -0.037395094 1.2818099e-38 342 271
0.027744746 0.68800002 -0.037395094 1.2818099e-38 343 271
0.028951041 0.68800002 -0.037395094 1.2172732e-38 344 271
0.030157333 0.68800002 -0.037395094 1.1896505e-38 345 271
0.031363625 0.68800002 -0.037395094 1.1895066e-38 346 271
0.032569919 0.68800002 -0.037395094 1.1526644e-38 347 271
0.0338744 0.69 -0.037503798 1.1435164e-38 348 271
0.035084199 0.69 -0.037503798 1.1251133e-38 349 271
0.036346599 0.69099998 -0.03755815 1.0791593e-38 350 271
0.03755815 0.69099998 -0.03755815 1.106854e-38 351 271
0.03888192 0.69300002 -0.037666857 1.2447872e-38 352 271
0.04009698 0.69300002 -0.037666857 1.3370187e-38 353 271
0.041371655 0.69400001 -0.037721213 1.2908851e-38 354 271
0.042588469 0.69400001 -0.037721213 1.0972744e-38 355 271
0.043931518 0.69599998 -0.037829921 1.1987618e-38 356 271
0.045216713 0.69700003 -0.037884273 1.3278357e-38 357 271
0.046505414 0.69800001 -0.037938625 1.2908851e-38 358 271
0.047865998 0.69999999 -0.038047329 1.2447874e-38 359 271
0.049093332 0.69999999 -0.038047329 1.2172011e-38 360 271
0.050392549 0.70099998 -0.038101684 1.2079815e-38 361 271
0.051621638 0.70099998 -0.038101684 1.1894703e-38 362 271
0.052850723 0.70099998 -0.038101684 1.2632268e-38 363 271
0.054774132 0.70999998 -0.038590867 1.4660547e-38 364 271
0.056018997 0.70999998 -0.038590867 1.7426416e-38 365 271
-0.01121958 0.71100003 -0.039891839 1.9082335e-38 311 272
-0.0099729598 0.71100003 -0.039891839 1.8712491e-38 312 272
-0.0087140659 0.70999998 -0.039835732 1.5762233e-38 313 272
-0.0074691991 0.70999998 -0.039835732 1.3006459e-38 314 272
-0.0062243328 0.70999998 -0.039835732 1.3375241e-38 315 272
-0.0049794666 0.70999998 -0.039835732 1.2362538e-38 316 272
-0.00372408 0.708 -0.039723519 1.208595e-38 317 272
-0.0024792133 0.70700002 -0.039667413 1.2634086e-38 318 272
-0.0012325933 0.70300001 -0.039442986 1.2449336e-38 319 272
0 0.70099998 -0.039330769 1.2266026e-38 320 272
0.0012273333 0.69999999 -0.039274666 1.2173829e-38 321 272
0.0024476533 0.69800001 -0.039162453 1.1623174e-38 322 272
0.00366622 0.69700003 -0.039106347 1.1715369e-38 323 272
0.0048882933 0.69700003 -0.039106347 1.2358225e-38 324 272
0.0061015999 0.69599998 -0.039050236 1.2081278e-38 325 272
0.0073008798 0.69400001 -0.038938027 1.254585e-38 326 272
0.0085054198 0.69300002 -0.03888192 1.4021339e-38 327 272
0.0097204801 0.69300002 -0.03888192 1.4203204e-38 328 272
0.010935539 0.69300002 -0.03888192 1.3926976e-38 329 272
0.012115533 0.69099998 -0.038769703 1.383514e-38 330 272
0.0133078 0.69 -0.038713597 1.383514e-38 331 272
0.014517599 0.69 -0.038713597 1.0980325e-38 332 272
0.015727401 0.69 -0.038713597 9.7817821e-39 333 272
0.0169372 0.69 -0.038713597 1.11622e-38 334 272
0.018146999 0.69 -0.038713597 1.1346231e-38 335 272
0.019356798 0.69 -0.038713597 1.1162553e-38 336 272
0.020506985 0.68800002 -0.038601387 1.1530975e-38 337 272
0.021713281 0.68800002 -0.038601387 1.1991232e-38 338 272
0.022919573 0.68800002 -0.038601387 1.1438058e-38 339 272
0.024125867 0.68800002 -0.038601387 1.1434811e-38 340 272
0.02533216 0.68800002 -0.038601387 1.2541519e-38 341 272
0.026538454 0.68800002 -0.038601387 1.2910297e-38 342 272
0.027744746 0.68800002 -0.038601387 1.2357123e-38 343 272
0.028951041 0.68800002 -0.038601387 1.0790524e-38 344 272
0.030157333 0.68800002 -0.038601387 1.0145154e-38 345 272
0.031363625 0.68800002 -0.038601387 1.0143722e-38 346 272
0.032664597 0.69 -0.038713597 9.959691e-39 347 272
0.0338744 0.69 -0.038713597 9.5927021e-39 348 272
0.035135046 0.69099998 -0.038769703 9.5927021e-39 349 272
0.036346599 0.69099998 -0.038769703 9.9607602e-39 350 272
0.037666857 0.69300002 -0.03888192 1.1159303e-38 351 272
0.03888192 0.69300002 -0.03888192 1.2632622e-38 352 272
0.040154841 0.69400001 -0.038938027 1.3554218e-38 353 272
0.041371655 0.69400001 -0.038938027 1.2724817e-38 354 272
0.042711195 0.69599998 -0.039050236 1.0972742e-38 355 272
0.043994639 0.69700003 -0.039106347 1.161919e-38 356 272
0.045281585 0.69800001 -0.039162453 1.2725536e-38 357 272
0.046638668 0.69999999 -0.039274666 1.2173083e-38 358 272
0.047865998 0.69999999 -0.039274666 1.1804659e-38 359 272
0.049163464 0.70099998 -0.039330769 1.2079451e-38 360 272
0.050536323 0.70300001 -0.039442986 1.2079451e-38 361 272
0.051842559 0.704 -0.039499093 1.2079811e-38 362 272
0.053076904 0.704 -0.039499093 1.2540789e-38 363 272
0.054774132 0.70999998 -0.039835732 1.4199572e-38 364 272
0.056018997 0.70999998 -0.039835732 1.7242028e-38 365 272
-0.01121958 0.71100003 -0.041138459 1.9265291e-38 311 273
-0.0099729598 0.71100003 -0.041138459 1.8621016e-38 312 273
-0.0087140659 0.70999998 -0.041080594 1.6039897e-38 313 273
-0.0074691991 0.70999998 -0.041080594 1.3467081e-38 314 273
-0.0062243328 0.70999998 -0.041080594 1.3006461e-38 315 273
-0.0049794666 0.70999998 -0.041080594 1.1903002e-38 316 273
-0.00372408 0.708 -0.040964879 1.1442024e-38 317 273
-0.0024792133 0.70700002 -0.040907022 1.217455e-38 318 273
-0.0012378532 0.70599997 -0.040849157 1.1897963e-38 319 273
0 0.70300001 -0.040675577 1.2266389e-38 320 273
0.0012273333 0.69999999 -0.040502001 1.2266389e-38 321 273
0.0024546667 0.69999999 -0.040502001 1.2083433e-38 322 273
0.0036714801 0.69800001 -0.040386278 1.1898682e-38 323 273
0.0048882933 0.69700003 -0.040328421 1.1897963e-38 324 273
0.0061015999 0.69599998 -0.040270556 1.1990158e-38 325 273
0.0073219193 0.69599998 -0.040270556 1.2360742e-38 326 273
0.0085176928 0.69400001 -0.040154841 1.3374535e-38 327 273
0.0097345067 0.69400001 -0.040154841 1.4019539e-38 328 273
0.010935539 0.69300002 -0.04009698 1.4019539e-38 329 273
0.012150601 0.69300002 -0.04009698 1.3835143e-38 330 273
0.013327086 0.69099998 -0.039981257 1.3558916e-38 331 273
0.014538639 0.69099998 -0.039981257 1.1255114e-38 332 273
0.015750192 0.69099998 -0.039981257 9.9643755e-39 333 273
0.016961746 0.69099998 -0.039981257 1.106965e-38 334 273
0.0181733 0.69099998 -0.039981257 1.1161847e-38 335 273
