# .PCD v.7 - Point Cloud Data file format
FIELDS x y z rgb imX imY
SIZE 4 4 4 4 4 4
TYPE F F F F F F
COUNT 1 1 1 1 1 1
WIDTH 830
HEIGHT 1
VIEWPOINT 0 0 0 1 0 0 0
POINTS 830
DATA ascii
-0.03280662 0.69300002 0.00121506 1.1156393e-38 293 239
-0.031591557 0.69300002 0.00121506 1.087764e-38 294 239
-0.0303765 0.69300002 0.00121506 1.0047879e-38 295 239
-0.029077278 0.69099998 0.0012115532 1.0140778e-38 296 239
-0.027865725 0.69099998 0.0012115532 1.1062733e-38 297 239
-0.026654173 0.69099998 0.0012115532 1.0420174e-38 298 239
-0.025442619 0.69099998 0.0012115532 8.1152851e-39 299 239
-0.024231065 0.69099998 0.0012115532 6.5565522e-39 300 239
-0.023019511 0.69099998 0.0012115532 6.833495e-39 301 239
-0.021807959 0.69099998 0.0012115532 9.0415813e-39 302 239
-0.020596405 0.69099998 0.0012115532 1.0608548e-38 303 239
-0.019384852 0.69099998 0.0012115532 1.1056636e-38 304 239
-0.018225901 0.69300002 0.00121506 8.1067358e-39 305 239
-0.01701084 0.69300002 0.00121506 5.2504846e-39 306 239
-0.015795778 0.69300002 0.00121506 7.0940384e-39 307 239
-0.014580719 0.69300002 0.00121506 8.11107e-39 308 239
-0.01336566 0.69300002 0.00121506 6.9125269e-39 309 239
-0.012150601 0.69300002 0.00121506 6.8167313e-39 310 239
-0.010935539 0.69300002 0.00121506 6.8167313e-39 311 239
-0.0097345067 0.69400001 0.0012168133 5.2540971e-39 312 239
-0.0085176928 0.69400001 0.0012168133 3.4101845e-39 313 239
-0.0073008798 0.69400001 0.0012168133 4.6076585e-39 314 239
-0.0061015999 0.69599998 0.0012203199 4.8838853e-39 315 239
-0.0048882933 0.69700003 0.0012220733 5.0729471e-39 316 239
-0.0036714801 0.69800001 0.0012238267 5.7183165e-39 317 239
-0.0024476533 0.69800001 0.0012238267 6.5419661e-39 318 239
-0.0012238267 0.69800001 0.0012238267 5.712204e-39 319 239
0 0.69999999 0.0012273333 5.8065647e-39 320 239
0.0012290865 0.70099998 0.0012290865 6.0835117e-39 321 239
0.0024651866 0.70300001 0.0012325933 5.8069206e-39 322 239
0.0036977797 0.70300001 0.0012325933 5.7143662e-39 323 239
0.0049373866 0.704 0.0012343467 6.9110947e-39 324 239
0.0061717331 0.704 0.0012343467 7.372433e-39 325 239
0.0074271196 0.70599997 0.0012378532 8.2014482e-39 326 239
0.0086649731 0.70599997 0.0012378532 9.3999914e-39 327 239
-0.059003171 0.71600002 -0 1.475239e-38 273 240
-0.057747785 0.71600002 -0 1.447616e-38 274 240
-0.056492399 0.71600002 -0 1.4752746e-38 275 240
-0.05508272 0.71399999 -0 1.429249e-38 276 240
-0.053755447 0.713 -0 1.3278339e-38 277 240
-0.052358042 0.71100003 -0 1.032917e-38 278 240
-0.051039528 0.70999998 -0 9.0384311e-39 279 240
-0.049654398 0.708 -0 9.4976198e-39 280 240
-0.048344657 0.70700002 -0 9.4054242e-39 281 240
-0.046905171 0.704 -0 9.221749e-39 282 240
-0.04560595 0.70300001 -0 9.8671184e-39 283 240
-0.044247117 0.70099998 -0 9.7767207e-39 284 240
-0.042956665 0.69999999 -0 9.3157439e-39 285 240
-0.041610107 0.69800001 -0 9.4972639e-39 286 240
-0.040328421 0.69700003 -0 9.3128726e-39 287 240
-0.039106347 0.69700003 -0 9.4057871e-39 288 240
-0.037829921 0.69599998 -0 9.5905385e-39 289 240
-0.036609598 0.69599998 -0 9.773848e-39 290 240
-0.035287585 0.69400001 -0 9.8660436e-39 291 240
-0.034070771 0.69400001 -0 1.0787627e-38 292 240
-0.03280662 0.69300002 -0 1.1617388e-38 293 240
-0.031591557 0.69300002 -0 1.0972009e-38 294 240
-0.0303765 0.69300002 -0 1.0234444e-38 295 240
-0.029077278 0.69099998 -0 1.0234438e-38 296 240
-0.027865725 0.69099998 -0 1.1432981e-38 297 240
-0.026654173 0.69099998 -0 1.1802408e-38 298 240
-0.025442619 0.69099998 -0 9.3131263e-39 299 240
-0.024231065 0.69099998 -0 7.4749114e-39 300 240
-0.023019511 0.69099998 -0 7.659304e-39 301 240
-0.021871079 0.69300002 -0 9.0415785e-39 302 240
-0.020656019 0.69300002 -0 1.1069884e-38 303 240
-0.01944096 0.69300002 -0 1.1243904e-38 304 240
-0.018225901 0.69300002 -0 8.754622e-39 305 240
-0.01701084 0.69300002 -0 5.3448326e-39 306 240
-0.015795778 0.69300002 -0 6.7277671e-39 307 240
-0.014580719 0.69300002 -0 6.6395371e-39 308 240
-0.01336566 0.69300002 -0 5.7172207e-39 309 240
-0.012150601 0.69300002 -0 4.9739173e-39 310 240
-0.010935539 0.69300002 -0 4.6969703e-39 311 240
-0.0097345067 0.69400001 -0 4.9714118e-39 312 240
-0.0085176928 0.69400001 -0 4.8792162e-39 313 240
-0.0073219193 0.69599998 -0 4.2378124e-39 314 240
-0.0061103669 0.69700003 -0 3.86939e-39 315 240
-0.0048953067 0.69800001 -0 4.5158286e-39 316 240
-0.0036714801 0.69800001 -0 6.4519369e-39 317 240
-0.0024476533 0.69800001 -0 6.266454e-39 318 240
-0.0012273333 0.69999999 -0 5.8051171e-39 319 240
0 0.70099998 -0 5.6232496e-39 320 240
0.0012325933 0.70300001 -0 5.715804e-39 321 240
0.0024686933 0.704 -0 6.3575706e-39 322 240
0.0037030398 0.704 -0 6.5419619e-39 323 240
0.0049373866 0.704 -0 6.5444674e-39 324 240
0.0061892662 0.70599997 -0 7.1898368e-39 325 240
0.0074271196 0.70599997 -0 7.9270291e-39 326 240
0.0086649731 0.70599997 -0 9.3099636e-39 327 240
-0.057828441 0.71700001 -0.00125714 1.4289967e-38 274 241
-0.056492399 0.71600002 -0.0012553866 1.4474717e-38 275 241
-0.05508272 0.71399999 -0.00125188 1.4106657e-38 276 241
-0.053755447 0.713 -0.0012501266 1.3369092e-38 277 241
-0.052358042 0.71100003 -0.00124662 1.0605034e-38 278 241
-0.051039528 0.70999998 -0.0012448666 8.9458726e-39 279 241
-0.049654398 0.708 -0.00124136 9.4986932e-39 280 241
-0.048344657 0.70700002 -0.0012396066 9.4061375e-39 281 241
-0.046905171 0.704 -0.0012343467 9.4986932e-39 282 241
-0.045670826 0.704 -0.0012343467 9.9593112e-39 283 241
-0.044247117 0.70099998 -0.0012290865 9.9614664e-39 284 241
-0.042956665 0.69999999 -0.0012273333 9.5004883e-39 285 241
-0.041610107 0.69800001 -0.0012238267 9.6812852e-39 286 241
-0.040386278 0.69800001 -0.0012238267 9.5890896e-39 287 241
-0.039106347 0.69700003 -0.0012220733 9.4054186e-39 288 241
-0.037884273 0.69700003 -0.0012220733 9.497973e-39 289 241
-0.036609598 0.69599998 -0.0012203199 9.5890896e-39 290 241
-0.035389278 0.69599998 -0.0012203199 9.6812852e-39 291 241
-0.034070771 0.69400001 -0.0012168133 1.0236972e-38 292 241
-0.032853961 0.69400001 -0.0012168133 1.0974895e-38 293 241
-0.031591557 0.69300002 -0.00121506 1.0604668e-38 294 241
-0.0303765 0.69300002 -0.00121506 9.6823516e-39 295 241
-0.029161438 0.69300002 -0.00121506 9.4975946e-39 296 241
-0.027946379 0.69300002 -0.00121506 1.0972725e-38 297 241
-0.026654173 0.69099998 -0.0012115532 1.1985044e-38 298 241
-0.025442619 0.69099998 -0.0012115532 1.0786501e-38 299 241
-0.024231065 0.69099998 -0.0012115532 1.0052137e-38 300 241
-0.02308614 0.69300002 -0.00121506 9.7755506e-39 301 241
-0.021871079 0.69300002 -0.00121506 9.9614062e-39 302 241
-0.020656019 0.69300002 -0.00121506 1.0975557e-38 303 241
-0.01944096 0.69300002 -0.00121506 1.0508504e-38 304 241
-0.018225901 0.69300002 -0.00121506 8.1114176e-39 305 241
-0.01701084 0.69300002 -0.00121506 3.3186924e-39 306 241
-0.015795778 0.69300002 -0.00121506 6.2685938e-39 307 241
-0.014580719 0.69300002 -0.00121506 7.8355593e-39 308 241
-0.01336566 0.69300002 -0.00121506 6.7288517e-39 309 241
-0.012168133 0.69400001 -0.0012168133 6.080611e-39 310 241
-0.01095132 0.69400001 -0.0012168133 5.1590148e-39 311 241
-0.0097625591 0.69599998 -0.0012203199 4.6973262e-39 312 241
-0.0085422397 0.69599998 -0.0012203199 4.4210995e-39 313 241
-0.00733244 0.69700003 -0.0012220733 4.1455986e-39 314 241
-0.006119133 0.69800001 -0.0012238267 4.0534029e-39 315 241
-0.0048953067 0.69800001 -0.0012238267 5.0650311e-39 316 241
-0.0036714801 0.69800001 -0.0012238267 5.9873462e-39 317 241
-0.0024546667 0.69999999 -0.0012273333 5.712204e-39 318 241
-0.0012290865 0.70099998 -0.0012290865 5.6200084e-39 319 241
0 0.70099998 -0.0012290865 5.8983973e-39 320 241
0.0012325933 0.70300001 -0.0012325933 6.3590168e-39 321 241
0.0024686933 0.704 -0.0012343467 6.3604391e-39 322 241
0.0037030398 0.704 -0.0012343467 6.7295803e-39 323 241
0.0049373866 0.704 -0.0012343467 6.9132303e-39 324 241
0.0061892662 0.70599997 -0.0012378532 7.1894571e-39 325 241
0.0074376399 0.70700002 -0.0012396066 8.29472e-39 326 241
0.008677247 0.70700002 -0.0012396066 8.6631424e-39 327 241
-0.057747785 0.71600002 -0.0025107733 1.4289967e-38 274 242
-0.056492399 0.71600002 -0.0025107733 1.4382521e-38 275 242
-0.05508272 0.71399999 -0.0025037599 1.4289967e-38 276 242
-0.053755447 0.713 -0.0025002533 1.3737152e-38 277 242
-0.052358042 0.71100003 -0.0024932399 1.1156767e-38 278 242
-0.051111419 0.71100003 -0.0024932399 9.4972443e-39 279 242
-0.049794663 0.70999998 -0.0024897333 9.4061375e-39 280 242
-0.048344657 0.70700002 -0.0024792133 9.4061375e-39 281 242
-0.047038425 0.70599997 -0.0024757064 9.1313484e-39 282 242
-0.045670826 0.704 -0.0024686933 9.5004911e-39 283 242
-0.044247117 0.70099998 -0.0024581731 9.7767207e-39 284 242
-0.042956665 0.69999999 -0.0024546667 8.7625701e-39 285 242
-0.041610107 0.69800001 -0.0024476533 9.2199553e-39 286 242
-0.040386278 0.69800001 -0.0024476533 9.1277597e-39 287 242
-0.039106347 0.69700003 -0.0024441467 9.1284786e-39 288 242
-0.037884273 0.69700003 -0.0024441467 9.2206742e-39 289 242
-0.036662199 0.69700003 -0.0024441467 9.2210301e-39 290 242
-0.035440128 0.69700003 -0.0024441467 9.497617e-39 291 242
-0.034168959 0.69599998 -0.0024406398 9.7759962e-39 292 242
-0.032853961 0.69400001 -0.0024336267 1.0790148e-38 293 242
-0.031637147 0.69400001 -0.0024336267 1.0695785e-38 294 242
-0.0303765 0.69300002 -0.00243012 9.6816327e-39 295 242
-0.029161438 0.69300002 -0.00243012 9.4046801e-39 296 242
-0.027946379 0.69300002 -0.00243012 1.0787615e-38 297 242
-0.02673132 0.69300002 -0.00243012 1.1617e-38 298 242
-0.02551626 0.69300002 -0.00243012 1.1063826e-38 299 242
-0.024301201 0.69300002 -0.00243012 1.1247479e-38 300 242
-0.02308614 0.69300002 -0.00243012 1.1062727e-38 301 242
-0.021871079 0.69300002 -0.00243012 1.069575e-38 302 242
-0.020656019 0.69300002 -0.00243012 1.1156728e-38 303 242
-0.01944096 0.69300002 -0.00243012 1.0508507e-38 304 242
-0.018225901 0.69300002 -0.00243012 8.3876471e-39 305 242
-0.01701084 0.69300002 -0.00243012 3.5027305e-39 306 242
-0.015795778 0.69300002 -0.00243012 5.7154256e-39 307 242
-0.014580719 0.69300002 -0.00243012 6.3604419e-39 308 242
-0.01336566 0.69300002 -0.00243012 5.8072681e-39 309 242
-0.012168133 0.69400001 -0.0024336267 5.4374094e-39 310 242
-0.01095132 0.69400001 -0.0024336267 4.5158132e-39 311 242
-0.0097625591 0.69599998 -0.0024406398 4.4218183e-39 312 242
-0.0085422397 0.69599998 -0.0024406398 4.329264e-39 313 242
-0.00733244 0.69700003 -0.0024441467 4.330343e-39 314 242
-0.006119133 0.69800001 -0.0024476533 4.6069299e-39 315 242
-0.0048953067 0.69800001 -0.0024476533 4.5161762e-39 316 242
-0.0036714801 0.69800001 -0.0024476533 4.5161762e-39 317 242
-0.0024546667 0.69999999 -0.0024546667 4.7909736e-39 318 242
-0.0012290865 0.70099998 -0.0024581731 5.251593e-39 319 242
0 0.70300001 -0.0024651866 6.4522844e-39 320 242
0.0012325933 0.70300001 -0.0024651866 7.0054582e-39 321 242
0.0024686933 0.704 -0.0024686933 7.6522345e-39 322 242
0.0037030398 0.704 -0.0024686933 8.1135714e-39 323 242
0.0049514128 0.70599997 -0.0024757064 9.0319053e-39 324 242
0.0061980332 0.70700002 -0.0024792133 8.7556785e-39 325 242
0.0074376399 0.70700002 -0.0024792133 8.663127e-39 326 242
0.008677247 0.70700002 -0.0024792133 7.5571382e-39 327 242
0.0099729598 0.71100003 -0.0024932399 9.310667e-39 328 242
-0.057747785 0.71600002 -0.00376616 1.4659112e-38 274 243
-0.056492399 0.71600002 -0.00376616 1.4659112e-38 275 243
-0.05508272 0.71399999 -0.0037556398 1.4750227e-38 276 243
-0.053755447 0.713 -0.0037503797 1.4197055e-38 277 243
-0.052505318 0.713 -0.0037503797 1.1617022e-38 278 243
-0.051111419 0.71100003 -0.0037398601 9.6809139e-39 279 243
-0.049794663 0.70999998 -0.0037345996 9.2231811e-39 280 243
-0.048413038 0.708 -0.00372408 9.1306268e-39 281 243
-0.047105055 0.70700002 -0.0037188199 9.038078e-39 282 243
-0.045670826 0.704 -0.0037030398 9.315025e-39 283 243
-0.04437336 0.70300001 -0.0036977797 9.5912574e-39 284 243
-0.043018032 0.70099998 -0.0036872597 7.9317361e-39 285 243
-0.041729331 0.69999999 -0.0036819996 7.6540772e-39 286 243
-0.040386278 0.69800001 -0.0036714801 8.207251e-39 287 243
-0.039106347 0.69700003 -0.00366622 8.2994438e-39 288 243
-0.037884273 0.69700003 -0.00366622 8.5760293e-39 289 243
-0.036662199 0.69700003 -0.00366622 8.6682221e-39 290 243
-0.035440128 0.69700003 -0.00366622 8.9451691e-39 291 243
-0.034218054 0.69700003 -0.00366622 9.4986932e-39 292 243
-0.032948639 0.69599998 -0.0036609597 1.0144063e-38 293 243
-0.031637147 0.69400001 -0.0036504399 1.0511398e-38 294 243
-0.030420333 0.69400001 -0.0036504399 9.6816355e-39 295 243
-0.029203519 0.69400001 -0.0036504399 9.1295352e-39 296 243
-0.027946379 0.69300002 -0.0036451798 1.051247e-38 297 243
-0.02673132 0.69300002 -0.0036451798 1.0973797e-38 298 243
-0.02551626 0.69300002 -0.0036451798 1.069757e-38 299 243
-0.024301201 0.69300002 -0.0036451798 1.1523365e-38 300 243
-0.02308614 0.69300002 -0.0036451798 1.1523365e-38 301 243
-0.021902639 0.69400001 -0.0036504399 1.1246775e-38 302 243
-0.020685827 0.69400001 -0.0036504399 1.1246775e-38 303 243
-0.019469013 0.69400001 -0.0036504399 1.0232273e-38 304 243
-0.0182522 0.69400001 -0.0036504399 8.7571429e-39 305 243
-0.017035386 0.69400001 -0.0036504399 3.5038067e-39 306 243
-0.015818574 0.69400001 -0.0036504399 5.2551635e-39 307 243
-0.01460176 0.69400001 -0.0036504399 5.4374094e-39 308 243
-0.013384946 0.69400001 -0.0036504399 5.529605e-39 309 243
-0.012168133 0.69400001 -0.0036504399 5.0693527e-39 310 243
-0.010982879 0.69599998 -0.0036609597 4.516179e-39 311 243
-0.0097765867 0.69700003 -0.00366622 4.5140112e-39 312 243
-0.0085545136 0.69700003 -0.00366622 4.3296199e-39 313 243
-0.0073429602 0.69800001 -0.0036714801 4.607283e-39 314 243
-0.006119133 0.69800001 -0.0036714801 5.2526524e-39 315 243
-0.0049093333 0.69999999 -0.0036819996 5.3444949e-39 316 243
-0.0036819996 0.69999999 -0.0036819996 4.6069299e-39 317 243
-0.0024546667 0.69999999 -0.0036819996 4.6980535e-39 318 243
-0.0012290865 0.70099998 -0.0036872597 5.9887923e-39 319 243
0 0.70300001 -0.0036977797 7.7430078e-39 320 243
0.0012325933 0.70300001 -0.0036977797 8.6649627e-39 321 243
0.0024686933 0.704 -0.0037030398 9.0362255e-39 322 243
0.0037030398 0.704 -0.0037030398 9.4053668e-39 323 243
0.0049514128 0.70599997 -0.0037135598 1.0322629e-38 324 243
0.0061980332 0.70700002 -0.0037188199 9.5850637e-39 325 243
0.0074376399 0.70700002 -0.0037188199 9.3066817e-39 326 243
0.0087140659 0.70999998 -0.0037345996 7.6468016e-39 327 243
0.0099729598 0.71100003 -0.0037398601 9.2177455e-39 328 243
-0.056492399 0.71600002 -0.0050215465 1.5029337e-38 275 244
-0.055237014 0.71600002 -0.0050215465 1.5028256e-38 276 244
-0.053830836 0.71399999 -0.0050075199 1.4475082e-38 277 244
-0.052578956 0.71399999 -0.0050075199 1.2261315e-38 278 244
-0.051255193 0.713 -0.0050005065 1.0509598e-38 279 244
-0.049864799 0.71100003 -0.0049864799 9.4979702e-39 280 244
-0.048549797 0.70999998 -0.0049794666 9.4979702e-39 281 244
-0.047105055 0.70700002 -0.0049584266 9.038078e-39 282 244
-0.04580057 0.70599997 -0.0049514128 9.4990562e-39 283 244
-0.044436477 0.704 -0.0049373866 9.9582449e-39 284 244
-0.043018032 0.70099998 -0.0049163462 7.929941e-39 285 244
-0.041729331 0.69999999 -0.0049093333 6.6413672e-39 286 244
-0.040386278 0.69800001 -0.0048953067 7.3789322e-39 287 244
-0.039162453 0.69800001 -0.0048953067 7.6537213e-39 288 244
-0.037884273 0.69700003 -0.0048882933 7.6537213e-39 289 244
-0.036662199 0.69700003 -0.0048882933 8.2969285e-39 290 244
-0.035440128 0.69700003 -0.0048882933 9.126329e-39 291 244
-0.034218054 0.69700003 -0.0048882933 9.8645975e-39 292 244
-0.032948639 0.69599998 -0.0048812795 1.0602164e-38 293 244
-0.031728316 0.69599998 -0.0048812795 1.0419918e-38 294 244
-0.030420333 0.69400001 -0.0048672534 9.4983205e-39 295 244
-0.029203519 0.69400001 -0.0048672534 9.1288149e-39 296 244
-0.027986705 0.69400001 -0.0048672534 1.0419554e-38 297 244
-0.02673132 0.69300002 -0.00486024 1.0972722e-38 298 244
-0.02551626 0.69300002 -0.00486024 1.1065276e-38 299 244
-0.024301201 0.69300002 -0.00486024 1.1523731e-38 300 244
-0.02308614 0.69300002 -0.00486024 1.1523731e-38 301 244
-0.021902639 0.69400001 -0.0048672534 1.1339339e-38 302 244
-0.020685827 0.69400001 -0.0048672534 1.1431535e-38 303 244
-0.019469013 0.69400001 -0.0048672534 1.0508501e-38 304 244
-0.0182522 0.69400001 -0.0048672534 8.7571429e-39 305 244
-0.017035386 0.69400001 -0.0048672534 2.7662402e-39 306 244
-0.015818574 0.69400001 -0.0048672534 3.5960023e-39 307 244
-0.01460176 0.69400001 -0.0048672534 4.0541218e-39 308 244
-0.013384946 0.69400001 -0.0048672534 4.6076557e-39 309 244
-0.0122032 0.69599998 -0.0048812795 4.6101767e-39 310 244
-0.010982879 0.69599998 -0.0048812795 3.8726116e-39 311 244
-0.0097765867 0.69700003 -0.0048882933 4.330343e-39 312 244
-0.0085545136 0.69700003 -0.0048882933 4.6991255e-39 313 244
-0.0073429602 0.69800001 -0.0048953067 5.3477179e-39 314 244
-0.0061366665 0.69999999 -0.0049093333 6.6384567e-39 315 244
-0.0049093333 0.69999999 -0.0049093333 8.0163535e-39 316 244
-0.0036819996 0.69999999 -0.0049093333 7.9241578e-39 317 244
-0.0024581731 0.70099998 -0.0049163462 7.926676e-39 318 244
-0.0012290865 0.70099998 -0.0049163462 8.7564366e-39 319 244
0 0.70300001 -0.0049303733 1.004608e-38 320 244
0.0012325933 0.70300001 -0.0049303733 1.004608e-38 321 244
0.0024686933 0.704 -0.0049373866 1.0139329e-38 322 244
0.0037030398 0.704 -0.0049373866 1.0139329e-38 323 244
0.0049514128 0.70599997 -0.0049514128 9.8623736e-39 324 244
0.0061980332 0.70700002 -0.0049584266 9.3091998e-39 325 244
0.0074376399 0.70700002 -0.0049584266 9.3063314e-39 326 244
0.0087140659 0.70999998 -0.0049794666 8.0155926e-39 327 244
0.0099589331 0.70999998 -0.0049794666 9.860601e-39 328 244
0.012553867 0.71600002 -0.0050215465 1.6221026e-38 330 244
-0.056571297 0.71700001 -0.0062857 1.5949864e-38 275 245
-0.055237014 0.71600002 -0.0062769335 1.5948062e-38 276 245
-0.053981625 0.71600002 -0.0062769335 1.5026465e-38 277 245
-0.052578956 0.71399999 -0.0062593995 1.2813769e-38 278 245
-0.05132708 0.71399999 -0.0062593995 1.1615227e-38 279 245
-0.050005067 0.713 -0.0062506334 9.3139418e-39 280 245
-0.048549797 0.70999998 -0.0062243328 8.9455195e-39 281 245
-0.047171678 0.708 -0.0062067998 8.9458852e-39 282 245
-0.04580057 0.70599997 -0.0061892662 9.3150278e-39 283 245
-0.044436477 0.704 -0.0061717331 9.5909043e-39 284 245
-0.043140765 0.70300001 -0.0061629666 7.7469917e-39 285 245
-0.041788943 0.70099998 -0.0061454331 6.7324908e-39 286 245
-0.040502001 0.69999999 -0.0061366665 7.1012719e-39 287 245
-0.039162453 0.69800001 -0.006119133 7.284587e-39 288 245
-0.037938625 0.69800001 -0.006119133 7.1001971e-39 289 245
-0.0367148 0.69800001 -0.006119133 7.2856646e-39 290 245
-0.035440128 0.69700003 -0.0061103669 8.2072608e-39 291 245
-0.034218054 0.69700003 -0.0061103669 9.8663996e-39 292 245
-0.032948639 0.69599998 -0.0061015999 1.069616e-38 293 245
-0.031728316 0.69599998 -0.0061015999 1.0695429e-38 294 245
-0.030420333 0.69400001 -0.0060840664 9.7738326e-39 295 245
-0.029203519 0.69400001 -0.0060840664 9.4036081e-39 296 245
-0.027986705 0.69400001 -0.0060840664 1.04174e-38 297 245
-0.02673132 0.69300002 -0.0060753003 1.0605737e-38 298 245
-0.02551626 0.69300002 -0.0060753003 1.0697933e-38 299 245
-0.024301201 0.69300002 -0.0060753003 1.1431535e-38 300 245
-0.02308614 0.69300002 -0.0060753003 1.1431535e-38 301 245
-0.021902639 0.69400001 -0.0060840664 1.1339337e-38 302 245
-0.020745439 0.69599998 -0.0061015999 1.1523728e-38 303 245
-0.019525118 0.69599998 -0.0061015999 1.0785797e-38 304 245
-0.018304799 0.69599998 -0.0061015999 8.7574932e-39 305 245
-0.017084479 0.69599998 -0.0061015999 5.0678884e-39 306 245
-0.015864158 0.69599998 -0.0061015999 3.9615408e-39 307 245
-0.014643839 0.69599998 -0.0061015999 3.8697404e-39 308 245
-0.013423519 0.69599998 -0.0061015999 4.1459671e-39 309 245
-0.0122032 0.69599998 -0.0061015999 5.0682779e-39 310 245
-0.01099866 0.69700003 -0.0061103669 5.0682779e-39 311 245
-0.0097765867 0.69700003 -0.0061103669 6.0798921e-39 312 245
-0.0085667865 0.69800001 -0.006119133 7.094044e-39 313 245
-0.0073429602 0.69800001 -0.006119133 7.7422805e-39 314 245
-0.0061366665 0.69999999 -0.0061366665 8.6642382e-39 315 245
-0.0049093333 0.69999999 -0.0061366665 9.6773013e-39 316 245
-0.0036819996 0.69999999 -0.0061366665 1.0046082e-38 317 245
-0.0024581731 0.70099998 -0.0061454331 9.9560308e-39 318 245
-0.0012290865 0.70099998 -0.0061454331 1.0048585e-38 319 245
0 0.70300001 -0.0061629666 1.0324078e-38 320 245
0.0012325933 0.70300001 -0.0061629666 1.0047131e-38 321 245
0.0024686933 0.704 -0.0061717331 9.8638184e-39 322 245
0.0037030398 0.704 -0.0061717331 9.5872315e-39 323 245
0.0049514128 0.70599997 -0.0061892662 9.125903e-39 324 245
0.0061980332 0.70700002 -0.0061980332 8.5727292e-39 325 245
0.0074376399 0.70700002 -0.0061980332 8.6631424e-39 326 245
0.0087877065 0.71600002 -0.0062769335 8.5709468e-39 327 245
0.010043093 0.71600002 -0.0062769335 1.0413775e-38 328 245
0.01129848 0.71600002 -0.0062769335 1.5115752e-38 329 245
0.012553867 0.71600002 -0.0062769335 1.6587638e-38 330 245
-0.056729097 0.71899998 -0.0075638802 1.5578187e-38 275 246
-0.055237014 0.71600002 -0.00753232 1.5391278e-38 276 246
-0.053981625 0.71600002 -0.00753232 1.4653713e-38 277 246
-0.052726239 0.71600002 -0.00753232 1.3181108e-38 278 246
-0.05132708 0.71399999 -0.0075112795 1.2351346e-38 279 246
-0.050005067 0.713 -0.0075007593 9.2210273e-39 280 246
-0.048549797 0.70999998 -0.0074691991 8.7600492e-39 281 246
-0.047171678 0.708 -0.0074481601 8.8526148e-39 282 246
-0.045865446 0.70700002 -0.0074376399 9.0373648e-39 283 246
-0.044436477 0.704 -0.0074060797 9.222842e-39 284 246
-0.043202132 0.704 -0.0074060797 7.4714838e-39 285 246
-0.041788943 0.70099998 -0.0073745195 7.4668147e-39 286 246
-0.040502001 0.69999999 -0.0073639993 7.5590103e-39 287 246
-0.039162453 0.69800001 -0.0073429602 6.9168779e-39 288 246
-0.037938625 0.69800001 -0.0073429602 7.1012691e-39 289 246
-0.0367148 0.69800001 -0.0073429602 7.8373866e-39 290 246
-0.035490975 0.69800001 -0.0073429602 8.667506e-39 291 246
-0.034218054 0.69700003 -0.00733244 1.0234453e-38 292 246
-0.03299598 0.69700003 -0.00733244 1.0972377e-38 293 246
-0.03177391 0.69700003 -0.00733244 1.0787261e-38 294 246
-0.030507999 0.69599998 -0.0073219193 9.9574994e-39 295 246
-0.029287677 0.69599998 -0.0073219193 9.3114111e-39 296 246
-0.028067358 0.69599998 -0.0073219193 1.060215e-38 297 246
-0.026769891 0.69400001 -0.0073008798 1.1156037e-38 298 246
-0.025553079 0.69400001 -0.0073008798 1.1156037e-38 299 246
-0.024336265 0.69400001 -0.0073008798 1.1338983e-38 300 246
-0.023119451 0.69400001 -0.0073008798 1.1338983e-38 301 246
-0.021965759 0.69599998 -0.0073219193 1.1156024e-38 302 246
-0.020745439 0.69599998 -0.0073219193 1.1063829e-38 303 246
-0.019525118 0.69599998 -0.0073219193 1.1062029e-38 304 246
-0.018304799 0.69599998 -0.0073219193 1.0047879e-38 305 246
-0.017084479 0.69599998 -0.0073219193 8.8479064e-39 306 246
-0.015864158 0.69599998 -0.0073219193 9.0322977e-39 307 246
-0.014643839 0.69599998 -0.0073219193 9.0337466e-39 308 246
-0.013423519 0.69599998 -0.0073219193 9.3103321e-39 309 246
-0.012220734 0.69700003 -0.00733244 9.7705872e-39 310 246
-0.01099866 0.69700003 -0.00733244 9.8627842e-39 311 246
-0.0097906133 0.69800001 -0.0073429602 1.0781494e-38 312 246
-0.0085667865 0.69800001 -0.0073429602 1.0966244e-38 313 246
-0.0073429602 0.69800001 -0.0073429602 1.0413069e-38 314 246
-0.0061366665 0.69999999 -0.0073639993 9.7676991e-39 315 246
-0.0049093333 0.69999999 -0.0073639993 9.4007074e-39 316 246
-0.0036819996 0.69999999 -0.0073639993 9.6776545e-39 317 246
-0.0024581731 0.70099998 -0.0073745195 9.8631177e-39 318 246
-0.0012325933 0.70300001 -0.0073955595 9.9553147e-39 319 246
0 0.70300001 -0.0073955595 9.8623918e-39 320 246
0.0012325933 0.70300001 -0.0073955595 9.678002e-39 321 246
0.0024686933 0.704 -0.0074060797 9.6772775e-39 322 246
0.0037030398 0.704 -0.0074060797 9.2163008e-39 323 246
0.0049584266 0.70700002 -0.0074376399 8.3872632e-39 324 246
0.0062243328 0.70999998 -0.0074691991 8.3872632e-39 325 246
0.0074797203 0.71100003 -0.0074797203 8.3887065e-39 326 246
0.0087877065 0.71600002 -0.00753232 8.2043166e-39 327 246
0.01001504 0.71399999 -0.0075112795 1.078255e-38 328 246
0.011266919 0.71399999 -0.0075112795 1.5300136e-38 329 246
0.012518799 0.71399999 -0.0075112795 1.6955695e-38 330 246
-0.055314157 0.71700001 -0.0087999795 1.5565207e-38 276 247
-0.054057021 0.71700001 -0.0087999795 1.5380457e-38 277 247
-0.052726239 0.71600002 -0.0087877065 1.3270054e-38 278 247
-0.05132708 0.71399999 -0.0087631596 1.290163e-38 279 247
-0.050005067 0.713 -0.0087508867 9.313223e-39 280 247
-0.048549797 0.70999998 -0.0087140659 8.7600492e-39 281 247
-0.047171678 0.708 -0.008689519 8.4856287e-39 282 247
-0.045930319 0.708 -0.008689519 8.762217e-39 283 247
-0.044625837 0.70700002 -0.008677247 8.9480502e-39 284 247
-0.043202132 0.704 -0.0086404262 7.2888876e-39 285 247
-0.041967787 0.704 -0.0086404262 6.732844e-39 286 247
-0.040559858 0.70099998 -0.0086036054 7.0090707e-39 287 247
-0.039274666 0.69999999 -0.0085913334 7.0083546e-39 288 247
-0.037938625 0.69800001 -0.0085667865 7.1005503e-39 289 247
-0.0367148 0.69800001 -0.0085667865 7.6540744e-39 290 247
-0.035490975 0.69800001 -0.0085667865 8.5760293e-39 291 247
-0.034267146 0.69800001 -0.0085667865 1.0233737e-38 292 247
-0.03299598 0.69700003 -0.0085545136 1.1155334e-38 293 247
-0.03177391 0.69700003 -0.0085545136 1.0787264e-38 294 247
-0.030551834 0.69700003 -0.0085545136 1.004934e-38 295 247
-0.02932976 0.69700003 -0.0085545136 9.6791188e-39 296 247
-0.028067358 0.69599998 -0.0085422397 1.0692911e-38 297 247
-0.026847038 0.69599998 -0.0085422397 1.1155321e-38 298 247
-0.025553079 0.69400001 -0.0085176928 1.1063125e-38 299 247
-0.024336265 0.69400001 -0.0085176928 1.0879807e-38 300 247
-0.023119451 0.69400001 -0.0085176928 1.0879807e-38 301 247
-0.02199732 0.69700003 -0.0085545136 1.097128e-38 302 247
-0.020775247 0.69700003 -0.0085545136 1.0879084e-38 303 247
-0.019553173 0.69700003 -0.0085545136 1.078581e-38 304 247
-0.018304799 0.69599998 -0.0085422397 1.078581e-38 305 247
-0.017084479 0.69599998 -0.0085422397 9.9542582e-39 306 247
-0.015886955 0.69700003 -0.0085545136 1.0323039e-38 307 247
-0.01466488 0.69700003 -0.0085545136 1.0692901e-38 308 247
-0.013442807 0.69700003 -0.0085545136 1.0785096e-38 309 247
-0.012220734 0.69700003 -0.0085545136 1.1060236e-38 310 247
-0.01101444 0.69800001 -0.0085667865 1.096804e-38 311 247
-0.0097906133 0.69800001 -0.0085667865 1.1335021e-38 312 247
-0.0085913334 0.69999999 -0.0085913334 1.050562e-38 313 247
-0.0073639993 0.69999999 -0.0085913334 9.4007102e-39 314 247
-0.0061454331 0.70099998 -0.0086036054 8.5709496e-39 315 247
-0.0049163462 0.70099998 -0.0086036054 8.3880031e-39 316 247
-0.0036872597 0.70099998 -0.0086036054 8.4801987e-39 317 247
-0.0024581731 0.70099998 -0.0086036054 8.756787e-39 318 247
-0.0012325933 0.70300001 -0.0086281532 9.1255681e-39 319 247
0 0.70300001 -0.0086281532 9.033357e-39 320 247
0.0012325933 0.70300001 -0.0086281532 9.1255527e-39 321 247
0.0024686933 0.704 -0.0086404262 8.9429565e-39 322 247
0.0037030398 0.704 -0.0086404262 8.6660109e-39 323 247
0.0049584266 0.70700002 -0.008677247 8.3887065e-39 324 247
0.0062243328 0.70999998 -0.0087140659 8.4809021e-39 325 247
0.0074797203 0.71100003 -0.0087263398 7.9320486e-39 326 247
0.0087631596 0.71399999 -0.0087631596 8.1164398e-39 327 247
0.01001504 0.71399999 -0.0087631596 1.0966225e-38 328 247
0.011266919 0.71399999 -0.0087631596 1.5206866e-38 329 247
0.012518799 0.71399999 -0.0087631596 1.6494718e-38 330 247
-0.055314157 0.71700001 -0.01005712 1.4902549e-38 276 248
-0.053981625 0.71600002 -0.010043093 1.5916342e-38 277 248
-0.052726239 0.71600002 -0.010043093 1.2712201e-38 278 248
-0.05132708 0.71399999 -0.01001504 1.3357571e-38 279 248
-0.050005067 0.713 -0.010001013 9.4965352e-39 280 248
-0.048549797 0.70999998 -0.0099589331 9.1281128e-39 281 248
-0.047304932 0.70999998 -0.0099589331 8.209046e-39 282 248
-0.045930319 0.708 -0.0099308798 8.4852728e-39 283 248
-0.044625837 0.70700002 -0.0099168532 8.6696682e-39 284 248
-0.043202132 0.704 -0.0098747732 7.5636794e-39 285 248
-0.041967787 0.704 -0.0098747732 7.2842157e-39 286 248
-0.040559858 0.70099998 -0.0098326923 7.4689657e-39 287 248
-0.039330769 0.70099998 -0.0098326923 7.2849345e-39 288 248
-0.038047329 0.69999999 -0.0098186666 7.2849345e-39 289 248
-0.0367148 0.69800001 -0.0097906133 7.9292165e-39 290 248
-0.035490975 0.69800001 -0.0097906133 8.7589758e-39 291 248
-0.034267146 0.69800001 -0.0097906133 1.0509598e-38 292 248
-0.03299598 0.69700003 -0.0097765867 1.1247163e-38 293 248
-0.03177391 0.69700003 -0.0097765867 1.0510317e-38 294 248
-0.030551834 0.69700003 -0.0097765867 9.8649478e-39 295 248
-0.02932976 0.69700003 -0.0097765867 9.4961695e-39 296 248
-0.028107686 0.69700003 -0.0097765867 1.0049343e-38 297 248
-0.026847038 0.69599998 -0.0097625591 1.0144409e-38 298 248
-0.025626717 0.69599998 -0.0097625591 1.0144409e-38 299 248
-0.0244064 0.69599998 -0.0097625591 1.0602866e-38 300 248
-0.023186078 0.69599998 -0.0097625591 1.0602866e-38 301 248
-0.02199732 0.69700003 -0.0097765867 1.0785815e-38 302 248
-0.020775247 0.69700003 -0.0097765867 1.0693261e-38 303 248
-0.019553173 0.69700003 -0.0097765867 1.0418106e-38 304 248
-0.0183574 0.69800001 -0.0097906133 9.7727368e-39 305 248
-0.017133573 0.69800001 -0.0097906133 9.1266513e-39 306 248
-0.015909746 0.69800001 -0.0097906133 9.3106824e-39 307 248
-0.01468592 0.69800001 -0.0097906133 1.0323392e-38 308 248
-0.013462093 0.69800001 -0.0097906133 1.0599981e-38 309 248
-0.012238266 0.69800001 -0.0097906133 1.0784002e-38 310 248
-0.01101444 0.69800001 -0.0097906133 1.0599251e-38 311 248
-0.0098186666 0.69999999 -0.0098186666 9.8613325e-39 312 248
-0.0085913334 0.69999999 -0.0098186666 8.2943669e-39 313 248
-0.0073639993 0.69999999 -0.0098186666 6.91288e-39 314 248
-0.0061454331 0.70099998 -0.0098326923 6.72813e-39 315 248
-0.0049163462 0.70099998 -0.0098326923 7.8319622e-39 316 248
-0.0036872597 0.70099998 -0.0098326923 8.0163535e-39 317 248
-0.0024581731 0.70099998 -0.0098326923 7.3727833e-39 318 248
-0.0012325933 0.70300001 -0.0098607466 7.3727833e-39 319 248
0 0.70300001 -0.0098607466 7.6486443e-39 320 248
0.0012325933 0.70300001 -0.0098607466 8.8471875e-39 321 248
0.0024686933 0.704 -0.0098747732 9.1259184e-39 322 248
0.0037030398 0.704 -0.0098747732 8.757496e-39 323 248
0.0049584266 0.70700002 -0.0099168532 7.8366103e-39 324 248
0.0062243328 0.70999998 -0.0099589331 8.2053914e-39 325 248
0.00753232 0.71600002 -0.010043093 8.9429593e-39 326 248
0.0087631596 0.71399999 -0.01001504 9.0351563e-39 327 248
0.01001504 0.71399999 -0.01001504 1.1242089e-38 328 248
0.011266919 0.71399999 -0.01001504 1.5206501e-38 329 248
0.012553867 0.71600002 -0.010043093 1.6770584e-38 330 248
0.013809253 0.71600002 -0.010043093 1.6770584e-38 331 248
-0.055314157 0.71700001 -0.01131426 1.526881e-38 276 249
-0.053981625 0.71600002 -0.01129848 1.6282963e-38 277 249
-0.052726239 0.71600002 -0.01129848 1.2525289e-38 278 249
-0.05132708 0.71399999 -0.011266919 1.2433092e-38 279 249
-0.050005067 0.713 -0.011251139 8.7600492e-39 280 249
-0.048549797 0.70999998 -0.011203799 8.7600492e-39 281 249
-0.047304932 0.70999998 -0.011203799 8.0246548e-39 282 249
-0.045930319 0.708 -0.01117224 8.3930772e-39 283 249
-0.044625837 0.70700002 -0.011156459 8.4867119e-39 284 249
-0.043324865 0.70599997 -0.011140679 7.8413425e-39 285 249
-0.041967787 0.704 -0.011109119 7.74627e-39 286 249
-0.040675577 0.70300001 -0.01109334 7.6540744e-39 287 249
-0.039330769 0.70099998 -0.011061779 7.4696817e-39 288 249
-0.038047329 0.69999999 -0.011045999 7.3774861e-39 289 249
-0.036819998 0.69999999 -0.011045999 7.9299354e-39 290 249
-0.035490975 0.69800001 -0.01101444 8.6675004e-39 291 249
-0.034267146 0.69800001 -0.01101444 1.0324851e-38 292 249
-0.033043321 0.69800001 -0.01101444 1.1062775e-38 293 249
-0.031819493 0.69800001 -0.01101444 1.0326286e-38 294 249
-0.030551834 0.69700003 -0.01099866 9.9571448e-39 295 249
-0.02932976 0.69700003 -0.01099866 9.3135761e-39 296 249
-0.028107686 0.69700003 -0.01099866 9.6823586e-39 297 249
-0.026885614 0.69700003 -0.01099866 9.5919581e-39 298 249
-0.025626717 0.69599998 -0.010982879 9.7763493e-39 299 249
-0.0244064 0.69599998 -0.010982879 1.0051497e-38 300 249
-0.023219392 0.69700003 -0.01099866 1.0051497e-38 301 249
-0.02202888 0.69800001 -0.01101444 1.0417756e-38 302 249
-0.020805053 0.69800001 -0.01101444 1.032556e-38 303 249
-0.019581227 0.69800001 -0.01101444 1.0140446e-38 304 249
-0.0183574 0.69800001 -0.01101444 9.6794691e-39 305 249
-0.017133573 0.69800001 -0.01101444 7.6508122e-39 306 249
-0.015909746 0.69800001 -0.01101444 8.0195933e-39 307 249
-0.014727999 0.69999999 -0.011045999 8.5688084e-39 308 249
-0.013462093 0.69800001 -0.01101444 8.7528395e-39 309 249
-0.012238266 0.69800001 -0.01101444 8.6624263e-39 310 249
-0.011045999 0.69999999 -0.011045999 8.3854807e-39 311 249
-0.0098186666 0.69999999 -0.011045999 8.2940166e-39 312 249
-0.0086036054 0.70099998 -0.011061779 7.3717001e-39 313 249
-0.0073745195 0.70099998 -0.011061779 7.0954888e-39 314 249
-0.0061454331 0.70099998 -0.011061779 7.3720771e-39 315 249
-0.0049163462 0.70099998 -0.011061779 7.0072434e-39 316 249
-0.0036872597 0.70099998 -0.011061779 7.1912745e-39 317 249
-0.0024581731 0.70099998 -0.011061779 7.4674999e-39 318 249
-0.0012325933 0.70300001 -0.01109334 7.4674999e-39 319 249
0 0.70300001 -0.01109334 7.6515282e-39 320 249
0.0012343467 0.704 -0.011109119 8.0206695e-39 321 249
0.0024686933 0.704 -0.011109119 8.3898023e-39 322 249
0.0037030398 0.704 -0.011109119 7.0990635e-39 323 249
0.0049584266 0.70700002 -0.011156459 4.9843121e-39 324 249
0.0062506334 0.713 -0.011251139 6.9204204e-39 325 249
0.00753232 0.71600002 -0.01129848 1.0136475e-38 326 249
0.0087999795 0.71700001 -0.01131426 1.0689648e-38 327 249
0.010043093 0.71600002 -0.01129848 1.1794541e-38 328 249
0.01129848 0.71600002 -0.01129848 1.5389811e-38 329 249
0.012553867 0.71600002 -0.01129848 1.6679105e-38 330 249
0.013809253 0.71600002 -0.01129848 1.6679105e-38 331 249
-0.056965802 0.722 -0.012659066 1.6000239e-38 275 250
-0.055699892 0.722 -0.012659066 1.5270975e-38 276 250
-0.054057021 0.71700001 -0.0125714 1.619329e-38 277 250
-0.052726239 0.71600002 -0.012553867 1.2339822e-38 278 250
-0.05132708 0.71399999 -0.012518799 1.1417865e-38 279 250
-0.050005067 0.713 -0.012501267 8.3901905e-39 280 250
-0.048549797 0.70999998 -0.012448666 8.758973e-39 281 250
-0.047304932 0.70999998 -0.012448666 7.7495098e-39 282 250
-0.045930319 0.708 -0.0124136 8.1186511e-39 283 250
-0.044625837 0.70700002 -0.012396066 8.1193713e-39 284 250
-0.043324865 0.70599997 -0.012378532 7.6583932e-39 285 250
-0.041967787 0.704 -0.012343466 8.1150511e-39 286 250
-0.040675577 0.70300001 -0.012325933 7.74627e-39 287 250
-0.039330769 0.70099998 -0.012290866 7.6551464e-39 288 250
-0.038101684 0.70099998 -0.012290866 7.6551464e-39 289 250
-0.036819998 0.69999999 -0.012273333 8.1146854e-39 290 250
-0.035490975 0.69800001 -0.012238266 8.5753048e-39 291 250
-0.034267146 0.69800001 -0.012238266 9.7734823e-39 292 250
-0.033043321 0.69800001 -0.012238266 1.0787274e-38 293 250
-0.031819493 0.69800001 -0.012238266 1.0052216e-38 294 250
-0.030595668 0.69800001 -0.012238266 9.6834348e-39 295 250
-0.02932976 0.69700003 -0.012220734 9.0405863e-39 296 250
-0.028107686 0.69700003 -0.012220734 9.132782e-39 297 250
-0.026885614 0.69700003 -0.012220734 9.132782e-39 298 250
-0.025663542 0.69700003 -0.012220734 9.132782e-39 299 250
-0.024441468 0.69700003 -0.012220734 9.5908833e-39 300 250
-0.023219392 0.69700003 -0.012220734 9.5908833e-39 301 250
-0.02202888 0.69800001 -0.012238266 9.7738326e-39 302 250
-0.020805053 0.69800001 -0.012238266 9.6816355e-39 303 250
-0.019581227 0.69800001 -0.012238266 9.4965198e-39 304 250
-0.0183574 0.69800001 -0.012238266 9.2199315e-39 305 250
-0.017133573 0.69800001 -0.012238266 6.639184e-39 306 250
-0.015909746 0.69800001 -0.012238266 6.2700413e-39 307 250
-0.01468592 0.69800001 -0.012238266 6.4483243e-39 308 250
-0.013462093 0.69800001 -0.012238266 6.1717374e-39 309 250
-0.012238266 0.69800001 -0.012238266 5.805466e-39 310 250
-0.011045999 0.69999999 -0.012273333 5.9902174e-39 311 250
-0.0098186666 0.69999999 -0.012273333 6.5433912e-39 312 250
-0.0086036054 0.70099998 -0.012290866 6.7277825e-39 313 250
-0.0073745195 0.70099998 -0.012290866 7.4653447e-39 314 250
-0.0061454331 0.70099998 -0.012290866 7.9263229e-39 315 250
-0.0049163462 0.70099998 -0.012290866 7.6536792e-39 316 250
-0.0036872597 0.70099998 -0.012290866 7.8384292e-39 317 250
-0.0024651866 0.70300001 -0.012325933 7.9316982e-39 318 250
-0.0012325933 0.70300001 -0.012325933 7.8391439e-39 319 250
0 0.704 -0.012343466 7.7462308e-39 320 250
0.0012343467 0.704 -0.012343466 7.6540351e-39 321 250
0.0024686933 0.704 -0.012343466 7.7422833e-39 322 250
0.0037030398 0.704 -0.012343466 5.8061751e-39 323 250
0.0049584266 0.70700002 -0.012396066 2.9538671e-39 324 250
0.0062506334 0.713 -0.012501267 6.2732685e-39 325 250
0.00753232 0.71600002 -0.012553867 1.0688211e-38 326 250
0.0087999795 0.71700001 -0.0125714 1.1702361e-38 327 250
0.01005712 0.71700001 -0.0125714 1.2532825e-38 328 250
0.01131426 0.71700001 -0.0125714 1.5206499e-38 329 250
0.0125714 0.71700001 -0.0125714 1.6679105e-38 330 250
-0.056965802 0.722 -0.013924973 1.628007e-38 275 251
-0.055699892 0.722 -0.013924973 1.5093428e-38 276 251
-0.054283202 0.72000003 -0.0138864 1.56466e-38 277 251
-0.05294716 0.71899998 -0.013867113 1.2709683e-38 278 251
-0.051542737 0.71700001 -0.013828539 1.1787367e-38 279 251
-0.050215468 0.71600002 -0.013809253 8.7600492e-39 280 251
-0.048618179 0.71100003 -0.01371282 8.5756579e-39 281 251
-0.047304932 0.70999998 -0.013693533 7.5661976e-39 282 251
-0.045930319 0.708 -0.013654959 7.8424243e-39 283 251
-0.044625837 0.70700002 -0.013635674 7.8424271e-39 284 251
-0.043324865 0.70599997 -0.013616386 7.473646e-39 285 251
-0.041967787 0.704 -0.013577812 8.1128973e-39 286 251
-0.040675577 0.70300001 -0.013558527 7.8366706e-39 287 251
-0.039442986 0.70300001 -0.013558527 7.6540744e-39 288 251
-0.038101684 0.70099998 -0.013519952 7.74627e-39 289 251
-0.036872596 0.70099998 -0.013519952 8.2065251e-39 290 251
-0.035592664 0.69999999 -0.013500666 8.483112e-39 291 251
-0.034365334 0.69999999 -0.013500666 9.497973e-39 292 251
-0.033043321 0.69800001 -0.013462093 1.0419571e-38 293 251
-0.031819493 0.69800001 -0.013462093 9.777071e-39 294 251
-0.030595668 0.69800001 -0.013462093 9.4082899e-39 295 251
-0.029371841 0.69800001 -0.013462093 8.7654442e-39 296 251
-0.028107686 0.69700003 -0.013442807 8.6728884e-39 297 251
-0.026885614 0.69700003 -0.013442807 8.9476803e-39 298 251
-0.025663542 0.69700003 -0.013442807 8.9476803e-39 299 251
-0.024441468 0.69700003 -0.013442807 9.1313484e-39 300 251
-0.023219392 0.69700003 -0.013442807 9.1313484e-39 301 251
-0.02202888 0.69800001 -0.013462093 9.3135789e-39 302 251
-0.020805053 0.69800001 -0.013462093 9.3135789e-39 303 251
-0.019581227 0.69800001 -0.013462093 9.1284632e-39 304 251
-0.0183574 0.69800001 -0.013462093 8.5752894e-39 305 251
-0.017133573 0.69800001 -0.013462093 7.2852722e-39 306 251
-0.015909746 0.69800001 -0.013462093 6.4555116e-39 307 251
-0.01468592 0.69800001 -0.013462093 6.8232179e-39 308 251
-0.013462093 0.69800001 -0.013462093 6.9154135e-39 309 251
-0.012238266 0.69800001 -0.013462093 7.0086811e-39 310 251
-0.011045999 0.69999999 -0.013500666 7.1930738e-39 311 251
-0.0098326923 0.70099998 -0.013519952 7.5611305e-39 312 251
-0.0086036054 0.70099998 -0.013519952 7.5611305e-39 313 251
-0.0073955595 0.70300001 -0.013558527 8.0217415e-39 314 251
-0.0061629666 0.70300001 -0.013558527 8.1139385e-39 315 251
-0.0049303733 0.70300001 -0.013558527 8.0235379e-39 316 251
-0.0036977797 0.70300001 -0.013558527 8.1160923e-39 317 251
-0.0024686933 0.704 -0.013577812 8.1160923e-39 318 251
-0.0012343467 0.704 -0.013577812 8.1160923e-39 319 251
0 0.704 -0.013577812 7.8387935e-39 320 251
0.0012343467 0.704 -0.013577812 6.4558591e-39 321 251
0.0024686933 0.704 -0.013577812 4.6094438e-39 322 251
0.0037135598 0.70599997 -0.013616386 4.0562714e-39 323 251
0.0049864799 0.71100003 -0.01371282 3.4094559e-39 324 251
0.0062593995 0.71399999 -0.01377068 6.2678791e-39 325 251
0.0075428397 0.71700001 -0.013828539 9.7687683e-39 326 251
0.0087999795 0.71700001 -0.013828539 1.1428648e-38 327 251
0.010085173 0.71899998 -0.013867113 1.3178195e-38 328 251
0.01134582 0.71899998 -0.013867113 1.5482727e-38 329 251
0.012606465 0.71899998 -0.013867113 1.6495074e-38 330 251
0.013867113 0.71899998 -0.013867113 1.6402877e-38 331 251
-0.057044696 0.72299999 -0.015211919 1.5922812e-38 275 252
-0.055777039 0.72299999 -0.015211919 1.5285022e-38 276 252
-0.054433983 0.722 -0.015190879 1.5561607e-38 277 252
-0.053020801 0.72000003 -0.0151488 1.3448683e-38 278 252
-0.051542737 0.71700001 -0.015085679 1.2527087e-38 279 252
-0.050215468 0.71600002 -0.01506464 9.5872861e-39 280 252
-0.048754938 0.713 -0.015001519 8.9419167e-39 281 252
-0.047504812 0.713 -0.015001519 7.5640424e-39 282 252
-0.046060063 0.70999998 -0.014938398 7.7487937e-39 283 252
-0.044688959 0.708 -0.01489632 7.5647654e-39 284 252
-0.043324865 0.70599997 -0.014854239 7.2885373e-39 285 252
-0.041967787 0.704 -0.014812159 7.8373922e-39 286 252
-0.040733438 0.704 -0.014812159 7.4686097e-39 287 252
-0.039442986 0.70300001 -0.014791119 7.6526423e-39 288 252
-0.038210396 0.70300001 -0.014791119 7.7448379e-39 289 252
-0.036872596 0.70099998 -0.014749039 7.7469917e-39 290 252
-0.035643511 0.70099998 -0.014749039 8.3923611e-39 291 252
-0.034365334 0.69999999 -0.014727999 9.3150278e-39 292 252
-0.033137999 0.69999999 -0.014727999 9.7756459e-39 293 252
-0.031910665 0.69999999 -0.014727999 9.4086584e-39 294 252
-0.030595668 0.69800001 -0.01468592 9.040236e-39 295 252
-0.029371841 0.69800001 -0.01468592 8.5803425e-39 296 252
-0.028148014 0.69800001 -0.01468592 8.3041157e-39 297 252
-0.026924185 0.69800001 -0.01468592 8.3041157e-39 298 252
-0.025700359 0.69800001 -0.01468592 8.3041157e-39 299 252
-0.024476532 0.69800001 -0.01468592 8.4874252e-39 300 252
-0.023252707 0.69800001 -0.01468592 8.4874252e-39 301 252
-0.02202888 0.69800001 -0.01468592 8.6703745e-39 302 252
-0.020805053 0.69800001 -0.01468592 8.6703745e-39 303 252
-0.019581227 0.69800001 -0.01468592 8.4856105e-39 304 252
-0.0183574 0.69800001 -0.01468592 8.2090236e-39 305 252
-0.017182667 0.69999999 -0.014727999 7.9313451e-39 306 252
-0.015955333 0.69999999 -0.014727999 7.6543981e-39 307 252
-0.014727999 0.69999999 -0.014727999 7.5643576e-39 308 252
-0.013500666 0.69999999 -0.014727999 7.8409445e-39 309 252
-0.012273333 0.69999999 -0.014727999 8.3933966e-39 310 252
-0.011061779 0.70099998 -0.014749039 8.301201e-39 311 252
-0.0098607466 0.70300001 -0.014791119 8.3923162e-39 312 252
-0.0086281532 0.70300001 -0.014791119 8.2082851e-39 313 252
-0.0073955595 0.70300001 -0.014791119 8.1160923e-39 314 252
-0.0061629666 0.70300001 -0.014791119 8.1160923e-39 315 252
-0.0049303733 0.70300001 -0.014791119 8.1157392e-39 316 252
-0.0036977797 0.70300001 -0.014791119 8.1157392e-39 317 252
-0.0024686933 0.704 -0.014812159 8.0235435e-39 318 252
-0.0012343467 0.704 -0.014812159 8.0235435e-39 319 252
0 0.704 -0.014812159 6.8246472e-39 320 252
0.0012343467 0.704 -0.014812159 5.4417128e-39 321 252
0.0024757064 0.70599997 -0.014854239 3.3212259e-39 322 252
0.00372408 0.708 -0.01489632 3.5056172e-39 323 252
0.0050005065 0.713 -0.015001519 4.2388508e-39 324 252
0.0062593995 0.71399999 -0.015022559 6.912524e-39 325 252
0.0075428397 0.71700001 -0.015085679 9.6744077e-39 326 252
0.0087999795 0.71700001 -0.015085679 1.1887103e-38 327 252
0.010085173 0.71899998 -0.01512776 1.3085996e-38 328 252
0.01134582 0.71899998 -0.01512776 1.5299052e-38 329 252
0.012606465 0.71899998 -0.01512776 1.6310325e-38 330 252
0.013867113 0.71899998 -0.01512776 1.6402522e-38 331 252
-0.057044696 0.72299999 -0.01647958 1.6860615e-38 275 253
-0.055777039 0.72299999 -0.01647958 1.6492565e-38 276 253
-0.054433983 0.722 -0.016456785 1.5662805e-38 277 253
-0.053020801 0.72000003 -0.0164112 1.4188047e-38 278 253
-0.05168651 0.71899998 -0.016388407 1.3450482e-38 279 253
-0.0502856 0.71700001 -0.016342819 1.0507084e-38 280 253
-0.048960082 0.71600002 -0.016320027 8.847203e-39 281 253
-0.047571439 0.71399999 -0.016274439 6.2725875e-39 282 253
-0.046124939 0.71100003 -0.01620606 7.2863807e-39 283 253
-0.044688959 0.708 -0.01613768 7.4718495e-39 284 253
-0.043324865 0.70599997 -0.016092092 7.4718495e-39 285 253
-0.041967787 0.704 -0.016046507 7.5618816e-39 286 253
-0.040733438 0.704 -0.016046507 7.5618816e-39 287 253
-0.039499093 0.704 -0.016046507 7.1938179e-39 288 253
-0.038210396 0.70300001 -0.016023712 7.1938179e-39 289 253
-0.036977798 0.70300001 -0.016023712 7.4689629e-39 290 253
-0.035643511 0.70099998 -0.015978126 8.3905604e-39 291 253
-0.034414422 0.70099998 -0.015978126 9.6816496e-39 292 253
-0.03318534 0.70099998 -0.015978126 1.0142986e-38 293 253
-0.031910665 0.69999999 -0.015955333 9.3157411e-39 294 253
-0.030683333 0.69999999 -0.015955333 9.1313484e-39 295 253
-0.029455997 0.69999999 -0.015955333 8.212639e-39 296 253
-0.028148014 0.69800001 -0.015909746 7.9360535e-39 297 253
-0.026924185 0.69800001 -0.015909746 8.3026808e-39 298 253
-0.025700359 0.69800001 -0.015909746 8.3026808e-39 299 253
-0.024476532 0.69800001 -0.015909746 8.0271687e-39 300 253
-0.023252707 0.69800001 -0.015909746 8.1193657e-39 301 253
-0.022091998 0.69999999 -0.015955333 8.4856259e-39 302 253
-0.020864666 0.69999999 -0.015955333 8.3934303e-39 303 253
-0.019637333 0.69999999 -0.015955333 8.5763768e-39 304 253
-0.018409999 0.69999999 -0.015955333 8.3923457e-39 305 253
-0.017182667 0.69999999 -0.015955333 7.6583708e-39 306 253
-0.015955333 0.69999999 -0.015955333 7.565815e-39 307 253
-0.014727999 0.69999999 -0.015955333 7.2913903e-39 308 253
-0.013519952 0.70099998 -0.015978126 7.2913903e-39 309 253
-0.012290866 0.70099998 -0.015978126 8.0246394e-39 310 253
-0.011061779 0.70099998 -0.015978126 8.0246394e-39 311 253
-0.0098607466 0.70300001 -0.016023712 8.0235561e-39 312 253
-0.0086404262 0.704 -0.016046507 8.0235561e-39 313 253
-0.0074060797 0.704 -0.016046507 8.0228345e-39 314 253
-0.0061717331 0.704 -0.016046507 8.0228345e-39 315 253
-0.0049373866 0.704 -0.016046507 7.9306388e-39 316 253
-0.0037030398 0.704 -0.016046507 7.9306388e-39 317 253
-0.0024686933 0.704 -0.016046507 8.0228345e-39 318 253
-0.0012378532 0.70599997 -0.016092092 7.7462476e-39 319 253
0 0.70599997 -0.016092092 5.6268271e-39 320 253
0.0012378532 0.70599997 -0.016092092 4.7045107e-39 321 253
0.0024792133 0.70700002 -0.016114887 3.6903629e-39 322 253
0.0037345996 0.70999998 -0.016183265 4.4282867e-39 323 253
0.0049864799 0.71100003 -0.01620606 6.1749618e-39 324 253
0.0062506334 0.713 -0.016251646 7.8341244e-39 325 253
0.0075428397 0.71700001 -0.016342819 9.9506442e-39 326 253
0.0087999795 0.71700001 -0.016342819 1.1978949e-38 327 253
0.010085173 0.71899998 -0.016388407 1.3178195e-38 328 253
0.01134582 0.71899998 -0.016388407 1.5206499e-38 329 253
0.012606465 0.71899998 -0.016388407 1.6310322e-38 330 253
0.013867113 0.71899998 -0.016388407 1.6402877e-38 331 253
0.015190879 0.722 -0.016456785 1.6678016e-38 332 253
-0.057044696 0.72299999 -0.017747238 1.7231912e-38 275 254
-0.055777039 0.72299999 -0.017747238 1.6678036e-38 276 254
-0.054433983 0.722 -0.017722692 1.5940471e-38 277 254
-0.053020801 0.72000003 -0.017673599 1.3914705e-38 278 254
-0.05168651 0.71899998 -0.017649053 1.3545921e-38 279 254
-0.0502856 0.71700001 -0.017599959 9.9571504e-39 280 254
-0.048960082 0.71600002 -0.017575413 8.1132378e-39 281 254
-0.047571439 0.71399999 -0.017526319 6.7317636e-39 282 254
-0.046124939 0.71100003 -0.01745268 7.46933e-39 283 254
-0.044815198 0.70999998 -0.017428132 6.9211911e-39 284 254
-0.043386232 0.70700002 -0.017354494 6.8289955e-39 285 254
-0.042087011 0.70599997 -0.017329946 7.1945382e-39 286 254
-0.040849157 0.70599997 -0.017329946 6.91831e-39 287 254
-0.039499093 0.704 -0.017280852 6.7342845e-39 288 254
