# .PCD v.7 - Point Cloud Data file format
FIELDS x y z rgb imX imY
SIZE 4 4 4 4 4 4
TYPE F F F F F F
COUNT 1 1 1 1 1 1
WIDTH 851
HEIGHT 1
VIEWPOINT 0 0 0 1 0 0 0
POINTS 851
DATA ascii
0.014450972 0.634 0.085594222 1.8349095e-38 333 163
0.015587131 0.63499999 0.085729234 1.7704445e-38 334 163
0.016700499 0.63499999 0.085729234 1.6598456e-38 335 163
0.017813865 0.63499999 0.085729234 1.5216968e-38 336 163
0.018927233 0.63499999 0.085729234 1.4294651e-38 337 163
0.020072158 0.63599998 0.085864238 1.3648919e-38 338 163
0.021187279 0.63599998 0.085864238 1.3464528e-38 339 163
-0.0056457333 0.64399999 0.085815147 1.7340732e-38 315 164
-0.0044955462 0.64099997 0.085415386 1.6424556e-38 316 164
-0.0033663998 0.63999999 0.085282132 1.6608948e-38 317 164
-0.0022372534 0.63800001 0.085015625 1.6517115e-38 318 164
-0.0011186267 0.63800001 0.085015625 1.6609309e-38 319 164
0 0.63800001 0.085015625 1.6702579e-38 320 164
0.0011168733 0.63700002 0.084882379 1.6794774e-38 321 164
0.0022337467 0.63700002 0.084882379 1.7345784e-38 322 164
0.0033453598 0.63599998 0.084749117 1.7345784e-38 323 164
0.0044604796 0.63599998 0.084749117 1.7621279e-38 324 164
0.0055755996 0.63599998 0.084749117 1.7621279e-38 325 164
0.0066801999 0.63499999 0.084615864 1.8079371e-38 326 164
0.0077935657 0.63499999 0.084615864 1.7987174e-38 327 164
0.0089069325 0.63499999 0.084615864 1.8260512e-38 328 164
0.010004519 0.634 0.08448261 1.8168317e-38 329 164
0.011116133 0.634 0.08448261 1.7800246e-38 330 164
0.012227747 0.634 0.08448261 1.7431103e-38 331 164
0.013339359 0.634 0.08448261 1.6785737e-38 332 164
0.014450972 0.634 0.08448261 1.6601347e-38 333 164
0.015587131 0.63499999 0.084615864 1.5679391e-38 334 164
0.016700499 0.63499999 0.084615864 1.4941826e-38 335 164
0.017813865 0.63499999 0.084615864 1.4294654e-38 336 164
0.018927233 0.63499999 0.084615864 1.3833677e-38 337 164
0.020072158 0.63599998 0.084749117 1.3924427e-38 338 164
-0.0068064397 0.64700001 0.085080497 1.4667425e-38 314 165
-0.0056457333 0.64399999 0.084685996 1.7156707e-38 315 165
-0.00450256 0.64200002 0.084422998 1.6332002e-38 316 165
-0.00337692 0.64200002 0.084422998 1.6424556e-38 317 165
-0.0022477731 0.64099997 0.084291495 1.624125e-38 318 165
-0.0011221332 0.63999999 0.08416 1.6333444e-38 319 165
0 0.63800001 0.083897002 1.6242326e-38 320 165
0.0011186267 0.63800001 0.083897002 1.6057937e-38 321 165
0.0022337467 0.63700002 0.083765499 1.6516752e-38 322 165
0.0033506199 0.63700002 0.083765499 1.6608948e-38 323 165
0.0044604796 0.63599998 0.083633989 1.6792613e-38 324 165
0.0055755996 0.63599998 0.083633989 1.6884809e-38 325 165
0.0066907196 0.63599998 0.083633989 1.7343616e-38 326 165
0.0077935657 0.63499999 0.083502494 1.7159225e-38 327 165
0.0089069325 0.63499999 0.083502494 1.7341448e-38 328 165
0.0100203 0.63499999 0.083502494 1.7064861e-38 329 165
0.011133666 0.63499999 0.083502494 1.6879025e-38 330 165
0.012227747 0.634 0.083370999 1.6418407e-38 331 165
0.013339359 0.634 0.083370999 1.5680838e-38 332 165
0.014473766 0.63499999 0.083502494 1.5403892e-38 333 165
0.015611678 0.63599998 0.083633989 1.4482294e-38 334 165
0.016726799 0.63599998 0.083633989 1.411351e-38 335 165
0.017841918 0.63599998 0.083633989 1.3926951e-38 336 165
0.018957037 0.63599998 0.083633989 1.3650365e-38 337 165
0.020198399 0.63999999 0.08416 1.4200293e-38 338 165
0.021420473 0.64300001 0.084554501 1.3923708e-38 339 165
-0.0079531204 0.648 0.084075838 1.4290714e-38 313 166
-0.0068064397 0.64700001 0.083946094 1.5035132e-38 314 166
-0.0056720334 0.64700001 0.083946094 1.7340382e-38 315 166
-0.0045165867 0.64399999 0.083556846 1.6240161e-38 316 166
-0.0033821799 0.64300001 0.083427109 1.6332358e-38 317 166
-0.00225128 0.64200002 0.083297364 1.6424921e-38 318 166
-0.0011238866 0.64099997 0.083167605 1.6424921e-38 319 166
0 0.63999999 0.083037868 1.6149055e-38 320 166
0.0011221332 0.63999999 0.083037868 1.605686e-38 321 166
0.0022372534 0.63800001 0.082778372 1.6423481e-38 322 166
0.0033506199 0.63700002 0.082648627 1.6423481e-38 323 166
0.0044674934 0.63700002 0.082648627 1.6422754e-38 324 166
0.0055755996 0.63599998 0.082518876 1.6146527e-38 325 166
0.0066907196 0.63599998 0.082518876 1.5869215e-38 326 166
0.0078058392 0.63599998 0.082518876 1.5684823e-38 327 166
0.0089069325 0.63499999 0.082389124 1.5592622e-38 328 166
0.0100203 0.63499999 0.082389124 1.5039448e-38 329 166
0.011133666 0.63499999 0.082389124 1.5129835e-38 330 166
0.012247032 0.63499999 0.082389124 1.5037281e-38 331 166
0.0133604 0.63499999 0.082389124 1.4853242e-38 332 166
0.014473766 0.63499999 0.082389124 1.4392264e-38 333 166
0.015611678 0.63599998 0.082518876 1.3837643e-38 334 166
0.0167531 0.63700002 0.082648627 1.3745447e-38 335 166
0.017869974 0.63700002 0.082648627 1.4019146e-38 336 166
0.019016653 0.63800001 0.082778372 1.3650365e-38 337 166
0.020261521 0.64200002 0.083297364 1.3741117e-38 338 166
0.021420473 0.64300001 0.083427109 1.3556367e-38 339 166
-0.0079531204 0.648 0.082939677 1.3279806e-38 313 167
-0.0068064397 0.64700001 0.082811691 1.4483759e-38 314 167
-0.0056720334 0.64700001 0.082811691 1.6973041e-38 315 167
-0.0045306133 0.64600003 0.08268369 1.6240161e-38 316 167
-0.0033874398 0.64399999 0.082427703 1.6240161e-38 317 167
-0.0022547867 0.64300001 0.082299709 1.5873549e-38 318 167
-0.00112564 0.64200002 0.082171716 1.5873549e-38 319 167
0 0.64200002 0.082171716 1.5780996e-38 320 167
0.0011238866 0.64099997 0.082043722 1.5780996e-38 321 167
0.0022442664 0.63999999 0.081915729 1.6056139e-38 322 167
0.0033663998 0.63999999 0.081915729 1.5963944e-38 323 167
0.0044745067 0.63800001 0.081659749 1.6146171e-38 324 167
0.0055931332 0.63800001 0.081659749 1.596178e-38 325 167
0.0067012399 0.63700002 0.081531756 1.5868859e-38 326 167
0.0078058392 0.63599998 0.081403755 1.5684467e-38 327 167
0.0089209592 0.63599998 0.081403755 1.5500429e-38 328 167
0.0100203 0.63499999 0.081275761 1.5039451e-38 329 167
0.011133666 0.63499999 0.081275761 1.5222395e-38 330 167
0.012266319 0.63599998 0.081403755 1.5038002e-38 331 167
0.013381439 0.63599998 0.081403755 1.4576658e-38 332 167
0.014519353 0.63700002 0.081531756 1.4392267e-38 333 167
0.015660774 0.63800001 0.081659749 1.3837646e-38 334 167
0.016779399 0.63800001 0.081659749 1.3653253e-38 335 167
0.017954132 0.63999999 0.081915729 1.3926595e-38 336 167
0.019106071 0.64099997 0.082043722 1.3558171e-38 337 167
0.020293079 0.64300001 0.082299709 1.3923708e-38 338 167
0.021520413 0.64600003 0.08268369 1.3831512e-38 339 167
0.022688134 0.64700001 0.082811691 1.3556004e-38 340 167
-0.0079531204 0.648 0.081803516 1.300213e-38 313 168
-0.0068064397 0.64700001 0.08167728 1.4114974e-38 314 168
-0.0056720334 0.64700001 0.08167728 1.7065234e-38 315 168
-0.0045306133 0.64600003 0.081551038 1.6423835e-38 316 168
-0.0033874398 0.64399999 0.08129856 1.6331638e-38 317 168
-0.0022547867 0.64300001 0.081172317 1.5873183e-38 318 168
-0.0011273933 0.64300001 0.081172317 1.5780629e-38 319 168
0 0.64200002 0.081046082 1.5780632e-38 320 168
0.00112564 0.64200002 0.081046082 1.5688436e-38 321 168
0.0022477731 0.64099997 0.080919832 1.5963581e-38 322 168
0.0033663998 0.63999999 0.080793597 1.5963581e-38 323 168
0.0044745067 0.63800001 0.080541119 1.6053973e-38 324 168
0.0055931332 0.63800001 0.080541119 1.5777385e-38 325 168
0.0067012399 0.63700002 0.080414884 1.5684821e-38 326 168
0.0078181131 0.63700002 0.080414884 1.5407874e-38 327 168
0.0089349868 0.63700002 0.080414884 1.5407511e-38 328 168
0.010036079 0.63599998 0.080288634 1.5223119e-38 329 168
0.011151199 0.63599998 0.080288634 1.5130198e-38 330 168
0.012285607 0.63700002 0.080414884 1.4945807e-38 331 168
0.01340248 0.63700002 0.080414884 1.4576658e-38 332 168
0.014542148 0.63800001 0.080541119 1.4115321e-38 333 168
0.015709866 0.63999999 0.080793597 1.374473e-38 334 168
0.016831998 0.63999999 0.080793597 1.3560339e-38 335 168
0.017982185 0.64099997 0.080919832 1.3925513e-38 336 168
0.019165685 0.64300001 0.081172317 1.3740761e-38 337 168
0.020293079 0.64300001 0.081172317 1.3923711e-38 338 168
0.021520413 0.64600003 0.081551038 1.3831515e-38 339 168
0.022688134 0.64700001 0.08167728 1.4014825e-38 340 168
-0.0068064397 0.64700001 0.08054287 1.3193371e-38 314 169
-0.0056720334 0.64700001 0.08054287 1.6512413e-38 315 169
-0.0045376266 0.64700001 0.08054287 1.6700064e-38 316 169
-0.00339796 0.64600003 0.080418386 1.6423837e-38 317 169
-0.0022582933 0.64399999 0.08016941 1.5780629e-38 318 169
-0.0011291467 0.64399999 0.08016941 1.5780629e-38 319 169
0 0.64200002 0.079920441 1.5688433e-38 320 169
0.00112564 0.64200002 0.079920441 1.5596238e-38 321 169
0.0022477731 0.64099997 0.079795949 1.577955e-38 322 169
0.0033716597 0.64099997 0.079795949 1.5595519e-38 323 169
0.0044885329 0.63999999 0.079671465 1.586958e-38 324 169
0.0056106662 0.63999999 0.079671465 1.5685189e-38 325 169
0.0067117601 0.63800001 0.079422489 1.5592625e-38 326 169
0.007830387 0.63800001 0.079422489 1.5223842e-38 327 169
0.0089490134 0.63800001 0.079422489 1.5406789e-38 328 169
0.01005186 0.63700002 0.079298005 1.5222398e-38 329 169
0.011168733 0.63700002 0.079298005 1.5037283e-38 330 169
0.012304893 0.63800001 0.079422489 1.4852892e-38 331 169
0.013465599 0.63999999 0.079671465 1.4300071e-38 332 169
0.014587732 0.63999999 0.079671465 1.4023124e-38 333 169
0.015734414 0.64099997 0.079795949 1.3652531e-38 334 169
0.016884599 0.64200002 0.079920441 1.3560336e-38 335 169
0.01801024 0.64200002 0.079920441 1.3833677e-38 336 169
0.019255107 0.64600003 0.080418386 1.3649285e-38 337 169
0.020387759 0.64600003 0.080418386 1.4015906e-38 338 169
0.02158704 0.648 0.080667354 1.3739319e-38 339 169
0.022758266 0.64899999 0.080791838 1.3738601e-38 340 169
-0.0056807999 0.648 0.0795312 1.5681205e-38 315 170
-0.0045376266 0.64700001 0.079408467 1.6331287e-38 316 170
-0.0034032199 0.64700001 0.079408467 1.669971e-38 317 170
-0.0022688133 0.64700001 0.079408467 1.587318e-38 318 170
-0.0011326533 0.64600003 0.079285733 1.5780985e-38 319 170
0 0.64399999 0.079040259 1.5688789e-38 320 170
0.0011273933 0.64300001 0.078917533 1.5596235e-38 321 170
0.00225128 0.64200002 0.0787948 1.5595516e-38 322 170
0.00337692 0.64200002 0.0787948 1.550332e-38 323 170
0.0044955462 0.64099997 0.078672059 1.586958e-38 324 170
0.0056194332 0.64099997 0.078672059 1.5777385e-38 325 170
0.0067433193 0.64099997 0.078672059 1.540931e-38 326 170
0.0078549329 0.63999999 0.078549333 1.5040167e-38 327 170
0.0089770658 0.63999999 0.078549333 1.5314593e-38 328 170
0.01006764 0.63800001 0.078303866 1.5038005e-38 329 170
0.011186266 0.63800001 0.078303866 1.4852892e-38 330 170
0.012343466 0.63999999 0.078549333 1.4576305e-38 331 170
0.013486639 0.64099997 0.078672059 1.429935e-38 332 170
0.014610525 0.64099997 0.078672059 1.4022762e-38 333 170
0.01575896 0.64200002 0.0787948 1.4111708e-38 334 170
0.016910899 0.64300001 0.078917533 1.3927676e-38 335 170
0.018066347 0.64399999 0.079040259 1.4018424e-38 336 170
0.019284913 0.64700001 0.079408467 1.3834033e-38 337 170
0.02041932 0.64700001 0.079408467 1.392443e-38 338 170
0.02158704 0.648 0.0795312 1.3371256e-38 339 170
-0.0022688133 0.64700001 0.078274064 1.6240888e-38 318 171
-0.0011344067 0.64700001 0.078274064 1.59643e-38 319 171
0 0.64600003 0.078153081 1.5688433e-38 320 171
0.0011291467 0.64399999 0.077911116 1.5596238e-38 321 171
0.0022582933 0.64399999 0.077911116 1.5595519e-38 322 171
0.0033821799 0.64300001 0.077790141 1.5503323e-38 323 171
0.0045095733 0.64300001 0.077790141 1.5594435e-38 324 171
0.0056369668 0.64300001 0.077790141 1.550224e-38 325 171
0.00675384 0.64200002 0.077669159 1.5409676e-38 326 171
0.0078794798 0.64200002 0.077669159 1.4856502e-38 327 171
0.0089910924 0.64099997 0.077548169 1.5223119e-38 328 171
0.010114979 0.64099997 0.077548169 1.4854337e-38 329 171
0.011238866 0.64099997 0.077548169 1.4852536e-38 330 171
0.01238204 0.64200002 0.077669159 1.4576309e-38 331 171
0.01350768 0.64200002 0.077669159 1.4665974e-38 332 171
0.014656113 0.64300001 0.077790141 1.4389746e-38 333 171
0.015783506 0.64300001 0.077790141 1.4478696e-38 334 171
0.0169372 0.64399999 0.077911116 1.4294304e-38 335 171
0.018066347 0.64399999 0.077911116 1.4018427e-38 336 171
0.019284913 0.64700001 0.078274064 1.3833677e-38 337 171
0.02041932 0.64700001 0.078274064 1.3832234e-38 338 171
0.02158704 0.648 0.078395039 1.2910279e-38 339 171
-0.00227232 0.648 0.077258877 1.6791904e-38 318 172
-0.0011344067 0.64700001 0.077139653 1.6699351e-38 319 172
0 0.64700001 0.077139653 1.5871382e-38 320 172
0.0011326533 0.64600003 0.077020429 1.5871382e-38 321 172
0.0022653067 0.64600003 0.077020429 1.5962143e-38 322 172
0.00339796 0.64600003 0.077020429 1.5778112e-38 323 172
0.0045306133 0.64600003 0.077020429 1.5593717e-38 324 172
0.0056632664 0.64600003 0.077020429 1.5501521e-38 325 172
0.0067748795 0.64399999 0.076781973 1.5226363e-38 326 172
0.0079040267 0.64399999 0.076781973 1.4949416e-38 327 172
0.0090191467 0.64300001 0.076662742 1.5406789e-38 328 172
0.01014654 0.64300001 0.076662742 1.5222398e-38 329 172
0.011291467 0.64399999 0.076781973 1.5220952e-38 330 172
0.012420613 0.64399999 0.076781973 1.485217e-38 331 172
0.013549759 0.64399999 0.076781973 1.4758173e-38 332 172
0.014678906 0.64399999 0.076781973 1.4665977e-38 333 172
0.015808053 0.64399999 0.076781973 1.4296106e-38 334 172
0.016989801 0.64600003 0.077020429 1.4111354e-38 335 172
0.018122453 0.64600003 0.077020429 1.3650721e-38 336 172
0.019284913 0.64700001 0.077139653 1.346597e-38 337 172
0.02041932 0.64700001 0.077139653 1.3371976e-38 338 172
-0.00113616 0.648 0.076122716 1.6608592e-38 319 173
0 0.64700001 0.07600525 1.7435829e-38 320 173
0.0011344067 0.64700001 0.07600525 1.6606073e-38 321 173
0.0022688133 0.64700001 0.07600525 1.5871027e-38 322 173
0.0034032199 0.64700001 0.07600525 1.5778831e-38 323 173
0.0045376266 0.64700001 0.07600525 1.5594441e-38 324 173
0.0056632664 0.64600003 0.075887777 1.5317856e-38 325 173
0.00679592 0.64600003 0.075887777 1.5408606e-38 326 173
0.0079285735 0.64600003 0.075887777 1.5316411e-38 327 173
0.0090612266 0.64600003 0.075887777 1.5131647e-38 328 173
0.01019388 0.64600003 0.075887777 1.4947256e-38 329 173
0.011326533 0.64600003 0.075887777 1.4762494e-38 330 173
0.012459187 0.64600003 0.075887777 1.466994e-38 331 173
0.01359184 0.64600003 0.075887777 1.4667056e-38 332 173
0.014724494 0.64600003 0.075887777 1.4390469e-38 333 173
0.015857147 0.64600003 0.075887777 1.4113156e-38 334 173
0.0170161 0.64700001 0.07600525 1.3652178e-38 335 173
0.018150507 0.64700001 0.07600525 1.3282304e-38 336 173
0.019314719 0.648 0.076122716 1.2175955e-38 337 173
-0.00113616 0.648 0.074986562 1.4672113e-38 319 174
0 0.64700001 0.07487084 1.6422051e-38 320 174
0.0011344067 0.64700001 0.07487084 1.6791186e-38 321 174
0.0022688133 0.64700001 0.07487084 1.6791186e-38 322 174
0.0034032199 0.64700001 0.07487084 1.6514599e-38 323 174
0.0045376266 0.64700001 0.07487084 1.550332e-38 324 174
0.0056632664 0.64600003 0.074755117 1.5226732e-38 325 174
0.00679592 0.64600003 0.074755117 1.5684823e-38 326 174
0.0079285735 0.64600003 0.074755117 1.5500073e-38 327 174
0.0090612266 0.64600003 0.074755117 1.5591176e-38 328 174
0.01019388 0.64600003 0.074755117 1.5314591e-38 329 174
0.011326533 0.64600003 0.074755117 1.540534e-38 330 174
0.012459187 0.64600003 0.074755117 1.5220949e-38 331 174
0.01359184 0.64600003 0.074755117 1.4850722e-38 332 174
0.014724494 0.64600003 0.074755117 1.4482299e-38 333 174
0.015857147 0.64600003 0.074755117 1.4295737e-38 334 174
0.0170161 0.64700001 0.07487084 1.3742563e-38 335 174
0.018150507 0.64700001 0.07487084 1.3004268e-38 336 174
0.019314719 0.648 0.074986562 1.2082672e-38 337 174
0 0.648 0.073850393 1.2183927e-38 320 175
0.00113616 0.648 0.073850393 1.3659057e-38 321 175
0.0022688133 0.64700001 0.073736429 1.5500449e-38 322 175
0.0034032199 0.64700001 0.073736429 1.6145818e-38 323 175
0.0045376266 0.64700001 0.073736429 1.6330559e-38 324 175
0.0056720334 0.64700001 0.073736429 1.6053973e-38 325 175
0.0068064397 0.64700001 0.073736429 1.6420584e-38 326 175
0.0079408465 0.64700001 0.073736429 1.6236192e-38 327 175
0.0090752533 0.64700001 0.073736429 1.6419136e-38 328 175
0.01019388 0.64600003 0.073622465 1.6142909e-38 329 175
0.011326533 0.64600003 0.073622465 1.5957069e-38 330 175
0.012459187 0.64600003 0.073622465 1.5127669e-38 331 175
0.013612879 0.64700001 0.073736429 1.4757077e-38 332 175
0.014747286 0.64700001 0.073736429 1.4111708e-38 333 175
0.015881693 0.64700001 0.073736429 1.3096114e-38 334 175
0.0170161 0.64700001 0.073736429 1.1805375e-38 335 175
0.018150507 0.64700001 0.073736429 1.0974895e-38 336 175
0 0.648 0.072714239 1.1347663e-38 320 176
0.00113616 0.648 0.072714239 1.1993033e-38 321 176
0.00227232 0.648 0.072714239 1.2913562e-38 322 176
0.00340848 0.648 0.072714239 1.3743324e-38 323 176
0.00454464 0.648 0.072714239 1.3653643e-38 324 176
0.0056720334 0.64700001 0.072602026 1.4391208e-38 325 176
0.0068064397 0.64700001 0.072602026 1.4484828e-38 326 176
0.0079408465 0.64700001 0.072602026 1.4577025e-38 327 176
0.0090752533 0.64700001 0.072602026 1.4850003e-38 328 176
0.01020966 0.64700001 0.072602026 1.4388664e-38 329 176
0.011344067 0.64700001 0.072602026 1.3926597e-38 330 176
0.012478473 0.64700001 0.072602026 1.3004642e-38 331 176
0.013612879 0.64700001 0.072602026 1.2725533e-38 332 176
0.014747286 0.64700001 0.072602026 1.2172361e-38 333 176
0.015881693 0.64700001 0.072602026 1.1251482e-38 334 176
0.0170161 0.64700001 0.072602026 1.152771e-38 335 176
0.0034137398 0.64899999 0.07168854 1.032775e-38 323 177
0.0045516533 0.64899999 0.07168854 9.503403e-39 324 177
0.0056807999 0.648 0.071578078 1.0425001e-38 325 177
0.0068169599 0.648 0.071578078 1.0794845e-38 326 177
0.0079531204 0.648 0.071578078 1.1071073e-38 327 177
0.0090892799 0.648 0.071578078 1.1712473e-38 328 177
0.010225439 0.648 0.071578078 1.0790877e-38 329 177
0.011344067 0.64700001 0.071467623 1.0236627e-38 330 177
0.012478473 0.64700001 0.071467623 9.7756487e-39 331 177
0.013612879 0.64700001 0.071467623 9.8656933e-39 332 177
0.014747286 0.64700001 0.071467623 1.0050085e-38 333 177
0.0079776663 0.64999998 0.070659332 1.2815565e-38 327 178
0.0091173323 0.64999998 0.070659332 1.2908111e-38 328 178
0.01024122 0.64899999 0.070550621 1.2815916e-38 329 178
0.0113616 0.648 0.070441917 1.2908117e-38 330 178
0.01249776 0.648 0.070441917 1.3276541e-38 331 178
0.01363392 0.648 0.070441917 1.34613e-38 332 178
0.014770079 0.648 0.070441917 1.4198865e-38 333 178
0.02788852 0.72299999 0.02788852 1.3366571e-38 342 218
0.026620859 0.72299999 0.026620859 1.3091063e-38 341 219
0.027849946 0.722 0.026584039 1.2998509e-38 342 219
0.029115854 0.722 0.026584039 1.3551683e-38 343 219
0.025318133 0.722 0.025318133 1.3274376e-38 340 220
0.026584039 0.722 0.025318133 1.2997429e-38 341 220
0.027849946 0.722 0.025318133 1.3091426e-38 342 220
0.029035201 0.72000003 0.025248 1.3736796e-38 343 220
0.0302976 0.72000003 0.025248 1.4567279e-38 344 220
0.025318133 0.722 0.024052227 1.2446779e-38 340 221
0.026584039 0.722 0.024052227 1.2908117e-38 341 221
0.027849946 0.722 0.024052227 1.3093231e-38 342 221
0.029035201 0.72000003 0.0239856 1.3738601e-38 343 221
0.0302976 0.72000003 0.0239856 1.429177e-38 344 221
0.025353199 0.72299999 0.02281788 1.2447859e-38 340 222
0.026584039 0.722 0.022786319 1.3001031e-38 341 222
0.027849946 0.722 0.022786319 1.318578e-38 342 222
0.029156178 0.72299999 0.02281788 1.3554202e-38 343 222
0.026584039 0.722 0.021520413 1.2909905e-38 341 223
0.027849946 0.722 0.021520413 1.3186493e-38 342 223
-0.028467119 0.73799998 0.020703359 1.668993e-38 298 224
-0.027173158 0.73799998 0.020703359 1.5306995e-38 299 224
-0.024318734 0.73000002 0.020478934 1.3284742e-38 301 224
-0.022975679 0.72799999 0.020422826 1.2181559e-38 302 224
-0.021669446 0.727 0.020394772 1.107557e-38 303 224
-0.020394772 0.727 0.020394772 1.02516e-38 304 224
-0.019199001 0.73000002 0.020478934 1.1173915e-38 305 224
0.026584039 0.722 0.020254506 1.3369443e-38 341 224
0.027849946 0.722 0.020254506 1.3096446e-38 342 224
0.029115854 0.722 0.020254506 1.300425e-38 343 224
-0.029761078 0.73799998 0.019409399 1.7425697e-38 297 225
-0.028389972 0.736 0.019356798 1.7057991e-38 298 225
-0.026989058 0.73299998 0.019277899 1.5398468e-38 299 225
-0.025598666 0.73000002 0.019199001 1.3470934e-38 300 225
-0.024318734 0.73000002 0.019199001 1.3286543e-38 301 225
-0.022975679 0.72799999 0.0191464 1.3194272e-38 302 225
-0.021669446 0.727 0.019120099 1.2087564e-38 303 225
-0.020394772 0.727 0.019120099 1.0527078e-38 304 225
-0.019199001 0.73000002 0.019199001 1.0803665e-38 305 225
0.0012378532 0.70599997 0.018567799 1.1525901e-38 321 225
0.0024757064 0.70599997 0.018567799 1.12504e-38 322 225
0.0037135598 0.70599997 0.018567799 1.0236609e-38 323 225
0.0049514128 0.70599997 0.018567799 1.0141539e-38 324 225
0.0061717331 0.704 0.018515198 1.0233735e-38 325 225
0.0074060797 0.704 0.018515198 9.8663939e-39 326 225
0.008677247 0.70700002 0.018594101 9.9589483e-39 327 225
0.026584039 0.722 0.0189886 1.3371594e-38 341 225
0.027849946 0.722 0.0189886 1.226954e-38 342 225
0.029115854 0.722 0.0189886 1.1347225e-38 343 225
0.030423839 0.72299999 0.019014901 9.5090432e-39 344 225
-0.029761078 0.73799998 0.018115439 1.751717e-38 297 226
-0.028389972 0.736 0.018066347 1.6874314e-38 298 226
-0.026989058 0.73299998 0.017992707 1.5030403e-38 299 226
-0.025598666 0.73000002 0.017919067 1.2735537e-38 300 226
-0.024318734 0.73000002 0.017919067 1.3012124e-38 301 226
-0.022975679 0.72799999 0.017869972 1.3379032e-38 302 226
-0.021699252 0.72799999 0.017869972 1.2456717e-38 303 226
-0.020422826 0.72799999 0.017869972 1.1354286e-38 304 226
-0.0191464 0.72799999 0.017869972 1.107734e-38 305 226
-0.017869972 0.72799999 0.017869972 1.0343786e-38 306 226
0.0012378532 0.70599997 0.017329946 1.2447129e-38 321 226
0.0024757064 0.70599997 0.017329946 1.1803562e-38 322 226
0.0037135598 0.70599997 0.017329946 1.0697214e-38 323 226
0.0049514128 0.70599997 0.017329946 9.6837879e-39 324 226
0.0061717331 0.704 0.017280852 1.005221e-38 325 226
0.0074060797 0.704 0.017280852 1.051067e-38 326 226
0.008677247 0.70700002 0.017354494 1.0326639e-38 327 226
0.0099168532 0.70700002 0.017354494 1.0417756e-38 328 226
0.025318133 0.722 0.017722692 1.2177712e-38 340 226
0.026584039 0.722 0.017722692 1.2177712e-38 341 226
0.027849946 0.722 0.017722692 1.1073472e-38 342 226
0.029156178 0.72299999 0.017747238 9.967485e-39 343 226
0.030423839 0.72299999 0.017747238 9.4171783e-39 344 226
-0.029761078 0.73799998 0.016821479 1.7424268e-38 297 227
-0.028389972 0.736 0.016775893 1.6598456e-38 298 227
-0.026989058 0.73299998 0.016707512 1.5122967e-38 299 227
-0.025703866 0.73299998 0.016707512 1.2459692e-38 300 227
-0.024318734 0.73000002 0.016639132 1.3012507e-38 301 227
-0.023038799 0.73000002 0.016639132 1.36553e-38 302 227
-0.021699252 0.72799999 0.016593546 1.3009931e-38 303 227
-0.020422826 0.72799999 0.016593546 1.273364e-38 304 227
-0.0191464 0.72799999 0.016593546 1.208827e-38 305 227
-0.017869972 0.72799999 0.016593546 1.05285e-38 306 227
-0.01647958 0.72299999 0.01647958 1.05285e-38 307 227
-0.015211919 0.72299999 0.01647958 1.0436362e-38 308 227
0.0012396066 0.70700002 0.016114887 1.2081237e-38 321 227
0.0024792133 0.70700002 0.016114887 1.1805006e-38 322 227
0.0037135598 0.70599997 0.016092092 1.088305e-38 323 227
0.0049514128 0.70599997 0.016092092 1.0511751e-38 324 227
0.0061892662 0.70599997 0.016092092 1.0880532e-38 325 227
0.0074271196 0.70599997 0.016092092 1.069758e-38 326 227
0.008677247 0.70700002 0.016114887 1.069758e-38 327 227
0.0099168532 0.70700002 0.016114887 1.0606463e-38 328 227
0.024052227 0.722 0.016456785 1.1531975e-38 339 227
0.025318133 0.722 0.016456785 1.0705782e-38 340 227
0.026584039 0.722 0.016456785 1.0244805e-38 341 227
0.027849946 0.722 0.016456785 9.694854e-39 342 227
0.029156178 0.72299999 0.01647958 9.694854e-39 343 227
0.030423839 0.72299999 0.01647958 1.0611442e-38 344 227
0.032042164 0.73100001 0.016661927 1.1164616e-38 345 227
-0.026989058 0.73299998 0.015422319 1.4938936e-38 299 228
-0.025703866 0.73299998 0.015422319 1.2918521e-38 300 228
-0.024352046 0.73100001 0.01538024 1.2826326e-38 301 228
-0.023038799 0.73000002 0.0153592 1.3656052e-38 302 228
-0.021699252 0.72799999 0.01531712 1.3471302e-38 303 228
-0.020422826 0.72799999 0.01531712 1.3102442e-38 304 228
-0.0191464 0.72799999 0.01531712 1.2364877e-38 305 228
-0.017869972 0.72799999 0.01531712 1.0989795e-38 306 228
-0.01647958 0.72299999 0.015211919 1.0252229e-38 307 228
-0.015211919 0.72299999 0.015211919 9.9767504e-39 308 228
-0.013982833 0.72500002 0.015254001 1.0253696e-38 309 228
-0.012676599 0.72299999 0.015211919 1.0619684e-38 310 228
-0.01140894 0.72299999 0.015211919 1.1172858e-38 311 228
-0.01014128 0.72299999 0.015211919 1.1537739e-38 312 228
0.0012396066 0.70700002 0.01487528 1.2541845e-38 321 228
0.0024792133 0.70700002 0.01487528 1.2540405e-38 322 228
0.0037135598 0.70599997 0.014854239 1.2171621e-38 323 228
0.0049514128 0.70599997 0.014854239 1.1525896e-38 324 228
0.0061892662 0.70599997 0.014854239 1.1618091e-38 325 228
0.0074271196 0.70599997 0.014854239 1.1618816e-38 326 228
0.008677247 0.70700002 0.01487528 1.1711013e-38 327 228
0.0099308798 0.708 0.01489632 1.1803211e-38 328 228
0.024052227 0.722 0.015190879 9.787051e-39 339 228
0.025318133 0.722 0.015190879 9.7870146e-39 340 228
0.026584039 0.722 0.015190879 9.5104291e-39 341 228
0.027849946 0.722 0.015190879 1.0153311e-38 342 228
0.029156178 0.72299999 0.015211919 1.0430258e-38 343 228
0.030508002 0.72500002 0.015254001 1.1622019e-38 344 228
0.031998333 0.73000002 0.0153592 1.2082996e-38 345 228
-0.027173158 0.73799998 0.014233559 1.5028983e-38 299 229
-0.025738932 0.73400003 0.014156413 1.3377349e-38 300 229
-0.024418673 0.73299998 0.014137126 1.2455751e-38 301 229
-0.023038799 0.73000002 0.014079267 1.3287639e-38 302 229
-0.021758866 0.73000002 0.014079267 1.3656061e-38 303 229
-0.020478934 0.73000002 0.014079267 1.3193931e-38 304 229
-0.0191464 0.72799999 0.014040692 1.2456366e-38 305 229
-0.017869972 0.72799999 0.014040692 1.1174182e-38 306 229
-0.016570752 0.727 0.014021406 1.0713204e-38 307 229
-0.015296079 0.727 0.014021406 1.0437346e-38 308 229
-0.013982833 0.72500002 0.013982833 1.0529542e-38 309 229
-0.012676599 0.72299999 0.01394426 1.0528138e-38 310 229
-0.01139316 0.722 0.013924973 1.0528138e-38 311 229
-0.010127253 0.722 0.013924973 1.0528192e-38 312 229
-0.0088367993 0.72000003 0.0138864 1.0896975e-38 313 229
-0.0075743999 0.72000003 0.0138864 1.1812154e-38 314 229
-0.0050425865 0.71899998 0.013867113 1.2269202e-38 316 229
-0.0037714199 0.71700001 0.013828539 1.2361399e-38 317 229
-0.0025107733 0.71600002 0.013809253 1.2360332e-38 318 229
-0.0012553866 0.71600002 0.013809253 1.2360332e-38 319 229
0 0.71600002 0.013809253 1.2359977e-38 320 229
0.0012448666 0.70999998 0.013693533 1.226778e-38 321 229
0.0024792133 0.70700002 0.013635674 1.2909549e-38 322 229
0.0037135598 0.70599997 0.013616386 1.2909549e-38 323 229
0.0049514128 0.70599997 0.013616386 1.3092851e-38 324 229
0.0061892662 0.70599997 0.013616386 1.290882e-38 325 229
0.0074271196 0.70599997 0.013616386 1.2633319e-38 326 229
0.008677247 0.70700002 0.013635674 1.2633319e-38 327 229
0.0099168532 0.70700002 0.013635674 1.2450379e-38 328 229
0.02281788 0.72299999 0.01394426 9.2381596e-39 338 229
0.024085538 0.72299999 0.01394426 8.961214e-39 339 229
0.025353199 0.72299999 0.01394426 9.7856021e-39 340 229
0.026620859 0.72299999 0.01394426 9.5093753e-39 341 229
0.02788852 0.72299999 0.01394426 9.8749769e-39 342 229
0.029236834 0.72500002 0.013982833 1.0980966e-38 343 229
0.030634239 0.72799999 0.014040692 1.2448212e-38 344 229
0.031998333 0.73000002 0.014079267 1.2448212e-38 345 229
0.033278264 0.73000002 0.014079267 1.3644232e-38 346 229
-0.028775707 0.74599999 0.013079867 1.5950582e-38 298 230
-0.027209979 0.73900002 0.012957133 1.3830443e-38 299 230
-0.025738932 0.73400003 0.012869466 1.2822025e-38 300 230
-0.024418673 0.73299998 0.012851933 1.2453244e-38 301 230
-0.023133477 0.73299998 0.012851933 1.264408e-38 302 230
-0.021788673 0.73100001 0.012816866 1.3474201e-38 303 230
-0.020506985 0.73100001 0.012816866 1.3287228e-38 304 230
-0.019199001 0.73000002 0.012799333 1.2365271e-38 305 230
-0.017919067 0.73000002 0.012799333 1.1632299e-38 306 230
-0.016593546 0.72799999 0.012764266 1.1355353e-38 307 230
-0.015296079 0.727 0.012746733 1.0805768e-38 308 230
-0.013982833 0.72500002 0.012711667 1.0805768e-38 309 230
-0.012676599 0.72299999 0.012676599 1.0804333e-38 310 230
-0.01139316 0.722 0.012659066 1.0619942e-38 311 230
-0.010127253 0.722 0.012659066 1.0437011e-38 312 230
-0.0088367993 0.72000003 0.012624 1.0621404e-38 313 230
-0.0075743999 0.72000003 0.012624 9.884622e-39 314 230
-0.0063120001 0.72000003 0.012624 9.7002294e-39 315 230
-0.0050425865 0.71899998 0.012606465 1.0159094e-38 316 230
-0.0037714199 0.71700001 0.0125714 1.0436041e-38 317 230
-0.0025107733 0.71600002 0.012553867 1.1168234e-38 318 230
-0.0012553866 0.71600002 0.012553867 1.1168234e-38 319 230
0 0.71700001 0.0125714 1.1442673e-38 320 230
0.0012448666 0.70999998 0.012448666 1.1626704e-38 321 230
0.00248272 0.708 0.0124136 1.2911689e-38 322 230
0.0037135598 0.70599997 0.012378532 1.2911689e-38 323 230
0.0049514128 0.70599997 0.012378532 1.3094634e-38 324 230
0.0061892662 0.70599997 0.012378532 1.2725493e-38 325 230
0.0074271196 0.70599997 0.012378532 1.2266672e-38 326 230
0.0086649731 0.70599997 0.012378532 1.1989725e-38 327 230
0.021550218 0.72299999 0.012676599 9.7888125e-39 337 230
0.02281788 0.72299999 0.012676599 9.6033464e-39 338 230
0.024085538 0.72299999 0.012676599 9.3267581e-39 339 230
0.025353199 0.72299999 0.012676599 1.024122e-38 340 230
0.026620859 0.72299999 0.012676599 1.024122e-38 341 230
0.02788852 0.72299999 0.012676599 1.0607537e-38 342 230
0.029317487 0.727 0.012746733 1.1529852e-38 343 230
0.030634239 0.72799999 0.012764266 1.2262747e-38 344 230
0.031998333 0.73000002 0.012799333 1.2262747e-38 345 230
0.033278264 0.73000002 0.012799333 1.4289604e-38 346 230
-0.030244999 0.75 0.011835 1.7516095e-38 297 231
-0.028775707 0.74599999 0.011771879 1.5952015e-38 298 231
-0.027467718 0.74599999 0.011771879 1.309395e-38 299 231
-0.026159734 0.74599999 0.011771879 1.1808599e-38 300 231
-0.024851745 0.74599999 0.011771879 1.199299e-38 301 231
-0.023133477 0.73299998 0.011566739 1.2641581e-38 302 231
-0.021788673 0.73100001 0.01153518 1.3563538e-38 303 231
-0.020506985 0.73100001 0.01153518 1.3288694e-38 304 231
-0.019225299 0.73100001 0.01153518 1.2366379e-38 305 231
-0.017919067 0.73000002 0.011519399 1.1539413e-38 306 231
-0.016593546 0.72799999 0.01148784 1.1447217e-38 307 231
-0.01531712 0.72799999 0.01148784 1.1173479e-38 308 231
-0.013982833 0.72500002 0.0114405 1.1173479e-38 309 231
-0.012676599 0.72299999 0.01140894 1.1723416e-38 310 231
-0.01140894 0.72299999 0.01140894 1.1354633e-38 311 231
-0.01014128 0.72299999 0.01140894 1.0804684e-38 312 231
-0.0088367993 0.72000003 0.011361601 1.0159314e-38 313 231
-0.0075743999 0.72000003 0.011361601 9.0587248e-39 314 231
-0.0063120001 0.72000003 0.011361601 8.8743335e-39 315 231
-0.0050425865 0.71899998 0.01134582 9.1498694e-39 316 231
-0.0037714199 0.71700001 0.01131426 9.5182932e-39 317 231
-0.0025142799 0.71700001 0.01131426 1.0159024e-38 318 231
-0.00125714 0.71700001 0.01131426 1.0527448e-38 319 231
0 0.71600002 0.01129848 1.0433846e-38 320 231
0.00125188 0.71399999 0.011266919 1.0433846e-38 321 231
0.0024932399 0.71100003 0.01121958 1.1535179e-38 322 231
0.0037345996 0.70999998 0.011203799 1.1627376e-38 323 231
0.0049514128 0.70599997 0.011140679 1.1993286e-38 324 231
0.0061892662 0.70599997 0.011140679 1.1532309e-38 325 231
0.0074271196 0.70599997 0.011140679 1.0980205e-38 326 231
0.0088613462 0.722 0.01139316 1.0334835e-38 327 231
0.010127253 0.722 0.01139316 1.0429175e-38 328 231
0.013924973 0.722 0.01139316 1.0707186e-38 331 231
0.015190879 0.722 0.01139316 9.3292426e-39 332 231
0.016456785 0.722 0.01139316 9.14485e-39 333 231
0.017747238 0.72299999 0.01140894 9.6054596e-39 334 231
0.019014901 0.72299999 0.01140894 9.8816863e-39 335 231
0.020282559 0.72299999 0.01140894 9.5133018e-39 336 231
0.021550218 0.72299999 0.01140894 9.5133018e-39 337 231
0.02281788 0.72299999 0.01140894 9.6919897e-39 338 231
0.024152167 0.72500002 0.0114405 9.5994354e-39 339 231
0.025423333 0.72500002 0.0114405 1.0972706e-38 340 231
0.026694499 0.72500002 0.0114405 1.1341488e-38 341 231
0.027965667 0.72500002 0.0114405 1.0974893e-38 342 231
0.029357811 0.72799999 0.01148784 1.1159284e-38 343 231
0.030718399 0.73000002 0.011519399 1.1618107e-38 344 231
0.031998333 0.73000002 0.011519399 1.2079445e-38 345 231
0.033278264 0.73000002 0.011519399 1.4934973e-38 346 231
-0.030244999 0.75 0.01052 1.7423901e-38 297 232
-0.028814279 0.74699998 0.010477919 1.6320444e-38 298 232
-0.027504537 0.74699998 0.010477919 1.3370184e-38 299 232
-0.026194798 0.74699998 0.010477919 1.1993004e-38 300 232
-0.024885058 0.74699998 0.010477919 1.226995e-38 301 232
-0.023165042 0.73400003 0.010295574 1.2823825e-38 302 232
-0.021878093 0.73400003 0.010295574 1.3376998e-38 303 232
-0.020563092 0.73299998 0.010281546 1.3290156e-38 304 232
-0.019225299 0.73100001 0.010253493 1.2644786e-38 305 232
-0.017943613 0.73100001 0.010253493 1.1353609e-38 306 232
-0.016639132 0.73000002 0.010239467 1.0985185e-38 307 232
-0.01531712 0.72799999 0.010211413 1.144792e-38 308 232
-0.014021406 0.727 0.010197386 1.144792e-38 309 232
-0.012711667 0.72500002 0.010169334 1.1723065e-38 310 232
-0.0114405 0.72500002 0.010169334 1.1354283e-38 311 232
-0.01014128 0.72299999 0.01014128 1.0435541e-38 312 232
-0.0088613462 0.722 0.010127253 1.0067119e-38 313 232
-0.0075954394 0.722 0.010127253 9.0579933e-39 314 232
-0.0063120001 0.72000003 0.010099201 9.0579933e-39 315 232
-0.0050496003 0.72000003 0.010099201 9.1491113e-39 316 232
-0.0037819401 0.71899998 0.010085173 9.425694e-39 317 232
-0.0025212932 0.71899998 0.010085173 9.7912703e-39 318 232
-0.00125714 0.71700001 0.01005712 9.7912703e-39 319 232
0 0.71600002 0.010043093 1.0157571e-38 320 232
0.00125188 0.71399999 0.01001504 1.0065374e-38 321 232
0.0025002533 0.713 0.010001013 8.963365e-39 322 232
0.0037398601 0.71100003 0.0099729598 9.240312e-39 323 232
0.0049864799 0.71100003 0.0099729598 9.6062303e-39 324 232
0.0062330998 0.71100003 0.0099729598 9.2378065e-39 325 232
0.0075954394 0.722 0.010127253 1.0153646e-38 326 232
0.0088613462 0.722 0.010127253 9.8770592e-39 327 232
0.010127253 0.722 0.010127253 9.8784886e-39 328 232
0.01139316 0.722 0.010127253 1.0339467e-38 329 232
0.012659066 0.722 0.010127253 1.0432732e-38 330 232
0.013924973 0.722 0.010127253 1.0156503e-38 331 232
0.015190879 0.722 0.010127253 9.6047659e-39 332 232
0.016456785 0.722 0.010127253 9.5125703e-39 333 232
0.017747238 0.72299999 0.01014128 9.6955448e-39 334 232
0.019014901 0.72299999 0.01014128 9.6033492e-39 335 232
0.020282559 0.72299999 0.01014128 1.0335204e-38 336 232
0.021609833 0.72500002 0.010169334 9.8742272e-39 337 232
0.022880999 0.72500002 0.010169334 9.9635922e-39 338 232
0.024218792 0.727 0.010197386 1.0240179e-38 339 232
0.025493465 0.727 0.010197386 1.0790501e-38 340 232
0.026804959 0.72799999 0.010211413 1.0882697e-38 341 232
0.028081384 0.72799999 0.010211413 1.0972742e-38 342 232
0.029438468 0.73000002 0.010239467 1.1157133e-38 343 232
0.030718399 0.73000002 0.010239467 1.1710662e-38 344 232
0.031998333 0.73000002 0.010239467 1.2079445e-38 345 232
0.033278264 0.73000002 0.010239467 1.5487427e-38 346 232
-0.028814279 0.74699998 0.0091681797 1.6414084e-38 298 233
-0.027504537 0.74699998 0.0091681797 1.3648215e-38 299 233
-0.026194798 0.74699998 0.0091681797 1.2176329e-38 300 233
-0.024885058 0.74699998 0.0091681797 1.254511e-38 301 233
-0.023291279 0.73799998 0.0090577193 1.2547961e-38 302 233
-0.021997318 0.73799998 0.0090577193 1.319333e-38 303 233
-0.020591147 0.73400003 0.0090086265 1.3382004e-38 304 233
-0.019225299 0.73100001 0.0089718066 1.3197254e-38 305 233
-0.017943613 0.73100001 0.0089718066 1.1904267e-38 306 233
-0.016639132 0.73000002 0.0089595336 1.1443289e-38 307 233
-0.01531712 0.72799999 0.0089349858 1.1172037e-38 308 233
-0.014040692 0.72799999 0.0089349858 1.1172037e-38 309 233
-0.012746733 0.727 0.0089227129 1.0988718e-38 310 233
-0.0114405 0.72500002 0.0088981669 1.0435544e-38 311 233
-0.01014128 0.72299999 0.0088736191 9.3338585e-39 312 233
-0.0088736191 0.72299999 0.0088736191 9.14947e-39 313 233
-0.0076059597 0.72299999 0.0088736191 9.1498288e-39 314 233
-0.0063295332 0.722 0.0088613462 9.0576345e-39 315 233
-0.0050496003 0.72000003 0.0088367993 8.781412e-39 316 233
-0.0037819401 0.71899998 0.0088245263 8.8739664e-39 317 233
-0.0025212932 0.71899998 0.0088245263 8.5966956e-39 318 233
-0.0012606466 0.71899998 0.0088245263 8.8729238e-39 319 233
0 0.71700001 0.0087999795 8.7796744e-39 320 233
0.0012553866 0.71600002 0.0087877065 8.87187e-39 321 233
0.0025107733 0.71600002 0.0087877065 8.5052161e-39 322 233
0.0037556398 0.71399999 0.0087631596 8.4130204e-39 323 233
0.0050075199 0.71399999 0.0087631596 9.5128884e-39 324 233
0.0063295332 0.722 0.0088613462 9.5128884e-39 325 233
0.0075954394 0.722 0.0088613462 9.0537501e-39 326 233
0.0088613462 0.722 0.0088613462 9.1459458e-39 327 233
0.010127253 0.722 0.0088613462 9.5115137e-39 328 233
0.01139316 0.722 0.0088613462 9.5115137e-39 329 233
0.012659066 0.722 0.0088613462 9.1452577e-39 330 233
0.013924973 0.722 0.0088613462 9.0530621e-39 331 233
0.015190879 0.722 0.0088613462 9.2345989e-39 332 233
0.01647958 0.72299999 0.0088736191 9.6955771e-39 333 233
0.017747238 0.72299999 0.0088736191 9.8756958e-39 334 233
0.019014901 0.72299999 0.0088736191 9.7831414e-39 335 233
0.020282559 0.72299999 0.0088736191 1.0700454e-38 336 233
0.021669446 0.727 0.0089227129 1.0700454e-38 337 233
0.022944121 0.727 0.0089227129 1.0882341e-38 338 233
0.024252106 0.72799999 0.0089349858 1.0790145e-38 339 233
0.025528532 0.72799999 0.0089349858 1.1066016e-38 340 233
0.026878599 0.73000002 0.0089595336 1.1066016e-38 341 233
0.028197108 0.73100001 0.0089718066 1.1431927e-38 342 233
0.029478792 0.73100001 0.0089718066 1.1800709e-38 343 233
0.030886721 0.73400003 0.0090086265 1.2078366e-38 344 233
-0.023291279 0.73799998 0.0077637597 1.3006812e-38 302 234
-0.021937706 0.736 0.0077427197 1.4665974e-38 303 234
-0.020647252 0.736 0.0077427197 1.3657551e-38 304 234
-0.019304199 0.73400003 0.0077216802 1.3288768e-38 305 234
-0.017992707 0.73299998 0.0077111595 1.3012099e-38 306 234
-0.016661927 0.73100001 0.00769012 1.1813556e-38 307 234
-0.0153592 0.73000002 0.0076795998 1.0617081e-38 308 234
-0.014040692 0.72799999 0.0076585598 1.0894028e-38 309 234
-0.012764266 0.72799999 0.0076585598 1.0528444e-38 310 234
-0.01147206 0.727 0.0076480396 9.975272e-39 311 234
-0.010169334 0.72500002 0.0076270006 9.4260527e-39 312 234
-0.0088981669 0.72500002 0.0076270006 9.1498288e-39 313 234
-0.0076270006 0.72500002 0.0076270006 9.0572758e-39 314 234
-0.0063382997 0.72299999 0.0076059597 9.0572758e-39 315 234
-0.0050706398 0.72299999 0.0076059597 8.9647228e-39 316 234
-0.0037977197 0.722 0.0075954394 8.8725286e-39 317 234
-0.0025318132 0.722 0.0075954394 8.5977396e-39 318 234
-0.0012624001 0.72000003 0.0075743999 8.3211569e-39 319 234
0 0.72000003 0.0075743999 8.5970221e-39 320 234
0.0012624001 0.72000003 0.0075743999 8.4122749e-39 321 234
0.0025212932 0.71899998 0.0075638802 8.4119162e-39 322 234
0.0037714199 0.71700001 0.0075428397 8.4119162e-39 323 234
0.0050285598 0.71700001 0.0075428397 8.7760843e-39 324 234
0.0063295332 0.722 0.0075954394 9.2370624e-39 325 234
0.0075954394 0.722 0.0075954394 8.6846902e-39 326 234
0.0088613462 0.722 0.0075954394 9.2378639e-39 327 234
0.01014128 0.72299999 0.0076059597 1.0702587e-38 328 234
0.01140894 0.72299999 0.0076059597 1.0057217e-38 329 234
0.012676599 0.72299999 0.0076059597 8.8637159e-39 330 234
0.01394426 0.72299999 0.0076059597 8.8637159e-39 331 234
0.015211919 0.72299999 0.0076059597 9.5044287e-39 332 234
0.016525166 0.72500002 0.0076270006 9.68882e-39 333 234
0.017796334 0.72500002 0.0076270006 1.0145861e-38 334 234
0.0190675 0.72500002 0.0076270006 1.0514284e-38 335 234
0.020338668 0.72500002 0.0076270006 1.0699397e-38 336 234
0.021669446 0.727 0.0076480396 1.0791593e-38 337 234
0.022944121 0.727 0.0076480396 1.0974186e-38 338 234
0.024252106 0.72799999 0.0076585598 1.0974186e-38 339 234
0.025528532 0.72799999 0.0076585598 1.1525198e-38 340 234
0.026878599 0.73000002 0.0076795998 1.1432643e-38 341 234
0.028467119 0.73799998 0.0077637597 1.1341883e-38 342 234
0.029801406 0.73900002 0.0077742799 1.1710307e-38 343 234
-0.023291279 0.73799998 0.0064697997 1.2821351e-38 302 235
-0.021997318 0.73799998 0.0064697997 1.4664905e-38 303 235
-0.020647252 0.736 0.0064522666 1.4300066e-38 304 235
-0.019304199 0.73400003 0.006434733 1.420787e-38 305 235
-0.018017253 0.73400003 0.006434733 1.4300362e-38 306 235
-0.016707512 0.73299998 0.0064259665 1.3286208e-38 307 235
-0.01538024 0.73100001 0.006408433 1.1629104e-38 308 235
-0.014098554 0.73100001 0.006408433 1.0983735e-38 309 235
-0.012799333 0.73000002 0.0063996664 1.0527371e-38 310 235
-0.01148784 0.72799999 0.0063821329 1.0435175e-38 311 235
-0.010197386 0.727 0.0063733663 9.8852302e-39 312 235
-0.0089227129 0.727 0.0063733663 9.7926772e-39 313 235
-0.0076270006 0.72500002 0.0063558333 9.5171708e-39 314 235
-0.0063558333 0.72500002 0.0063558333 9.5171708e-39 315 235
-0.0050706398 0.72299999 0.0063382997 9.5160946e-39 316 235
-0.0038029798 0.72299999 0.0063382997 9.2398706e-39 317 235
-0.0025353199 0.72299999 0.0063382997 8.5055454e-39 318 235
-0.0012659066 0.722 0.0063295332 8.3215156e-39 319 235
0 0.722 0.0063295332 7.8616207e-39 320 235
0.0012659066 0.722 0.0063295332 7.9538149e-39 321 235
0.0025318132 0.722 0.0063295332 8.5026867e-39 322 235
0.0037977197 0.722 0.0063295332 8.7789135e-39 323 235
0.0050636264 0.722 0.0063295332 9.969999e-39 324 235
0.0063382997 0.72299999 0.0063382997 1.0062196e-38 325 235
0.0076059597 0.72299999 0.0063382997 8.9559395e-39 326 235
0.0088736191 0.72299999 0.0063382997 9.2328865e-39 327 235
0.010169334 0.72500002 0.0063558333 9.9657979e-39 328 235
0.0114405 0.72500002 0.0063558333 9.5048197e-39 329 235
0.012711667 0.72500002 0.0063558333 9.2300279e-39 330 235
0.013982833 0.72500002 0.0063558333 9.2300279e-39 331 235
0.015296079 0.727 0.0063733663 9.6877662e-39 332 235
0.016570752 0.727 0.0063733663 9.5955706e-39 333 235
0.017845426 0.727 0.0063733663 9.8703624e-39 334 235
0.019120099 0.727 0.0063733663 9.8703624e-39 335 235
0.020394772 0.727 0.0063733663 9.8710841e-39 336 235
0.021699252 0.72799999 0.0063821329 1.0055477e-38 337 235
0.022975679 0.72799999 0.0063821329 1.1249331e-38 338 235
0.024318734 0.73000002 0.0063996664 1.1434081e-38 339 235
0.025598666 0.73000002 0.0063996664 1.143515e-38 340 235
0.02702588 0.73400003 0.006434733 1.1342955e-38 341 235
0.028467119 0.73799998 0.0064697997 1.1617388e-38 342 235
0.029801406 0.73900002 0.0064785667 1.198617e-38 343 235
0.03118128 0.741 0.0064960998 1.2538977e-38 344 235
0.032480497 0.741 0.0064960998 1.2538977e-38 345 235
-0.025051624 0.75199997 0.0052740262 1.3185805e-38 301 236
-0.023291279 0.73799998 0.0051758396 1.2360739e-38 302 236
-0.021997318 0.73799998 0.0051758396 1.3374891e-38 303 236
-0.020703359 0.73799998 0.0051758396 1.3470686e-38 304 236
-0.019356798 0.736 0.005161813 1.3931306e-38 305 236
-0.018017253 0.73400003 0.0051477868 1.4945425e-38 306 236
-0.016730307 0.73400003 0.0051477868 1.4300056e-38 307 236
-0.015422319 0.73299998 0.005140773 1.31043e-38 308 236
-0.014137126 0.73299998 0.005140773 1.144478e-38 309 236
-0.012816866 0.73100001 0.0051267464 1.025047e-38 310 236
-0.011519399 0.73000002 0.0051197335 1.0527056e-38 311 236
-0.010211413 0.72799999 0.0051057064 1.0987649e-38 312 236
-0.0089227129 0.727 0.0050986931 1.0895094e-38 313 236
-0.0076480396 0.727 0.0050986931 1.0620658e-38 314 236
-0.0063733663 0.727 0.0050986931 1.0251876e-38 315 236
-0.0050846669 0.72500002 0.0050846669 9.5168162e-39 316 236
-0.0038135003 0.72500002 0.0050846669 9.2398706e-39 317 236
-0.0025423334 0.72500002 0.0050846669 8.3218744e-39 318 236
-0.0012711667 0.72500002 0.0050846669 8.1374859e-39 319 236
0 0.72500002 0.0050846669 7.8616207e-39 320 236
0.0012676599 0.72299999 0.0050706398 7.9538149e-39 321 236
0.0025353199 0.72299999 0.0050706398 9.6976678e-39 322 236
0.0038029798 0.72299999 0.0050706398 1.0343037e-38 323 236
0.0050706398 0.72299999 0.0050706398 1.1531975e-38 324 236
0.0063558333 0.72500002 0.0050846669 1.0978801e-38 325 236
0.0076270006 0.72500002 0.0050846669 9.8728834e-39 326 236
0.0088981669 0.72500002 0.0050846669 9.965079e-39 327 236
0.010169334 0.72500002 0.0050846669 9.688862e-39 328 236
0.0114405 0.72500002 0.0050846669 9.5966664e-39 329 236
0.012746733 0.727 0.0050986931 9.4140758e-39 330 236
0.014021406 0.727 0.0050986931 9.3218802e-39 331 236
0.015296079 0.727 0.0050986931 9.3211571e-39 332 236
0.016593546 0.72799999 0.0051057064 9.1367659e-39 333 236
0.017869972 0.72799999 0.0051057064 9.9604099e-39 334 236
0.0191464 0.72799999 0.0051057064 9.5916273e-39 335 236
0.020422826 0.72799999 0.0051057064 9.1324443e-39 336 236
0.021758866 0.73000002 0.0051197335 9.7778137e-39 337 236
0.023038799 0.73000002 0.0051197335 1.1526994e-38 338 236
0.024352046 0.73100001 0.0051267464 1.1711386e-38 339 236
0.025809066 0.736 0.005161813 1.1527345e-38 340 236
0.027209979 0.73900002 0.0051828534 1.1342952e-38 341 236
0.028505694 0.73900002 0.0051828534 1.1617388e-38 342 236
0.029882059 0.741 0.0051968796 1.1802139e-38 343 236
0.03118128 0.741 0.0051968796 1.2447862e-38 344 236
0.032524332 0.74199998 0.0052038929 1.2447862e-38 345 236
0.033825304 0.74199998 0.0052038929 1.6039163e-38 346 236
-0.025051624 0.75199997 0.0039555198 1.3647497e-38 301 237
-0.023733119 0.75199997 0.0039555198 1.1348385e-38 302 237
-0.022414612 0.75199997 0.0039555198 1.0795211e-38 303 237
-0.02104 0.75 0.003945 1.0155975e-38 304 237
-0.019356798 0.736 0.0038713599 1.135416e-38 305 237
-0.018066347 0.736 0.0038713599 1.3748712e-38 306 237
-0.016775893 0.736 0.0038713599 1.4394082e-38 307 237
-0.01544336 0.73400003 0.0038608401 1.4485123e-38 308 237
-0.014156413 0.73400003 0.0038608401 1.2456817e-38 309 237
-0.012851933 0.73299998 0.0038555798 1.1169227e-38 310 237
-0.01153518 0.73100001 0.00384506 1.1998628e-38 311 237
-0.010239467 0.73000002 0.0038397999 1.3469037e-38 312 237
-0.0089349858 0.72799999 0.0038292799 1.300806e-38 313 237
-0.0076585598 0.72799999 0.0038292799 1.163122e-38 314 237
-0.0063821329 0.72799999 0.0038292799 1.0985851e-38 315 237
-0.0050986931 0.727 0.0038240198 1.0067835e-38 316 237
-0.0038240198 0.727 0.0038240198 9.514661e-39 317 237
-0.0025493465 0.727 0.0038240198 8.5051866e-39 318 237
-0.0012746733 0.727 0.0038240198 8.2289627e-39 319 237
0 0.727 0.0038240198 7.5846863e-39 320 237
0.0012746733 0.727 0.0038240198 8.0456644e-39 321 237
0.0025423334 0.72500002 0.0038135003 1.1902858e-38 322 237
0.0038135003 0.72500002 0.0038135003 1.2640423e-38 323 237
0.0050846669 0.72500002 0.0038135003 1.263584e-38 324 237
0.0063558333 0.72500002 0.0038135003 1.1437297e-38 325 237
0.0076480396 0.727 0.0038240198 1.0148041e-38 326 237
0.0089227129 0.727 0.0038240198 1.0055845e-38 327 237
0.010197386 0.727 0.0038240198 9.5034002e-39 328 237
0.01147206 0.727 0.0038240198 9.3190089e-39 329 237
0.012746733 0.727 0.0038240198 9.2264602e-39 330 237
0.014021406 0.727 0.0038240198 9.1342645e-39 331 237
0.01531712 0.72799999 0.0038292799 9.4094067e-39 332 237
0.016593546 0.72799999 0.0038292799 9.593798e-39 333 237
0.017869972 0.72799999 0.0038292799 1.0143722e-38 334 237
0.0191464 0.72799999 0.0038292799 1.0512863e-38 335 237
0.020422826 0.72799999 0.0038292799 1.0330619e-38 336 237
0.021758866 0.73000002 0.0038397999 1.0883791e-38 337 237
0.02307036 0.73100001 0.00384506 1.1529145e-38 338 237
0.024451986 0.73400003 0.0038608401 1.143695e-38 339 237
0.025914267 0.73900002 0.00388714 1.1712095e-38 340 237
0.027283618 0.741 0.0038976599 1.1435148e-38 341 237
0.028582839 0.741 0.0038976599 1.1526991e-38 342 237
0.029922385 0.74199998 0.0039029196 1.1711741e-38 343 237
