# .PCD v.7 - Point Cloud Data file format
FIELDS x y z rgb imX imY
SIZE 4 4 4 4 4 4
TYPE F F F F F F
COUNT 1 1 1 1 1 1
WIDTH 832
HEIGHT 1
VIEWPOINT 0 0 0 1 0 0 0
POINTS 832
DATA ascii
-0.0060226996 0.68699998 -0.043363437 1.0238792e-38 315 276
-0.0047971201 0.68400002 -0.043174081 6.1854407e-39 316 276
-0.00359784 0.68400002 -0.043174081 6.554582e-39 317 276
-0.0023950534 0.68300003 -0.043110959 9.0356047e-39 318 276
-0.0011975267 0.68300003 -0.043110959 9.8650053e-39 319 276
0 0.68300003 -0.043110959 6.8283172e-39 320 276
0.0011957732 0.68199998 -0.043047838 6.0907522e-39 321 276
0.0023915465 0.68199998 -0.043047838 5.9078085e-39 322 276
0.00358732 0.68199998 -0.043047838 5.9078085e-39 323 276
0.0047690663 0.68000001 -0.042921599 5.9056547e-39 324 276
0.0059613334 0.68000001 -0.042921599 4.6149159e-39 325 276
0.0071535995 0.68000001 -0.042921599 3.2387987e-39 326 276
0.0083335936 0.67900002 -0.042858478 8.7705365e-39 327 276
0.0095100794 0.67799997 -0.042795356 1.0879883e-38 328 276
0.010698839 0.67799997 -0.042795356 7.0998622e-39 329 276
0.011887599 0.67799997 -0.042795356 5.4436003e-39 330 276
0.013076359 0.67799997 -0.042795356 5.2595692e-39 331 276
0.014265119 0.67799997 -0.042795356 1.0234514e-38 332 276
0.015453878 0.67799997 -0.042795356 1.1249026e-38 333 276
0.016642639 0.67799997 -0.042795356 6.0867865e-39 334 276
0.0178314 0.67799997 -0.042795356 5.9023952e-39 335 276
0.019048214 0.67900002 -0.042858478 5.7230487e-39 336 276
0.020238725 0.67900002 -0.042858478 7.1059831e-39 337 276
0.0214608 0.68000001 -0.042921599 9.5005065e-39 338 276
0.022653066 0.68000001 -0.042921599 1.1897234e-38 339 276
0.023845334 0.68000001 -0.042921599 1.2077315e-38 340 276
0.025037598 0.68000001 -0.042921599 6.8221641e-39 341 276
0.026307013 0.68199998 -0.043047838 5.5408154e-39 342 276
0.027502786 0.68199998 -0.043047838 7.384728e-39 343 276
0.028740639 0.68300003 -0.043110959 7.0112665e-39 344 276
0.029938167 0.68300003 -0.043110959 7.5644403e-39 345 276
0.03118128 0.68400002 -0.043174081 9.4951311e-39 346 276
0.032522578 0.68699998 -0.043363437 1.1523435e-38 347 276
0.033727121 0.68699998 -0.043363437 1.2451121e-38 348 276
0.03498251 0.68800002 -0.043426562 1.3004295e-38 349 276
0.036293998 0.69 -0.043552797 1.355278e-38 350 276
0.037666857 0.69300002 -0.043742158 1.3091442e-38 351 276
0.03888192 0.69300002 -0.043742158 1.2906334e-38 352 276
0.040154841 0.69400001 -0.043805279 1.1799987e-38 353 276
0.041490879 0.69599998 -0.043931518 1.0696876e-38 354 276
0.042772565 0.69700003 -0.043994639 1.0881628e-38 355 276
0.043994639 0.69700003 -0.043994639 1.5393074e-38 356 276
-0.018436298 0.70099998 -0.045476202 1.4383264e-38 305 277
-0.017207211 0.70099998 -0.045476202 1.0056937e-38 306 277
-0.015864158 0.69599998 -0.045151837 8.5818068e-39 307 277
-0.014643839 0.69599998 -0.045151837 8.0351197e-39 308 277
-0.013384946 0.69400001 -0.045022093 1.0247816e-38 309 277
-0.012150601 0.69300002 -0.044957221 1.3283784e-38 310 277
-0.010935539 0.69300002 -0.044957221 1.3652927e-38 311 277
-0.0096924258 0.69099998 -0.044827472 1.42972e-38 312 277
-0.0084686 0.69 -0.0447626 1.4481593e-38 313 277
-0.0072377604 0.68800002 -0.044632856 1.4665255e-38 314 277
-0.0060226996 0.68699998 -0.044567976 1.2636952e-38 315 277
-0.0048111463 0.68599999 -0.044503104 1.0884161e-38 316 277
-0.00360836 0.68599999 -0.044503104 1.0054759e-38 317 277
-0.0023985601 0.68400002 -0.04437336 8.9466335e-39 318 277
-0.0011975267 0.68300003 -0.044308487 8.8540777e-39 319 277
0 0.68300003 -0.044308487 5.4486226e-39 320 277
0.0011957732 0.68199998 -0.044243611 4.8032532e-39 321 277
0.0023915465 0.68199998 -0.044243611 4.7114359e-39 322 277
0.00358732 0.68199998 -0.044243611 4.8036329e-39 323 277
0.004783093 0.68199998 -0.044243611 5.5350827e-39 324 277
0.0059613334 0.68000001 -0.044113863 4.9819089e-39 325 277
0.0071535995 0.68000001 -0.044113863 6.2686765e-39 326 277
0.0083458666 0.68000001 -0.044113863 9.2189352e-39 327 277
0.009524107 0.67900002 -0.044048995 9.7710216e-39 328 277
0.010714619 0.67900002 -0.044048995 7.5579663e-39 329 277
0.011905133 0.67900002 -0.044048995 4.9847774e-39 330 277
0.013095647 0.67900002 -0.044048995 4.4316036e-39 331 277
0.01428616 0.67900002 -0.044048995 9.5905792e-39 332 277
0.015476674 0.67900002 -0.044048995 1.1341937e-38 333 277
0.016667187 0.67900002 -0.044048995 4.4319343e-39 334 277
0.017857701 0.67900002 -0.044048995 5.0773037e-39 335 277
0.019048214 0.67900002 -0.044048995 6.2798098e-39 336 277
0.020268533 0.68000001 -0.044113863 7.2017661e-39 337 277
0.0214608 0.68000001 -0.044113863 1.0693646e-38 338 277
0.022653066 0.68000001 -0.044113863 1.3090373e-38 339 277
0.023915464 0.68199998 -0.044243611 1.2354607e-38 340 277
0.025111238 0.68199998 -0.044243611 7.9292165e-39 341 277
0.026345588 0.68300003 -0.044308487 7.1102739e-39 342 277
0.027543113 0.68300003 -0.044308487 9.8761428e-39 343 277
0.02878272 0.68400002 -0.04437336 1.17089e-38 344 277
0.029982001 0.68400002 -0.04437336 1.17089e-38 345 277
0.031272452 0.68599999 -0.044503104 1.2354973e-38 346 277
0.032522578 0.68699998 -0.044567976 1.2631918e-38 347 277
0.033776212 0.68800002 -0.044632856 1.2173808e-38 348 277
0.035084199 0.69 -0.0447626 1.1528439e-38 349 277
0.036346599 0.69099998 -0.044827472 1.1801789e-38 350 277
0.037666857 0.69300002 -0.044957221 1.198582e-38 351 277
0.038938027 0.69400001 -0.045022093 1.2078016e-38 352 277
0.040270556 0.69599998 -0.045151837 1.1524842e-38 353 277
0.041490879 0.69599998 -0.045151837 1.0881625e-38 354 277
0.042772565 0.69700003 -0.045216713 1.1434797e-38 355 277
0.043994639 0.69700003 -0.045216713 1.5854404e-38 356 277
-0.019749546 0.704 -0.046905171 1.613426e-38 304 278
-0.018515198 0.704 -0.046905171 1.4566576e-38 305 278
-0.017207211 0.70099998 -0.046705291 1.0333881e-38 306 278
-0.015886955 0.69700003 -0.046438783 8.9509467e-39 307 278
-0.014643839 0.69599998 -0.046372157 8.1255202e-39 308 278
-0.013423519 0.69599998 -0.046372157 9.6006503e-39 309 278
-0.012168133 0.69400001 -0.046238903 1.1903015e-38 310 278
-0.010935539 0.69300002 -0.04617228 1.2640938e-38 311 278
-0.0096924258 0.69099998 -0.046039023 1.3561079e-38 312 278
-0.008480873 0.69099998 -0.046039023 1.4022055e-38 313 278
-0.0072587994 0.69 -0.045972396 1.4389746e-38 314 278
-0.0060314666 0.68800002 -0.045839146 1.4020605e-38 315 278
-0.0048181596 0.68699998 -0.045772515 1.3925891e-38 316 278
-0.0036136196 0.68699998 -0.045772515 1.3096491e-38 317 278
-0.0023985601 0.68400002 -0.045572639 1.1803246e-38 318 278
-0.0011975267 0.68300003 -0.045506012 9.867138e-39 319 278
0 0.68300003 -0.045506012 6.3712865e-39 320 278
0.0011975267 0.68300003 -0.045506012 5.4489701e-39 321 278
0.0023915465 0.68199998 -0.045439381 4.8025525e-39 322 278
0.00358732 0.68199998 -0.045439381 4.2493787e-39 323 278
0.004783093 0.68199998 -0.045439381 2.8678876e-39 324 278
0.005978866 0.68199998 -0.045439381 4.8961915e-39 325 278
0.00717464 0.68199998 -0.045439381 9.8596201e-39 326 278
0.0083458666 0.68000001 -0.045306131 9.3064463e-39 327 278
0.0095381327 0.68000001 -0.045306131 7.5619194e-39 328 278
0.0107304 0.68000001 -0.045306131 6.4552131e-39 329 278
0.011922667 0.68000001 -0.045306131 3.3302979e-39 330 278
0.013114933 0.68000001 -0.045306131 2.5927329e-39 331 278
0.014307199 0.68000001 -0.045306131 8.8555295e-39 332 278
0.015499466 0.68000001 -0.045306131 1.0791638e-38 333 278
0.016740825 0.68199998 -0.045439381 6.1829282e-39 334 278
0.017936599 0.68199998 -0.045439381 5.6297544e-39 335 278
0.019132372 0.68199998 -0.045439381 8.3963436e-39 336 278
0.020328145 0.68199998 -0.045439381 8.3963436e-39 337 278
0.021523919 0.68199998 -0.045439381 1.0047547e-38 338 278
0.022719691 0.68199998 -0.045439381 1.2260243e-38 339 278
0.023915464 0.68199998 -0.045439381 1.171246e-38 340 278
0.02514806 0.68300003 -0.045506012 1.0421722e-38 341 278
0.026345588 0.68300003 -0.045506012 1.0884865e-38 342 278
0.027543113 0.68300003 -0.045506012 1.2913169e-38 343 278
0.02878272 0.68400002 -0.045572639 1.4198149e-38 344 278
0.030069664 0.68599999 -0.045705888 1.3829007e-38 345 278
0.031272452 0.68599999 -0.045705888 1.3829007e-38 346 278
0.032522578 0.68699998 -0.045772515 1.3368389e-38 347 278
0.033776212 0.68800002 -0.045839146 1.1067106e-38 348 278
0.035135046 0.69099998 -0.046039023 1.0145151e-38 349 278
0.036451802 0.69300002 -0.04617228 1.0696173e-38 350 278
0.037721213 0.69400001 -0.046238903 1.1249347e-38 351 278
0.039050236 0.69599998 -0.046372157 1.1434095e-38 352 278
0.040328421 0.69700003 -0.046438783 1.1434095e-38 353 278
0.041550495 0.69700003 -0.046438783 1.1250406e-38 354 278
0.042772565 0.69700003 -0.046438783 1.2264559e-38 355 278
0.043994639 0.69700003 -0.046438783 1.6406854e-38 356 278
-0.019749546 0.704 -0.048139516 1.659488e-38 304 279
-0.018515198 0.704 -0.048139516 1.4750967e-38 305 279
-0.017256306 0.70300001 -0.048071139 1.0425354e-38 306 279
-0.015955333 0.69999999 -0.047865998 9.1346149e-39 307 279
-0.014727999 0.69999999 -0.047865998 8.8605643e-39 308 279
-0.013423519 0.69599998 -0.047592476 9.1375114e-39 309 279
-0.012168133 0.69400001 -0.047455717 1.0521881e-38 310 279
-0.01095132 0.69400001 -0.047455717 1.181262e-38 311 279
-0.0097204801 0.69300002 -0.047387339 1.2733481e-38 312 279
-0.008480873 0.69099998 -0.047250576 1.3286655e-38 313 279
-0.0072693196 0.69099998 -0.047250576 1.3376686e-38 314 279
-0.0060489997 0.69 -0.047182199 1.2178144e-38 315 279
-0.0048251734 0.68800002 -0.047045439 1.2546922e-38 316 279
-0.0036188802 0.68800002 -0.047045439 1.3284487e-38 317 279
-0.0024055731 0.68599999 -0.046908677 1.42936e-38 318 279
-0.00119928 0.68400002 -0.046771921 1.4017374e-38 319 279
0 0.68400002 -0.046771921 1.3465286e-38 320 279
0.0011975267 0.68300003 -0.04670354 1.2635884e-38 321 279
0.0023950534 0.68300003 -0.04670354 1.2356789e-38 322 279
0.00358732 0.68199998 -0.046635158 1.1711419e-38 323 279
0.004783093 0.68199998 -0.046635158 9.8736246e-39 324 279
0.005978866 0.68199998 -0.046635158 1.0979972e-38 325 279
0.00717464 0.68199998 -0.046635158 1.3364461e-38 326 279
0.0083704125 0.68199998 -0.046635158 1.1428353e-38 327 279
0.009566186 0.68199998 -0.046635158 8.856586e-39 328 279
0.010761959 0.68199998 -0.046635158 8.6718361e-39 329 279
0.011957732 0.68199998 -0.046635158 7.7545713e-39 330 279
0.013153506 0.68199998 -0.046635158 8.0311568e-39 331 279
0.01434928 0.68199998 -0.046635158 1.0793408e-38 332 279
0.015545053 0.68199998 -0.046635158 1.1346581e-38 333 279
0.016740825 0.68199998 -0.046635158 1.0882341e-38 334 279
0.017962901 0.68300003 -0.04670354 1.1620265e-38 335 279
0.019160427 0.68300003 -0.04670354 1.2452178e-38 336 279
0.020357953 0.68300003 -0.04670354 1.2083035e-38 337 279
0.021523919 0.68199998 -0.046635158 1.171064e-38 338 279
0.022719691 0.68199998 -0.046635158 1.0419901e-38 339 279
0.023950534 0.68300003 -0.04670354 1.0060104e-38 340 279
0.02514806 0.68300003 -0.04670354 1.162743e-38 341 279
0.026345588 0.68300003 -0.04670354 1.3459853e-38 342 279
0.027543113 0.68300003 -0.04670354 1.2907038e-38 343 279
0.02878272 0.68400002 -0.046771921 1.1986902e-38 344 279
0.030069664 0.68599999 -0.046908677 1.1617761e-38 345 279
0.031318039 0.68699998 -0.046977058 1.1248981e-38 346 279
0.032569919 0.68800002 -0.047045439 1.106459e-38 347 279
0.033923492 0.69099998 -0.047250576 1.005368e-38 348 279
0.035236739 0.69300002 -0.047387339 1.0422464e-38 349 279
0.036504399 0.69400001 -0.047455717 1.106675e-38 350 279
0.037829921 0.69599998 -0.047592476 1.1251502e-38 351 279
0.039050236 0.69599998 -0.047592476 1.1527363e-38 352 279
0.040328421 0.69700003 -0.047660861 1.1435167e-38 353 279
0.041550495 0.69700003 -0.047660861 1.1617028e-38 354 279
0.042772565 0.69700003 -0.047660861 1.3737167e-38 355 279
0.043994639 0.69700003 -0.047660861 1.6959311e-38 356 279
-0.019749546 0.704 -0.049373865 1.705621e-38 304 280
-0.018515198 0.704 -0.049373865 1.5488885e-38 305 280
-0.017280852 0.704 -0.049373865 1.1989433e-38 306 280
-0.016023712 0.70300001 -0.049303733 9.9611287e-39 307 280
-0.014749039 0.70099998 -0.049163464 9.5030471e-39 308 280
-0.013462093 0.69800001 -0.048953064 9.779634e-39 309 280
-0.0122032 0.69599998 -0.048812799 9.9690629e-39 310 280
-0.01095132 0.69400001 -0.048672531 1.1444194e-38 311 280
-0.0097204801 0.69300002 -0.048602402 1.2733481e-38 312 280
-0.0085054198 0.69300002 -0.048602402 1.3010428e-38 313 280
-0.0072693196 0.69099998 -0.04846213 1.2825317e-38 314 280
-0.0060489997 0.69 -0.048391998 1.0889209e-38 315 280
-0.0048391996 0.69 -0.048391998 1.0889572e-38 316 280
-0.0036188802 0.68800002 -0.048251733 1.218031e-38 317 280
-0.0024090798 0.68699998 -0.048181597 1.4202488e-38 318 280
-0.0012027866 0.68599999 -0.048111461 1.4847857e-38 319 280
0 0.68400002 -0.0479712 1.4755655e-38 320 280
0.0011975267 0.68300003 -0.047901068 1.5032602e-38 321 280
0.0023950534 0.68300003 -0.047901068 1.503117e-38 322 280
0.0035925799 0.68300003 -0.047901068 1.43858e-38 323 280
0.0047901068 0.68300003 -0.047901068 1.3372367e-38 324 280
0.005978866 0.68199998 -0.047830928 1.309614e-38 325 280
0.00717464 0.68199998 -0.047830928 1.4291437e-38 326 280
0.0083704125 0.68199998 -0.047830928 1.3646067e-38 327 280
0.009566186 0.68199998 -0.047830928 1.2174533e-38 328 280
0.010761959 0.68199998 -0.047830928 1.2081979e-38 329 280
0.011975267 0.68300003 -0.047901068 1.1715367e-38 330 280
0.013172794 0.68300003 -0.047901068 1.1623171e-38 331 280
0.014370319 0.68300003 -0.047901068 1.2544036e-38 332 280
0.015567848 0.68300003 -0.047901068 1.3097209e-38 333 280
0.016765373 0.68300003 -0.047901068 1.3003531e-38 334 280
0.017962901 0.68300003 -0.047901068 1.2726943e-38 335 280
0.019160427 0.68300003 -0.047901068 1.3740356e-38 336 280
0.020357953 0.68300003 -0.047901068 1.4293171e-38 337 280
0.02155548 0.68300003 -0.047901068 1.3831473e-38 338 280
0.022753006 0.68300003 -0.047901068 1.2725127e-38 339 280
0.023950534 0.68300003 -0.047901068 1.11621e-38 340 280
0.025184879 0.68400002 -0.0479712 1.2545035e-38 341 280
0.02638416 0.68400002 -0.0479712 1.2451798e-38 342 280
0.027583439 0.68400002 -0.0479712 1.1161059e-38 343 280
0.02886688 0.68599999 -0.048111461 1.0513937e-38 344 280
0.030113498 0.68699998 -0.048181597 1.0052959e-38 345 280
0.031363625 0.68800002 -0.048251733 9.7770976e-39 346 280
0.032664597 0.69 -0.048391998 9.7770976e-39 347 280
0.033923492 0.69099998 -0.04846213 1.0606851e-38 348 280
0.035236739 0.69300002 -0.048602402 1.0975635e-38 349 280
0.036504399 0.69400001 -0.048672531 1.0885946e-38 350 280
0.037829921 0.69599998 -0.048812799 1.0978142e-38 351 280
0.039050236 0.69599998 -0.048812799 1.1069259e-38 352 280
0.040328421 0.69700003 -0.048882935 1.0239139e-38 353 280
0.041610107 0.69800001 -0.048953064 1.0604315e-38 354 280
0.042833932 0.69800001 -0.048953064 1.3093597e-38 355 280
-0.019805651 0.70599997 -0.050751984 1.7608662e-38 304 281
-0.018567799 0.70599997 -0.050751984 1.6410119e-38 305 281
-0.017329946 0.70599997 -0.050751984 1.3369483e-38 306 281
-0.016023712 0.70300001 -0.050536323 1.1341179e-38 307 281
-0.014791119 0.70300001 -0.050536323 1.0238088e-38 308 281
-0.013462093 0.69800001 -0.050176892 1.0699425e-38 309 281
-0.0122032 0.69599998 -0.050033119 1.0336405e-38 310 281
-0.01095132 0.69400001 -0.049889345 1.1534588e-38 311 281
-0.0097345067 0.69400001 -0.049889345 1.1905166e-38 312 281
-0.0085054198 0.69300002 -0.049817458 1.2274308e-38 313 281
-0.0072903596 0.69300002 -0.049817458 1.254909e-38 314 281
-0.0060577663 0.69099998 -0.049673684 1.0889928e-38 315 281
-0.0048391996 0.69 -0.049601797 1.0335672e-38 316 281
-0.0036293997 0.69 -0.049601797 9.7824982e-39 317 281
-0.0024125867 0.68800002 -0.049458027 9.9661734e-39 318 281
-0.0012027866 0.68599999 -0.049314249 1.0887771e-38 319 281
0 0.68599999 -0.049314249 1.2270345e-38 320 281
0.00119928 0.68400002 -0.049170479 1.282316e-38 321 281
0.0023985601 0.68400002 -0.049170479 1.3557481e-38 322 281
0.0035925799 0.68300003 -0.049098592 1.3096503e-38 323 281
0.0047901068 0.68300003 -0.049098592 1.3095058e-38 324 281
0.0059876335 0.68300003 -0.049098592 1.2541885e-38 325 281
0.0071851597 0.68300003 -0.049098592 1.2357492e-38 326 281
0.0083826864 0.68300003 -0.049098592 1.4385797e-38 327 281
0.0095802136 0.68300003 -0.049098592 1.4754936e-38 328 281
0.01077774 0.68300003 -0.049098592 1.466274e-38 329 281
0.011975267 0.68300003 -0.049098592 1.4663456e-38 330 281
0.013172794 0.68300003 -0.049098592 1.4295034e-38 331 281
0.014370319 0.68300003 -0.049098592 1.4110626e-38 332 281
0.015567848 0.68300003 -0.049098592 1.383368e-38 333 281
0.016765373 0.68300003 -0.049098592 1.3557777e-38 334 281
0.017962901 0.68300003 -0.049098592 1.3188995e-38 335 281
0.019160427 0.68300003 -0.049098592 1.3373013e-38 336 281
0.020357953 0.68300003 -0.049098592 1.3557406e-38 337 281
0.02155548 0.68300003 -0.049098592 1.3465579e-38 338 281
0.022753006 0.68300003 -0.049098592 1.3465579e-38 339 281
0.023950534 0.68300003 -0.049098592 1.3187547e-38 340 281
0.025184879 0.68400002 -0.049170479 1.2910959e-38 341 281
0.02638416 0.68400002 -0.049170479 1.1806078e-38 342 281
0.027664091 0.68599999 -0.049314249 1.0791928e-38 343 281
0.028908957 0.68699998 -0.049386136 1.0696173e-38 344 281
0.030157333 0.68800002 -0.049458027 1.097312e-38 345 281
0.031454802 0.69 -0.049601797 1.0791243e-38 346 281
0.032711938 0.69099998 -0.049673684 1.0975635e-38 347 281
0.034021679 0.69300002 -0.049817458 1.0794114e-38 348 281
0.035287585 0.69400001 -0.049889345 1.0794114e-38 349 281
0.036609598 0.69599998 -0.050033119 1.0794114e-38 350 281
0.037884273 0.69700003 -0.050105009 1.0794114e-38 351 281
0.039106347 0.69700003 -0.050105009 1.0975991e-38 352 281
0.040386278 0.69800001 -0.050176892 1.0422817e-38 353 281
0.041610107 0.69800001 -0.050176892 9.5926839e-39 354 281
0.042833932 0.69800001 -0.050176892 1.1897575e-38 355 281
-0.019833706 0.70700002 -0.05206348 1.7608659e-38 304 282
-0.018594101 0.70700002 -0.05206348 1.6871094e-38 305 282
-0.017329946 0.70599997 -0.051989835 1.3554595e-38 306 282
-0.016046507 0.704 -0.051842559 1.1341898e-38 307 282
-0.014791119 0.70300001 -0.051768921 9.7799843e-39 308 282
-0.013500666 0.69999999 -0.051547997 1.0609745e-38 309 282
-0.012220734 0.69700003 -0.051327083 1.0336768e-38 310 282
-0.010982879 0.69599998 -0.051253434 1.1074333e-38 311 282
-0.0097345067 0.69400001 -0.051106159 1.1444913e-38 312 282
-0.0085054198 0.69300002 -0.051032521 1.17215e-38 313 282
-0.0072903596 0.69300002 -0.051032521 1.2455818e-38 314 282
-0.0060753003 0.69300002 -0.051032521 1.1534222e-38 315 282
-0.0048462129 0.69099998 -0.050885238 1.107072e-38 316 282
-0.0036293997 0.69 -0.050811596 1.0333154e-38 317 282
-0.0024125867 0.68800002 -0.050664321 9.4137199e-39 318 282
-0.0012045399 0.68699998 -0.050590675 9.4137199e-39 319 282
0 0.68699998 -0.050590675 1.0702306e-38 320 282
0.0012027866 0.68599999 -0.050517038 1.0979253e-38 321 282
0.0024055731 0.68599999 -0.050517038 1.107072e-38 322 282
0.00359784 0.68400002 -0.050369758 1.107072e-38 323 282
0.0047971201 0.68400002 -0.050369758 1.1345142e-38 324 282
0.0059876335 0.68300003 -0.05029612 1.0699773e-38 325 282
0.0071851597 0.68300003 -0.05029612 1.1342991e-38 326 282
0.0083826864 0.68300003 -0.05029612 1.3094708e-38 327 282
0.0095802136 0.68300003 -0.05029612 1.3372367e-38 328 282
0.01077774 0.68300003 -0.05029612 1.3372367e-38 329 282
0.011975267 0.68300003 -0.05029612 1.3555669e-38 330 282
0.01319208 0.68400002 -0.050369758 1.3370919e-38 331 282
0.014370319 0.68300003 -0.05029612 1.2822402e-38 332 282
0.015567848 0.68300003 -0.05029612 1.2822402e-38 333 282
0.016789921 0.68400002 -0.050369758 1.3006754e-38 334 282
0.0179892 0.68400002 -0.050369758 1.3006754e-38 335 282
0.01918848 0.68400002 -0.050369758 1.3097149e-38 336 282
0.020387759 0.68400002 -0.050369758 1.2728365e-38 337 282
0.02158704 0.68400002 -0.050369758 1.1991893e-38 338 282
0.022786319 0.68400002 -0.050369758 1.2268839e-38 339 282
0.0239856 0.68400002 -0.050369758 1.2820212e-38 340 282
0.025258519 0.68599999 -0.050517038 1.2359234e-38 341 282
0.026461305 0.68599999 -0.050517038 1.1990118e-38 342 282
0.027704418 0.68699998 -0.050590675 1.1252553e-38 343 282
0.028951041 0.68800002 -0.050664321 1.0607927e-38 344 282
0.030157333 0.68800002 -0.050664321 1.0700123e-38 345 282
0.031454802 0.69 -0.050811596 1.0610446e-38 346 282
0.032711938 0.69099998 -0.050885238 1.0610446e-38 347 282
0.034021679 0.69300002 -0.051032521 1.0886312e-38 348 282
0.035287585 0.69400001 -0.051106159 1.0794117e-38 349 282
0.036662199 0.69700003 -0.051327083 1.0517534e-38 350 282
0.037884273 0.69700003 -0.051327083 1.0425337e-38 351 282
0.039162453 0.69800001 -0.051400717 1.0423902e-38 352 282
0.040386278 0.69800001 -0.051400717 9.8707282e-39 353 282
0.041729331 0.69999999 -0.051547997 1.0880179e-38 354 282
0.042956665 0.69999999 -0.051547997 1.3369461e-38 355 282
-0.019833706 0.70700002 -0.053303085 1.7423901e-38 304 283
-0.018567799 0.70599997 -0.053227689 1.6962924e-38 305 283
-0.017329946 0.70599997 -0.053227689 1.4200314e-38 306 283
-0.016046507 0.704 -0.053076904 1.1618837e-38 307 283
-0.014791119 0.70300001 -0.053001512 9.0438612e-39 308 283
-0.013500666 0.69999999 -0.052775331 1.0611546e-38 309 283
-0.012220734 0.69700003 -0.052549154 1.0889591e-38 310 283
-0.010982879 0.69599998 -0.052473757 1.1073983e-38 311 283
-0.0097345067 0.69400001 -0.052322973 1.0708796e-38 312 283
-0.0085176928 0.69400001 -0.052322973 1.0985384e-38 313 283
-0.0072903596 0.69300002 -0.05224758 1.153639e-38 314 283
-0.0060753003 0.69300002 -0.05224758 1.1444194e-38 315 283
-0.0048462129 0.69099998 -0.052096792 1.2084875e-38 316 283
-0.0036346598 0.69099998 -0.052096792 1.1716093e-38 317 283
-0.0024195998 0.69 -0.052021399 1.1440224e-38 318 283
-0.0012045399 0.68699998 -0.051795214 1.1163638e-38 319 283
0 0.68699998 -0.051795214 1.061119e-38 320 283
0.0012027866 0.68599999 -0.051719822 1.0150212e-38 321 283
0.0024055731 0.68599999 -0.051719822 9.0456661e-39 322 283
0.00359784 0.68400002 -0.051569041 8.8609147e-39 323 283
0.0047971201 0.68400002 -0.051569041 8.9534662e-39 324 283
0.0059964 0.68400002 -0.051569041 9.0456632e-39 325 283
0.0071956799 0.68400002 -0.051569041 1.0517193e-38 326 283
0.0083949603 0.68400002 -0.051569041 1.0794139e-38 327 283
0.0095942402 0.68400002 -0.051569041 1.0334234e-38 328 283
0.01079352 0.68400002 -0.051569041 1.0610461e-38 329 283
0.0119928 0.68400002 -0.051569041 1.1251514e-38 330 283
0.01319208 0.68400002 -0.051569041 1.0606145e-38 331 283
0.01439136 0.68400002 -0.051569041 1.0796635e-38 332 283
0.01559064 0.68400002 -0.051569041 1.1626395e-38 333 283
0.016789921 0.68400002 -0.051569041 1.2087339e-38 334 283
0.0179892 0.68400002 -0.051569041 1.227137e-38 335 283
0.01918848 0.68400002 -0.051569041 1.2453234e-38 336 283
0.020387759 0.68400002 -0.051569041 1.1623114e-38 337 283
0.02158704 0.68400002 -0.051569041 1.0057956e-38 338 283
0.022852944 0.68599999 -0.051719822 1.0519293e-38 339 283
0.024055731 0.68599999 -0.051719822 1.1623481e-38 340 283
0.025295338 0.68699998 -0.051795214 1.1716035e-38 341 283
0.026499879 0.68699998 -0.051795214 1.1531661e-38 342 283
0.027744746 0.68800002 -0.051870614 1.1531661e-38 343 283
0.029035198 0.69 -0.052021399 1.1070701e-38 344 283
0.030244999 0.69 -0.052021399 1.0886309e-38 345 283
0.031500384 0.69099998 -0.052096792 1.0335303e-38 346 283
0.032711938 0.69099998 -0.052096792 1.0243108e-38 347 283
0.034070771 0.69400001 -0.052322973 1.0334587e-38 348 283
0.035389278 0.69599998 -0.052473757 1.0242392e-38 349 283
0.036662199 0.69700003 -0.052549154 1.0240592e-38 350 283
0.037938625 0.69800001 -0.052624546 1.0240592e-38 351 283
0.039162453 0.69800001 -0.052624546 1.0698691e-38 352 283
0.040386278 0.69800001 -0.052624546 1.0330269e-38 353 283
0.041729331 0.69999999 -0.052775331 1.2444985e-38 354 283
0.042956665 0.69999999 -0.052775331 1.4565483e-38 355 283
-0.019833706 0.70700002 -0.054542694 1.6870728e-38 304 284
-0.018567799 0.70599997 -0.054465543 1.6501586e-38 305 284
-0.017329946 0.70599997 -0.054465543 1.6042781e-38 306 284
-0.016046507 0.704 -0.054311249 1.3461303e-38 307 284
-0.014791119 0.70300001 -0.054234106 8.9502194e-39 308 284
-0.013519952 0.70099998 -0.054079808 1.0517547e-38 309 284
-0.012238266 0.69800001 -0.053848371 1.0522964e-38 310 284
-0.01099866 0.69700003 -0.053771228 1.0706995e-38 311 284
-0.0097625591 0.69599998 -0.053694077 1.0616597e-38 312 284
-0.0085176928 0.69400001 -0.053539783 1.0800989e-38 313 284
-0.0073008798 0.69400001 -0.053539783 1.1259802e-38 314 284
-0.0060753003 0.69300002 -0.053462639 1.1444194e-38 315 284
-0.0048462129 0.69099998 -0.053308345 1.162786e-38 316 284
-0.0036346598 0.69099998 -0.053308345 1.1351632e-38 317 284
-0.0024195998 0.69 -0.053231198 1.1351629e-38 318 284
-0.0012062934 0.68800002 -0.053076908 1.1627857e-38 319 284
0 0.68699998 -0.052999757 1.1902284e-38 320 284
0.0012045399 0.68699998 -0.052999757 1.1625339e-38 321 284
0.0024090798 0.68699998 -0.052999757 1.1165082e-38 322 284
0.00360836 0.68599999 -0.05292261 1.0888856e-38 323 284
0.0048111463 0.68599999 -0.05292261 1.0614064e-38 324 284
0.0060139326 0.68599999 -0.05292261 1.0706259e-38 325 284
0.0071956799 0.68400002 -0.05276832 1.1164719e-38 326 284
0.0083949603 0.68400002 -0.05276832 1.0979969e-38 327 284
0.0096222926 0.68599999 -0.05292261 1.0794855e-38 328 284
0.010825079 0.68599999 -0.05292261 1.0794855e-38 329 284
0.012027865 0.68599999 -0.05292261 9.5963189e-39 330 284
0.013230653 0.68599999 -0.05292261 8.6740025e-39 331 284
0.01439136 0.68400002 -0.05276832 1.0244558e-38 332 284
0.01559064 0.68400002 -0.05276832 1.1442743e-38 333 284
0.016839013 0.68599999 -0.05292261 1.2269947e-38 334 284
0.018041799 0.68599999 -0.05292261 1.2177752e-38 335 284
0.019244585 0.68599999 -0.05292261 1.2452881e-38 336 284
0.020447372 0.68599999 -0.05292261 1.1715316e-38 337 284
0.021650158 0.68599999 -0.05292261 1.0885195e-38 338 284
0.022886258 0.68699998 -0.052999757 1.1253978e-38 339 284
0.024090799 0.68699998 -0.052999757 1.1440537e-38 340 284
0.02533216 0.68800002 -0.053076908 1.1348341e-38 341 284
0.026538454 0.68800002 -0.053076908 1.116397e-38 342 284
0.027825398 0.69 -0.053231198 1.116397e-38 343 284
0.029077278 0.69099998 -0.053308345 1.079484e-38 344 284
0.030288832 0.69099998 -0.053308345 1.0610448e-38 345 284
0.031591557 0.69300002 -0.053462639 1.0242392e-38 346 284
0.03280662 0.69300002 -0.053462639 1.005764e-38 347 284
0.034070771 0.69400001 -0.053539783 9.7817793e-39 348 284
0.035389278 0.69599998 -0.053694077 9.3211599e-39 349 284
0.036662199 0.69700003 -0.053771228 9.5026687e-39 350 284
0.037938625 0.69800001 -0.053848371 1.0793408e-38 351 284
0.039162453 0.69800001 -0.053848371 1.2540789e-38 352 284
0.040386278 0.69800001 -0.053848371 1.2632985e-38 353 284
0.041729331 0.69999999 -0.054002665 1.4010143e-38 354 284
0.042956665 0.69999999 -0.054002665 1.5116489e-38 355 284
-0.018594101 0.70700002 -0.055782299 1.5580706e-38 305 285
-0.017354494 0.70700002 -0.055782299 1.6320441e-38 306 285
-0.016092092 0.70599997 -0.055703394 1.4937507e-38 307 285
-0.014812159 0.704 -0.055545598 9.7803318e-39 308 285
-0.013519952 0.70099998 -0.055308893 9.9650818e-39 309 285
-0.012273333 0.69999999 -0.055229999 1.1258001e-38 310 285
-0.01101444 0.69800001 -0.0550722 1.1350197e-38 311 285
-0.0097765867 0.69700003 -0.054993302 1.0983938e-38 312 285
-0.0085422397 0.69599998 -0.054914396 1.0799547e-38 313 285
-0.0073008798 0.69400001 -0.054756597 1.0983582e-38 314 285
-0.0060840664 0.69400001 -0.054756597 1.0983582e-38 315 285
-0.00486024 0.69300002 -0.054677699 1.0525478e-38 316 285
-0.0036346598 0.69099998 -0.054519895 1.0525478e-38 317 285
-0.0024231065 0.69099998 -0.054519895 1.0984291e-38 318 285
-0.0012097999 0.69 -0.054440998 1.1168682e-38 319 285
0 0.68800002 -0.054283202 1.162786e-38 320 285
0.0012062934 0.68800002 -0.054283202 1.1812251e-38 321 285
0.0024090798 0.68699998 -0.054204296 1.2179594e-38 322 285
0.0036136196 0.68699998 -0.054204296 1.1994844e-38 323 285
0.0048181596 0.68699998 -0.054204296 1.1994844e-38 324 285
0.0060226996 0.68699998 -0.054204296 1.1810452e-38 325 285
0.0072272392 0.68699998 -0.054204296 1.1718259e-38 326 285
0.0084317802 0.68699998 -0.054204296 1.1718259e-38 327 285
0.0096363192 0.68699998 -0.054204296 1.1533146e-38 328 285
0.010840859 0.68699998 -0.054204296 1.1533146e-38 329 285
0.012045399 0.68699998 -0.054204296 1.0610111e-38 330 285
0.013249939 0.68699998 -0.054204296 9.3193719e-39 331 285
0.01443344 0.68599999 -0.054125395 1.0427152e-38 332 285
0.015636226 0.68599999 -0.054125395 1.1902282e-38 333 285
0.016839013 0.68599999 -0.054125395 1.2820969e-38 334 285
0.018041799 0.68599999 -0.054125395 1.2359992e-38 335 285
0.019272638 0.68699998 -0.054204296 1.1898628e-38 336 285
0.020477179 0.68699998 -0.054204296 1.1161062e-38 337 285
0.021681719 0.68699998 -0.054204296 1.0151233e-38 338 285
0.022919573 0.68800002 -0.054283202 1.1257222e-38 339 285
0.024125867 0.68800002 -0.054283202 1.1991215e-38 340 285
0.02533216 0.68800002 -0.054283202 1.1806824e-38 341 285
0.026538454 0.68800002 -0.054283202 1.143913e-38 342 285
0.027865725 0.69099998 -0.054519895 1.1070706e-38 343 285
0.029161438 0.69300002 -0.054677699 1.0977436e-38 344 285
0.0303765 0.69300002 -0.054677699 1.0793045e-38 345 285
0.031591557 0.69300002 -0.054677699 1.0242036e-38 346 285
0.032853961 0.69400001 -0.054756597 1.0057643e-38 347 285
0.034070771 0.69400001 -0.054756597 9.594514e-39 348 285
0.035389278 0.69599998 -0.054914396 9.2260916e-39 349 285
0.036662199 0.69700003 -0.054993302 9.7760116e-39 350 285
0.037938625 0.69800001 -0.0550722 1.1896871e-38 351 285
0.039162453 0.69800001 -0.0550722 1.4014108e-38 352 285
0.040502001 0.69999999 -0.055229999 1.4106304e-38 353 285
0.041729331 0.69999999 -0.055229999 1.4014809e-38 354 285
0.042956665 0.69999999 -0.055229999 1.4107005e-38 355 285
0.044183996 0.69999999 -0.055229999 1.6684506e-38 356 285
-0.018594101 0.70700002 -0.057021905 1.4567263e-38 305 286
-0.017354494 0.70700002 -0.057021905 1.5029688e-38 306 286
-0.016092092 0.70599997 -0.056941248 1.5398112e-38 307 286
-0.014812159 0.704 -0.056779943 1.1808626e-38 308 286
-0.013519952 0.70099998 -0.056537982 1.1070701e-38 309 286
-0.012273333 0.69999999 -0.056457333 1.107432e-38 310 286
-0.011045999 0.69999999 -0.056457333 1.1535297e-38 311 286
-0.0097906133 0.69800001 -0.056296028 1.0615878e-38 312 286
-0.0085545136 0.69700003 -0.056215372 8.955997e-39 313 286
-0.0073219193 0.69599998 -0.056134716 9.3265872e-39 314 286
-0.0060840664 0.69400001 -0.055973411 9.9719566e-39 315 286
-0.00486024 0.69300002 -0.055892758 1.0523327e-38 316 286
-0.0036451798 0.69300002 -0.055892758 1.0615881e-38 317 286
-0.0024231065 0.69099998 -0.055731449 1.1166534e-38 318 286
-0.0012115532 0.69099998 -0.055731449 1.1166534e-38 319 286
0 0.69 -0.055650797 1.1442042e-38 320 286
0.0012062934 0.68800002 -0.055489492 1.1442042e-38 321 286
0.0024125867 0.68800002 -0.055489492 1.1258727e-38 322 286
0.0036188802 0.68800002 -0.055489492 1.1258727e-38 323 286
0.0048251734 0.68800002 -0.055489492 1.1351997e-38 324 286
0.0060314666 0.68800002 -0.055489492 1.1167247e-38 325 286
0.0072377604 0.68800002 -0.055489492 1.1350199e-38 326 286
0.0084440531 0.68800002 -0.055489492 1.1350199e-38 327 286
0.0096503468 0.68800002 -0.055489492 1.1258001e-38 328 286
0.010856641 0.68800002 -0.055489492 1.1350197e-38 329 286
0.012045399 0.68699998 -0.055408835 1.162462e-38 330 286
0.013249939 0.68699998 -0.055408835 1.0887055e-38 331 286
0.014454478 0.68699998 -0.055408835 9.9643783e-39 332 286
0.015659019 0.68699998 -0.055408835 9.2264546e-39 333 286
0.01686356 0.68699998 -0.055408835 9.5001562e-39 334 286
0.018068098 0.68699998 -0.055408835 8.4860057e-39 335 286
0.019272638 0.68699998 -0.055408835 5.9081013e-39 336 286
0.020506985 0.68800002 -0.055489492 3.7876018e-39 337 286
0.021713281 0.68800002 -0.055489492 4.2568589e-39 338 286
0.022986198 0.69 -0.055650797 9.4198141e-39 339 286
0.024195999 0.69 -0.055650797 1.3463118e-38 340 286
0.025405798 0.69 -0.055650797 1.3186891e-38 341 286
0.026615599 0.69 -0.055650797 1.281738e-38 342 286
0.027865725 0.69099998 -0.055731449 1.2264206e-38 343 286
0.029161438 0.69300002 -0.055892758 1.0703363e-38 344 286
0.0303765 0.69300002 -0.055892758 1.0334941e-38 345 286
0.031591557 0.69300002 -0.055892758 1.0060514e-38 346 286
0.032853961 0.69400001 -0.055973411 9.3229494e-39 347 286
0.034168959 0.69599998 -0.056134716 7.5683626e-39 348 286
0.035440128 0.69700003 -0.056215372 8.1215349e-39 349 286
0.0367148 0.69800001 -0.056296028 9.7763675e-39 350 286
0.037938625 0.69800001 -0.056296028 1.2357845e-38 351 286
0.039274666 0.69999999 -0.056457333 1.4474714e-38 352 286
0.040502001 0.69999999 -0.056457333 1.4013736e-38 353 286
0.041788943 0.70099998 -0.056537982 1.3279745e-38 354 286
0.043018032 0.70099998 -0.056537982 1.3556331e-38 355 286
0.044247117 0.70099998 -0.056537982 1.6778491e-38 356 286
-0.017329946 0.70599997 -0.058179103 1.364962e-38 306 287
-0.016092092 0.70599997 -0.058179103 1.4571935e-38 307 287
-0.014812159 0.704 -0.058014292 1.3835478e-38 308 287
-0.013558527 0.70300001 -0.057931885 1.3190109e-38 309 287
-0.012290866 0.70099998 -0.057767071 1.2729516e-38 310 287
-0.011045999 0.69999999 -0.05768466 1.3006461e-38 311 287
-0.0097906133 0.69800001 -0.057519849 1.263518e-38 312 287
-0.0085667865 0.69800001 -0.057519849 9.9615071e-39 313 287
-0.00733244 0.69700003 -0.05743745 8.4975299e-39 314 287
-0.0061015999 0.69599998 -0.057355035 1.0341084e-38 315 287
-0.0048672534 0.69400001 -0.057190225 1.1257648e-38 316 287
-0.0036451798 0.69300002 -0.057107817 1.0981421e-38 317 287
-0.00243012 0.69300002 -0.057107817 1.0431134e-38 318 287
-0.00121506 0.69300002 -0.057107817 1.0431134e-38 319 287
0 0.69099998 -0.056942999 1.0340017e-38 320 287
0.0012097999 0.69 -0.0568606 1.0340017e-38 321 287
0.0024195998 0.69 -0.0568606 1.0523683e-38 322 287
0.0036293997 0.69 -0.0568606 1.0615878e-38 323 287
0.0048391996 0.69 -0.0568606 1.116725e-38 324 287
0.0060489997 0.69 -0.0568606 1.1075055e-38 325 287
0.0072587994 0.69 -0.0568606 1.1349846e-38 326 287
0.0084686 0.69 -0.0568606 1.0981065e-38 327 287
0.0096503468 0.68800002 -0.056695789 1.0889944e-38 328 287
0.010856641 0.68800002 -0.056695789 1.098214e-38 329 287
0.012062933 0.68800002 -0.056695789 1.1623186e-38 330 287
0.013269227 0.68800002 -0.056695789 1.1070014e-38 331 287
0.014475521 0.68800002 -0.056695789 8.3059458e-39 332 287
0.015681813 0.68800002 -0.056695789 6.277642e-39 333 287
0.016888106 0.68800002 -0.056695789 6.9194212e-39 334 287
0.0180944 0.68800002 -0.056695789 6.3662475e-39 335 287
0.019300694 0.68800002 -0.056695789 4.153565e-39 336 287
0.020506985 0.68800002 -0.056695789 2.2174567e-39 337 287
0.021776399 0.69 -0.0568606 1.9862004e-41 338 287
0.023019511 0.69099998 -0.056942999 5.7399525e-39 339 287
0.024231065 0.69099998 -0.056942999 1.2363613e-38 340 287
0.025442619 0.69099998 -0.056942999 1.2732037e-38 341 287
0.026654173 0.69099998 -0.056942999 1.4014474e-38 342 287
0.027946379 0.69300002 -0.057107817 1.3553496e-38 343 287
0.029161438 0.69300002 -0.057107817 1.2909929e-38 344 287
0.0303765 0.69300002 -0.057107817 1.2725536e-38 345 287
0.031637147 0.69400001 -0.057190225 1.2265278e-38 346 287
0.032948639 0.69599998 -0.057355035 1.1619909e-38 347 287
0.034168959 0.69599998 -0.057355035 1.042209e-38 348 287
0.035440128 0.69700003 -0.05743745 1.0514287e-38 349 287
0.0367148 0.69800001 -0.057519849 1.1802858e-38 350 287
0.038047329 0.69999999 -0.05768466 1.3185793e-38 351 287
0.039274666 0.69999999 -0.05768466 1.4015162e-38 352 287
0.040559858 0.70099998 -0.057767071 1.3369793e-38 353 287
0.041908171 0.70300001 -0.057931885 1.2175173e-38 354 287
0.043202132 0.704 -0.058014292 1.3834695e-38 355 287
0.044436477 0.704 -0.058014292 1.7514607e-38 356 287
-0.017329946 0.70599997 -0.059416957 1.2449982e-38 306 288
-0.016092092 0.70599997 -0.059416957 1.3556328e-38 307 288
-0.014812159 0.704 -0.059248637 1.457267e-38 308 288
-0.013558527 0.70300001 -0.059164476 1.4941453e-38 309 288
-0.012290866 0.70099998 -0.058996156 1.4480147e-38 310 288
-0.011045999 0.69999999 -0.058911994 1.4572342e-38 311 288
-0.0098186666 0.69999999 -0.058911994 1.3924819e-38 312 288
-0.0085667865 0.69800001 -0.058743682 1.0421384e-38 313 288
-0.0073429602 0.69800001 -0.058743682 8.3120373e-39 314 288
-0.0061103669 0.69700003 -0.05865952 1.1262299e-38 315 288
-0.0048812795 0.69599998 -0.058575355 1.2268912e-38 316 288
-0.0036504399 0.69400001 -0.058407038 1.1439511e-38 317 288
-0.0024336267 0.69400001 -0.058407038 1.0155256e-38 318 288
-0.00121506 0.69300002 -0.058322877 1.0339287e-38 319 288
0 0.69300002 -0.058322877 1.0706273e-38 320 288
0.0012115532 0.69099998 -0.058154557 1.0798828e-38 321 288
0.0024231065 0.69099998 -0.058154557 1.1349478e-38 322 288
0.0036346598 0.69099998 -0.058154557 1.0704108e-38 323 288
0.0048462129 0.69099998 -0.058154557 8.3145806e-39 324 288
0.0060577663 0.69099998 -0.058154557 8.6830044e-39 325 288
0.0072693196 0.69099998 -0.058154557 1.0244575e-38 326 288
0.008480873 0.69099998 -0.058154557 1.0613357e-38 327 288
0.0096783992 0.69 -0.058070395 1.0704111e-38 328 288
0.010888199 0.69 -0.058070395 1.0334969e-38 329 288
0.012097999 0.69 -0.058070395 9.2286224e-39 330 288
0.0133078 0.69 -0.058070395 7.9378836e-39 331 288
0.014475521 0.68800002 -0.057902083 5.3589283e-39 332 288
0.015681813 0.68800002 -0.057902083 4.6213632e-39 333 288
0.0169372 0.69 -0.058070395 4.7081709e-39 334 288
0.018146999 0.69 -0.058070395 4.6159752e-39 335 288
0.019356798 0.69 -0.058070395 5.1634037e-39 336 288
0.020566599 0.69 -0.058070395 4.9790124e-39 337 288
0.021807959 0.69099998 -0.058154557 2.8700134e-39 338 288
0.023019511 0.69099998 -0.058154557 6.8344255e-39 339 288
0.024231065 0.69099998 -0.058154557 1.1345862e-38 340 288
0.025442619 0.69099998 -0.058154557 1.3374166e-38 341 288
0.02673132 0.69300002 -0.058322877 1.4474729e-38 342 288
0.027946379 0.69300002 -0.058322877 1.4198503e-38 343 288
0.029161438 0.69300002 -0.058322877 1.4382531e-38 344 288
0.030420333 0.69400001 -0.058407038 1.41985e-38 345 288
0.031637147 0.69400001 -0.058407038 1.4014825e-38 346 288
0.03299598 0.69700003 -0.05865952 1.3646401e-38 347 288
0.034218054 0.69700003 -0.05865952 1.3828994e-38 348 288
0.035490975 0.69800001 -0.058743682 1.4289972e-38 349 288
0.036819998 0.69999999 -0.058911994 1.4107729e-38 350 288
0.038047329 0.69999999 -0.058911994 1.3831144e-38 351 288
0.039330769 0.70099998 -0.058996156 1.3096053e-38 352 288
0.040675577 0.70300001 -0.059164476 1.1805316e-38 353 288
0.041967787 0.704 -0.059248637 1.0982373e-38 354 288
0.043324865 0.70599997 -0.059416957 1.4024827e-38 355 288
0.044562716 0.70599997 -0.059416957 1.7791201e-38 356 288
-0.017329946 0.70599997 -0.060654808 1.3001338e-38 306 289
-0.016092092 0.70599997 -0.060654808 1.2632914e-38 307 289
-0.014812159 0.704 -0.060482983 1.2181678e-38 308 289
-0.013577812 0.704 -0.060482983 1.3472417e-38 309 289
-0.012325933 0.70300001 -0.06039707 1.4756724e-38 310 289
-0.011061779 0.70099998 -0.060225245 1.4848921e-38 311 289
-0.0098186666 0.69999999 -0.060139328 1.4846403e-38 312 289
-0.0085913334 0.69999999 -0.060139328 1.3002849e-38 313 289
-0.0073429602 0.69800001 -0.059967503 1.0889907e-38 314 289
-0.006119133 0.69800001 -0.059967503 1.3194796e-38 315 289
-0.0048882933 0.69700003 -0.05988159 1.4294328e-38 316 289
-0.0036609597 0.69599998 -0.059795678 1.337237e-38 317 289
-0.0024336267 0.69400001 -0.059623852 1.2175997e-38 318 289
-0.0012168133 0.69400001 -0.059623852 1.1345878e-38 319 289
0 0.69300002 -0.05953794 9.8721953e-39 320 289
0.00121506 0.69300002 -0.05953794 9.5034142e-39 321 289
0.00243012 0.69300002 -0.05953794 9.2268287e-39 322 289
0.0036451798 0.69300002 -0.05953794 7.5673088e-39 323 289
0.00486024 0.69300002 -0.05953794 3.2503048e-39 324 289
0.0060753003 0.69300002 -0.05953794 6.2927606e-39 325 289
0.0072693196 0.69099998 -0.059366114 1.0888502e-38 326 289
0.008480873 0.69099998 -0.059366114 1.1533872e-38 327 289
0.0096783992 0.69 -0.059280202 1.0979251e-38 328 289
0.010888199 0.69 -0.059280202 1.0057293e-38 329 289
0.012097999 0.69 -0.059280202 8.8587539e-39 330 289
0.0133078 0.69 -0.059280202 7.4754593e-39 331 289
0.014517599 0.69 -0.059280202 7.013042e-39 332 289
0.015727401 0.69 -0.059280202 6.6442609e-39 333 289
0.0169372 0.69 -0.059280202 6.3666034e-39 334 289
0.018146999 0.69 -0.059280202 5.721234e-39 335 289
0.019356798 0.69 -0.059280202 5.9034714e-39 336 289
0.020596405 0.69099998 -0.059366114 7.009819e-39 337 289
0.021807959 0.69099998 -0.059366114 7.2885499e-39 338 289
0.02308614 0.69300002 -0.05953794 8.5792887e-39 339 289
0.024301201 0.69300002 -0.05953794 1.170924e-38 340 289
0.02551626 0.69300002 -0.05953794 1.4475109e-38 341 289
0.02673132 0.69300002 -0.05953794 1.4566926e-38 342 289
0.027946379 0.69300002 -0.05953794 1.4198503e-38 343 289
0.029203519 0.69400001 -0.059623852 1.4107376e-38 344 289
0.030420333 0.69400001 -0.059623852 1.401518e-38 345 289
0.031728316 0.69599998 -0.059795678 1.3647474e-38 346 289
0.03299598 0.69700003 -0.05988159 1.3647474e-38 347 289
0.034218054 0.69700003 -0.05988159 1.4015175e-38 348 289
0.035490975 0.69800001 -0.059967503 1.4107729e-38 349 289
0.036819998 0.69999999 -0.060139328 1.3555975e-38 350 289
0.038101684 0.70099998 -0.060225245 1.2910606e-38 351 289
0.039330769 0.70099998 -0.060225245 1.15341e-38 352 289
0.040733438 0.704 -0.060482983 1.051995e-38 353 289
0.042087011 0.70599997 -0.060654808 1.2178748e-38 354 289
0.043386232 0.70700002 -0.060740728 1.614316e-38 355 289
0.044625837 0.70700002 -0.060740728 1.8712078e-38 356 289
-0.016114887 0.70700002 -0.061980337 1.3092428e-38 307 290
-0.014854239 0.70599997 -0.061892662 1.0155482e-38 308 290
-0.013577812 0.704 -0.061717331 1.1630612e-38 309 290
-0.012343466 0.704 -0.061717331 1.3284801e-38 310 290
-0.01109334 0.70300001 -0.061629668 1.4298955e-38 311 290
-0.0098326923 0.70099998 -0.06145433 1.5401011e-38 312 290
-0.0085913334 0.69999999 -0.061366666 1.5308816e-38 313 290
-0.0073639993 0.69999999 -0.061366666 1.4941475e-38 314 290
-0.006119133 0.69800001 -0.061191335 1.5033671e-38 315 290
-0.0048882933 0.69700003 -0.061103668 1.5215914e-38 316 290
-0.00366622 0.69700003 -0.061103668 1.466274e-38 317 290
-0.0024406398 0.69599998 -0.061015997 1.2819916e-38 318 290
-0.0012168133 0.69400001 -0.060840666 1.1068199e-38 319 290
0 0.69400001 -0.060840666 7.2917939e-39 320 290
0.0012168133 0.69400001 -0.060840666 6.1854463e-39 321 290
0.00243012 0.69300002 -0.060752999 4.8029e-39 322 290
0.0036451798 0.69300002 -0.060752999 2.4983694e-39 323 290
0.00486024 0.69300002 -0.060752999 2.0604693e-41 324 290
0.0060753003 0.69300002 -0.060752999 4.725823e-39 325 290
0.0072903596 0.69300002 -0.060752999 1.2268207e-38 326 290
0.0085054198 0.69300002 -0.060752999 1.2913576e-38 327 290
0.0096924258 0.69099998 -0.060577665 1.1808638e-38 328 290
0.01090398 0.69099998 -0.060577665 1.0610095e-38 329 290
0.012115533 0.69099998 -0.060577665 9.8707282e-39 330 290
0.013327086 0.69099998 -0.060577665 8.7647407e-39 331 290
0.014538639 0.69099998 -0.060577665 8.5792733e-39 332 290
0.015750192 0.69099998 -0.060577665 8.394882e-39 333 290
0.016961746 0.69099998 -0.060577665 8.0246702e-39 334 290
0.0181733 0.69099998 -0.060577665 7.3793008e-39 335 290
0.019384852 0.69099998 -0.060577665 6.8290011e-39 336 290
0.020596405 0.69099998 -0.060577665 7.93535e-39 337 290
0.021871079 0.69300002 -0.060752999 8.9455349e-39 338 290
0.02308614 0.69300002 -0.060752999 9.0377305e-39 339 290
0.024301201 0.69300002 -0.060752999 1.097312e-38 340 290
0.02551626 0.69300002 -0.060752999 1.3646793e-38 341 290
0.02673132 0.69300002 -0.060752999 1.4015922e-38 342 290
0.027986705 0.69400001 -0.060840666 1.3923726e-38 343 290
0.029203519 0.69400001 -0.060840666 1.3923711e-38 344 290
0.030507999 0.69599998 -0.061015997 1.3739319e-38 345 290
0.03177391 0.69700003 -0.061103668 1.3831509e-38 346 290
0.03299598 0.69700003 -0.061103668 1.3831509e-38 347 290
0.034218054 0.69700003 -0.061103668 1.3832216e-38 348 290
0.035490975 0.69800001 -0.061191335 1.3279042e-38 349 290
0.036819998 0.69999999 -0.061366666 1.2361357e-38 350 290
0.038101684 0.70099998 -0.06145433 1.1439761e-38 351 290
0.039442986 0.70300001 -0.061629668 1.0430971e-38 352 290
0.040849157 0.70599997 -0.061892662 1.1076341e-38 353 290
0.042146627 0.70700002 -0.061980337 1.4847402e-38 354 290
0.043386232 0.70700002 -0.061980337 1.8166445e-38 355 290
0.044625837 0.70700002 -0.061980337 1.9448221e-38 356 290
-0.013577812 0.704 -0.062951677 1.144044e-38 309 291
-0.012343466 0.704 -0.062951677 1.0250941e-38 310 291
-0.011109119 0.704 -0.062951677 1.1449483e-38 311 291
-0.0098326923 0.70099998 -0.062683418 1.3194778e-38 312 291
-0.0086036054 0.70099998 -0.062683418 1.4116375e-38 313 291
-0.0073639993 0.69999999 -0.062593997 1.5309535e-38 314 291
-0.0061366665 0.69999999 -0.062593997 1.4940754e-38 315 291
-0.0048953067 0.69800001 -0.062415157 1.4480147e-38 316 291
-0.0036714801 0.69800001 -0.062415157 1.4111004e-38 317 291
-0.0024441467 0.69700003 -0.062325738 1.2176342e-38 318 291
-0.0012203199 0.69599998 -0.062236317 1.0885962e-38 319 291
0 0.69599998 -0.062236317 7.7531224e-39 320 291
0.0012168133 0.69400001 -0.06205748 6.0017641e-39 321 291
0.0024336267 0.69400001 -0.06205748 3.2384484e-39 322 291
0.0036504399 0.69400001 -0.06205748 1.947711e-39 323 291
0.00486024 0.69300002 -0.061968062 1.6648827e-41 324 291
0.0060753003 0.69300002 -0.061968062 4.6267905e-39 325 291
0.0072903596 0.69300002 -0.061968062 1.1254414e-38 326 291
0.0085054198 0.69300002 -0.061968062 1.4020283e-38 327 291
0.0097204801 0.69300002 -0.061968062 1.374438e-38 328 291
0.010935539 0.69300002 -0.061968062 1.3006815e-38 329 291
0.012150601 0.69300002 -0.061968062 1.2356405e-38 330 291
0.01336566 0.69300002 -0.061968062 1.097347e-38 331 291
0.014580719 0.69300002 -0.061968062 1.0236274e-38 332 291
0.015795778 0.69300002 -0.061968062 9.8674912e-39 333 291
0.01701084 0.69300002 -0.061968062 8.9476999e-39 334 291
0.018225901 0.69300002 -0.061968062 8.4867217e-39 335 291
0.01944096 0.69300002 -0.061968062 7.9357059e-39 336 291
0.020656019 0.69300002 -0.061968062 7.9357059e-39 337 291
0.021871079 0.69300002 -0.061968062 8.3023305e-39 338 291
0.02308614 0.69300002 -0.061968062 7.6569611e-39 339 291
0.024336265 0.69400001 -0.06205748 7.5701632e-39 340 291
0.025553079 0.69400001 -0.06205748 9.4140758e-39 341 291
0.026769891 0.69400001 -0.06205748 1.1806473e-38 342 291
0.028067358 0.69599998 -0.062236317 1.2544038e-38 343 291
0.029287677 0.69599998 -0.062236317 1.3647847e-38 344 291
0.030551834 0.69700003 -0.062325738 1.3924074e-38 345 291
0.03177391 0.69700003 -0.062325738 1.3739664e-38 346 291
0.033043321 0.69800001 -0.062415157 1.3279045e-38 347 291
0.034267146 0.69800001 -0.062415157 1.2545047e-38 348 291
0.035490975 0.69800001 -0.062415157 1.2084429e-38 349 291
0.036819998 0.69999999 -0.062593997 1.0799764e-38 350 291
0.038210396 0.70300001 -0.062862262 1.0338426e-38 351 291
0.039499093 0.704 -0.062951677 1.0797962e-38 352 291
0.040907022 0.70700002 -0.063219935 1.3471635e-38 353 291
0.042146627 0.70700002 -0.063219935 1.742386e-38 354 291
0.043447599 0.708 -0.063309364 1.9267773e-38 355 291
0.044688959 0.708 -0.063309364 1.9264551e-38 356 291
-0.013577812 0.704 -0.064186029 1.2357334e-38 309 292
-0.012343466 0.704 -0.064186029 9.514371e-39 310 292
-0.011109119 0.704 -0.064186029 1.015974e-38 311 292
-0.0098607466 0.70300001 -0.064094849 1.1263654e-38 312 292
-0.0086036054 0.70099998 -0.063912503 1.2646588e-38 313 292
-0.0073639993 0.69999999 -0.063821331 1.4390452e-38 314 292
-0.0061366665 0.69999999 -0.063821331 1.4482649e-38 315 292
-0.0049093333 0.69999999 -0.063821331 1.4205718e-38 316 292
-0.0036714801 0.69800001 -0.063638985 1.3376317e-38 317 292
-0.0024441467 0.69700003 -0.06354782 1.2913541e-38 318 292
-0.0012220733 0.69700003 -0.06354782 1.2452562e-38 319 292
0 0.69599998 -0.063456632 1.0792689e-38 320 292
0.0012168133 0.69400001 -0.063274294 8.4877965e-39 321 292
0.0024336267 0.69400001 -0.063274294 5.5390049e-39 322 292
0.0036504399 0.69400001 -0.063274294 3.5106997e-39 323 292
0.0048672534 0.69400001 -0.063274294 2.0355934e-39 324 292
0.0060840664 0.69400001 -0.063274294 3.9717002e-39 325 292
