# .PCD v.7 - Point Cloud Data file format
FIELDS x y z rgb imX imY
SIZE 4 4 4 4 4 4
TYPE F F F F F F
COUNT 1 1 1 1 1 1
WIDTH 852
HEIGHT 1
VIEWPOINT 0 0 0 1 0 0 0
POINTS 852
DATA ascii
0.021916665 0.625 0.081091665 1.5307364e-38 340 166
0.023086138 0.62699997 0.081351154 1.4938583e-38 341 166
-0.0055142329 0.62900001 0.0805078 1.6788276e-38 315 167
-0.0044113868 0.62900001 0.0805078 1.633054e-38 316 167
-0.00330854 0.62900001 0.0805078 1.6514932e-38 317 167
-0.0022056934 0.62900001 0.0805078 1.6607133e-38 318 167
-0.0011010934 0.62800002 0.080379814 1.6607133e-38 319 167
0 0.62699997 0.08025182 1.6422383e-38 320 167
0.00109408 0.62400001 0.07986784 1.6607133e-38 321 167
0.0021881601 0.62400001 0.07986784 1.6514937e-38 322 167
0.00327698 0.62300003 0.079739846 1.6514937e-38 323 167
0.0043693068 0.62300003 0.079739846 1.6698247e-38 324 167
0.0054528662 0.62199998 0.079611845 1.6329824e-38 325 167
0.0065434393 0.62199998 0.079611845 1.6696446e-38 326 167
0.0076340134 0.62199998 0.079611845 1.6512413e-38 327 167
0.0087245861 0.62199998 0.079611845 1.6328375e-38 328 167
0.0098151593 0.62199998 0.079611845 1.623618e-38 329 167
0.010905732 0.62199998 0.079611845 1.6143625e-38 330 167
0.011996306 0.62199998 0.079611845 1.605143e-38 331 167
0.013086879 0.62199998 0.079611845 1.5958148e-38 332 167
0.014177452 0.62199998 0.079611845 1.5681202e-38 333 167
0.015292573 0.62300003 0.079739846 1.5496444e-38 334 167
0.0163849 0.62300003 0.079739846 1.5127663e-38 335 167
0.017505281 0.62400001 0.07986784 1.5677591e-38 336 167
0.018599359 0.62400001 0.07986784 1.5401006e-38 337 167
0.01969344 0.62400001 0.07986784 1.5767623e-38 338 167
0.020820832 0.625 0.079995833 1.5582873e-38 339 167
0.021986797 0.62699997 0.08025182 1.5399561e-38 340 167
0.023122961 0.62800002 0.080379814 1.5122973e-38 341 167
0.024224052 0.62800002 0.080379814 1.6046378e-38 342 167
-0.0055142329 0.62900001 0.079404958 1.6879394e-38 315 168
-0.0044113868 0.62900001 0.079404958 1.6146148e-38 316 168
-0.00330854 0.62900001 0.079404958 1.6514932e-38 317 168
-0.0022056934 0.62900001 0.079404958 1.660713e-38 318 168
-0.0011010934 0.62800002 0.079278722 1.660713e-38 319 168
0 0.62800002 0.079278722 1.6515653e-38 320 168
0.0010958333 0.625 0.078899994 1.6423458e-38 321 168
0.0021881601 0.62400001 0.078773759 1.633054e-38 322 168
0.0032822399 0.62400001 0.078773759 1.633054e-38 323 168
0.0043693068 0.62300003 0.078647524 1.6329821e-38 324 168
0.0054616337 0.62300003 0.078647524 1.6145429e-38 325 168
0.0065434393 0.62199998 0.078521274 1.6328022e-38 326 168
0.0076340134 0.62199998 0.078521274 1.6420218e-38 327 168
0.0087245861 0.62199998 0.078521274 1.6235824e-38 328 168
0.0098151593 0.62199998 0.078521274 1.6143628e-38 329 168
0.010905732 0.62199998 0.078521274 1.6051065e-38 330 168
0.011996306 0.62199998 0.078521274 1.595887e-38 331 168
0.013086879 0.62199998 0.078521274 1.5957069e-38 332 168
0.014177452 0.62199998 0.078521274 1.5680482e-38 333 168
0.015292573 0.62300003 0.078647524 1.5495722e-38 334 168
0.0164112 0.62400001 0.078773759 1.5403527e-38 335 168
0.017505281 0.62400001 0.078773759 1.5769065e-38 336 168
0.018599359 0.62400001 0.078773759 1.5584674e-38 337 168
0.019724999 0.625 0.078899994 1.5584308e-38 338 168
0.020887459 0.62699997 0.079152472 1.5492113e-38 339 168
0.022021867 0.62800002 0.079278722 1.5399194e-38 340 168
0.023122961 0.62800002 0.079278722 1.5122248e-38 341 168
0.024224052 0.62800002 0.079278722 1.595418e-38 342 168
-0.0055229999 0.63 0.0784266 1.6510972e-38 315 169
-0.0044183997 0.63 0.0784266 1.6237624e-38 316 169
-0.0033137999 0.63 0.0784266 1.6790798e-38 317 169
-0.0022091998 0.63 0.0784266 1.660713e-38 318 169
-0.0011028467 0.62900001 0.078302108 1.6791161e-38 319 169
0 0.62900001 0.078302108 1.6791517e-38 320 169
0.0010993399 0.62699997 0.078053132 1.6883714e-38 321 169
0.0021986798 0.62699997 0.078053132 1.697411e-38 322 169
0.0032822399 0.62400001 0.077679679 1.6881915e-38 323 169
0.0043763202 0.62400001 0.077679679 1.633054e-38 324 169
0.0054616337 0.62300003 0.077555194 1.6238345e-38 325 169
0.00655396 0.62300003 0.077555194 1.6421293e-38 326 169
0.0076462864 0.62300003 0.077555194 1.6236543e-38 327 169
0.0087386137 0.62300003 0.077555194 1.6511685e-38 328 169
0.0098151593 0.62199998 0.077430703 1.6419489e-38 329 169
0.010905732 0.62199998 0.077430703 1.6326572e-38 330 169
0.011996306 0.62199998 0.077430703 1.6050344e-38 331 169
0.013086879 0.62199998 0.077430703 1.6325126e-38 332 169
0.014200246 0.62300003 0.077555194 1.6048899e-38 333 169
0.01531712 0.62400001 0.077679679 1.5864857e-38 334 169
0.016437499 0.625 0.077804163 1.5496075e-38 335 169
0.017533332 0.625 0.077804163 1.5770137e-38 336 169
0.018629165 0.625 0.077804163 1.5585746e-38 337 169
0.019788118 0.62699997 0.078053132 1.5768339e-38 338 169
0.020920772 0.62800002 0.078177623 1.5399916e-38 339 169
0.022021867 0.62800002 0.078177623 1.5215166e-38 340 169
0.02315978 0.62900001 0.078302108 1.4846743e-38 341 169
0.024262626 0.62900001 0.078302108 1.5401727e-38 342 169
-0.0055229999 0.63 0.077321991 1.5866315e-38 315 170
-0.0044183997 0.63 0.077321991 1.6421293e-38 316 170
-0.0033137999 0.63 0.077321991 1.7158859e-38 317 170
-0.0022091998 0.63 0.077321991 1.6882997e-38 318 170
-0.0011045999 0.63 0.077321991 1.6882997e-38 319 170
0 0.62900001 0.077199265 1.6883717e-38 320 170
0.0011010934 0.62800002 0.077076539 1.6975913e-38 321 170
0.0021986798 0.62699997 0.076953799 1.7526209e-38 322 170
0.0032875 0.625 0.076708332 1.7434014e-38 323 170
0.0043763202 0.62400001 0.076585598 1.651565e-38 324 170
0.0054704002 0.62400001 0.076585598 1.6423455e-38 325 170
0.00655396 0.62300003 0.076462865 1.6514209e-38 326 170
0.0076462864 0.62300003 0.076462865 1.6237622e-38 327 170
0.0087386137 0.62300003 0.076462865 1.6512767e-38 328 170
0.0098309405 0.62300003 0.076462865 1.6328375e-38 329 170
0.010923267 0.62300003 0.076462865 1.6235458e-38 330 170
0.012015593 0.62300003 0.076462865 1.6143262e-38 331 170
0.01310792 0.62300003 0.076462865 1.6326205e-38 332 170
0.014200246 0.62300003 0.076462865 1.6049618e-38 333 170
0.015341667 0.625 0.076708332 1.5957049e-38 334 170
0.016437499 0.625 0.076708332 1.5680463e-38 335 170
0.017589439 0.62699997 0.076953799 1.5677942e-38 336 170
0.018688779 0.62699997 0.076953799 1.5401715e-38 337 170
0.019788118 0.62699997 0.076953799 1.5584308e-38 338 170
0.020920772 0.62800002 0.077076539 1.5307361e-38 339 170
0.022056932 0.62900001 0.077199265 1.5398841e-38 340 170
0.02315978 0.62900001 0.077199265 1.521445e-38 341 170
0.024262626 0.62900001 0.077199265 1.4848921e-38 342 170
0.025446124 0.63099998 0.077444725 1.5771236e-38 343 170
-0.004425413 0.63099998 0.076338373 1.5961035e-38 316 171
-0.0033190597 0.63099998 0.076338373 1.7343969e-38 317 171
-0.0022127065 0.63099998 0.076338373 1.7160307e-38 318 171
-0.0011045999 0.63 0.076217398 1.6975557e-38 319 171
0 0.63 0.076217398 1.6883361e-38 320 171
0.0011028467 0.62900001 0.076096416 1.6883361e-38 321 171
0.0022021867 0.62800002 0.07597544 1.6791161e-38 322 171
0.0032980198 0.62699997 0.07585445 1.6514934e-38 323 171
0.004383333 0.625 0.0756125 1.6331259e-38 324 171
0.0054704002 0.62400001 0.075491518 1.6055032e-38 325 171
0.00655396 0.62300003 0.075370543 1.6421293e-38 326 171
0.0076462864 0.62300003 0.075370543 1.6421293e-38 327 171
0.0087526403 0.62400001 0.075491518 1.6236899e-38 328 171
0.0098467199 0.62400001 0.075491518 1.5683725e-38 329 171
0.0109408 0.62400001 0.075491518 1.5866315e-38 330 171
0.01203488 0.62400001 0.075491518 1.5866315e-38 331 171
0.01312896 0.62400001 0.075491518 1.5681202e-38 332 171
0.01422304 0.62400001 0.075491518 1.5589005e-38 333 171
0.015341667 0.625 0.0756125 1.5863782e-38 334 171
0.016490098 0.62699997 0.07585445 1.5679391e-38 335 171
0.017589439 0.62699997 0.07585445 1.577014e-38 336 171
0.018688779 0.62699997 0.07585445 1.5401359e-38 337 171
0.019819681 0.62800002 0.07597544 1.5585027e-38 338 171
0.020920772 0.62800002 0.07597544 1.5585027e-38 339 171
0.022056932 0.62900001 0.076096416 1.5767623e-38 340 171
0.023196599 0.63 0.076217398 1.4937504e-38 341 171
0.024301199 0.63 0.076217398 1.3743648e-38 342 171
0.025446124 0.63099998 0.076338373 1.4665965e-38 343 171
-0.004425413 0.63099998 0.075232022 1.4026025e-38 316 172
-0.0033190597 0.63099998 0.075232022 1.6514947e-38 317 172
-0.0022127065 0.63099998 0.075232022 1.7252516e-38 318 172
-0.0011045999 0.63 0.075112797 1.734471e-38 319 172
0 0.63 0.075112797 1.7067755e-38 320 172
0.0011028467 0.62900001 0.074993573 1.6791167e-38 321 172
0.0022021867 0.62800002 0.074874349 1.6607133e-38 322 172
0.0033032801 0.62800002 0.074874349 1.6514937e-38 323 172
0.0043973597 0.62699997 0.074755117 1.6513853e-38 324 172
0.0054791663 0.625 0.074516661 1.6237624e-38 325 172
0.0065644798 0.62400001 0.074397437 1.6420571e-38 326 172
0.0076585598 0.62400001 0.074397437 1.6328375e-38 327 172
0.0087666661 0.625 0.074516661 1.6143981e-38 328 172
0.0098624993 0.625 0.074516661 1.5590807e-38 329 172
0.010958333 0.625 0.074516661 1.5405693e-38 330 172
0.01203488 0.62400001 0.074397437 1.5590086e-38 331 172
0.01312896 0.62400001 0.074397437 1.5589359e-38 332 172
0.014245833 0.625 0.074516661 1.5220936e-38 333 172
0.015390759 0.62699997 0.074755117 1.5863782e-38 334 172
0.016490098 0.62699997 0.074755117 1.5771586e-38 335 172
0.017589439 0.62699997 0.074755117 1.5862337e-38 336 172
0.018688779 0.62699997 0.074755117 1.577014e-38 337 172
0.019819681 0.62800002 0.074874349 1.5770493e-38 338 172
0.020920772 0.62800002 0.074874349 1.586269e-38 339 172
0.022127066 0.63099998 0.075232022 1.5766899e-38 340 172
0.023233417 0.63099998 0.075232022 1.4107376e-38 341 172
0.024339773 0.63099998 0.075232022 1.1628897e-38 342 172
-0.0033190597 0.63099998 0.07412567 8.3235405e-39 317 173
-0.0022127065 0.63099998 0.07412567 1.3477536e-38 318 173
-0.0011045999 0.63 0.074008197 1.5598035e-38 319 173
0 0.63 0.074008197 1.771277e-38 320 173
0.0011045999 0.63 0.074008197 1.7620576e-38 321 173
0.0022056934 0.62900001 0.073890723 1.7528366e-38 322 173
0.0033032801 0.62800002 0.07377325 1.725142e-38 323 173
0.0043973597 0.62699997 0.073655777 1.6975188e-38 324 173
0.0054791663 0.625 0.07342083 1.6882991e-38 325 173
0.006575 0.625 0.07342083 1.6698597e-38 326 173
0.0076708333 0.625 0.07342083 1.6606401e-38 327 173
0.0087947194 0.62699997 0.073655777 1.6880474e-38 328 173
0.009894059 0.62699997 0.073655777 1.6696082e-38 329 173
0.010993399 0.62699997 0.073655777 1.660352e-38 330 173
0.012054166 0.625 0.07342083 1.6510966e-38 331 173
0.01315 0.625 0.07342083 1.6786464e-38 332 173
0.014245833 0.625 0.07342083 1.6602073e-38 333 173
0.015390759 0.62699997 0.073655777 1.6877211e-38 334 173
0.016490098 0.62699997 0.073655777 1.6692819e-38 335 173
0.017589439 0.62699997 0.073655777 1.6508425e-38 336 173
0.018718587 0.62800002 0.07377325 1.6047447e-38 337 173
0.019819681 0.62800002 0.07377325 1.5860891e-38 338 173
0.020920772 0.62800002 0.07377325 1.3648197e-38 339 173
0.022127066 0.63099998 0.07412567 1.0972737e-38 340 173
0.023233417 0.63099998 0.07412567 6.5477072e-39 341 173
0.024339773 0.63099998 0.07412567 8.5940037e-39 342 173
-0.0022127065 0.63099998 0.073019318 7.6746006e-39 318 174
-0.0011063532 0.63099998 0.073019318 1.0993643e-38 319 174
0 0.63099998 0.073019318 1.4671395e-38 320 174
0.0011045999 0.63 0.072903596 1.5962133e-38 321 174
0.0022056934 0.62900001 0.072787881 1.6790442e-38 322 174
0.0033032801 0.62800002 0.072672158 1.6975194e-38 323 174
0.0043973597 0.62699997 0.072556436 1.6975188e-38 324 174
0.0054966994 0.62699997 0.072556436 1.7251774e-38 325 174
0.0065960395 0.62699997 0.072556436 1.7343248e-38 326 174
0.0076953797 0.62699997 0.072556436 1.7158856e-38 327 174
0.0088087469 0.62800002 0.072672158 1.7524761e-38 328 174
0.0099098403 0.62800002 0.072672158 1.7156338e-38 329 174
0.010993399 0.62699997 0.072556436 1.6971227e-38 330 174
0.012092739 0.62699997 0.072556436 1.6786477e-38 331 174
0.013192079 0.62699997 0.072556436 1.7061972e-38 332 174
0.01429142 0.62699997 0.072556436 1.6785385e-38 333 174
0.015415306 0.62800002 0.072672158 1.6692101e-38 334 174
0.016516401 0.62800002 0.072672158 1.6322958e-38 335 174
0.017617494 0.62800002 0.072672158 1.5952731e-38 336 174
0.018718587 0.62800002 0.072672158 1.4661992e-38 337 174
0.019819681 0.62800002 0.072672158 1.4197052e-38 338 174
0.020920772 0.62800002 0.072672158 1.1523378e-38 339 174
0.022127066 0.63099998 0.073019318 7.4775696e-39 340 174
0.023233417 0.63099998 0.073019318 8.3998861e-39 341 174
-0.0011063532 0.63099998 0.071912967 6.1047371e-39 319 175
0 0.63099998 0.071912967 7.8503599e-39 320 175
0.0011045999 0.63 0.071799003 9.6942711e-39 321 175
0.0022091998 0.63 0.071799003 1.1815125e-38 322 175
0.0033032801 0.62800002 0.071571067 1.3105864e-38 323 175
0.0043973597 0.62699997 0.071457095 1.4578826e-38 324 175
0.0054966994 0.62699997 0.071457095 1.5592978e-38 325 175
0.006575 0.625 0.071229167 1.6236543e-38 326 175
0.0076708333 0.625 0.071229167 1.6236543e-38 327 175
0.0087947194 0.62699997 0.071457095 1.6510966e-38 328 175
0.009894059 0.62699997 0.071457095 1.641877e-38 329 175
0.010993399 0.62699997 0.071457095 1.6509873e-38 330 175
0.012092739 0.62699997 0.071457095 1.6048896e-38 331 175
0.013192079 0.62699997 0.071457095 1.5771583e-38 332 175
0.01429142 0.62699997 0.071457095 1.4941823e-38 333 175
0.015415306 0.62800002 0.071571067 1.4018424e-38 334 175
0.016516401 0.62800002 0.071571067 1.2727686e-38 335 175
0.017617494 0.62800002 0.071571067 1.1250403e-38 336 175
0.018718587 0.62800002 0.071571067 9.2220993e-39 337 175
0.019819681 0.62800002 0.071571067 9.583696e-39 338 175
0 0.63099998 0.070806608 8.1218853e-39 320 176
0.0011045999 0.63 0.070694394 8.1218853e-39 321 176
0.0022056934 0.62900001 0.070582189 8.7690694e-39 322 176
0.0033032801 0.62800002 0.070469975 9.138212e-39 323 176
0.0043973597 0.62699997 0.070357755 9.9650944e-39 324 176
0.0054791663 0.625 0.070133328 1.0518268e-38 325 176
0.0065644798 0.62400001 0.070021123 1.079701e-38 326 176
0.0076585598 0.62400001 0.070021123 1.1350184e-38 327 176
0.0087947194 0.62699997 0.070357755 1.1810787e-38 328 176
0.009894059 0.62699997 0.070357755 1.1902982e-38 329 176
0.010993399 0.62699997 0.070357755 1.1899373e-38 330 176
0.012092739 0.62699997 0.070357755 1.0977058e-38 331 176
0.013192079 0.62699997 0.070357755 1.0699385e-38 332 176
0.01429142 0.62699997 0.070357755 1.0514633e-38 333 176
0.015415306 0.62800002 0.070469975 1.0328801e-38 334 176
0.016516401 0.62800002 0.070469975 1.0052213e-38 335 176
0.017617494 0.62800002 0.070469975 8.6728884e-39 336 176
0.018718587 0.62800002 0.070469975 9.1338666e-39 337 176
0 0.63099998 0.069700256 1.1618463e-38 320 177
0.0011045999 0.63 0.069589794 1.0512116e-38 321 177
0.0022056934 0.62900001 0.069479339 8.6743374e-39 322 177
0.0033032801 0.62800002 0.069368884 7.660184e-39 323 177
0.0043973597 0.62699997 0.069258414 6.2776265e-39 324 177
0.0054791663 0.625 0.069037497 5.8166484e-39 325 177
0.0065644798 0.62400001 0.068927035 5.4511113e-39 326 177
0.0076585598 0.62400001 0.068927035 5.8195351e-39 327 177
0.0087947194 0.62699997 0.069258414 6.3730564e-39 328 177
0.009894059 0.62699997 0.069258414 6.9262287e-39 329 177
0.010993399 0.62699997 0.069258414 6.7389536e-39 330 177
0.012054166 0.625 0.069037497 5.7248031e-39 331 177
0.01315 0.625 0.069037497 5.9073965e-39 332 177
0.01429142 0.62699997 0.069258414 6.3683732e-39 333 177
0.015415306 0.62800002 0.069368884 7.7491413e-39 334 177
0.016516401 0.62800002 0.069368884 9.0398801e-39 335 177
0.017617494 0.62800002 0.069368884 1.0055463e-38 336 177
0.0011063532 0.63099998 0.068593897 1.4197418e-38 321 178
0.0022091998 0.63 0.0684852 1.309756e-38 322 178
0.00330854 0.62900001 0.068376496 1.3189755e-38 323 178
0.0044043735 0.62800002 0.068267785 1.2545108e-38 324 178
0.0054966994 0.62699997 0.068159074 1.1899738e-38 325 178
0.006575 0.625 0.067941666 1.1991215e-38 326 178
0.0076708333 0.625 0.067941666 1.1899019e-38 327 178
0.0087947194 0.62699997 0.068159074 1.1806821e-38 328 178
0.0098624993 0.625 0.067941666 1.1899017e-38 329 178
0.010958333 0.625 0.067941666 1.1991568e-38 330 178
0.012054166 0.625 0.067941666 1.1807177e-38 331 178
0.01315 0.625 0.067941666 1.1991215e-38 332 178
0.01429142 0.62699997 0.068159074 1.2359998e-38 333 178
0.015415306 0.62800002 0.068267785 1.2912448e-38 334 178
0.016516401 0.62800002 0.068267785 1.3096841e-38 335 178
0.0055054668 0.62800002 0.067166694 1.4850353e-38 325 179
0.006575 0.625 0.066845834 1.5217333e-38 326 179
0.0076708333 0.625 0.066845834 1.5309529e-38 327 179
0.0087947194 0.62699997 0.067059733 1.5032222e-38 328 179
0.0098624993 0.625 0.066845834 1.4571245e-38 329 179
0.010958333 0.625 0.066845834 1.4295381e-38 330 179
0.012054166 0.625 0.066845834 1.4387936e-38 331 179
0.01315 0.625 0.066845834 1.4664162e-38 332 179
0.0087947194 0.62699997 0.065960392 1.6047094e-38 328 180
0.009894059 0.62699997 0.065960392 1.5494279e-38 329 180
0.010958333 0.625 0.065749995 1.5311328e-38 330 180
0.012054166 0.625 0.065749995 1.5311328e-38 331 180
0.042669121 0.676 -0.0094820261 1.6685241e-38 356 248
0.043854371 0.676 -0.0094820261 1.9635501e-38 357 248
-0.015567848 0.68300003 -0.01077774 1.0521623e-38 307 249
-0.014370319 0.68300003 -0.01077774 8.8635603e-39 308 249
0.036851559 0.67799997 -0.010698839 7.3927967e-39 351 249
0.038040318 0.67799997 -0.010698839 8.49415e-39 352 249
0.039286941 0.67900002 -0.010714619 9.1395194e-39 353 249
0.040417835 0.67799997 -0.010698839 1.0878349e-38 354 249
0.041606598 0.67799997 -0.010698839 1.2814457e-38 355 249
0.042669121 0.676 -0.01066728 1.6685241e-38 356 249
0.043854371 0.676 -0.01066728 1.9635501e-38 357 249
-0.015545053 0.68199998 -0.011957732 1.1536132e-38 307 250
-0.01434928 0.68199998 -0.011957732 1.0981525e-38 308 250
-0.013037786 0.676 -0.011852534 1.0336516e-38 309 250
-0.011852534 0.676 -0.011852534 7.9459564e-39 310 250
-0.0094539737 0.67400002 -0.011817466 1.0339873e-38 312 250
-0.00824768 0.67199999 -0.011782399 1.0800851e-38 313 250
-0.0070694401 0.67199999 -0.011782399 1.0618632e-38 314 250
-0.0058824331 0.671 -0.011764866 1.0618632e-38 315 250
-0.0047059464 0.671 -0.011764866 1.0982741e-38 316 250
0.035557602 0.676 -0.011852534 7.3013045e-39 350 250
0.036742851 0.676 -0.011852534 7.5782501e-39 351 250
0.038040318 0.67799997 -0.011887599 9.2299144e-39 352 250
0.039229076 0.67799997 -0.011887599 9.5986955e-39 353 250
0.040417835 0.67799997 -0.011887599 1.0785797e-38 354 250
0.041606598 0.67799997 -0.011887599 1.2998132e-38 355 250
0.042795356 0.67799997 -0.011887599 1.686963e-38 356 250
0.043984115 0.67799997 -0.011887599 1.9543303e-38 357 250
-0.015499466 0.68000001 -0.013114933 1.1260267e-38 307 251
-0.01428616 0.67900002 -0.013095647 1.1259544e-38 308 251
-0.013037786 0.676 -0.013037786 1.1351739e-38 309 251
-0.011835 0.67500001 -0.0130185 1.0707134e-38 310 251
-0.01063572 0.67400002 -0.012999214 1.1259949e-38 311 251
-0.0094539737 0.67400002 -0.012999214 1.0709341e-38 312 251
-0.00824768 0.67199999 -0.012960639 1.0617144e-38 313 251
-0.0070694401 0.67199999 -0.012960639 1.0801204e-38 314 251
-0.0058824331 0.671 -0.012941353 1.0801204e-38 315 251
-0.0047059464 0.671 -0.012941353 1.0800148e-38 316 251
-0.0035294599 0.671 -0.012941353 1.0616117e-38 317 251
-0.0023529732 0.671 -0.012941353 1.1442993e-38 318 251
0 0.667 -0.012864206 8.4959647e-39 320 251
0.0011694733 0.667 -0.012864206 7.7583982e-39 321 251
0.0023354399 0.66600001 -0.01284492 6.7500043e-39 322 251
0.0035031599 0.66600001 -0.01284492 6.6578086e-39 323 251
0.0046708798 0.66600001 -0.01284492 7.5772664e-39 324 251
0.0058385995 0.66600001 -0.01284492 8.1304402e-39 325 251
0.01518036 0.66600001 -0.01284492 7.2026797e-39 333 251
0.016298985 0.66399997 -0.012806346 7.4846448e-39 334 251
0.0174632 0.66399997 -0.012806346 7.7608715e-39 335 251
0.018571306 0.662 -0.012767773 8.311509e-39 336 251
0.019732011 0.662 -0.012767773 8.4037046e-39 337 251
0.034372345 0.676 -0.013037786 7.4856733e-39 349 251
0.035557602 0.676 -0.013037786 7.761191e-39 350 251
0.036742851 0.676 -0.013037786 8.1299722e-39 351 251
0.038040318 0.67799997 -0.013076359 1.0056078e-38 352 251
0.039229076 0.67799997 -0.013076359 1.0240828e-38 353 251
0.040417835 0.67799997 -0.013076359 1.005003e-38 354 251
0.041606598 0.67799997 -0.013076359 1.3092486e-38 355 251
0.042795356 0.67799997 -0.013076359 1.7146577e-38 356 251
0.043984115 0.67799997 -0.013076359 1.9543303e-38 357 251
-0.016740825 0.68199998 -0.01434928 1.1535782e-38 306 252
-0.015499466 0.68000001 -0.014307199 1.1351389e-38 307 252
-0.01428616 0.67900002 -0.01428616 1.1352087e-38 308 252
-0.013037786 0.676 -0.014223038 1.1352087e-38 309 252
-0.011835 0.67500001 -0.014202001 1.1719444e-38 310 252
-0.01063572 0.67400002 -0.01418096 1.1811999e-38 311 252
-0.0094539737 0.67400002 -0.01418096 1.1168848e-38 312 252
-0.00824768 0.67199999 -0.01413888 1.0984816e-38 313 252
-0.0070694401 0.67199999 -0.01413888 1.1440813e-38 314 252
-0.0058824331 0.671 -0.01411784 1.1717041e-38 315 252
-0.0047059464 0.671 -0.01411784 1.1166769e-38 316 252
-0.0035294599 0.671 -0.01411784 1.1442996e-38 317 252
-0.0023494666 0.67000002 -0.014096799 1.1811789e-38 318 252
-0.0011712266 0.66799998 -0.014054719 1.2272408e-38 319 252
0 0.667 -0.014033679 9.5097859e-39 320 252
0.0011694733 0.667 -0.014033679 9.1406433e-39 321 252
0.0023354399 0.66600001 -0.014012639 8.3151832e-39 322 252
0.0035031599 0.66600001 -0.014012639 8.4073788e-39 323 252
0.0046708798 0.66600001 -0.014012639 9.5112082e-39 324 252
0.0058385995 0.66600001 -0.014012639 1.0156578e-38 325 252
0.0070063197 0.66600001 -0.014012639 1.0613978e-38 326 252
0.0081740404 0.66600001 -0.014012639 1.098312e-38 327 252
0.0093417596 0.66600001 -0.014012639 8.9594568e-39 328 252
0.01050948 0.66600001 -0.014012639 5.7326097e-39 329 252
0.011677199 0.66600001 -0.014012639 4.9971803e-39 330 252
0.01284492 0.66600001 -0.014012639 5.7347453e-39 331 252
0.014012639 0.66600001 -0.014012639 6.468695e-39 332 252
0.01518036 0.66600001 -0.014012639 6.3764994e-39 333 252
0.016298985 0.66399997 -0.013970559 7.4842692e-39 334 252
0.0174632 0.66399997 -0.013970559 7.6686605e-39 335 252
0.018571306 0.662 -0.01392848 8.4037088e-39 336 252
0.019732011 0.662 -0.01392848 8.4037088e-39 337 252
0.033187091 0.676 -0.014223038 8.1292351e-39 348 252
0.034372345 0.676 -0.014223038 8.1292351e-39 349 252
0.035557602 0.676 -0.014223038 8.1288974e-39 350 252
0.036742851 0.676 -0.014223038 8.5898755e-39 351 252
0.037928104 0.676 -0.014223038 1.088369e-38 352 252
0.039229076 0.67799997 -0.014265119 1.0699298e-38 353 252
0.040417835 0.67799997 -0.014265119 1.0233345e-38 354 252
0.041606598 0.67799997 -0.014265119 1.373678e-38 355 252
0.042795356 0.67799997 -0.014265119 1.7331687e-38 356 252
0.043984115 0.67799997 -0.014265119 1.9267795e-38 357 252
-0.017962901 0.68300003 -0.015567848 1.2634264e-38 305 253
-0.016740825 0.68199998 -0.015545053 1.1536148e-38 306 253
-0.015545053 0.68199998 -0.015545053 1.1259921e-38 307 253
-0.014307199 0.68000001 -0.015499466 1.1261693e-38 308 253
-0.013037786 0.676 -0.015408293 1.1169496e-38 309 253
-0.011835 0.67500001 -0.0153855 1.1444641e-38 310 253
-0.01063572 0.67400002 -0.015362706 1.1536838e-38 311 253
-0.0094539737 0.67400002 -0.015362706 1.1902788e-38 312 253
-0.00824768 0.67199999 -0.01531712 1.1810592e-38 313 253
-0.0070694401 0.67199999 -0.01531712 1.1717365e-38 314 253
-0.0058824331 0.671 -0.015294326 1.1901396e-38 315 253
-0.0047059464 0.671 -0.015294326 1.1809928e-38 316 253
-0.0035294599 0.671 -0.015294326 1.1717732e-38 317 253
-0.0023494666 0.67000002 -0.015271533 1.0889782e-38 318 253
-0.0011712266 0.66799998 -0.015225946 1.135112e-38 319 253
0 0.667 -0.015203152 7.4861246e-39 320 253
0.0011694733 0.667 -0.015203152 8.131494e-39 321 253
0.0023389466 0.667 -0.015203152 8.4999276e-39 322 253
0.0035031599 0.66600001 -0.01518036 8.776513e-39 323 253
0.0046708798 0.66600001 -0.01518036 9.4190112e-39 324 253
0.0058385995 0.66600001 -0.01518036 9.5112082e-39 325 253
0.0070063197 0.66600001 -0.01518036 9.9711102e-39 326 253
0.0081740404 0.66600001 -0.01518036 1.015586e-38 327 253
0.0093417596 0.66600001 -0.01518036 8.4076899e-39 328 253
0.01050948 0.66600001 -0.01518036 5.8262123e-39 329 253
0.011677199 0.66600001 -0.01518036 5.2762446e-39 330 253
0.01284492 0.66600001 -0.01518036 5.5528301e-39 331 253
0.014012639 0.66600001 -0.01518036 6.0105811e-39 332 253
0.01518036 0.66600001 -0.01518036 6.2875267e-39 333 253
0.016298985 0.66399997 -0.015134773 7.4831804e-39 334 253
0.0174632 0.66399997 -0.015134773 7.9441586e-39 335 253
0.018599359 0.66299999 -0.015111978 8.4958806e-39 336 253
0.019761819 0.66299999 -0.015111978 8.5880762e-39 337 253
0.02101896 0.66600001 -0.01518036 8.4058346e-39 338 253
0.02218668 0.66600001 -0.01518036 8.3136375e-39 339 253
0.029455997 0.67199999 -0.01531712 7.761547e-39 345 253
0.030634239 0.67199999 -0.01531712 7.4871041e-39 346 253
0.032001842 0.676 -0.015408293 7.5792983e-39 347 253
0.033187091 0.676 -0.015408293 8.1299539e-39 348 253
0.034372345 0.676 -0.015408293 8.0377583e-39 349 253
0.0356628 0.67799997 -0.015453878 8.128547e-39 350 253
0.036742851 0.676 -0.015408293 9.142699e-39 351 253
0.037928104 0.676 -0.015408293 1.1435443e-38 352 253
0.039229076 0.67799997 -0.015453878 1.0974467e-38 353 253
0.040417835 0.67799997 -0.015453878 1.0785447e-38 354 253
0.041606598 0.67799997 -0.015453878 1.4380716e-38 355 253
0.042795356 0.67799997 -0.015453878 1.733169e-38 356 253
-0.017962901 0.68300003 -0.016765373 1.2447715e-38 305 254
-0.016765373 0.68300003 -0.016765373 1.1627977e-38 306 254
-0.015545053 0.68199998 -0.016740825 1.1535782e-38 307 254
-0.014307199 0.68000001 -0.016691733 1.1812349e-38 308 254
-0.013095647 0.67900002 -0.016667187 1.1720153e-38 309 254
-0.011852534 0.676 -0.016593546 1.181128e-38 310 254
-0.01063572 0.67400002 -0.016544454 1.181128e-38 311 254
-0.0094539737 0.67400002 -0.016544454 1.2177223e-38 312 254
-0.00824768 0.67199999 -0.01649536 1.2269778e-38 313 254
-0.0070694401 0.67199999 -0.01649536 1.2728248e-38 314 254
-0.0058824331 0.671 -0.016470812 1.2728248e-38 315 254
-0.0047059464 0.671 -0.016470812 1.2453791e-38 316 254
-0.0035294599 0.671 -0.016470812 1.2545986e-38 317 254
-0.0023494666 0.67000002 -0.016446266 1.2821484e-38 318 254
-0.0011747333 0.67000002 -0.016446266 1.2821484e-38 319 254
0 0.66799998 -0.016397171 1.1163813e-38 320 254
0.0011694733 0.667 -0.016372627 1.0979421e-38 321 254
0.0023389466 0.667 -0.016372627 1.1071306e-38 322 254
0.0035084197 0.667 -0.016372627 1.0794718e-38 323 254
0.0046778931 0.667 -0.016372627 9.1413313e-39 324 254
0.0058385995 0.66600001 -0.016348081 9.5101124e-39 325 254
0.0070063197 0.66600001 -0.016348081 1.0245161e-38 326 254
0.0081740404 0.66600001 -0.016348081 1.0705779e-38 327 254
0.0093417596 0.66600001 -0.016348081 9.9695912e-39 328 254
0.01050948 0.66600001 -0.016348081 8.4944611e-39 329 254
0.011677199 0.66600001 -0.016348081 7.3924071e-39 330 254
0.01284492 0.66600001 -0.016348081 7.3002115e-39 331 254
0.014012639 0.66600001 -0.016348081 7.1154867e-39 332 254
0.01518036 0.66600001 -0.016348081 7.3002381e-39 333 254
0.016348081 0.66600001 -0.016348081 8.6802733e-39 334 254
0.017515799 0.66600001 -0.016348081 8.6802733e-39 335 254
0.018683519 0.66600001 -0.016348081 9.049025e-39 336 254
0.019851239 0.66600001 -0.016348081 9.1412192e-39 337 254
0.02101896 0.66600001 -0.016348081 9.1412192e-39 338 254
0.02218668 0.66600001 -0.016348081 9.1412192e-39 339 254
0.023389466 0.667 -0.016372627 9.4135083e-39 340 254
0.025882706 0.671 -0.016470812 9.2287583e-39 342 254
0.027059194 0.671 -0.016470812 9.2287583e-39 343 254
0.028235679 0.671 -0.016470812 8.6798893e-39 344 254
0.029455997 0.67199999 -0.01649536 8.6798893e-39 345 254
0.030634239 0.67199999 -0.01649536 8.4972945e-39 346 254
0.031954501 0.67500001 -0.016569 8.4972945e-39 347 254
0.033187091 0.676 -0.016593546 8.5887713e-39 348 254
0.034372345 0.676 -0.016593546 8.4965771e-39 349 254
0.0356628 0.67799997 -0.016642639 8.2189448e-39 350 254
0.036851559 0.67799997 -0.016642639 9.5096836e-39 351 254
0.038040318 0.67799997 -0.016642639 1.1988628e-38 352 254
0.039229076 0.67799997 -0.016642639 1.1620204e-38 353 254
0.040477451 0.67900002 -0.016667187 1.1613056e-38 354 254
0.041667968 0.67900002 -0.016667187 1.4655512e-38 355 254
0.042858478 0.67900002 -0.016667187 1.7606479e-38 356 254
-0.019272638 0.68699998 -0.018068098 1.2631757e-38 304 255
-0.018041799 0.68599999 -0.018041799 1.253956e-38 305 255
-0.016765373 0.68300003 -0.017962901 1.2181224e-38 306 255
-0.015545053 0.68199998 -0.017936599 1.2550365e-38 307 255
-0.014307199 0.68000001 -0.017883999 1.2917367e-38 308 255
-0.013095647 0.67900002 -0.017857701 1.2179802e-38 309 255
-0.011852534 0.676 -0.017778801 1.1902453e-38 310 255
-0.0106515 0.67500001 -0.0177525 1.1533671e-38 311 255
-0.0094539737 0.67400002 -0.0177262 1.2636049e-38 312 255
-0.00824768 0.67199999 -0.017673599 1.2728245e-38 313 255
-0.0070694401 0.67199999 -0.017673599 1.2913697e-38 314 255
-0.0058824331 0.671 -0.0176473 1.2821501e-38 315 255
-0.0047059464 0.671 -0.0176473 1.3098416e-38 316 255
-0.0035294599 0.671 -0.0176473 1.3375362e-38 317 255
-0.0023494666 0.67000002 -0.017620999 1.4017128e-38 318 255
-0.0011747333 0.67000002 -0.017620999 1.3833097e-38 319 255
0 0.66799998 -0.017568398 1.346505e-38 320 255
0.0011694733 0.667 -0.0175421 1.3280658e-38 321 255
0.0023389466 0.667 -0.0175421 1.2451287e-38 322 255
0.0035084197 0.667 -0.0175421 1.1713722e-38 323 255
0.0046778931 0.667 -0.0175421 9.4149853e-39 324 255
0.0058385995 0.66600001 -0.017515799 9.5993779e-39 325 255
0.0070063197 0.66600001 -0.017515799 1.0888673e-38 326 255
0.0081740404 0.66600001 -0.017515799 1.1257457e-38 327 255
0.0093417596 0.66600001 -0.017515799 1.1441083e-38 328 255
0.01050948 0.66600001 -0.017515799 1.0980105e-38 329 255
0.011677199 0.66600001 -0.017515799 1.0430159e-38 330 255
0.01284492 0.66600001 -0.017515799 1.0337604e-38 331 255
0.014012639 0.66600001 -0.017515799 9.9691946e-39 332 255
0.01518036 0.66600001 -0.017515799 1.0061749e-38 333 255
0.016348081 0.66600001 -0.017515799 1.0062813e-38 334 255
0.017515799 0.66600001 -0.017515799 9.5099975e-39 335 255
0.018683519 0.66600001 -0.017515799 9.4185193e-39 336 255
0.019851239 0.66600001 -0.017515799 9.5107136e-39 337 255
0.021050518 0.667 -0.0175421 9.5103548e-39 338 255
0.022219993 0.667 -0.0175421 9.3256076e-39 339 255
0.023389466 0.667 -0.0175421 9.6897393e-39 340 255
0.024669399 0.67000002 -0.017620999 9.5053494e-39 341 255
0.025844134 0.67000002 -0.017620999 9.1383661e-39 342 255
0.027059194 0.671 -0.0176473 9.1383661e-39 343 255
0.028235679 0.671 -0.0176473 8.4972945e-39 344 255
0.029455997 0.67199999 -0.017673599 8.3132648e-39 345 255
0.030725412 0.67400002 -0.0177262 8.4969358e-39 346 255
0.031954501 0.67500001 -0.0177525 8.58913e-39 347 255
0.033187091 0.676 -0.017778801 8.7720835e-39 348 255
0.034372345 0.676 -0.017778801 8.7720835e-39 349 255
0.0356628 0.67799997 -0.0178314 8.3107929e-39 350 255
0.036851559 0.67799997 -0.0178314 9.7855629e-39 351 255
0.038040318 0.67799997 -0.0178314 1.2632564e-38 352 255
0.039286941 0.67900002 -0.017857701 1.2355619e-38 353 255
0.040477451 0.67900002 -0.017857701 1.2166227e-38 354 255
0.041667968 0.67900002 -0.017857701 1.4563312e-38 355 255
0.042858478 0.67900002 -0.017857701 1.7790147e-38 356 255
0.044308487 0.68300003 -0.017962901 1.9633701e-38 357 255
-0.019272638 0.68699998 -0.019272638 1.263322e-38 304 256
-0.018041799 0.68599999 -0.019244585 1.2541024e-38 305 256
-0.016789921 0.68400002 -0.01918848 1.2733722e-38 306 256
-0.015567848 0.68300003 -0.019160427 1.3747516e-38 307 256
-0.01434928 0.68199998 -0.019132372 1.4390039e-38 308 256
-0.013114933 0.68000001 -0.019076265 1.3928702e-38 309 256
-0.011887599 0.67799997 -0.019020159 1.3375845e-38 310 256
-0.0106515 0.67500001 -0.018935999 1.245389e-38 311 256
-0.0094679995 0.67500001 -0.018935999 1.3004151e-38 312 256
-0.0082722269 0.67400002 -0.018907947 1.3281098e-38 313 256
-0.0070694401 0.67199999 -0.018851839 1.3007723e-38 314 256
-0.0058911997 0.67199999 -0.018851839 1.3007723e-38 315 256
-0.0047059464 0.671 -0.018823786 1.3192452e-38 316 256
-0.0035294599 0.671 -0.018823786 1.3376841e-38 317 256
-0.0023529732 0.671 -0.018823786 1.3466503e-38 318 256
-0.0011747333 0.67000002 -0.018795732 1.3281753e-38 319 256
0 0.66799998 -0.018739626 1.3006949e-38 320 256
0.0011712266 0.66799998 -0.018739626 1.2822556e-38 321 256
0.0023424532 0.66799998 -0.018739626 1.2911879e-38 322 256
0.0035084197 0.667 -0.018711573 1.2358706e-38 323 256
0.0046778931 0.667 -0.018711573 1.070461e-38 324 256
0.0058473665 0.667 -0.018711573 1.0981557e-38 325 256
0.0070168395 0.667 -0.018711573 1.1532913e-38 326 256
0.0081863133 0.667 -0.018711573 1.1532913e-38 327 256
0.0093557863 0.667 -0.018711573 1.1534682e-38 328 256
0.010525259 0.667 -0.018711573 1.1350293e-38 329 256
0.011694733 0.667 -0.018711573 1.125774e-38 330 256
0.01284492 0.66600001 -0.018683519 1.0981516e-38 331 256
0.014012639 0.66600001 -0.018683519 1.0245756e-38 332 256
0.01518036 0.66600001 -0.018683519 1.0245756e-38 333 256
0.016372627 0.667 -0.018711573 1.0337951e-38 334 256
0.0175421 0.667 -0.018711573 1.0245756e-38 335 256
0.018711573 0.667 -0.018711573 1.0153921e-38 336 256
0.019881045 0.667 -0.018711573 1.0061368e-38 337 256
0.021082079 0.66799998 -0.018739626 9.8776968e-39 338 256
0.022253305 0.66799998 -0.018739626 9.6933084e-39 339 256
0.023424532 0.66799998 -0.018739626 9.7826355e-39 340 256
0.024669399 0.67000002 -0.018795732 9.7826355e-39 341 256
0.025844134 0.67000002 -0.018795732 9.1397843e-39 342 256
0.027059194 0.671 -0.018823786 9.04759e-39 343 256
0.028235679 0.671 -0.018823786 8.58913e-39 344 256
0.029455997 0.67199999 -0.018851839 8.58913e-39 345 256
0.030725412 0.67400002 -0.018907947 8.863919e-39 346 256
0.031954501 0.67500001 -0.018935999 8.863919e-39 347 256
0.033187091 0.676 -0.018964052 9.1387137e-39 348 256
0.034474038 0.67799997 -0.019020159 8.9543224e-39 349 256
0.0356628 0.67799997 -0.019020159 8.1264115e-39 350 256
0.036905911 0.67900002 -0.019048214 9.8784886e-39 351 256
0.038096428 0.67900002 -0.019048214 1.3092465e-38 352 256
0.039286941 0.67900002 -0.019048214 1.23549e-38 353 256
0.040477451 0.67900002 -0.019048214 1.1708479e-38 354 256
0.041667968 0.67900002 -0.019048214 1.4382153e-38 355 256
0.043110959 0.68300003 -0.019160427 1.8065655e-38 356 256
0.044308487 0.68300003 -0.019160427 1.9909567e-38 357 256
-0.019272638 0.68699998 -0.020477179 1.3739607e-38 304 257
-0.018068098 0.68699998 -0.020477179 1.3186792e-38 305 257
-0.016789921 0.68400002 -0.020387759 1.3561727e-38 306 257
-0.015567848 0.68300003 -0.020357953 1.4483323e-38 307 257
-0.01434928 0.68199998 -0.020328145 1.5034018e-38 308 257
-0.013114933 0.68000001 -0.020268533 1.5034018e-38 309 257
-0.011905133 0.67900002 -0.020238725 1.4941077e-38 310 257
-0.01066728 0.676 -0.020149305 1.3742534e-38 311 257
-0.0094679995 0.67500001 -0.020119499 1.2915978e-38 312 257
-0.0082844999 0.67500001 -0.020119499 1.2915978e-38 313 257
-0.0070694401 0.67199999 -0.020030079 1.3377685e-38 314 257
-0.0058911997 0.67199999 -0.020030079 1.3746109e-38 315 257
-0.0047129598 0.67199999 -0.020030079 1.4113815e-38 316 257
-0.0035294599 0.671 -0.020000271 1.3929784e-38 317 257
-0.0023529732 0.671 -0.020000271 1.2915966e-38 318 257
-0.0011764866 0.671 -0.020000271 1.199365e-38 319 257
0 0.67000002 -0.019970467 1.2639704e-38 320 257
0.0011712266 0.66799998 -0.019910853 1.2639704e-38 321 257
0.0023424532 0.66799998 -0.019910853 1.3282505e-38 322 257
0.0035136798 0.66799998 -0.019910853 1.2544581e-38 323 257
0.0046849065 0.66799998 -0.019910853 1.1993519e-38 324 257
0.0058473665 0.667 -0.019881045 1.2177551e-38 325 257
0.0070168395 0.667 -0.019881045 1.236156e-38 326 257
0.0081863133 0.667 -0.019881045 1.2084977e-38 327 257
0.0093557863 0.667 -0.019881045 1.1810547e-38 328 257
0.010525259 0.667 -0.019881045 1.1626159e-38 329 257
0.011694733 0.667 -0.019881045 1.1258099e-38 330 257
0.012864206 0.667 -0.019881045 1.0981516e-38 331 257
0.014033679 0.667 -0.019881045 1.0704934e-38 332 257
0.015203152 0.667 -0.019881045 1.0704934e-38 333 257
0.016372627 0.667 -0.019881045 1.0704934e-38 334 257
0.0175421 0.667 -0.019881045 1.0520545e-38 335 257
0.018739626 0.66799998 -0.019910853 1.0246115e-38 336 257
0.019910853 0.66799998 -0.019910853 1.0153921e-38 337 257
0.021082079 0.66799998 -0.019910853 9.7858613e-39 338 257
0.022319933 0.67000002 -0.019970467 9.6011141e-39 339 257
0.023494666 0.67000002 -0.019970467 9.4174431e-39 340 257
0.024669399 0.67000002 -0.019970467 9.2330547e-39 341 257
0.025844134 0.67000002 -0.019970467 8.9571895e-39 342 257
0.027059194 0.671 -0.020000271 8.8649952e-39 343 257
0.028235679 0.671 -0.020000271 8.58913e-39 344 257
0.029455997 0.67199999 -0.020030079 8.6813242e-39 345 257
0.030725412 0.67400002 -0.020089693 9.1394255e-39 346 257
0.031954501 0.67500001 -0.020119499 9.2316198e-39 347 257
0.033187091 0.676 -0.020149305 9.1387137e-39 348 257
0.034474038 0.67799997 -0.020208918 8.8621268e-39 349 257
0.035715401 0.67900002 -0.020238725 8.4944765e-39 350 257
0.036905911 0.67900002 -0.020238725 1.0614977e-38 351 257
0.038152531 0.68000001 -0.020268533 1.3553088e-38 352 257
0.039344799 0.68000001 -0.020268533 1.2262349e-38 353 257
0.040656291 0.68199998 -0.020328145 1.179924e-38 354 257
0.041852064 0.68199998 -0.020328145 1.5118283e-38 355 257
0.043110959 0.68300003 -0.020357953 1.7975258e-38 356 257
0.044308487 0.68300003 -0.020357953 1.981917e-38 357 257
-0.019272638 0.68699998 -0.021681719 1.5582115e-38 304 258
-0.018068098 0.68699998 -0.021681719 1.5028941e-38 305 258
-0.016839013 0.68599999 -0.021650158 1.4573746e-38 306 258
-0.015567848 0.68300003 -0.02155548 1.4757778e-38 307 258
-0.01434928 0.68199998 -0.021523919 1.4758876e-38 308 258
-0.013153506 0.68199998 -0.021523919 1.4298257e-38 309 258
-0.011922667 0.68000001 -0.0214608 1.4112764e-38 310 258
-0.010714619 0.67900002 -0.021429239 1.3467395e-38 311 258
-0.0094820261 0.676 -0.021334561 1.3100023e-38 312 258
-0.0082844999 0.67500001 -0.021303 1.3192219e-38 313 258
-0.0070904801 0.67400002 -0.021271439 1.3194387e-38 314 258
-0.0059087332 0.67400002 -0.021271439 1.3562809e-38 315 258
-0.0047129598 0.67199999 -0.021208318 1.4206037e-38 316 258
-0.00353472 0.67199999 -0.021208318 1.4390427e-38 317 258
-0.0023529732 0.671 -0.021176759 1.2639779e-38 318 258
-0.0011764866 0.671 -0.021176759 1.1165009e-38 319 258
0 0.671 -0.021176759 1.1905796e-38 320 258
0.0011747333 0.67000002 -0.0211452 1.2551165e-38 321 258
0.0023494666 0.67000002 -0.0211452 1.3376938e-38 322 258
0.0035241998 0.67000002 -0.0211452 1.310071e-38 323 258
0.0046989331 0.67000002 -0.0211452 1.3191047e-38 324 258
0.0058561331 0.66799998 -0.021082079 1.2361287e-38 325 258
0.0070273597 0.66799998 -0.021082079 1.2545248e-38 326 258
0.0081985854 0.66799998 -0.021082079 1.208427e-38 327 258
0.0093557863 0.667 -0.021050518 1.1810188e-38 328 258
0.010525259 0.667 -0.021050518 1.1717994e-38 329 258
0.011694733 0.667 -0.021050518 1.0981516e-38 330 258
0.012864206 0.667 -0.021050518 1.0704934e-38 331 258
0.014033679 0.667 -0.021050518 1.0887891e-38 332 258
0.015203152 0.667 -0.021050518 1.0887891e-38 333 258
0.016397171 0.66799998 -0.021082079 1.0888246e-38 334 258
0.017568398 0.66799998 -0.021082079 1.0703858e-38 335 258
0.018795732 0.67000002 -0.0211452 1.0246115e-38 336 258
0.019970467 0.67000002 -0.0211452 1.0061368e-38 337 258
0.0211452 0.67000002 -0.0211452 9.5107136e-39 338 258
0.022319933 0.67000002 -0.0211452 9.4185193e-39 339 258
0.023494666 0.67000002 -0.0211452 9.0504599e-39 340 258
0.024706218 0.671 -0.021176759 8.9582657e-39 341 258
0.025882706 0.671 -0.021176759 8.7738772e-39 342 258
0.027059194 0.671 -0.021176759 8.7738772e-39 343 258
0.02827776 0.67199999 -0.021208318 8.956472e-39 344 258
0.029455997 0.67199999 -0.021208318 9.049025e-39 345 258
0.030725412 0.67400002 -0.021271439 9.3231091e-39 346 258
0.032001842 0.676 -0.021334561 9.3231091e-39 347 258
0.033187091 0.676 -0.021334561 8.772106e-39 348 258
0.034474038 0.67799997 -0.021397678 8.772106e-39 349 258
0.035767999 0.68000001 -0.0214608 9.598327e-39 350 258
0.036960267 0.68000001 -0.0214608 1.1995053e-38 351 258
0.038264744 0.68199998 -0.021523919 1.3922599e-38 352 258
0.039460517 0.68199998 -0.021523919 1.2170522e-38 353 258
0.040715907 0.68300003 -0.02155548 1.2076549e-38 354 258
0.041913435 0.68300003 -0.02155548 1.5395591e-38 355 258
0.043110959 0.68300003 -0.02155548 1.7975621e-38 356 258
-0.021871079 0.69300002 -0.02308614 1.9082335e-38 302 259
-0.020566599 0.69 -0.022986198 1.769904e-38 303 259
-0.019300694 0.68800002 -0.022919573 1.5860169e-38 304 259
-0.018068098 0.68699998 -0.022886258 1.5767974e-38 305 259
-0.016839013 0.68599999 -0.022852944 1.466811e-38 306 259
-0.01559064 0.68400002 -0.022786319 1.4575914e-38 307 259
-0.014370319 0.68300003 -0.022753006 1.4389718e-38 308 259
-0.013153506 0.68199998 -0.022719691 1.3468122e-38 309 259
-0.011922667 0.68000001 -0.022653066 1.2914924e-38 310 259
-0.010714619 0.67900002 -0.022619752 1.2546143e-38 311 259
-0.0094820261 0.676 -0.022519812 1.227206e-38 312 259
-0.0082967728 0.676 -0.022519812 1.2179506e-38 313 259
-0.0071010003 0.67500001 -0.022486499 1.1905449e-38 314 259
-0.0059174998 0.67500001 -0.022486499 1.2181675e-38 315 259
-0.0047269869 0.67400002 -0.022453187 1.3009291e-38 316 259
-0.00353472 0.67199999 -0.022386558 1.3193683e-38 317 259
-0.0023564799 0.67199999 -0.022386558 1.1812196e-38 318 259
-0.0011764866 0.671 -0.022353247 1.0889881e-38 319 259
0 0.671 -0.022353247 1.1629966e-38 320 259
0.0011764866 0.671 -0.022353247 1.3012902e-38 321 259
0.0023529732 0.671 -0.022353247 1.3654307e-38 322 259
0.0035241998 0.67000002 -0.022319933 1.3654307e-38 323 259
0.0046989331 0.67000002 -0.022319933 1.4021607e-38 324 259
0.0058736666 0.67000002 -0.022319933 1.2730868e-38 325 259
0.0070483997 0.67000002 -0.022319933 1.2546006e-38 326 259
0.0082231332 0.67000002 -0.022319933 1.1347463e-38 327 259
0.0093698129 0.66799998 -0.022253305 1.1993143e-38 328 259
0.01054104 0.66799998 -0.022253305 1.1716918e-38 329 259
0.011712266 0.66799998 -0.022253305 1.0795699e-38 330 259
0.012883492 0.66799998 -0.022253305 1.0334722e-38 331 259
0.014054719 0.66799998 -0.022253305 1.0886452e-38 332 259
0.015271533 0.67000002 -0.022319933 1.0978647e-38 333 259
0.016446266 0.67000002 -0.022319933 1.0888605e-38 334 259
0.017620999 0.67000002 -0.022319933 1.0704216e-38 335 259
0.018823786 0.671 -0.022353247 9.9702498e-39 336 259
0.020000271 0.671 -0.022353247 9.8780556e-39 337 259
0.021176759 0.671 -0.022353247 9.7858613e-39 338 259
0.022353247 0.671 -0.022353247 9.6011141e-39 339 259
0.023529733 0.671 -0.022353247 9.3259664e-39 340 259
0.024706218 0.671 -0.022353247 9.0497424e-39 341 259
0.025882706 0.671 -0.022353247 8.9579069e-39 342 259
0.027099518 0.67199999 -0.022386558 8.9579069e-39 343 259
0.02827776 0.67199999 -0.022386558 9.4163796e-39 344 259
0.029543666 0.67400002 -0.022453187 9.9691946e-39 345 259
0.030771 0.67500001 -0.022486499 9.8748522e-39 346 259
0.032001842 0.676 -0.022519812 9.6904623e-39 347 259
0.033285279 0.67799997 -0.022586439 8.9557868e-39 348 259
0.034524884 0.67900002 -0.022619752 9.2323737e-39 349 259
0.035767999 0.68000001 -0.022653066 1.0518504e-38 350 259
0.037068974 0.68199998 -0.022719691 1.2639003e-38 351 259
0.038320854 0.68300003 -0.022753006 1.4015159e-38 352 259
0.039518382 0.68300003 -0.022753006 1.2263801e-38 353 259
0.040894743 0.68599999 -0.022852944 1.2630078e-38 354 259
0.042097531 0.68599999 -0.022852944 1.5672535e-38 355 259
0.043300316 0.68599999 -0.022852944 1.8067457e-38 356 259
-0.021871079 0.69300002 -0.024301201 1.9358205e-38 302 260
-0.020566599 0.69 -0.024195999 1.7975271e-38 303 260
-0.019300694 0.68800002 -0.024125867 1.4570882e-38 304 260
-0.0180944 0.68800002 -0.024125867 1.3925513e-38 305 260
-0.01686356 0.68699998 -0.024090799 1.4023462e-38 306 260
-0.015636226 0.68599999 -0.024055731 1.3009312e-38 307 260
-0.01439136 0.68400002 -0.0239856 9.4175861e-39 308 260
-0.013172794 0.68300003 -0.023950534 8.1268473e-39 309 260
-0.011957732 0.68199998 -0.023915464 8.771083e-39 310 260
-0.0107304 0.68000001 -0.023845334 8.771083e-39 311 260
-0.0095100794 0.67799997 -0.023775198 8.4977205e-39 312 260
-0.0082967728 0.676 -0.023705067 8.4977205e-39 313 260
-0.0071010003 0.67500001 -0.023669999 7.4861063e-39 314 260
-0.0059174998 0.67500001 -0.023669999 7.3017151e-39 315 260
-0.0047269869 0.67400002 -0.023634933 6.8400489e-39 316 260
-0.00353472 0.67199999 -0.023564799 6.8400489e-39 317 260
-0.0023564799 0.67199999 -0.023564799 7.3961318e-39 318 260
-0.0011782399 0.67199999 -0.023564799 8.5028395e-39 319 260
0 0.671 -0.023529733 8.8687633e-39 320 260
0.0011764866 0.671 -0.023529733 9.3301016e-39 321 260
0.0023529732 0.671 -0.023529733 1.0801281e-38 322 260
0.0035294599 0.671 -0.023529733 1.1907629e-38 323 260
0.0047059464 0.671 -0.023529733 1.3193683e-38 324 260
0.0058736666 0.67000002 -0.023494666 1.3101486e-38 325 260
0.0070483997 0.67000002 -0.023494666 1.3743944e-38 326 260
0.0082231332 0.67000002 -0.023494666 1.319077e-38 327 260
0.0093978662 0.67000002 -0.023494666 1.3375869e-38 328 260
0.0105726 0.67000002 -0.023494666 1.3191476e-38 329 260
0.011747333 0.67000002 -0.023494666 1.2821246e-38 330 260
0.012922067 0.67000002 -0.023494666 1.2268072e-38 331 260
0.014096799 0.67000002 -0.023494666 1.1717012e-38 332 260
0.015271533 0.67000002 -0.023494666 1.0979447e-38 333 260
0.016470812 0.671 -0.023529733 1.0243989e-38 334 260
0.0176473 0.671 -0.023529733 1.0243989e-38 335 260
0.018823786 0.671 -0.023529733 9.8780556e-39 336 260
0.020000271 0.671 -0.023529733 9.7858613e-39 337 260
0.021176759 0.671 -0.023529733 9.6018316e-39 338 260
0.022353247 0.671 -0.023529733 9.5096374e-39 339 260
0.023529733 0.671 -0.023529733 8.8664302e-39 340 260
0.024706218 0.671 -0.023529733 8.8664302e-39 341 260
0.025921278 0.67199999 -0.023564799 8.865368e-39 342 260
0.027099518 0.67199999 -0.023564799 8.9579223e-39 343 260
0.02836192 0.67400002 -0.023634933 9.9684968e-39 344 260
0.0295875 0.67500001 -0.023669999 1.0060692e-38 345 260
0.030816587 0.676 -0.023705067 9.8755767e-39 346 260
0.03209652 0.67799997 -0.023775198 9.5067927e-39 347 260
0.033334374 0.67900002 -0.023810266 8.5870211e-39 348 260
0.034524884 0.67900002 -0.023810266 9.3245861e-39 349 260
0.035873197 0.68199998 -0.023915464 1.1255012e-38 350 260
0.037123326 0.68300003 -0.023950534 1.2822698e-38 351 260
0.038320854 0.68300003 -0.023950534 1.3739664e-38 352 260
0.039518382 0.68300003 -0.023950534 1.2633675e-38 353 260
0.040894743 0.68599999 -0.024055731 1.3274376e-38 354 260
0.042097531 0.68599999 -0.024055731 1.5855853e-38 355 260
0.043300316 0.68599999 -0.024055731 1.8158573e-38 356 260
-0.02308614 0.69300002 -0.02551626 1.9818816e-38 301 261
-0.021871079 0.69300002 -0.02551626 1.9174893e-38 302 261
-0.020566599 0.69 -0.025405798 1.7884154e-38 303 261
-0.019300694 0.68800002 -0.02533216 1.4293219e-38 304 261
-0.0180944 0.68800002 -0.02533216 1.281773e-38 305 261
-0.01686356 0.68699998 -0.025295338 1.3465604e-38 306 261
-0.015659019 0.68699998 -0.025295338 1.3281213e-38 307 261
-0.01439136 0.68400002 -0.025184879 1.024334e-38 308 261
-0.013172794 0.68300003 -0.02514806 8.3075909e-39 309 261
-0.011957732 0.68199998 -0.025111238 7.9448592e-39 310 261
-0.0107304 0.68000001 -0.025037598 8.3132816e-39 311 261
-0.009524107 0.67900002 -0.025000781 8.5909475e-39 312 261
-0.0082967728 0.676 -0.024890319 8.5909475e-39 313 261
-0.0071115191 0.676 -0.024890319 7.671159e-39 314 261
-0.0059262668 0.676 -0.024890319 7.1183454e-39 315 261
-0.0047339997 0.67500001 -0.0248535 5.7386731e-39 316 261
-0.00354524 0.67400002 -0.024816679 5.6461188e-39 317 261
-0.0023564799 0.67199999 -0.024743039 9.3293183e-39 318 261
-0.0011782399 0.67199999 -0.024743039 1.1080675e-38 319 261
0 0.67199999 -0.024743039 1.0431385e-38 320 261
0.0011764866 0.671 -0.024706218 8.6796679e-39 321 261
0.0023529732 0.671 -0.024706218 7.9460713e-39 322 261
0.0035294599 0.671 -0.024706218 9.0520602e-39 323 261
0.0047059464 0.671 -0.024706218 1.0615443e-38 324 261
0.0058824331 0.671 -0.024706218 1.1537758e-38 325 261
