# .PCD v.7 - Point Cloud Data file format
FIELDS x y z rgb imX imY
SIZE 4 4 4 4 4 4
TYPE F F F F F F
COUNT 1 1 1 1 1 1
WIDTH 841
HEIGHT 1
VIEWPOINT 0 0 0 1 0 0 0
POINTS 841
DATA ascii
-0.026212333 0.64999998 0.12992199 1.4016257e-38 297 126
-0.025072664 0.64999998 0.12992199 1.419885e-38 298 126
-0.023932999 0.64999998 0.12992199 1.4106654e-38 299 126
-0.022863466 0.65200001 0.13032176 1.392154e-38 300 126
-0.021720294 0.65200001 0.13032176 1.3829344e-38 301 126
-0.02057712 0.65200001 0.13032176 1.3644232e-38 302 126
-0.019493559 0.65399998 0.13072151 1.3459839e-38 303 126
-0.01834688 0.65399998 0.13072151 1.3367278e-38 304 126
-0.017200198 0.65399998 0.13072151 1.3182528e-38 305 126
-0.016078066 0.65499997 0.13092139 1.3090684e-38 306 126
-0.014929632 0.65499997 0.13092139 1.2998488e-38 307 126
-0.013781199 0.65499997 0.13092139 1.3273274e-38 308 126
-0.01267134 0.65700001 0.13132116 1.2997047e-38 309 126
-0.011519399 0.65700001 0.13132116 1.3272555e-38 310 126
-0.041596077 0.65899998 0.13056546 1.6596655e-38 284 127
-0.040379263 0.65799999 0.13036734 1.6135677e-38 285 127
-0.039165959 0.65700001 0.13016921 1.5583225e-38 286 127
-0.038014017 0.65700001 0.13016921 1.5399194e-38 287 127
-0.036749862 0.65499997 0.12977296 1.5399194e-38 288 127
-0.03560143 0.65499997 0.12977296 1.5214803e-38 289 127
-0.034400396 0.65399998 0.12957484 1.5029332e-38 290 127
-0.033253718 0.65399998 0.12957484 1.5029332e-38 291 127
-0.032057945 0.653 0.12937671 1.484566e-38 292 127
-0.03091302 0.653 0.12937671 1.484566e-38 293 127
-0.029722504 0.65200001 0.12917858 1.4661982e-38 294 127
-0.028579334 0.65200001 0.12917858 1.4569428e-38 295 127
-0.02743616 0.65200001 0.12917858 1.4660181e-38 296 127
-0.026292987 0.65200001 0.12917858 1.4475789e-38 297 127
-0.025149813 0.65200001 0.12917858 1.447507e-38 298 127
-0.024006641 0.65200001 0.12917858 1.4198124e-38 299 127
-0.022898532 0.653 0.12937671 1.4289957e-38 300 127
-0.021753605 0.653 0.12937671 1.401301e-38 301 127
-0.020640239 0.65399998 0.12957484 1.4103764e-38 302 127
-0.019493559 0.65399998 0.12957484 1.3734981e-38 303 127
-0.01834688 0.65399998 0.12957484 1.3458391e-38 304 127
-0.017226499 0.65499997 0.12977296 1.327436e-38 305 127
-0.016078066 0.65499997 0.12977296 1.3089965e-38 306 127
-0.014929632 0.65499997 0.12977296 1.3089965e-38 307 127
-0.013823279 0.65700001 0.13016921 1.3181079e-38 308 127
-0.01267134 0.65700001 0.13016921 1.2997047e-38 309 127
-0.011519399 0.65700001 0.13016921 1.2813019e-38 310 127
-0.041596077 0.65899998 0.12941001 1.6412624e-38 284 128
-0.040379263 0.65799999 0.12921365 1.6043482e-38 285 128
-0.039165959 0.65700001 0.12901728 1.5307717e-38 286 128
-0.038014017 0.65700001 0.12901728 1.5307717e-38 287 128
-0.036862079 0.65700001 0.12901728 1.5306642e-38 288 128
-0.03560143 0.65499997 0.12862453 1.5214447e-38 289 128
-0.034400396 0.65399998 0.12842816 1.5030055e-38 290 128
-0.033253718 0.65399998 0.12842816 1.493786e-38 291 128
-0.032057945 0.653 0.12823178 1.4661629e-38 292 128
-0.03091302 0.653 0.12823178 1.484566e-38 293 128
-0.029722504 0.65200001 0.12803541 1.4661626e-38 294 128
-0.028579334 0.65200001 0.12803541 1.456943e-38 295 128
-0.02743616 0.65200001 0.12803541 1.4660547e-38 296 128
-0.026292987 0.65200001 0.12803541 1.4384319e-38 297 128
-0.025149813 0.65200001 0.12803541 1.4475436e-38 298 128
-0.024006641 0.65200001 0.12803541 1.419885e-38 299 128
-0.022898532 0.653 0.12823178 1.4107008e-38 300 128
-0.021786919 0.65399998 0.12842816 1.3737865e-38 301 128
-0.020640239 0.65399998 0.12842816 1.38279e-38 302 128
-0.019493559 0.65399998 0.12842816 1.3459117e-38 303 128
-0.018374931 0.65499997 0.12862453 1.3274004e-38 304 128
-0.017226499 0.65499997 0.12862453 1.3089612e-38 305 128
-0.016078066 0.65499997 0.12862453 1.3273277e-38 306 128
-0.01497522 0.65700001 0.12901728 1.3181081e-38 307 128
-0.013823279 0.65700001 0.12901728 1.3181435e-38 308 128
-0.01267134 0.65700001 0.12901728 1.2904849e-38 309 128
-0.011519399 0.65700001 0.12901728 1.2536788e-38 310 128
-0.041596077 0.65899998 0.12825456 1.6595936e-38 284 129
-0.040379263 0.65799999 0.12805995 1.6134958e-38 285 129
-0.039225571 0.65799999 0.12805995 1.5307361e-38 286 129
-0.038071878 0.65799999 0.12805995 1.512297e-38 287 129
-0.036862079 0.65700001 0.12786534 1.4938583e-38 288 129
-0.035710141 0.65700001 0.12786534 1.4938583e-38 289 129
-0.034452997 0.65499997 0.12747608 1.4754543e-38 290 129
-0.033253718 0.65399998 0.12728147 1.4662348e-38 291 129
-0.03210704 0.65399998 0.12728147 1.4570149e-38 292 129
-0.03091302 0.653 0.12708686 1.4570149e-38 293 129
-0.029722504 0.65200001 0.12689224 1.4570152e-38 294 129
-0.028579334 0.65200001 0.12689224 1.4293567e-38 295 129
-0.02743616 0.65200001 0.12689224 1.447616e-38 296 129
-0.026292987 0.65200001 0.12689224 1.4291767e-38 297 129
-0.025149813 0.65200001 0.12689224 1.438324e-38 298 129
-0.024006641 0.65200001 0.12689224 1.4106654e-38 299 129
-0.022898532 0.653 0.12708686 1.4014092e-38 300 129
-0.021786919 0.65399998 0.12728147 1.3737146e-38 301 129
-0.020640239 0.65399998 0.12728147 1.3552032e-38 302 129
-0.019493559 0.65399998 0.12728147 1.3275445e-38 303 129
-0.018374931 0.65499997 0.12747608 1.336512e-38 304 129
-0.017226499 0.65499997 0.12747608 1.3272924e-38 305 129
-0.016078066 0.65499997 0.12747608 1.2997413e-38 306 129
-0.01497522 0.65700001 0.12786534 1.2813022e-38 307 129
-0.013823279 0.65700001 0.12786534 1.2904852e-38 308 129
-0.01267134 0.65700001 0.12786534 1.2812656e-38 309 129
-0.011519399 0.65700001 0.12786534 1.2627905e-38 310 129
-0.040379263 0.65799999 0.12690626 1.6136033e-38 285 130
-0.039225571 0.65799999 0.12690626 1.5583578e-38 286 130
-0.038071878 0.65799999 0.12690626 1.5214797e-38 287 130
-0.036862079 0.65700001 0.12671341 1.4937856e-38 288 130
-0.035710141 0.65700001 0.12671341 1.4937856e-38 289 130
-0.034452997 0.65499997 0.12632765 1.4662348e-38 290 130
-0.033304565 0.65499997 0.12632765 1.4570152e-38 291 130
-0.03210704 0.65399998 0.12613478 1.4476879e-38 292 130
-0.03091302 0.653 0.12594193 1.4569433e-38 293 130
-0.029768093 0.653 0.12594193 1.4476882e-38 294 130
-0.028579334 0.65200001 0.12574907 1.429249e-38 295 130
-0.02743616 0.65200001 0.12574907 1.429177e-38 296 130
-0.026292987 0.65200001 0.12574907 1.410702e-38 297 130
-0.025149813 0.65200001 0.12574907 1.4106657e-38 298 130
-0.024006641 0.65200001 0.12574907 1.3922266e-38 299 130
-0.022933599 0.65399998 0.12613478 1.4012657e-38 300 130
-0.021786919 0.65399998 0.12613478 1.3644234e-38 301 130
-0.020640239 0.65399998 0.12613478 1.3184328e-38 302 130
-0.019493559 0.65399998 0.12613478 1.2999937e-38 303 130
-0.018374931 0.65499997 0.12632765 1.3089612e-38 304 130
-0.017226499 0.65499997 0.12632765 1.2997416e-38 305 130
-0.016078066 0.65499997 0.12632765 1.2905573e-38 306 130
-0.01497522 0.65700001 0.12671341 1.2813019e-38 307 130
-0.013823279 0.65700001 0.12671341 1.2904852e-38 308 130
-0.01267134 0.65700001 0.12671341 1.2720459e-38 309 130
-0.011536933 0.65799999 0.12690626 1.2627186e-38 310 130
-0.040379263 0.65799999 0.12575257 1.6228592e-38 285 131
-0.039225571 0.65799999 0.12575257 1.5492107e-38 286 131
-0.038071878 0.65799999 0.12575257 1.5123323e-38 287 131
-0.036918186 0.65799999 0.12575257 1.4938936e-38 288 131
-0.035710141 0.65700001 0.12556146 1.484674e-38 289 131
-0.034452997 0.65499997 0.12517922 1.447868e-38 290 131
-0.033304565 0.65499997 0.12517922 1.4386484e-38 291 131
-0.03210704 0.65399998 0.12498811 1.4477598e-38 292 131
-0.030960357 0.65399998 0.12498811 1.4293567e-38 293 131
-0.029768093 0.653 0.12479701 1.4292488e-38 294 131
-0.028623167 0.653 0.12479701 1.4016259e-38 295 131
-0.02743616 0.65200001 0.12460589 1.4198853e-38 296 131
-0.026292987 0.65200001 0.12460589 1.4106657e-38 297 131
-0.025188386 0.653 0.12479701 1.4197774e-38 298 131
-0.024043459 0.653 0.12479701 1.3828991e-38 299 131
-0.022933599 0.65399998 0.12498811 1.373643e-38 300 131
-0.021786919 0.65399998 0.12498811 1.3459842e-38 301 131
-0.020640239 0.65399998 0.12498811 1.3275448e-38 302 131
-0.019493559 0.65399998 0.12498811 1.2998862e-38 303 131
-0.018374931 0.65499997 0.12517922 1.2998135e-38 304 131
-0.0172791 0.65700001 0.12556146 1.2721908e-38 305 131
-0.01612716 0.65700001 0.12556146 1.2904499e-38 306 131
-0.01497522 0.65700001 0.12556146 1.2904499e-38 307 131
-0.013823279 0.65700001 0.12556146 1.2904855e-38 308 131
-0.012690626 0.65799999 0.12575257 1.28123e-38 309 131
-0.011536933 0.65799999 0.12575257 1.2903415e-38 310 131
-0.039285187 0.65899998 0.12478823 1.5584661e-38 286 132
-0.038129739 0.65899998 0.12478823 1.539991e-38 287 132
-0.036918186 0.65799999 0.12459887 1.5399191e-38 288 132
-0.035764489 0.65799999 0.12459887 1.5122604e-38 289 132
-0.034558199 0.65700001 0.12440952 1.4846738e-38 290 132
-0.033406258 0.65700001 0.12440952 1.4754541e-38 291 132
-0.03210704 0.65399998 0.12384143 1.4845294e-38 292 132
-0.030960357 0.65399998 0.12384143 1.4753099e-38 293 132
-0.029813679 0.65399998 0.12384143 1.4292842e-38 294 132
-0.028666999 0.65399998 0.12384143 1.4016257e-38 295 132
-0.027478239 0.653 0.12365208 1.438324e-38 296 132
-0.026333313 0.653 0.12365208 1.419885e-38 297 132
-0.025226958 0.65399998 0.12384143 1.4198127e-38 298 132
-0.024080278 0.65399998 0.12384143 1.3829344e-38 299 132
-0.022933599 0.65399998 0.12384143 1.4195603e-38 300 132
-0.021820232 0.65499997 0.12403079 1.3827179e-38 301 132
-0.020671798 0.65499997 0.12403079 1.3826095e-38 302 132
-0.019523365 0.65499997 0.12403079 1.3549868e-38 303 132
-0.018374931 0.65499997 0.12403079 1.3458026e-38 304 132
-0.0172791 0.65700001 0.12440952 1.3273274e-38 305 132
-0.01612716 0.65700001 0.12440952 1.3181435e-38 306 132
-0.01497522 0.65700001 0.12440952 1.2997403e-38 307 132
-0.01384432 0.65799999 0.12459887 1.3181435e-38 308 132
-0.012709912 0.65899998 0.12478823 1.2997403e-38 309 132
-0.011554466 0.65899998 0.12478823 1.2905218e-38 310 132
-0.038129739 0.65899998 0.12363279 1.5124402e-38 287 133
-0.036918186 0.65799999 0.12344518 1.5306998e-38 288 133
-0.035764489 0.65799999 0.12344518 1.5214803e-38 289 133
-0.034558199 0.65700001 0.12325758 1.4755264e-38 290 133
-0.033406258 0.65700001 0.12325758 1.4755264e-38 291 133
-0.032156132 0.65499997 0.12288236 1.4755266e-38 292 133
-0.030960357 0.65399998 0.12269475 1.5031853e-38 293 133
-0.029813679 0.65399998 0.12269475 1.5306998e-38 294 133
-0.028666999 0.65399998 0.12269475 1.484566e-38 295 133
-0.027520318 0.65399998 0.12269475 1.4476516e-38 296 133
-0.02637364 0.65399998 0.12269475 1.4292123e-38 297 133
-0.025226958 0.65399998 0.12269475 1.4015175e-38 298 133
-0.024080278 0.65399998 0.12269475 1.3646751e-38 299 133
-0.022968665 0.65499997 0.12288236 1.3920817e-38 300 133
-0.021820232 0.65499997 0.12288236 1.3736427e-38 301 133
-0.020671798 0.65499997 0.12288236 1.3552388e-38 302 133
-0.019523365 0.65499997 0.12288236 1.3367996e-38 303 133
-0.018374931 0.65499997 0.12288236 1.3091764e-38 304 133
-0.0172791 0.65700001 0.12325758 1.2999568e-38 305 133
-0.01612716 0.65700001 0.12325758 1.2907366e-38 306 133
-0.014998012 0.65799999 0.12344518 1.281517e-38 307 133
-0.01384432 0.65799999 0.12344518 1.3090318e-38 308 133
-0.012709912 0.65899998 0.12363279 1.2997764e-38 309 133
-0.011554466 0.65899998 0.12363279 1.2813019e-38 310 133
-0.038129739 0.65899998 0.12247734 1.5030053e-38 287 134
-0.036918186 0.65799999 0.12229149 1.5305563e-38 288 134
-0.035710141 0.65700001 0.12210564 1.5121532e-38 289 134
-0.034558199 0.65700001 0.12210564 1.4846743e-38 290 134
-0.033406258 0.65700001 0.12210564 1.4846743e-38 291 134
-0.032156132 0.65499997 0.12173393 1.4938583e-38 292 134
-0.031007698 0.65499997 0.12173393 1.5215168e-38 293 134
-0.029859263 0.65499997 0.12173393 1.5306642e-38 294 134
-0.028710833 0.65499997 0.12173393 1.5030055e-38 295 134
-0.027520318 0.65399998 0.12154807 1.4476513e-38 296 134
-0.02637364 0.65399998 0.12154807 1.4384316e-38 297 134
-0.025226958 0.65399998 0.12154807 1.4107726e-38 298 134
-0.024080278 0.65399998 0.12154807 1.3739303e-38 299 134
-0.022968665 0.65499997 0.12173393 1.4105205e-38 300 134
-0.021820232 0.65499997 0.12173393 1.3920814e-38 301 134
-0.020671798 0.65499997 0.12173393 1.3644938e-38 302 134
-0.019523365 0.65499997 0.12173393 1.3552741e-38 303 134
-0.01843104 0.65700001 0.12210564 1.355094e-38 304 134
-0.0172791 0.65700001 0.12210564 1.3274713e-38 305 134
-0.01612716 0.65700001 0.12210564 1.3182514e-38 306 134
-0.014998012 0.65799999 0.12229149 1.3182514e-38 307 134
-0.013865359 0.65899998 0.12247734 1.327363e-38 308 134
-0.012709912 0.65899998 0.12247734 1.327363e-38 309 134
-0.011554466 0.65899998 0.12247734 1.2997769e-38 310 134
-0.010399019 0.65899998 0.12247734 1.4103758e-38 311 134
-0.038129739 0.65899998 0.12132189 1.4754541e-38 287 135
-0.036918186 0.65799999 0.12113779 1.5121885e-38 288 135
-0.035710141 0.65700001 0.12095369 1.5029688e-38 289 135
-0.034558199 0.65700001 0.12095369 1.493786e-38 290 135
-0.033406258 0.65700001 0.12095369 1.4845663e-38 291 135
-0.03225432 0.65700001 0.12095369 1.4845307e-38 292 135
-0.031007698 0.65499997 0.12058549 1.4845307e-38 293 135
-0.029859263 0.65499997 0.12058549 1.4661273e-38 294 135
-0.028710833 0.65499997 0.12058549 1.4384686e-38 295 135
-0.027562398 0.65499997 0.12058549 1.4383964e-38 296 135
-0.026413966 0.65499997 0.12058549 1.4291767e-38 297 135
-0.025265532 0.65499997 0.12058549 1.4199569e-38 298 135
-0.024117097 0.65499997 0.12058549 1.4015178e-38 299 135
-0.022968665 0.65499997 0.12058549 1.3921896e-38 300 135
-0.021886859 0.65700001 0.12095369 1.3737146e-38 301 135
-0.020734919 0.65700001 0.12095369 1.3644585e-38 302 135
-0.019582979 0.65700001 0.12095369 1.3552388e-38 303 135
-0.01843104 0.65700001 0.12095369 1.3367991e-38 304 135
-0.0172791 0.65700001 0.12095369 1.3091764e-38 305 135
-0.016151706 0.65799999 0.12113779 1.3274713e-38 306 135
-0.014998012 0.65799999 0.12113779 1.3274713e-38 307 135
-0.013865359 0.65899998 0.12132189 1.3182514e-38 308 135
-0.012709912 0.65899998 0.12132189 1.3182514e-38 309 135
-0.011554466 0.65899998 0.12132189 1.3091767e-38 310 135
-0.010399019 0.65899998 0.12132189 1.3644582e-38 311 135
-0.036974292 0.65899998 0.12016644 1.5215519e-38 288 136
-0.035710141 0.65700001 0.11980176 1.5123323e-38 289 136
-0.034558199 0.65700001 0.11980176 1.5122967e-38 290 136
-0.033406258 0.65700001 0.11980176 1.4938936e-38 291 136
-0.03225432 0.65700001 0.11980176 1.4938936e-38 292 136
-0.03110238 0.65700001 0.11980176 1.484674e-38 293 136
-0.029859263 0.65499997 0.11943705 1.484566e-38 294 136
-0.028710833 0.65499997 0.11943705 1.4569433e-38 295 136
-0.027562398 0.65499997 0.11943705 1.4752743e-38 296 136
-0.026413966 0.65499997 0.11943705 1.4476516e-38 297 136
-0.025265532 0.65499997 0.11943705 1.4567628e-38 298 136
-0.024117097 0.65499997 0.11943705 1.410701e-38 299 136
-0.022968665 0.65499997 0.11943705 1.4197404e-38 300 136
-0.021886859 0.65700001 0.11980176 1.4105208e-38 301 136
-0.020734919 0.65700001 0.11980176 1.3920811e-38 302 136
-0.019582979 0.65700001 0.11980176 1.373678e-38 303 136
-0.018459093 0.65799999 0.1199841 1.3552738e-38 304 136
-0.017305398 0.65799999 0.1199841 1.3368347e-38 305 136
-0.016151706 0.65799999 0.1199841 1.3367625e-38 306 136
-0.015020805 0.65899998 0.12016644 1.3275429e-38 307 136
-0.013865359 0.65899998 0.12016644 1.3274711e-38 308 136
-0.012709912 0.65899998 0.12016644 1.3182514e-38 309 136
-0.011589534 0.66100001 0.12053115 1.3182163e-38 310 136
-0.034558199 0.65700001 0.11864981 1.5400636e-38 290 137
-0.033406258 0.65700001 0.11864981 1.5400636e-38 291 137
-0.03225432 0.65700001 0.11864981 1.5492113e-38 292 137
-0.03110238 0.65700001 0.11864981 1.5492113e-38 293 137
-0.029859263 0.65499997 0.11828862 1.5214447e-38 294 137
-0.028710833 0.65499997 0.11828862 1.493786e-38 295 137
-0.027562398 0.65499997 0.11828862 1.4662348e-38 296 137
-0.026413966 0.65499997 0.11828862 1.4477598e-38 297 137
-0.025265532 0.65499997 0.11828862 1.4384319e-38 298 137
-0.024117097 0.65499997 0.11828862 1.4199569e-38 299 137
-0.023038799 0.65700001 0.11864981 1.410701e-38 300 137
-0.021886859 0.65700001 0.11864981 1.4014456e-38 301 137
-0.020734919 0.65700001 0.11864981 1.3921893e-38 302 137
-0.019582979 0.65700001 0.11864981 1.3645306e-38 303 137
-0.018459093 0.65799999 0.11883041 1.3644582e-38 304 137
-0.017305398 0.65799999 0.11883041 1.3460189e-38 305 137
-0.016151706 0.65799999 0.11883041 1.355094e-38 306 137
-0.015020805 0.65899998 0.119011 1.3458744e-38 307 137
-0.013865359 0.65899998 0.119011 1.3458023e-38 308 137
-0.012709912 0.65899998 0.119011 1.3181435e-38 309 137
-0.033406258 0.65700001 0.11749788 1.4294654e-38 291 138
-0.03225432 0.65700001 0.11749788 1.4663791e-38 292 138
-0.03110238 0.65700001 0.11749788 1.4663791e-38 293 138
-0.029859263 0.65499997 0.11714019 1.4754543e-38 294 138
-0.028710833 0.65499997 0.11714019 1.4477598e-38 295 138
-0.027562398 0.65499997 0.11714019 1.456943e-38 296 138
-0.026413966 0.65499997 0.11714019 1.4292842e-38 297 138
-0.025265532 0.65499997 0.11714019 1.447507e-38 298 138
-0.024117097 0.65499997 0.11714019 1.4382515e-38 299 138
-0.023038799 0.65700001 0.11749788 1.3922612e-38 300 138
-0.021886859 0.65700001 0.11749788 1.355419e-38 301 138
-0.020734919 0.65700001 0.11749788 1.3644585e-38 302 138
-0.019582979 0.65700001 0.11749788 1.3367996e-38 303 138
-0.018459093 0.65799999 0.11767671 1.318216e-38 304 138
-0.017305398 0.65799999 0.11767671 1.2536791e-38 305 138
-0.016151706 0.65799999 0.11767671 1.2350596e-38 306 138
-0.015020805 0.65899998 0.11785555 1.1705227e-38 307 138
-0.013865359 0.65899998 0.11785555 1.1059493e-38 308 138
-0.03225432 0.65700001 0.11634594 1.3002828e-38 292 139
-0.031007698 0.65499997 0.11599176 1.3463806e-38 293 139
-0.029813679 0.65399998 0.11581468 1.3555274e-38 294 139
-0.028666999 0.65399998 0.11581468 1.3371243e-38 295 139
-0.027520318 0.65399998 0.11581468 1.3830066e-38 296 139
-0.02637364 0.65399998 0.11581468 1.3830066e-38 297 139
-0.025226958 0.65399998 0.11581468 1.401301e-38 298 139
-0.024080278 0.65399998 0.11581468 1.3644587e-38 299 139
-0.022933599 0.65399998 0.11581468 1.3367991e-38 300 139
-0.021886859 0.65700001 0.11634594 1.2999568e-38 301 139
-0.020734919 0.65700001 0.11634594 1.2814454e-38 302 139
-0.019582979 0.65700001 0.11634594 1.2630063e-38 303 139
-0.018459093 0.65799999 0.11652302 1.2352753e-38 304 139
-0.017305398 0.65799999 0.11652302 1.1614829e-38 305 139
-0.016151706 0.65799999 0.11652302 1.0876901e-38 306 139
-0.031007698 0.65499997 0.11484333 8.4798498e-39 293 140
-0.029813679 0.65399998 0.114668 8.2983298e-39 294 140
-0.028666999 0.65399998 0.114668 8.4827196e-39 295 140
-0.027520318 0.65399998 0.114668 8.6653102e-39 296 140
-0.02637364 0.65399998 0.114668 8.8497015e-39 297 140
-0.025226958 0.65399998 0.114668 8.9418873e-39 298 140
-0.024080278 0.65399998 0.114668 9.2181154e-39 299 140
-0.022933599 0.65399998 0.114668 1.0044632e-38 300 140
0.0048672534 0.69400001 0.036504399 1.0603529e-38 324 210
0.0060840664 0.69400001 0.036504399 8.0220512e-39 325 210
0.0036451798 0.69300002 0.035236739 1.0049286e-38 323 211
0.00486024 0.69300002 0.035236739 9.0369121e-39 324 211
0.0060753003 0.69300002 0.035236739 7.8383704e-39 325 211
0.0072903596 0.69300002 0.035236739 6.5519629e-39 326 211
0.0024231065 0.69099998 0.033923492 9.4064205e-39 322 212
0.0036346598 0.69099998 0.033923492 8.6688555e-39 323 212
0.00486024 0.69300002 0.034021679 8.4848118e-39 324 212
0.0060753003 0.69300002 0.034021679 7.7472467e-39 325 212
0.0072903596 0.69300002 0.034021679 6.9200224e-39 326 212
-0.016642639 0.67799997 0.03209652 1.198217e-38 306 213
-0.015453878 0.67799997 0.03209652 1.198217e-38 307 213
0.0024231065 0.69099998 0.032711938 6.7395548e-39 322 213
0.0036346598 0.69099998 0.032711938 7.3849242e-39 323 213
0.0048462129 0.69099998 0.032711938 8.4858837e-39 324 213
0.0060577663 0.69099998 0.032711938 8.1171012e-39 325 213
0.0072693196 0.69099998 0.032711938 7.4713955e-39 326 213
-0.049458027 0.68800002 0.031363625 2.6836897e-39 279 214
-0.048181597 0.68699998 0.031318039 2.8666615e-39 280 214
-0.046977058 0.68699998 0.031318039 3.3276396e-39 281 214
-0.045572639 0.68400002 0.03118128 4.4325607e-39 282 214
-0.044308487 0.68300003 0.031135695 5.4463539e-39 283 214
-0.043110959 0.68300003 0.031135695 6.3665151e-39 284 214
-0.016642639 0.67799997 0.030907756 1.0878696e-38 306 214
-0.015453878 0.67799997 0.030907756 1.0786501e-38 307 214
-0.014265119 0.67799997 0.030907756 1.0694302e-38 308 214
-0.010761959 0.68199998 0.031090107 1.0785769e-38 311 214
-0.0095381327 0.68000001 0.030998932 9.9574377e-39 312 214
-0.0083458666 0.68000001 0.030998932 9.3120683e-39 313 214
-0.0071535995 0.68000001 0.030998932 8.4844558e-39 314 214
0.00121506 0.69300002 0.031591557 5.9980086e-39 321 214
0.0024231065 0.69099998 0.031500384 7.1065296e-39 322 214
0.0036346598 0.69099998 0.031500384 7.6593447e-39 323 214
0.0048462129 0.69099998 0.031500384 8.4855278e-39 324 214
0.0060577663 0.69099998 0.031500384 8.117104e-39 325 214
0.0072693196 0.69099998 0.031500384 7.6550707e-39 326 214
-0.056215372 0.69700003 0.030551834 1.4938209e-38 274 215
-0.054993302 0.69700003 0.030551834 1.0420624e-38 275 215
-0.053694077 0.69599998 0.030507999 5.7239973e-39 276 215
-0.052473757 0.69599998 0.030507999 3.4191066e-39 277 215
-0.051032521 0.69300002 0.0303765 3.7885926e-39 278 215
-0.049458027 0.68800002 0.030157333 3.6042013e-39 279 215
-0.048181597 0.68699998 0.030113498 4.2452799e-39 280 215
-0.046977058 0.68699998 0.030113498 4.0608887e-39 281 215
-0.045572639 0.68400002 0.029982001 2.8670272e-39 282 215
-0.044308487 0.68300003 0.029938167 2.7748316e-39 283 215
-0.043110959 0.68300003 0.029938167 2.5918725e-39 284 215
-0.041974798 0.68400002 0.029982001 2.4993181e-39 285 215
-0.024890319 0.676 0.029631332 9.2209699e-39 299 215
-0.023705067 0.676 0.029631332 9.1273281e-39 300 215
-0.017857701 0.67900002 0.029762832 8.0220512e-39 305 215
-0.016667187 0.67900002 0.029762832 7.839455e-39 306 215
-0.015453878 0.67799997 0.029718997 7.5632282e-39 307 215
-0.014265119 0.67799997 0.029718997 7.6539749e-39 308 215
-0.013095647 0.67900002 0.029762832 7.7461705e-39 309 215
-0.011905133 0.67900002 0.029762832 7.8379906e-39 310 215
-0.0107304 0.68000001 0.029806666 6.9163944e-39 311 215
-0.0095381327 0.68000001 0.029806666 5.8121881e-39 312 215
-0.0083458666 0.68000001 0.029806666 5.4437657e-39 313 215
-0.0071535995 0.68000001 0.029806666 5.1664641e-39 314 215
-0.005978866 0.68199998 0.029894331 4.9820757e-39 315 215
-0.004783093 0.68199998 0.029894331 5.1653879e-39 316 215
-0.0035925799 0.68300003 0.029938167 5.2575822e-39 317 215
0 0.69 0.030244999 6.9181825e-39 320 215
0.0012097999 0.69 0.030244999 7.3795208e-39 321 215
0.0024231065 0.69099998 0.030288832 7.6575468e-39 322 215
0.0036346598 0.69099998 0.030288832 8.1185235e-39 323 215
0.0048462129 0.69099998 0.030288832 8.6691806e-39 324 215
0.0060577663 0.69099998 0.030288832 8.0238112e-39 325 215
0.0072693196 0.69099998 0.030288832 8.0209623e-39 326 215
-0.05743745 0.69700003 0.02932976 1.6134958e-38 273 216
-0.056215372 0.69700003 0.02932976 1.5213001e-38 274 216
-0.054993302 0.69700003 0.02932976 1.1340786e-38 275 216
-0.053694077 0.69599998 0.029287677 8.6685178e-39 276 216
-0.052322973 0.69400001 0.029203519 6.6402139e-39 277 216
-0.051032521 0.69300002 0.029161438 5.5352761e-39 278 216
-0.049601797 0.69 0.029035198 4.7973523e-39 279 216
-0.048251733 0.68800002 0.028951041 4.061239e-39 280 216
-0.046977058 0.68699998 0.028908957 4.1534346e-39 281 216
-0.045705888 0.68599999 0.02886688 3.2361601e-39 282 216
-0.04437336 0.68400002 0.02878272 3.3283557e-39 283 216
-0.043174081 0.68400002 0.02878272 3.2361573e-39 284 216
-0.041974798 0.68400002 0.02878272 3.0521261e-39 285 216
-0.040715907 0.68300003 0.028740639 2.9599263e-39 286 216
-0.039518382 0.68300003 0.028740639 3.4209045e-39 287 216
-0.029631332 0.676 0.028446076 5.7222051e-39 295 216
-0.028404001 0.67500001 0.028404001 5.1718984e-39 296 216
-0.027220501 0.67500001 0.028404001 5.8172678e-39 297 216
-0.026037 0.67500001 0.028404001 7.1958834e-39 298 216
-0.024890319 0.676 0.028446076 7.0114922e-39 299 216
-0.023705067 0.676 0.028446076 5.2637311e-39 300 216
-0.017857701 0.67900002 0.028572321 5.9973304e-39 305 216
-0.016667187 0.67900002 0.028572321 5.6303402e-39 306 216
-0.015476674 0.67900002 0.028572321 5.5381445e-39 307 216
-0.01428616 0.67900002 0.028572321 5.5384921e-39 308 216
-0.013095647 0.67900002 0.028572321 5.9994702e-39 309 216
-0.011905133 0.67900002 0.028572321 6.8256155e-39 310 216
-0.0107304 0.68000001 0.028614398 6.3649961e-39 311 216
-0.009524107 0.67900002 0.028572321 5.9050941e-39 312 216
-0.0083335936 0.67900002 0.028572321 5.9050941e-39 313 216
-0.0071535995 0.68000001 0.028614398 5.6292289e-39 314 216
-0.005978866 0.68199998 0.02869856 5.3526462e-39 315 216
-0.004783093 0.68199998 0.02869856 5.444123e-39 316 216
-0.0035925799 0.68300003 0.028740639 5.6281527e-39 317 216
-0.0024055731 0.68599999 0.02886688 5.9065361e-39 318 216
-0.0012027866 0.68599999 0.02886688 6.5519055e-39 319 216
0 0.68800002 0.028951041 7.0125305e-39 320 216
0.0012097999 0.69 0.029035198 7.2894761e-39 321 216
0.0024231065 0.69099998 0.029077278 8.0248874e-39 322 216
0.0036346598 0.69099998 0.029077278 8.3936685e-39 323 216
0.0048462129 0.69099998 0.029077278 8.9446745e-39 324 216
0.0060577663 0.69099998 0.029077278 8.3915021e-39 325 216
0.0072693196 0.69099998 0.029077278 9.3070096e-39 326 216
-0.05743745 0.69700003 0.028107686 1.6134961e-38 273 217
-0.056215372 0.69700003 0.028107686 1.5305563e-38 274 217
-0.054914396 0.69599998 0.028067358 1.1525901e-38 275 217
-0.053694077 0.69599998 0.028067358 9.8649296e-39 276 217
-0.052322973 0.69400001 0.027986705 8.9429733e-39 277 217
-0.051032521 0.69300002 0.027946379 7.6547232e-39 278 217
-0.049601797 0.69 0.027825398 6.3639844e-39 279 217
-0.048251733 0.68800002 0.027744746 4.9824694e-39 280 217
-0.047045439 0.68800002 0.027744746 4.4292957e-39 281 217
-0.045772515 0.68699998 0.027704418 3.603851e-39 282 217
-0.044503104 0.68599999 0.027664091 3.7882422e-39 283 217
-0.043300316 0.68599999 0.027664091 3.9715601e-39 284 217
-0.041974798 0.68400002 0.027583439 3.8793645e-39 285 217
-0.040715907 0.68300003 0.027543113 3.7882478e-39 286 217
-0.039518382 0.68300003 0.027543113 4.0644746e-39 287 217
-0.038264744 0.68199998 0.027502786 4.4336145e-39 288 217
-0.037068974 0.68199998 0.027502786 4.7098412e-39 289 217
-0.031954501 0.67500001 0.027220501 4.2477686e-39 293 217
-0.030771 0.67500001 0.027220501 3.972258e-39 294 217
-0.0295875 0.67500001 0.027220501 3.6038356e-39 295 217
-0.028404001 0.67500001 0.027220501 2.8698593e-39 296 217
-0.027220501 0.67500001 0.027220501 3.8843657e-39 297 217
-0.026037 0.67500001 0.027220501 5.8165237e-39 298 217
-0.024890319 0.676 0.027260827 5.3555455e-39 299 217
-0.023705067 0.676 0.027260827 3.421961e-39 300 217
-0.022586439 0.67799997 0.027341479 2.9609829e-39 301 217
-0.021397678 0.67799997 0.027341479 4.4321501e-39 302 217
-0.019076265 0.68000001 0.027422134 4.8917031e-39 304 217
-0.017883999 0.68000001 0.027422134 5.2604842e-39 305 217
-0.016667187 0.67900002 0.027381808 4.7087566e-39 306 217
-0.015476674 0.67900002 0.027381808 4.8927877e-39 307 217
-0.01428616 0.67900002 0.027381808 5.1704354e-39 308 217
-0.013095647 0.67900002 0.027381808 5.6314122e-39 309 217
-0.011905133 0.67900002 0.027381808 6.367517e-39 310 217
-0.010714619 0.67900002 0.027381808 6.2749627e-39 311 217
-0.009524107 0.67900002 0.027381808 6.2749515e-39 312 217
-0.0083335936 0.67900002 0.027381808 6.1823971e-39 313 217
-0.0071535995 0.68000001 0.027422134 5.9072465e-39 314 217
-0.005978866 0.68199998 0.027502786 5.9072465e-39 315 217
-0.004783093 0.68199998 0.027502786 6.0905588e-39 316 217
-0.0035925799 0.68300003 0.027543113 6.3675002e-39 317 217
-0.0023985601 0.68400002 0.027583439 6.4611322e-39 318 217
-0.0012027866 0.68599999 0.027664091 6.7377191e-39 319 217
0 0.68699998 0.027704418 7.4734919e-39 320 217
0.0012097999 0.69 0.027825398 7.8419156e-39 321 217
0.0024231065 0.69099998 0.027865725 8.4844166e-39 322 217
0.0036346598 0.69099998 0.027865725 8.7610035e-39 323 217
0.00486024 0.69300002 0.027946379 9.4960322e-39 324 217
0.0060753003 0.69300002 0.027946379 8.9428584e-39 325 217
0.0072903596 0.69300002 0.027946379 9.7661745e-39 326 217
-0.05743745 0.69700003 0.026885614 1.6043128e-38 273 218
-0.056215372 0.69700003 0.026885614 1.5305566e-38 274 218
-0.054914396 0.69599998 0.026847038 1.1617741e-38 275 218
-0.053694077 0.69599998 0.026847038 9.6816327e-39 276 218
-0.052322973 0.69400001 0.026769891 9.0362633e-39 277 218
-0.051032521 0.69300002 0.02673132 9.1291652e-39 278 218
-0.049601797 0.69 0.026615599 8.5759928e-39 279 218
-0.048251733 0.68800002 0.026538454 8.3001024e-39 280 218
-0.047045439 0.68800002 0.026538454 7.2863106e-39 281 218
-0.045772515 0.68699998 0.026499879 5.9984164e-39 282 218
-0.044503104 0.68599999 0.026461305 4.7076776e-39 283 218
-0.043300316 0.68599999 0.026461305 4.2470498e-39 284 218
-0.041974798 0.68400002 0.02638416 4.3396041e-39 285 218
-0.040715907 0.68300003 0.026345588 3.8804379e-39 286 218
-0.039518382 0.68300003 0.026345588 4.0648277e-39 287 218
-0.038264744 0.68199998 0.026307013 4.3410503e-39 288 218
-0.037068974 0.68199998 0.026307013 4.617277e-39 289 218
-0.035873197 0.68199998 0.026307013 4.7101789e-39 290 218
-0.034677424 0.68199998 0.026307013 4.7101789e-39 291 218
-0.031954501 0.67500001 0.026037 4.3417565e-39 293 218
-0.030771 0.67500001 0.026037 4.3417537e-39 294 218
-0.0295875 0.67500001 0.026037 4.5257849e-39 295 218
-0.028404001 0.67500001 0.026037 4.159861e-39 296 218
-0.027220501 0.67500001 0.026037 4.8052304e-39 297 218
-0.026075572 0.676 0.026075572 5.4506026e-39 298 218
-0.024890319 0.676 0.026075572 5.08146e-39 299 218
-0.023705067 0.676 0.026075572 4.7083783e-39 300 218
-0.022586439 0.67799997 0.026152719 4.4321501e-39 301 218
-0.021397678 0.67799997 0.026152719 4.7076594e-39 302 218
-0.020238725 0.67900002 0.026191294 4.799855e-39 303 218
-0.019048214 0.67900002 0.026191294 5.0757216e-39 304 218
-0.017883999 0.68000001 0.026229866 5.1679173e-39 305 218
-0.016667187 0.67900002 0.026191294 4.8931282e-39 306 218
-0.015476674 0.67900002 0.026191294 4.9853239e-39 307 218
-0.01428616 0.67900002 0.026191294 5.3544511e-39 308 218
-0.013095647 0.67900002 0.026191294 5.7235924e-39 309 218
-0.011905133 0.67900002 0.026191294 6.0008785e-39 310 218
-0.010714619 0.67900002 0.026191294 6.0008785e-39 311 218
-0.009524107 0.67900002 0.026191294 5.9997995e-39 312 218
-0.0083335936 0.67900002 0.026191294 5.9997995e-39 313 218
-0.0071535995 0.68000001 0.026229866 6.1838292e-39 314 218
-0.005978866 0.68199998 0.026307013 6.1838292e-39 315 218
-0.004783093 0.68199998 0.026307013 6.2760235e-39 316 218
-0.0035925799 0.68300003 0.026345588 6.6451591e-39 317 218
-0.0023985601 0.68400002 0.02638416 6.9213845e-39 318 218
-0.0012027866 0.68599999 0.026461305 7.1061359e-39 319 218
0 0.68699998 0.026499879 7.8408296e-39 320 218
0.0012097999 0.69 0.026615599 8.3018078e-39 321 218
0.0024195998 0.69 0.026615599 8.8521047e-39 322 218
0.0036346598 0.69099998 0.026654173 9.2208872e-39 323 218
0.00486024 0.69300002 0.02673132 1.0047038e-38 324 218
0.0060753003 0.69300002 0.02673132 9.6782556e-39 325 218
0.0072903596 0.69300002 0.02673132 1.0044562e-38 326 218
-0.05743745 0.69700003 0.025663542 1.6134961e-38 273 219
-0.056215372 0.69700003 0.025663542 1.5490313e-38 274 219
-0.054914396 0.69599998 0.025626717 1.2078716e-38 275 219
-0.053694077 0.69599998 0.025626717 1.0142614e-38 276 219
-0.052322973 0.69400001 0.025553079 9.1284632e-39 277 219
-0.051032521 0.69300002 0.02551626 8.8526008e-39 278 219
-0.049673684 0.69099998 0.025442619 8.5756551e-39 279 219
-0.048391998 0.69 0.025405798 9.0373353e-39 280 219
-0.047045439 0.68800002 0.02533216 9.3142824e-39 281 219
-0.045772515 0.68699998 0.025295338 7.9334499e-39 282 219
-0.044503104 0.68599999 0.025258519 6.4583184e-39 283 219
-0.043300316 0.68599999 0.025258519 5.1700683e-39 284 219
-0.041974798 0.68400002 0.025184879 4.800927e-39 285 219
-0.040715907 0.68300003 0.02514806 4.156652e-39 286 219
-0.039518382 0.68300003 0.02514806 4.3414034e-39 287 219
-0.038264744 0.68199998 0.025111238 4.6179833e-39 288 219
-0.037068974 0.68199998 0.025111238 4.7101789e-39 289 219
-0.035873197 0.68199998 0.025111238 4.8030808e-39 290 219
-0.034575731 0.68000001 0.025037598 4.8952764e-39 291 219
-0.033383466 0.68000001 0.025037598 4.9863931e-39 292 219
-0.032191198 0.68000001 0.025037598 4.9863931e-39 293 219
-0.030953348 0.67900002 0.025000781 4.9860273e-39 294 219
-0.029718997 0.67799997 0.024963958 5.3544511e-39 295 219
-0.028446076 0.676 0.024890319 5.4502229e-39 296 219
-0.027260827 0.676 0.024890319 5.6346155e-39 297 219
-0.026075572 0.676 0.024890319 5.6338981e-39 298 219
-0.024890319 0.676 0.024890319 5.1725626e-39 299 219
-0.023775198 0.67799997 0.024963958 5.1682704e-39 300 219
-0.022586439 0.67799997 0.024963958 4.7991277e-39 301 219
-0.021429239 0.67900002 0.025000781 4.7076622e-39 302 219
-0.020238725 0.67900002 0.025000781 4.7998578e-39 303 219
-0.019048214 0.67900002 0.025000781 4.800927e-39 304 219
-0.017883999 0.68000001 0.025037598 4.985677e-39 305 219
-0.016691733 0.68000001 0.025037598 5.1693396e-39 306 219
-0.015499466 0.68000001 0.025037598 5.2615352e-39 307 219
-0.01428616 0.67900002 0.025000781 5.5395486e-39 308 219
-0.013095647 0.67900002 0.025000781 5.7239399e-39 309 219
-0.011922667 0.68000001 0.025037598 6.0927112e-39 310 219
-0.0107304 0.68000001 0.025037598 6.000517e-39 311 219
-0.0095381327 0.68000001 0.025037598 6.2756647e-39 312 219
-0.0083458666 0.68000001 0.025037598 6.5518887e-39 313 219
-0.0071535995 0.68000001 0.025037598 6.0930699e-39 314 219
-0.005978866 0.68199998 0.025111238 6.3692939e-39 315 219
-0.0047901068 0.68300003 0.02514806 6.8288301e-39 316 219
-0.0035925799 0.68300003 0.02514806 7.0135773e-39 317 219
-0.0023985601 0.68400002 0.025184879 7.7493375e-39 318 219
-0.0012027866 0.68599999 0.025258519 7.8415331e-39 319 219
0 0.68699998 0.025295338 8.8520949e-39 320 219
0.0012062934 0.68800002 0.02533216 9.1283216e-39 321 219
0.0024195998 0.69 0.025405798 9.6786214e-39 322 219
0.0036346598 0.69099998 0.025442619 9.7708184e-39 323 219
0.00486024 0.69300002 0.02551626 1.013853e-38 324 219
0.0060840664 0.69400001 0.025553079 1.013853e-38 325 219
0.0073008798 0.69400001 0.025553079 9.862354e-39 326 219
-0.05743745 0.69700003 0.024441468 1.6043484e-38 273 220
-0.056215372 0.69700003 0.024441468 1.5765821e-38 274 220
-0.054914396 0.69599998 0.0244064 1.2631171e-38 275 220
-0.053694077 0.69599998 0.0244064 1.0694713e-38 276 220
-0.052322973 0.69400001 0.024336265 9.5883651e-39 277 220
-0.051032521 0.69300002 0.024301201 9.0362802e-39 278 220
-0.049673684 0.69099998 0.024231065 8.3909107e-39 279 220
-0.048391998 0.69 0.024195999 8.5767271e-39 280 220
-0.047045439 0.68800002 0.024125867 9.3142922e-39 281 220
-0.045772515 0.68699998 0.024090799 9.9621223e-39 282 220
-0.044503104 0.68599999 0.024055731 8.3951567e-39 283 220
-0.043300316 0.68599999 0.024055731 7.4742528e-39 284 220
-0.041974798 0.68400002 0.0239856 6.4601022e-39 285 220
-0.040715907 0.68300003 0.023950534 5.2619304e-39 286 220
-0.039518382 0.68300003 0.023950534 5.0775391e-39 287 220
-0.038264744 0.68199998 0.023915464 4.7105447e-39 288 220
-0.037068974 0.68199998 0.023915464 4.9874917e-39 289 220
-0.035873197 0.68199998 0.023915464 4.8977974e-39 290 220
-0.034575731 0.68000001 0.023845334 4.989993e-39 291 220
-0.033383466 0.68000001 0.023845334 4.8981477e-39 292 220
-0.032191198 0.68000001 0.023845334 4.8981477e-39 293 220
-0.030998932 0.68000001 0.023845334 4.8073744e-39 294 220
-0.029762832 0.67900002 0.023810266 5.1761583e-39 295 220
-0.028572321 0.67900002 0.023810266 5.4545262e-39 296 220
-0.027341479 0.67799997 0.023775198 5.4545262e-39 297 220
-0.026152719 0.67799997 0.023775198 5.5424157e-39 298 220
-0.024963958 0.67799997 0.023775198 4.989609e-39 299 220
-0.023775198 0.67799997 0.023775198 4.7101607e-39 300 220
-0.022586439 0.67799997 0.023775198 4.6179651e-39 301 220
-0.021429239 0.67900002 0.023810266 4.4335738e-39 302 220
-0.020238725 0.67900002 0.023810266 4.7101607e-39 303 220
-0.019048214 0.67900002 0.023810266 4.8034311e-39 304 220
-0.017883999 0.68000001 0.023845334 4.9878238e-39 305 220
-0.016691733 0.68000001 0.023845334 5.1711361e-39 306 220
-0.015499466 0.68000001 0.023845334 5.2636904e-39 307 220
-0.014307199 0.68000001 0.023845334 5.7242958e-39 308 220
-0.013114933 0.68000001 0.023845334 6.0927196e-39 309 220
-0.011922667 0.68000001 0.023845334 6.0937874e-39 310 220
-0.0107304 0.68000001 0.023845334 6.0012344e-39 311 220
-0.0095381327 0.68000001 0.023845334 6.2767409e-39 312 220
-0.0083458666 0.68000001 0.023845334 6.3689352e-39 313 220
-0.00717464 0.68199998 0.023915464 6.4622056e-39 314 220
-0.005978866 0.68199998 0.023915464 6.5543998e-39 315 220
-0.0047901068 0.68300003 0.023950534 7.1050541e-39 316 220
-0.0035925799 0.68300003 0.023950534 7.3816367e-39 317 220
-0.0024055731 0.68599999 0.024055731 8.2081576e-39 318 220
-0.0012045399 0.68699998 0.024090799 8.6694959e-39 319 220
0 0.68699998 0.024090799 9.0379253e-39 320 220
0.0012062934 0.68800002 0.024125867 8.9457282e-39 321 220
0.0024195998 0.69 0.024195999 9.7708212e-39 322 220
0.0036346598 0.69099998 0.024231065 9.8630168e-39 323 220
0.0048672534 0.69400001 0.024336265 1.0322568e-38 324 220
0.0060840664 0.69400001 0.024336265 1.0322568e-38 325 220
0.0073008798 0.69400001 0.024336265 9.5872133e-39 326 220
-0.056215372 0.69700003 0.023219392 1.5582509e-38 274 221
-0.054993302 0.69700003 0.023219392 1.2078716e-38 275 221
-0.053694077 0.69599998 0.023186078 1.005186e-38 276 221
-0.052322973 0.69400001 0.023119451 9.5908833e-39 277 221
-0.051032521 0.69300002 0.02308614 1.0048622e-38 278 221
-0.049673684 0.69099998 0.023019511 9.7720333e-39 279 221
-0.04846213 0.69099998 0.023019511 9.2210091e-39 280 221
-0.047182199 0.69 0.022986198 9.7741815e-39 281 221
-0.045839146 0.68800002 0.022919573 9.6866144e-39 282 221
-0.044503104 0.68599999 0.022852944 8.2114829e-39 283 221
-0.043300316 0.68599999 0.022852944 7.7504641e-39 284 221
-0.041974798 0.68400002 0.022786319 6.5519209e-39 285 221
-0.040715907 0.68300003 0.022753006 5.7232561e-39 286 221
-0.039518382 0.68300003 0.022753006 5.3548323e-39 287 221
-0.038264744 0.68199998 0.022719691 5.1733081e-39 288 221
-0.037068974 0.68199998 0.022719691 5.6339275e-39 289 221
-0.035873197 0.68199998 0.022719691 5.8197284e-39 290 221
-0.034575731 0.68000001 0.022653066 5.8197284e-39 291 221
-0.033383466 0.68000001 0.022653066 5.9119101e-39 292 221
-0.032191198 0.68000001 0.022653066 6.0959398e-39 293 221
-0.030998932 0.68000001 0.022653066 6.3732399e-39 294 221
-0.029762832 0.67900002 0.022619752 6.3732399e-39 295 221
-0.028572321 0.67900002 0.022619752 6.8338524e-39 296 221
-0.027381808 0.67900002 0.022619752 6.6494639e-39 297 221
-0.026191294 0.67900002 0.022619752 5.7285978e-39 298 221
-0.025000781 0.67900002 0.022619752 5.2679854e-39 299 221
-0.023775198 0.67799997 0.022586439 5.4498627e-39 300 221
-0.022586439 0.67799997 0.022586439 5.4498627e-39 301 221
-0.0214608 0.68000001 0.022653066 4.8070143e-39 302 221
-0.020268533 0.68000001 0.022653066 4.8992085e-39 303 221
-0.019076265 0.68000001 0.022653066 5.4498627e-39 304 221
-0.017883999 0.68000001 0.022653066 5.4498627e-39 305 221
-0.016691733 0.68000001 0.022653066 6.1831118e-39 306 221
-0.015499466 0.68000001 0.022653066 6.275306e-39 307 221
-0.014307199 0.68000001 0.022653066 6.5515299e-39 308 221
-0.013114933 0.68000001 0.022653066 6.7359212e-39 309 221
-0.011922667 0.68000001 0.022653066 6.4611294e-39 310 221
-0.0107304 0.68000001 0.022653066 6.4611294e-39 311 221
-0.0095381327 0.68000001 0.022653066 6.5536823e-39 312 221
-0.0083704125 0.68199998 0.022719691 6.6458766e-39 313 221
-0.00717464 0.68199998 0.022719691 6.8295476e-39 314 221
-0.0059876335 0.68300003 0.022753006 6.9217418e-39 315 221
-0.0047971201 0.68400002 0.022786319 7.013936e-39 316 221
-0.00359784 0.68400002 0.022786319 7.3823542e-39 317 221
-0.0024055731 0.68599999 0.022852944 8.4847515e-39 318 221
-0.0012045399 0.68699998 0.022886258 9.0379253e-39 319 221
0 0.68699998 0.022886258 9.772975e-39 320 221
0.0012062934 0.68800002 0.022919573 9.4960294e-39 321 221
0.0024231065 0.69099998 0.023019511 9.7704681e-39 322 221
0.0036451798 0.69300002 0.02308614 1.0047414e-38 323 221
0.0048812795 0.69599998 0.023186078 1.0232193e-38 324 221
0.0061015999 0.69599998 0.023186078 9.8634106e-39 325 221
0.0073219193 0.69599998 0.023186078 8.1156943e-39 326 221
0.0085667865 0.69800001 0.023252707 1.1619488e-38 327 221
-0.056215372 0.69700003 0.02199732 1.5397762e-38 274 222
-0.054993302 0.69700003 0.02199732 1.143335e-38 275 222
-0.053694077 0.69599998 0.021965759 9.0395059e-39 276 222
-0.052322973 0.69400001 0.021902639 9.5004855e-39 277 222
-0.051106159 0.69400001 0.021902639 1.0419921e-38 278 222
-0.049817458 0.69300002 0.021871079 1.0051497e-38 279 222
-0.048602402 0.69300002 0.021871079 9.9603678e-39 280 222
-0.047182199 0.69 0.021776399 1.032951e-38 281 222
-0.045839146 0.68800002 0.021713281 9.3207059e-39 282 222
-0.044567976 0.68699998 0.021681719 7.3845977e-39 283 222
-0.043300316 0.68599999 0.021650158 5.9119689e-39 284 222
-0.041974798 0.68400002 0.02158704 4.8052612e-39 285 222
-0.040775519 0.68400002 0.02158704 5.4448895e-39 286 222
-0.039518382 0.68300003 0.02155548 5.8140322e-39 287 222
-0.038264744 0.68199998 0.021523919 5.5435297e-39 288 222
-0.037068974 0.68199998 0.021523919 5.9126724e-39 289 222
-0.035873197 0.68199998 0.021523919 6.0984859e-39 290 222
-0.034575731 0.68000001 0.0214608 6.0984859e-39 291 222
-0.033383466 0.68000001 0.0214608 6.2821485e-39 292 222
-0.032191198 0.68000001 0.0214608 6.4668999e-39 293 222
-0.030998932 0.68000001 0.0214608 7.8487358e-39 294 222
-0.029762832 0.67900002 0.021429239 7.6643445e-39 295 222
-0.028572321 0.67900002 0.021429239 7.2962654e-39 296 222
-0.027381808 0.67900002 0.021429239 7.0196785e-39 297 222
-0.026191294 0.67900002 0.021429239 7.1097176e-39 298 222
-0.025000781 0.67900002 0.021429239 6.6487464e-39 299 222
-0.023810266 0.67900002 0.021429239 6.464358e-39 300 222
-0.022619752 0.67900002 0.021429239 6.7412994e-39 301 222
-0.0214608 0.68000001 0.0214608 5.8225857e-39 302 222
-0.020268533 0.68000001 0.0214608 5.6381972e-39 303 222
-0.019076265 0.68000001 0.0214608 5.7285978e-39 304 222
-0.017883999 0.68000001 0.0214608 5.6364036e-39 305 222
-0.016691733 0.68000001 0.0214608 6.3678646e-39 306 222
-0.015499466 0.68000001 0.0214608 6.5522558e-39 307 222
-0.014307199 0.68000001 0.0214608 6.5522558e-39 308 222
-0.013114933 0.68000001 0.0214608 6.6448102e-39 309 222
-0.011922667 0.68000001 0.0214608 6.9203069e-39 310 222
-0.0107304 0.68000001 0.0214608 6.9203069e-39 311 222
-0.009566186 0.68199998 0.021523919 6.8295476e-39 312 222
-0.0083704125 0.68199998 0.021523919 6.9217418e-39 313 222
-0.00717464 0.68199998 0.021523919 6.9221005e-39 314 222
-0.0059876335 0.68300003 0.02155548 6.9221005e-39 315 222
-0.0047971201 0.68400002 0.02158704 7.2894425e-39 316 222
-0.00359784 0.68400002 0.02158704 7.7500549e-39 317 222
-0.0024055731 0.68599999 0.021650158 8.6677162e-39 318 222
-0.0012045399 0.68699998 0.021681719 9.4052813e-39 319 222
0 0.68699998 0.021681719 9.5878775e-39 320 222
0.0012062934 0.68800002 0.021713281 9.4956818e-39 321 222
0.0024195998 0.69 0.021776399 9.8623162e-39 322 222
0.0036451798 0.69300002 0.021871079 1.0230739e-38 323 222
0.0048812795 0.69599998 0.021965759 1.0231484e-38 324 222
0.0061015999 0.69599998 0.021965759 9.5861146e-39 325 222
0.0073429602 0.69800001 0.02202888 6.9182273e-39 326 222
0.0085667865 0.69800001 0.02202888 1.0697889e-38 327 222
0.0098186666 0.69999999 0.022091998 1.3186125e-38 328 222
-0.0550722 0.69800001 0.020805053 1.1709937e-38 275 223
-0.053771228 0.69700003 0.020775247 8.1182755e-39 276 223
-0.052473757 0.69599998 0.020745439 8.1182755e-39 277 223
-0.051106159 0.69400001 0.020685827 9.9614664e-39 278 223
-0.049817458 0.69300002 0.020656019 1.0422084e-38 279 223
-0.048602402 0.69300002 0.020656019 1.1247867e-38 280 223
-0.047250576 0.69099998 0.020596405 1.1524454e-38 281 223
-0.045839146 0.68800002 0.020506985 1.0331265e-38 282 223
-0.044567976 0.68699998 0.020477179 7.473199e-39 283 223
-0.043363437 0.68699998 0.020477179 5.2640814e-39 284 223
-0.042097531 0.68599999 0.020447372 4.9871358e-39 285 223
-0.040775519 0.68400002 0.020387759 5.2619304e-39 286 223
-0.039518382 0.68300003 0.020357953 6.1835265e-39 287 223
-0.038264744 0.68199998 0.020328145 5.9126724e-39 288 223
-0.037068974 0.68199998 0.020328145 6.2810948e-39 289 223
-0.035873197 0.68199998 0.020328145 6.7409883e-39 290 223
-0.034677424 0.68199998 0.020328145 6.7409883e-39 291 223
-0.033383466 0.68000001 0.020268533 7.2923572e-39 292 223
-0.032191198 0.68000001 0.020268533 7.5693042e-39 293 223
-0.030998932 0.68000001 0.020268533 8.3086391e-39 294 223
-0.029806666 0.68000001 0.020268533 8.4011935e-39 295 223
-0.028614398 0.68000001 0.020268533 8.4922905e-39 296 223
-0.027422134 0.68000001 0.020268533 8.0313137e-39 297 223
-0.026229866 0.68000001 0.020268533 7.937672e-39 298 223
-0.025037598 0.68000001 0.020268533 7.4770596e-39 299 223
-0.023810266 0.67900002 0.020238725 6.9253291e-39 300 223
-0.022619752 0.67900002 0.020238725 6.6487464e-39 301 223
-0.021523919 0.68199998 0.020328145 6.3739574e-39 302 223
-0.020328145 0.68199998 0.020328145 6.2817632e-39 303 223
-0.019132372 0.68199998 0.020328145 6.3714463e-39 304 223
-0.017936599 0.68199998 0.020328145 6.279252e-39 305 223
-0.016691733 0.68000001 0.020268533 6.8284756e-39 306 223
-0.015499466 0.68000001 0.020268533 6.9206712e-39 307 223
-0.014307199 0.68000001 0.020268533 6.6451605e-39 308 223
-0.013114933 0.68000001 0.020268533 6.6451605e-39 309 223
-0.011922667 0.68000001 0.020268533 6.9203069e-39 310 223
-0.0107304 0.68000001 0.020268533 7.0125011e-39 311 223
-0.009566186 0.68199998 0.020328145 6.8295476e-39 312 223
-0.0083704125 0.68199998 0.020328145 6.9221005e-39 313 223
-0.0071851597 0.68300003 0.020357953 7.1054128e-39 314 223
-0.0059876335 0.68300003 0.020357953 7.197607e-39 315 223
-0.0047971201 0.68400002 0.020387759 7.4727548e-39 316 223
-0.00360836 0.68599999 0.020447372 7.7493375e-39 317 223
-0.0024055731 0.68599999 0.020447372 8.5751647e-39 318 223
-0.0012045399 0.68699998 0.020477179 9.0365016e-39 319 223
0 0.68699998 0.020477179 9.3098585e-39 320 223
0.0012062934 0.68800002 0.020506985 9.5868055e-39 321 223
0.0024195998 0.69 0.020566599 9.9548803e-39 322 223
0.0036451798 0.69300002 0.020656019 1.0231469e-38 323 223
0.0048882933 0.69700003 0.020775247 1.0138572e-38 324 223
0.006119133 0.69800001 0.020805053 9.3088103e-39 325 223
0.0073429602 0.69800001 0.020805053 6.9182245e-39 326 223
0.0085667865 0.69800001 0.020805053 1.0514213e-38 327 223
0.0098186666 0.69999999 0.020864666 1.3370509e-38 328 223
-0.056779943 0.704 0.019749546 1.5673626e-38 274 224
-0.0554667 0.70300001 0.019721493 1.2538974e-38 275 224
-0.053771228 0.69700003 0.019553173 8.3023108e-39 276 224
-0.052473757 0.69599998 0.019525118 7.1041278e-39 277 224
-0.051253434 0.69599998 0.019525118 8.9484033e-39 278 224
-0.049817458 0.69300002 0.01944096 9.8703596e-39 279 224
-0.048602402 0.69300002 0.01944096 1.1248238e-38 280 224
-0.047250576 0.69099998 0.019384852 1.1432631e-38 281 224
-0.045972396 0.69 0.019356798 1.0606794e-38 282 224
-0.044567976 0.68699998 0.019272638 8.57849e-39 283 224
-0.043363437 0.68699998 0.019272638 6.5519658e-39 284 224
-0.042097531 0.68599999 0.019244585 5.8144007e-39 285 224
-0.040775519 0.68400002 0.01918848 5.3526939e-39 286 224
-0.039518382 0.68300003 0.019160427 7.012574e-39 287 224
-0.038264744 0.68199998 0.019132372 6.9239502e-39 288 224
-0.037068974 0.68199998 0.019132372 7.0161459e-39 289 224
-0.035873197 0.68199998 0.019132372 7.1069122e-39 290 224
-0.034677424 0.68199998 0.019132372 7.1069122e-39 291 224
-0.033383466 0.68000001 0.019076265 7.107994e-39 292 224
-0.032191198 0.68000001 0.019076265 7.660809e-39 293 224
-0.030998932 0.68000001 0.019076265 8.4005026e-39 294 224
-0.029806666 0.68000001 0.019076265 8.4926983e-39 295 224
-0.028614398 0.68000001 0.019076265 8.8592948e-39 296 224
