# .PCD v.7 - Point Cloud Data file format
FIELDS x y z rgb imX imY
SIZE 4 4 4 4 4 4
TYPE F F F F F F
COUNT 1 1 1 1 1 1
WIDTH 835
HEIGHT 1
VIEWPOINT 0 0 0 1 0 0 0
POINTS 835
DATA ascii
0.029161438 0.69300002 -0.04617228 1.1990862e-38 344 278
0.030420333 0.69400001 -0.046238903 1.1714275e-38 345 278
0.031728316 0.69599998 -0.046372157 1.0884158e-38 346 278
0.032948639 0.69599998 -0.046372157 1.0423539e-38 347 278
0.034267146 0.69800001 -0.046505414 1.0325951e-38 348 278
0.035643511 0.70099998 -0.046705291 1.0049006e-38 349 278
0.036977798 0.70300001 -0.046838548 9.8656933e-39 350 278
0.038264744 0.704 -0.046905171 1.0511063e-38 351 278
0.039499093 0.704 -0.046905171 1.1431927e-38 352 278
0.040733438 0.704 -0.046905171 1.2722666e-38 353 278
0.041967787 0.704 -0.046905171 1.36446e-38 354 278
-0.021430992 0.71899998 -0.049165215 1.8436609e-38 303 279
-0.020114239 0.71700001 -0.04902846 1.5307367e-38 304 279
-0.0188308 0.71600002 -0.048960082 1.2541139e-38 305 279
-0.01745268 0.71100003 -0.048618179 1.3275487e-38 306 279
-0.01620606 0.71100003 -0.048618179 1.3920856e-38 307 279
-0.01489632 0.708 -0.048413038 1.1439862e-38 308 279
-0.013616386 0.70599997 -0.048276275 9.2268077e-39 309 279
-0.012343466 0.704 -0.048139516 5.5458377e-39 310 279
-0.01109334 0.70300001 -0.048071139 5.9146202e-39 311 279
-0.0098326923 0.70099998 -0.047934376 6.742569e-39 312 279
-0.0085913334 0.69999999 -0.047865998 7.2031884e-39 313 279
-0.0073429602 0.69800001 -0.047729239 9.4183624e-39 314 279
-0.0061103669 0.69700003 -0.047660861 1.1354471e-38 315 279
-0.0048812795 0.69599998 -0.047592476 1.2364664e-38 316 279
-0.0036504399 0.69400001 -0.047455717 1.2733445e-38 317 279
-0.0024336267 0.69400001 -0.047455717 1.2085947e-38 318 279
-0.00121506 0.69300002 -0.047387339 1.1163991e-38 319 279
0 0.69099998 -0.047250576 9.8739974e-39 320 279
0.0012115532 0.69099998 -0.047250576 9.8739974e-39 321 279
0.0024231065 0.69099998 -0.047250576 9.9654742e-39 322 279
0.0036346598 0.69099998 -0.047250576 9.9654742e-39 323 279
0.0048462129 0.69099998 -0.047250576 1.0516475e-38 324 279
0.0060489997 0.69 -0.047182199 1.0332082e-38 325 279
0.0072587994 0.69 -0.047182199 9.872896e-39 326 279
0.0084686 0.69 -0.047182199 1.0242039e-38 327 279
0.0096924258 0.69099998 -0.047250576 1.0977086e-38 328 279
0.01090398 0.69099998 -0.047250576 1.1161117e-38 329 279
0.012115533 0.69099998 -0.047250576 1.1077187e-38 330 279
0.013327086 0.69099998 -0.047250576 1.1630361e-38 331 279
0.014538639 0.69099998 -0.047250576 1.2267098e-38 332 279
0.015750192 0.69099998 -0.047250576 1.1713925e-38 333 279
0.016961746 0.69099998 -0.047250576 1.0238441e-38 334 279
0.0181733 0.69099998 -0.047250576 9.0398983e-39 335 279
0.019384852 0.69099998 -0.047250576 6.5542288e-39 336 279
0.020596405 0.69099998 -0.047250576 6.0014138e-39 337 279
0.021807959 0.69099998 -0.047250576 5.5451216e-39 338 279
0.023019511 0.69099998 -0.047250576 6.7436648e-39 339 279
0.024301201 0.69300002 -0.047387339 8.4914063e-39 340 279
0.02551626 0.69300002 -0.047387339 9.04458e-39 341 279
0.02673132 0.69300002 -0.047387339 9.7828513e-39 342 279
0.027986705 0.69400001 -0.047455717 1.0520416e-38 343 279
0.029203519 0.69400001 -0.047455717 1.1896515e-38 344 279
0.030507999 0.69599998 -0.047592476 1.1712123e-38 345 279
0.03177391 0.69700003 -0.047660861 1.0057275e-38 346 279
0.033043321 0.69800001 -0.047729239 9.5041008e-39 347 279
0.034414422 0.70099998 -0.047934376 9.7734977e-39 348 279
0.035745207 0.70300001 -0.048071139 9.681302e-39 349 279
0.037030395 0.704 -0.048139516 1.0143354e-38 350 279
0.038264744 0.704 -0.048139516 1.0696526e-38 351 279
0.039499093 0.704 -0.048139516 1.1341883e-38 352 279
0.040849157 0.70599997 -0.048276275 1.2079448e-38 353 279
0.042087011 0.70599997 -0.048276275 1.3552758e-38 354 279
-0.021430992 0.71899998 -0.050425861 1.8620277e-38 303 280
-0.020114239 0.71700001 -0.0502856 1.613568e-38 304 280
-0.0188308 0.71600002 -0.050215468 1.4107376e-38 305 280
-0.01745268 0.71100003 -0.049864799 1.3370187e-38 306 280
-0.01620606 0.71100003 -0.049864799 1.3646415e-38 307 280
-0.014938398 0.70999998 -0.049794663 1.2726635e-38 308 280
-0.013635674 0.70700002 -0.049584266 1.1066753e-38 309 280
-0.012343466 0.704 -0.049373865 7.6587743e-39 310 280
-0.01109334 0.70300001 -0.049303733 6.1840044e-39 311 280
-0.0098326923 0.70099998 -0.049163464 3.150196e-39 312 280
-0.0085913334 0.69999999 -0.049093332 3.9799567e-39 313 280
-0.0073639993 0.69999999 -0.049093332 6.8387289e-39 314 280
-0.006119133 0.69800001 -0.048953064 1.1171922e-38 315 280
-0.0048882933 0.69700003 -0.048882935 1.2916431e-38 316 280
-0.0036609597 0.69599998 -0.048812799 1.2824235e-38 317 280
-0.0024336267 0.69400001 -0.048672531 1.2088115e-38 318 280
-0.00121506 0.69300002 -0.048602402 1.1719334e-38 319 280
0 0.69300002 -0.048602402 1.1350194e-38 320 280
0.00121506 0.69300002 -0.048602402 1.0889574e-38 321 280
0.00243012 0.69300002 -0.048602402 1.0061623e-38 322 280
0.0036451798 0.69300002 -0.048602402 9.6931991e-39 323 280
0.0048462129 0.69099998 -0.04846213 9.7846688e-39 324 280
0.0060577663 0.69099998 -0.04846213 9.5080833e-39 325 280
0.0072693196 0.69099998 -0.04846213 9.5087896e-39 326 280
0.008480873 0.69099998 -0.04846213 9.4165926e-39 327 280
0.0096924258 0.69099998 -0.04846213 9.6910285e-39 328 280
0.010935539 0.69300002 -0.048602402 9.5066372e-39 329 280
0.012150601 0.69300002 -0.048602402 1.0154172e-38 330 280
0.01336566 0.69300002 -0.048602402 1.1076487e-38 331 280
0.014580719 0.69300002 -0.048602402 1.1162563e-38 332 280
0.015750192 0.69099998 -0.04846213 1.0332801e-38 333 280
0.016961746 0.69099998 -0.04846213 8.3984974e-39 334 280
0.0181733 0.69099998 -0.04846213 7.2921498e-39 335 280
0.01944096 0.69300002 -0.048602402 5.91103e-39 336 280
0.020596405 0.69099998 -0.04846213 5.7266388e-39 337 280
0.021807959 0.69099998 -0.04846213 5.7277276e-39 338 280
0.02308614 0.69300002 -0.048602402 5.912479e-39 339 280
0.024301201 0.69300002 -0.048602402 6.6496671e-39 340 280
0.02551626 0.69300002 -0.048602402 8.0326015e-39 341 280
0.026769891 0.69400001 -0.048672531 9.688862e-39 342 280
0.027986705 0.69400001 -0.048672531 1.0703013e-38 343 280
0.029203519 0.69400001 -0.048672531 1.0978874e-38 344 280
0.030551834 0.69700003 -0.048882935 1.0794842e-38 345 280
0.031819493 0.69800001 -0.048953064 1.0515732e-38 346 280
0.033137999 0.69999999 -0.049093332 9.9625581e-39 347 280
0.034414422 0.70099998 -0.049163464 9.8653248e-39 348 280
0.035745207 0.70300001 -0.049303733 1.0326302e-38 349 280
0.037030395 0.704 -0.049373865 1.0053306e-38 350 280
0.038373452 0.70599997 -0.04951413 1.0698676e-38 351 280
0.039611302 0.70599997 -0.04951413 1.1893252e-38 352 280
0.040849157 0.70599997 -0.04951413 1.2262394e-38 353 280
-0.021430992 0.71899998 -0.05168651 1.825257e-38 303 281
-0.020114239 0.71700001 -0.051542737 1.6503737e-38 304 281
-0.0188308 0.71600002 -0.051470853 1.5028607e-38 305 281
-0.017526319 0.71399999 -0.05132708 1.300248e-38 306 281
-0.01620606 0.71100003 -0.051111419 1.3186511e-38 307 281
-0.014938398 0.70999998 -0.051039528 1.4105969e-38 308 281
-0.013635674 0.70700002 -0.050823875 1.3091819e-38 309 281
-0.012378532 0.70599997 -0.050751984 1.03274e-38 310 281
-0.011109119 0.704 -0.050608214 8.2065419e-39 311 281
-0.0098607466 0.70300001 -0.050536323 4.4398628e-39 312 281
-0.0086036054 0.70099998 -0.050392549 2.9647328e-39 313 281
-0.0073639993 0.69999999 -0.050320663 3.3389075e-39 314 281
-0.006119133 0.69800001 -0.050176892 9.8847972e-39 315 281
-0.0048953067 0.69800001 -0.050176892 1.2824961e-38 316 281
-0.0036609597 0.69599998 -0.050033119 1.2363623e-38 317 281
-0.0024336267 0.69400001 -0.049889345 1.1812251e-38 318 281
-0.0012168133 0.69400001 -0.049889345 1.162786e-38 319 281
0 0.69300002 -0.049817458 1.0618383e-38 320 281
0.00121506 0.69300002 -0.049817458 1.0618383e-38 321 281
0.00243012 0.69300002 -0.049817458 1.0801339e-38 322 281
0.0036451798 0.69300002 -0.049817458 1.098609e-38 323 281
0.00486024 0.69300002 -0.049817458 1.1444547e-38 324 281
0.0060753003 0.69300002 -0.049817458 1.1259796e-38 325 281
0.0072903596 0.69300002 -0.049817458 1.1351626e-38 326 281
0.0085054198 0.69300002 -0.049817458 1.1351626e-38 327 281
0.0097204801 0.69300002 -0.049817458 1.1442745e-38 328 281
0.010935539 0.69300002 -0.049817458 1.1258354e-38 329 281
0.012150601 0.69300002 -0.049817458 1.1074686e-38 330 281
0.01336566 0.69300002 -0.049817458 1.0890293e-38 331 281
0.014580719 0.69300002 -0.049817458 1.0059811e-38 332 281
0.015795778 0.69300002 -0.049817458 9.9676153e-39 333 281
0.01701084 0.69300002 -0.049817458 7.3868664e-39 334 281
0.018225901 0.69300002 -0.049817458 6.4645514e-39 335 281
0.01944096 0.69300002 -0.049817458 6.3720082e-39 336 281
0.020656019 0.69300002 -0.049817458 6.0954213e-39 337 281
0.021871079 0.69300002 -0.049817458 6.0932703e-39 338 281
0.02308614 0.69300002 -0.049817458 5.2635096e-39 339 281
0.024336265 0.69400001 -0.049889345 5.3607275e-39 340 281
0.025553079 0.69400001 -0.049889345 7.6652581e-39 341 281
0.026769891 0.69400001 -0.049889345 9.6888648e-39 342 281
0.028067358 0.69599998 -0.050033119 1.0610461e-38 343 281
0.029287677 0.69599998 -0.050033119 1.061117e-38 344 281
0.030551834 0.69700003 -0.050105009 1.0334585e-38 345 281
0.031819493 0.69800001 -0.050176892 1.0239868e-38 346 281
0.033137999 0.69999999 -0.050320663 9.8710841e-39 347 281
0.034512613 0.70300001 -0.050536323 1.0144428e-38 348 281
0.035796054 0.704 -0.050608214 1.0236624e-38 349 281
0.037135597 0.70599997 -0.050751984 1.0696876e-38 350 281
0.038373452 0.70599997 -0.050751984 1.1066019e-38 351 281
0.039611302 0.70599997 -0.050751984 1.2169117e-38 352 281
0.040849157 0.70599997 -0.050751984 1.2814486e-38 353 281
-0.020114239 0.71700001 -0.052799881 1.6043113e-38 304 282
-0.018857099 0.71700001 -0.052799881 1.4752374e-38 305 282
-0.017575413 0.71600002 -0.052726239 1.2451822e-38 306 282
-0.01620606 0.71100003 -0.052358042 1.2451822e-38 307 282
-0.014938398 0.70999998 -0.052284397 1.3647143e-38 308 282
-0.013635674 0.70700002 -0.05206348 1.3370555e-38 309 282
-0.012378532 0.70599997 -0.051989835 1.125043e-38 310 282
-0.011109119 0.704 -0.051842559 9.1299289e-39 311 282
-0.0098607466 0.70300001 -0.051768921 5.8209854e-39 312 282
-0.0086281532 0.70300001 -0.051768921 5.0830616e-39 313 282
-0.0073745195 0.70099998 -0.051621638 7.1949319e-39 314 282
-0.0061366665 0.69999999 -0.051547997 1.2173137e-38 315 282
-0.0048953067 0.69800001 -0.051400717 1.3376336e-38 316 282
-0.00366622 0.69700003 -0.051327083 1.3191944e-38 317 282
-0.0024406398 0.69599998 -0.051253434 1.2455458e-38 318 282
-0.0012203199 0.69599998 -0.051253434 1.1902284e-38 319 282
0 0.69400001 -0.051106159 1.0709143e-38 320 282
0.0012168133 0.69400001 -0.051106159 1.0709143e-38 321 282
0.0024336267 0.69400001 -0.051106159 1.098501e-38 322 282
0.0036504399 0.69400001 -0.051106159 1.1169403e-38 323 282
0.00486024 0.69300002 -0.051032521 1.1352715e-38 324 282
0.0060753003 0.69300002 -0.051032521 1.1352715e-38 325 282
0.0072903596 0.69300002 -0.051032521 1.1536743e-38 326 282
0.0085054198 0.69300002 -0.051032521 1.1444547e-38 327 282
0.0097204801 0.69300002 -0.051032521 1.135235e-38 328 282
0.010935539 0.69300002 -0.051032521 1.0891374e-38 329 282
0.012150601 0.69300002 -0.051032521 1.0707701e-38 330 282
0.01336566 0.69300002 -0.051032521 1.0338919e-38 331 282
0.014580719 0.69300002 -0.051032521 9.9686943e-39 332 282
0.015795778 0.69300002 -0.051032521 1.0244921e-38 333 282
0.01701084 0.69300002 -0.051032521 8.3988575e-39 334 282
0.0182522 0.69400001 -0.051106159 6.7396963e-39 335 282
0.019469013 0.69400001 -0.051106159 6.2765826e-39 336 282
0.020685827 0.69400001 -0.051106159 6.1843869e-39 337 282
0.021902639 0.69400001 -0.051106159 5.8177652e-39 338 282
0.023119451 0.69400001 -0.051106159 5.6330138e-39 339 282
0.024336265 0.69400001 -0.051106159 6.9240932e-39 340 282
0.025626717 0.69599998 -0.051253434 8.767647e-39 341 282
0.026847038 0.69599998 -0.051253434 9.1382092e-39 342 282
0.028067358 0.69599998 -0.051253434 9.7835786e-39 343 282
0.02932976 0.69700003 -0.051327083 9.7828541e-39 344 282
0.030595668 0.69800001 -0.051400717 9.3218774e-39 345 282
0.031910665 0.69999999 -0.051547997 9.6874159e-39 346 282
0.03318534 0.70099998 -0.051621638 9.5952203e-39 347 282
0.034512613 0.70300001 -0.051768921 1.0328101e-38 348 282
0.035796054 0.704 -0.051842559 1.0604328e-38 349 282
0.037135597 0.70599997 -0.051989835 1.0605761e-38 350 282
0.038427804 0.70700002 -0.05206348 1.0974542e-38 351 282
0.039667413 0.70700002 -0.05206348 1.1618816e-38 352 282
0.040964879 0.708 -0.052137118 1.2448578e-38 353 282
-0.01745268 0.71100003 -0.053604662 1.2268853e-38 306 283
-0.01620606 0.71100003 -0.053604662 1.2176656e-38 307 283
-0.014938398 0.70999998 -0.053529263 1.3002846e-38 308 283
-0.013654959 0.708 -0.053378478 1.3095042e-38 309 283
-0.012378532 0.70599997 -0.053227689 1.2448969e-38 310 283
-0.011140679 0.70599997 -0.053227689 1.0605058e-38 311 283
-0.0098747732 0.704 -0.053076904 8.2133844e-39 312 283
-0.0086281532 0.70300001 -0.053001512 8.3055801e-39 313 283
-0.0073955595 0.70300001 -0.053001512 8.1269496e-39 314 283
-0.0061366665 0.69999999 -0.052775331 9.6017195e-39 315 283
-0.0049093333 0.69999999 -0.052775331 1.309938e-38 316 283
-0.0036714801 0.69800001 -0.052624546 1.4482315e-38 317 283
-0.0024441467 0.69700003 -0.052549154 1.3375967e-38 318 283
-0.0012220733 0.69700003 -0.052549154 1.2269259e-38 319 283
0 0.69599998 -0.052473757 1.0709146e-38 320 283
0.0012203199 0.69599998 -0.052473757 1.0524755e-38 321 283
0.0024336267 0.69400001 -0.052322973 1.0708074e-38 322 283
0.0036504399 0.69400001 -0.052322973 1.0708074e-38 323 283
0.0048672534 0.69400001 -0.052322973 1.0341089e-38 324 283
0.0060840664 0.69400001 -0.052322973 1.0341089e-38 325 283
0.0073008798 0.69400001 -0.052322973 1.0524399e-38 326 283
0.0085054198 0.69300002 -0.05224758 1.0524399e-38 327 283
0.0097204801 0.69300002 -0.05224758 1.052368e-38 328 283
0.01095132 0.69400001 -0.052322973 1.0431484e-38 329 283
0.012168133 0.69400001 -0.052322973 1.0155256e-38 330 283
0.013384946 0.69400001 -0.052322973 9.9705062e-39 331 283
0.01460176 0.69400001 -0.052322973 9.6935494e-39 332 283
0.015818574 0.69400001 -0.052322973 9.6935494e-39 333 283
0.017035386 0.69400001 -0.052322973 8.6758017e-39 334 283
0.0182522 0.69400001 -0.052322973 7.3850629e-39 335 283
0.019469013 0.69400001 -0.052322973 5.1723902e-39 336 283
0.020685827 0.69400001 -0.052322973 5.0801946e-39 337 283
0.021902639 0.69400001 -0.052322973 6.2780203e-39 338 283
0.023186078 0.69599998 -0.052473757 7.1996179e-39 339 283
0.0244064 0.69599998 -0.052473757 8.765482e-39 340 283
0.025663542 0.69700003 -0.052549154 9.5030471e-39 341 283
0.026885614 0.69700003 -0.052549154 8.9556158e-39 342 283
0.028107686 0.69700003 -0.052549154 9.3243969e-39 343 283
0.029371841 0.69800001 -0.052624546 8.5857543e-39 344 283
0.030595668 0.69800001 -0.052624546 8.0329392e-39 345 283
0.031910665 0.69999999 -0.052775331 9.5026687e-39 346 283
0.03318534 0.70099998 -0.052850723 9.7796143e-39 347 283
0.034512613 0.70300001 -0.053001512 1.0604328e-38 348 283
0.035897743 0.70599997 -0.053227689 1.0789079e-38 349 283
0.037135597 0.70599997 -0.053227689 1.0973821e-38 350 283
0.038427804 0.70700002 -0.053303085 1.1342602e-38 351 283
0.039667413 0.70700002 -0.053303085 1.1253256e-38 352 283
0.040964879 0.708 -0.053378478 1.1714233e-38 353 283
0.042206239 0.708 -0.053378478 1.2635801e-38 354 283
-0.017501773 0.713 -0.055005573 1.3005322e-38 306 284
-0.016251646 0.713 -0.055005573 1.26369e-38 307 284
-0.014938398 0.70999998 -0.054774132 1.2637288e-38 308 284
-0.013654959 0.708 -0.054619838 1.2452897e-38 309 284
-0.012396066 0.70700002 -0.054542694 1.2542235e-38 310 284
-0.011140679 0.70599997 -0.054465543 1.1896866e-38 311 284
-0.0098747732 0.704 -0.054311249 1.0788741e-38 312 284
-0.0086404262 0.704 -0.054311249 8.852633e-39 313 284
-0.0073955595 0.70300001 -0.054234106 6.3784696e-39 314 284
-0.0061454331 0.70099998 -0.054079808 7.5770128e-39 315 284
-0.0049093333 0.69999999 -0.054002665 1.27306e-38 316 284
-0.0036714801 0.69800001 -0.053848371 1.5035132e-38 317 284
-0.0024441467 0.69700003 -0.053771228 1.4757457e-38 318 284
-0.0012220733 0.69700003 -0.053771228 1.383514e-38 319 284
0 0.69599998 -0.053694077 1.2088115e-38 320 284
0.0012203199 0.69599998 -0.053694077 1.1534941e-38 321 284
0.0024406398 0.69599998 -0.053694077 9.7904338e-39 322 284
0.0036609597 0.69599998 -0.053694077 9.6982381e-39 323 284
0.0048672534 0.69400001 -0.053539783 1.0156339e-38 324 284
0.0060840664 0.69400001 -0.053539783 1.0248535e-38 325 284
0.0073008798 0.69400001 -0.053539783 1.052368e-38 326 284
0.0085176928 0.69400001 -0.053539783 1.052368e-38 327 284
0.0097345067 0.69400001 -0.053539783 1.0339287e-38 328 284
0.01095132 0.69400001 -0.053539783 1.0155256e-38 329 284
0.012168133 0.69400001 -0.053539783 9.9705062e-39 330 284
0.013384946 0.69400001 -0.053539783 9.786115e-39 331 284
0.01460176 0.69400001 -0.053539783 9.234016e-39 332 284
0.015818574 0.69400001 -0.053539783 8.9574305e-39 333 284
0.017035386 0.69400001 -0.053539783 8.3080968e-39 334 284
0.018304799 0.69599998 -0.053694077 8.1237055e-39 335 284
0.019525118 0.69599998 -0.053694077 7.9364402e-39 336 284
0.020745439 0.69599998 -0.053694077 8.1208315e-39 337 284
0.021965759 0.69599998 -0.053694077 8.5810908e-39 338 284
0.023186078 0.69599998 -0.053694077 8.6732864e-39 339 284
0.024441468 0.69700003 -0.053771228 8.4010099e-39 340 284
0.025663542 0.69700003 -0.053771228 9.2311293e-39 341 284
0.026924185 0.69800001 -0.053848371 8.9563347e-39 342 284
0.028148014 0.69800001 -0.053848371 8.9563347e-39 343 284
0.029371841 0.69800001 -0.053848371 7.6652273e-39 344 284
0.030683333 0.69999999 -0.054002665 7.2964434e-39 345 284
0.031956252 0.70099998 -0.054079808 9.8725176e-39 346 284
0.03318534 0.70099998 -0.054079808 1.0425331e-38 347 284
0.034561705 0.704 -0.054311249 1.069975e-38 348 284
0.035897743 0.70599997 -0.054465543 1.0791946e-38 349 284
0.037188202 0.70700002 -0.054542694 1.1159637e-38 350 284
0.038427804 0.70700002 -0.054542694 1.1435865e-38 351 284
0.039723519 0.708 -0.054619838 1.15309e-38 352 284
0.040964879 0.708 -0.054619838 1.15309e-38 353 284
0.042325463 0.70999998 -0.054774132 1.2913094e-38 354 284
0.043570329 0.70999998 -0.054774132 1.6416169e-38 355 284
-0.01745268 0.71100003 -0.056097899 1.2912036e-38 306 285
-0.01620606 0.71100003 -0.056097899 1.2912036e-38 307 285
-0.014938398 0.70999998 -0.056018997 1.2456117e-38 308 285
-0.013654959 0.708 -0.055861197 1.2456117e-38 309 285
-0.012396066 0.70700002 -0.055782299 1.2176329e-38 310 285
-0.011140679 0.70599997 -0.055703394 1.2268525e-38 311 285
-0.0099028256 0.70599997 -0.055703394 1.2448969e-38 312 285
-0.0086404262 0.704 -0.055545598 9.9596882e-39 313 285
-0.0074060797 0.704 -0.055545598 6.5578064e-39 314 285
-0.0061629666 0.70300001 -0.0554667 7.9407408e-39 315 285
-0.0049163462 0.70099998 -0.055308893 1.1717888e-38 316 285
-0.0036819996 0.69999999 -0.055229999 1.4483756e-38 317 285
-0.0024476533 0.69800001 -0.0550722 1.4667059e-38 318 285
-0.0012238267 0.69800001 -0.0550722 1.4482309e-38 319 285
0 0.69700003 -0.054993302 1.3560354e-38 320 285
0.0012220733 0.69700003 -0.054993302 1.2914985e-38 321 285
0.0024406398 0.69599998 -0.054914396 1.1259799e-38 322 285
0.0036609597 0.69599998 -0.054914396 1.0706625e-38 323 285
0.0048812795 0.69599998 -0.054914396 9.9723041e-39 324 285
0.0061015999 0.69599998 -0.054914396 1.0156695e-38 325 285
0.0073219193 0.69599998 -0.054914396 1.1257645e-38 326 285
0.0085422397 0.69599998 -0.054914396 1.0797026e-38 327 285
0.0097625591 0.69599998 -0.054914396 9.6035216e-39 328 285
0.010982879 0.69599998 -0.054914396 9.6957172e-39 329 285
0.0122032 0.69599998 -0.054914396 9.6024496e-39 330 285
0.013423519 0.69599998 -0.054914396 9.5102525e-39 331 285
0.014643839 0.69599998 -0.054914396 8.774484e-39 332 285
0.015864158 0.69599998 -0.054914396 8.4057e-39 333 285
0.017084479 0.69599998 -0.054914396 7.2017535e-39 334 285
0.018304799 0.69599998 -0.054914396 8.1233496e-39 335 285
0.019553173 0.69700003 -0.054993302 9.2268105e-39 336 285
0.020775247 0.69700003 -0.054993302 1.0148767e-38 337 285
0.02199732 0.69700003 -0.054993302 1.1067483e-38 338 285
0.023219392 0.69700003 -0.054993302 1.0698341e-38 339 285
0.024476532 0.69800001 -0.0550722 9.6902998e-39 340 285
0.025700359 0.69800001 -0.0550722 1.0335669e-38 341 285
0.026924185 0.69800001 -0.0550722 1.0702647e-38 342 285
0.028148014 0.69800001 -0.0550722 1.0517897e-38 343 285
0.029455997 0.69999999 -0.055229999 9.4108234e-39 344 285
0.030727165 0.70099998 -0.055308893 8.3048346e-39 345 285
0.031956252 0.70099998 -0.055308893 1.0791596e-38 346 285
0.033280019 0.70300001 -0.0554667 1.1713553e-38 347 285
0.034561705 0.704 -0.055545598 1.1527345e-38 348 285
0.035948593 0.70700002 -0.055782299 1.1527345e-38 349 285
0.037188202 0.70700002 -0.055782299 1.1253978e-38 350 285
0.038482159 0.708 -0.055861197 1.1069947e-38 351 285
0.039723519 0.708 -0.055861197 1.0706158e-38 352 285
0.041080594 0.70999998 -0.056018997 1.107494e-38 353 285
0.042325463 0.70999998 -0.056018997 1.420023e-38 354 285
0.043570329 0.70999998 -0.056018997 1.7427077e-38 355 285
-0.01745268 0.71100003 -0.057344519 1.3371201e-38 306 286
-0.01620606 0.71100003 -0.057344519 1.3094256e-38 307 286
-0.014938398 0.70999998 -0.057263866 1.1905799e-38 308 286
-0.013654959 0.708 -0.057102561 1.2182026e-38 309 286
-0.0124136 0.708 -0.057102561 1.2730923e-38 310 286
-0.011156459 0.70700002 -0.057021905 1.2638727e-38 311 286
-0.0099028256 0.70599997 -0.056941248 1.2176329e-38 312 286
-0.0086649731 0.70599997 -0.056941248 1.1807187e-38 313 286
-0.0074060797 0.704 -0.056779943 1.0973483e-38 314 286
-0.0061629666 0.70300001 -0.056699295 9.4983527e-39 315 286
-0.0049163462 0.70099998 -0.056537982 9.2329244e-39 316 286
-0.0036819996 0.69999999 -0.056457333 1.227538e-38 317 286
-0.0024546667 0.69999999 -0.056457333 1.4298999e-38 318 286
-0.0012238267 0.69800001 -0.056296028 1.4575226e-38 319 286
0 0.69800001 -0.056296028 1.4757454e-38 320 286
0.0012238267 0.69800001 -0.056296028 1.4665258e-38 321 286
0.0024476533 0.69800001 -0.056296028 1.4019536e-38 322 286
0.0036714801 0.69800001 -0.056296028 1.2268177e-38 323 286
0.0048882933 0.69700003 -0.056215372 8.3149337e-39 324 286
0.0061103669 0.69700003 -0.056215372 6.0096843e-39 325 286
0.00733244 0.69700003 -0.056215372 6.6514692e-39 326 286
0.0085422397 0.69599998 -0.056134716 6.8358604e-39 327 286
0.0097625591 0.69599998 -0.056134716 6.6600983e-39 328 286
0.010982879 0.69599998 -0.056134716 8.2274227e-39 329 286
0.012220734 0.69700003 -0.056215372 9.3269403e-39 330 286
0.013442807 0.69700003 -0.056215372 8.8656034e-39 331 286
0.01466488 0.69700003 -0.056215372 6.4735519e-39 332 286
0.015886955 0.69700003 -0.056215372 5.2753674e-39 333 286
0.017109027 0.69700003 -0.056215372 6.1750221e-39 334 286
0.018331099 0.69700003 -0.056215372 6.8200327e-39 335 286
0.019553173 0.69700003 -0.056215372 5.1741685e-39 336 286
0.020775247 0.69700003 -0.056215372 8.4932111e-39 337 286
0.02202888 0.69800001 -0.056296028 1.2354619e-38 338 286
0.023252707 0.69800001 -0.056296028 1.3553163e-38 339 286
0.024476532 0.69800001 -0.056296028 1.2821702e-38 340 286
0.025700359 0.69800001 -0.056296028 1.2913897e-38 341 286
0.027001332 0.69999999 -0.056457333 1.3463105e-38 342 286
0.028228667 0.69999999 -0.056457333 1.3278354e-38 343 286
0.029455997 0.69999999 -0.056457333 1.3000678e-38 344 286
0.030727165 0.70099998 -0.056537982 1.2539701e-38 345 286
0.032047424 0.70300001 -0.056699295 1.2356026e-38 346 286
0.03332736 0.704 -0.056779943 1.2079798e-38 347 286
0.034659892 0.70599997 -0.056941248 1.1529849e-38 348 286
0.035948593 0.70700002 -0.057021905 1.1437653e-38 349 286
0.0372408 0.708 -0.057102561 1.0888402e-38 350 286
0.038482159 0.708 -0.057102561 1.0611813e-38 351 286
0.039835732 0.70999998 -0.057263866 9.4193587e-39 352 286
0.041080594 0.70999998 -0.057263866 1.1263271e-38 353 286
0.042325463 0.70999998 -0.057263866 1.5397704e-38 354 286
0.043570329 0.70999998 -0.057263866 1.8071378e-38 355 286
-0.01745268 0.71100003 -0.058591139 1.4568294e-38 306 287
-0.01620606 0.71100003 -0.058591139 1.3646696e-38 307 287
-0.014959441 0.71100003 -0.058591139 1.1444427e-38 308 287
-0.013693533 0.70999998 -0.058508728 1.1905404e-38 309 287
-0.0124136 0.708 -0.058343921 1.1905812e-38 310 287
-0.011156459 0.70700002 -0.05826151 1.1998007e-38 311 287
-0.0099168532 0.70700002 -0.05826151 1.2085929e-38 312 287
-0.0086649731 0.70599997 -0.058179103 1.2362514e-38 313 287
-0.0074060797 0.704 -0.058014292 1.263408e-38 314 287
-0.0061717331 0.704 -0.058014292 1.0790526e-38 315 287
-0.0049303733 0.70300001 -0.057931885 8.8637733e-39 316 287
-0.0036872597 0.70099998 -0.057767071 1.0799882e-38 317 287
-0.0024546667 0.69999999 -0.05768466 1.3101894e-38 318 287
-0.0012273333 0.69999999 -0.05768466 1.402421e-38 319 287
0 0.69800001 -0.057519849 1.429935e-38 320 287
0.0012238267 0.69800001 -0.057519849 1.429935e-38 321 287
0.0024476533 0.69800001 -0.057519849 1.4572693e-38 322 287
0.0036714801 0.69800001 -0.057519849 1.3650736e-38 323 287
0.0048953067 0.69800001 -0.057519849 9.9697481e-39 324 287
0.006119133 0.69800001 -0.057519849 8.217671e-39 325 287
0.0073429602 0.69800001 -0.057519849 7.7541944e-39 326 287
0.0085545136 0.69700003 -0.05743745 6.9247938e-39 327 287
0.0097765867 0.69700003 -0.05743745 7.483371e-39 328 287
0.01099866 0.69700003 -0.05743745 1.0433633e-38 329 287
0.012238266 0.69800001 -0.057519849 1.2083799e-38 330 287
0.013442807 0.69700003 -0.05743745 1.1161844e-38 331 287
0.01466488 0.69700003 -0.05743745 1.0425351e-38 332 287
0.015886955 0.69700003 -0.05743745 7.6594806e-39 333 287
0.017133573 0.69800001 -0.057519849 5.9056154e-39 334 287
0.0183574 0.69800001 -0.057519849 4.9840193e-39 335 287
0.019581227 0.69800001 -0.057519849 2.8707197e-39 336 287
0.020805053 0.69800001 -0.057519849 5.2681648e-39 337 287
0.02202888 0.69800001 -0.057519849 9.4122738e-39 338 287
0.023252707 0.69800001 -0.057519849 1.180936e-38 339 287
0.024546666 0.69999999 -0.05768466 1.3557818e-38 340 287
0.025773998 0.69999999 -0.05768466 1.3557818e-38 341 287
0.027001332 0.69999999 -0.05768466 1.4109897e-38 342 287
0.028228667 0.69999999 -0.05768466 1.383331e-38 343 287
0.029498078 0.70099998 -0.057767071 1.4200293e-38 344 287
0.030727165 0.70099998 -0.057767071 1.4200293e-38 345 287
0.032047424 0.70300001 -0.057931885 1.2818434e-38 346 287
0.03332736 0.704 -0.058014292 1.1988672e-38 347 287
0.034659892 0.70599997 -0.058179103 1.1439075e-38 348 287
0.035948593 0.70700002 -0.05826151 1.134688e-38 349 287
0.0372408 0.708 -0.058343921 1.0339876e-38 350 287
0.038590867 0.70999998 -0.058508728 9.9710948e-39 351 287
0.039835732 0.70999998 -0.058508728 1.1073475e-38 352 287
0.041080594 0.70999998 -0.058508728 1.3654953e-38 353 287
0.042325463 0.70999998 -0.058508728 1.6318231e-38 354 287
-0.01745268 0.71100003 -0.059837762 1.5857243e-38 306 288
-0.01620606 0.71100003 -0.059837762 1.4934928e-38 307 288
-0.014959441 0.71100003 -0.059837762 1.190251e-38 308 288
-0.013693533 0.70999998 -0.059753593 1.1994706e-38 309 288
-0.012448666 0.70999998 -0.059753593 1.0987763e-38 310 288
-0.01117224 0.708 -0.059585281 1.1172155e-38 311 288
-0.0099168532 0.70700002 -0.059501119 1.1905814e-38 312 288
-0.008677247 0.70700002 -0.059501119 1.2366792e-38 313 288
-0.0074271196 0.70599997 -0.059416957 1.2729856e-38 314 288
-0.0061717331 0.704 -0.059248637 1.2268878e-38 315 288
-0.0049373866 0.704 -0.059248637 1.0888477e-38 316 288
-0.0036977797 0.70300001 -0.059164476 1.0335303e-38 317 288
-0.0024581731 0.70099998 -0.058996156 1.1628563e-38 318 288
-0.0012273333 0.69999999 -0.058911994 1.2827105e-38 319 288
0 0.69999999 -0.058911994 1.4389749e-38 320 288
0.0012273333 0.69999999 -0.058911994 1.4297553e-38 321 288
0.0024546667 0.69999999 -0.058911994 1.4297904e-38 322 288
0.0036819996 0.69999999 -0.058911994 1.4205708e-38 323 288
0.0049093333 0.69999999 -0.058911994 1.3926241e-38 324 288
0.0061366665 0.69999999 -0.058911994 1.3373426e-38 325 288
0.0073639993 0.69999999 -0.058911994 1.2542591e-38 326 288
0.0085667865 0.69800001 -0.058743682 1.042209e-38 327 288
0.0097906133 0.69800001 -0.058743682 1.1345848e-38 328 288
0.01101444 0.69800001 -0.058743682 1.3927326e-38 329 288
0.012238266 0.69800001 -0.058743682 1.4753491e-38 330 288
0.013462093 0.69800001 -0.058743682 1.4292513e-38 331 288
0.01468592 0.69800001 -0.058743682 1.3923004e-38 332 288
0.015909746 0.69800001 -0.058743682 1.3001048e-38 333 288
0.017133573 0.69800001 -0.058743682 1.170959e-38 334 288
0.0183574 0.69800001 -0.058743682 9.5890896e-39 335 288
0.019581227 0.69800001 -0.058743682 6.920475e-39 336 288
0.020805053 0.69800001 -0.058743682 7.2892561e-39 337 288
0.022091998 0.69999999 -0.058911994 6.8401484e-39 338 288
0.023319334 0.69999999 -0.058911994 9.5141804e-39 339 288
0.024546666 0.69999999 -0.058911994 1.3648932e-38 340 288
0.025773998 0.69999999 -0.058911994 1.3648932e-38 341 288
0.027039904 0.70099998 -0.058996156 1.3558165e-38 342 288
0.028268991 0.70099998 -0.058996156 1.3558165e-38 343 288
0.029498078 0.70099998 -0.058996156 1.3742187e-38 344 288
0.030814834 0.70300001 -0.059164476 1.3649991e-38 345 288
0.032093015 0.704 -0.059248637 1.2361385e-38 346 288
0.033422034 0.70599997 -0.059416957 1.162382e-38 347 288
0.034659892 0.70599997 -0.059416957 1.0707218e-38 348 288
0.03599944 0.708 -0.059585281 1.0430271e-38 349 288
0.0372408 0.708 -0.059585281 9.788123e-39 350 288
0.038590867 0.70999998 -0.059753593 1.0710438e-38 351 288
0.039835732 0.70999998 -0.059753593 1.3374067e-38 352 288
0.041138459 0.71100003 -0.059837762 1.5125784e-38 353 288
-0.01620606 0.71100003 -0.061084379 1.6223162e-38 307 289
-0.014959441 0.71100003 -0.061084379 1.410837e-38 308 289
-0.01371282 0.71100003 -0.061084379 1.3463e-38 309 289
-0.012448666 0.70999998 -0.060998458 1.1170318e-38 310 289
-0.011203799 0.70999998 -0.060998458 1.1262513e-38 311 289
-0.0099308798 0.708 -0.060826641 1.1446949e-38 312 289
-0.008689519 0.708 -0.060826641 1.1815373e-38 313 289
-0.0074376399 0.70700002 -0.060740728 1.1722152e-38 314 289
-0.0061892662 0.70599997 -0.060654808 1.199838e-38 315 289
-0.0049514128 0.70599997 -0.060654808 1.1994805e-38 316 289
-0.0037030398 0.704 -0.060482983 1.125724e-38 317 289
-0.0024686933 0.704 -0.060482983 1.1352685e-38 318 289
-0.0012325933 0.70300001 -0.06039707 1.2366479e-38 319 289
0 0.70099998 -0.060225245 1.475781e-38 320 289
0.0012290865 0.70099998 -0.060225245 1.475781e-38 321 289
0.0024581731 0.70099998 -0.060225245 1.4848921e-38 322 289
0.0036872597 0.70099998 -0.060225245 1.4848921e-38 323 289
0.0049163462 0.70099998 -0.060225245 1.4756005e-38 324 289
0.0061366665 0.69999999 -0.060139328 1.4663809e-38 325 289
0.0073639993 0.69999999 -0.060139328 1.411171e-38 326 289
0.0085913334 0.69999999 -0.060139328 1.309756e-38 327 289
0.0097906133 0.69800001 -0.059967503 1.2914601e-38 328 289
0.01101444 0.69800001 -0.059967503 1.4020589e-38 329 289
0.012238266 0.69800001 -0.059967503 1.4295381e-38 330 289
0.013462093 0.69800001 -0.059967503 1.4203184e-38 331 289
0.01468592 0.69800001 -0.059967503 1.4753839e-38 332 289
0.015909746 0.69800001 -0.059967503 1.4661641e-38 333 289
0.017133573 0.69800001 -0.059967503 1.3370903e-38 334 289
0.0183574 0.69800001 -0.059967503 1.2264915e-38 335 289
0.019581227 0.69800001 -0.059967503 1.0701918e-38 336 289
0.020864666 0.69999999 -0.060139328 1.1070701e-38 337 289
0.022091998 0.69999999 -0.060139328 1.1624593e-38 338 289
0.023319334 0.69999999 -0.060139328 1.254691e-38 339 289
0.024546666 0.69999999 -0.060139328 1.3925507e-38 340 289
0.025810819 0.70099998 -0.060225245 1.383331e-38 341 289
0.027039904 0.70099998 -0.060225245 1.3373761e-38 342 289
0.028268991 0.70099998 -0.060225245 1.318901e-38 343 289
0.029582238 0.70300001 -0.06039707 1.2639416e-38 344 289
0.030858666 0.704 -0.060482983 1.2270635e-38 345 289
0.032184184 0.70599997 -0.060654808 1.0983091e-38 346 289
0.033422034 0.70599997 -0.060654808 1.0706865e-38 347 289
0.034708988 0.70700002 -0.060740728 9.9714185e-39 348 289
0.03599944 0.708 -0.060826641 1.015617e-38 349 289
0.037345998 0.70999998 -0.060998458 1.1351136e-38 350 289
0.038590867 0.70999998 -0.060998458 1.291882e-38 351 289
0.039835732 0.70999998 -0.060998458 1.5214761e-38 352 289
-0.01620606 0.71100003 -0.062331002 1.6868188e-38 307 290
-0.014959441 0.71100003 -0.062331002 1.5488452e-38 308 290
-0.01371282 0.71100003 -0.062331002 1.4750887e-38 309 290
-0.0124662 0.71100003 -0.062331002 1.2363823e-38 310 290
-0.011203799 0.70999998 -0.062243331 1.1995041e-38 311 290
-0.0099589331 0.70999998 -0.062243331 1.1078845e-38 312 290
-0.0087140659 0.70999998 -0.062243331 1.1171042e-38 313 290
-0.0074481601 0.708 -0.062068 1.0896291e-38 314 290
-0.0061980332 0.70700002 -0.061980337 1.1357269e-38 315 290
-0.0049514128 0.70599997 -0.061892662 1.2090557e-38 316 290
-0.0037135598 0.70599997 -0.061892662 1.2090557e-38 317 290
-0.0024686933 0.704 -0.061717331 1.1446301e-38 318 290
-0.0012343467 0.704 -0.061717331 1.1999474e-38 319 290
0 0.70300001 -0.061629668 1.429935e-38 320 290
0.0012325933 0.70300001 -0.061629668 1.4575577e-38 321 290
0.0024581731 0.70099998 -0.06145433 1.4483018e-38 322 290
0.0036872597 0.70099998 -0.06145433 1.4575214e-38 323 290
0.0049163462 0.70099998 -0.06145433 1.4850359e-38 324 290
0.0061454331 0.70099998 -0.06145433 1.4850359e-38 325 290
0.0073639993 0.69999999 -0.061366666 1.4850356e-38 326 290
0.0085913334 0.69999999 -0.061366666 1.4850356e-38 327 290
0.0098186666 0.69999999 -0.061366666 1.4665965e-38 328 290
0.011045999 0.69999999 -0.061366666 1.4389017e-38 329 290
0.012273333 0.69999999 -0.061366666 1.4112791e-38 330 290
0.013500666 0.69999999 -0.061366666 1.4020595e-38 331 290
0.014727999 0.69999999 -0.061366666 1.4570892e-38 332 290
0.015955333 0.69999999 -0.061366666 1.4755642e-38 333 290
0.017182667 0.69999999 -0.061366666 1.4386499e-38 334 290
0.018409999 0.69999999 -0.061366666 1.4110273e-38 335 290
0.019637333 0.69999999 -0.061366666 1.4110989e-38 336 290
0.020864666 0.69999999 -0.061366666 1.4387936e-38 337 290
0.022091998 0.69999999 -0.061366666 1.4388283e-38 338 290
0.023319334 0.69999999 -0.061366666 1.4019141e-38 339 290
0.024581732 0.70099998 -0.06145433 1.3467023e-38 340 290
0.025810819 0.70099998 -0.06145433 1.3098601e-38 341 290
0.027117053 0.70300001 -0.061629668 1.2271692e-38 342 290
0.028349647 0.70300001 -0.061629668 1.1902549e-38 343 290
0.029624319 0.704 -0.061717331 1.1075275e-38 344 290
0.030946331 0.70599997 -0.061892662 1.0522101e-38 345 290
0.032229774 0.70700002 -0.061980337 9.7888293e-39 346 290
0.033469379 0.70700002 -0.061980337 9.7888293e-39 347 290
0.034708988 0.70700002 -0.061980337 9.9703493e-39 348 290
0.03599944 0.708 -0.062068 1.1076697e-38 349 290
0.037345998 0.70999998 -0.062243331 1.3834689e-38 350 290
0.038645219 0.71100003 -0.062331002 1.5125428e-38 351 290
0.039891839 0.71100003 -0.062331002 1.6502639e-38 352 290
-0.01620606 0.71100003 -0.063577622 1.6685241e-38 307 291
-0.014959441 0.71100003 -0.063577622 1.5855455e-38 308 291
-0.01371282 0.71100003 -0.063577622 1.5487033e-38 309 291
-0.0124662 0.71100003 -0.063577622 1.4293483e-38 310 291
-0.01121958 0.71100003 -0.063577622 1.374031e-38 311 291
-0.0099589331 0.70999998 -0.063488193 1.1722048e-38 312 291
-0.0087140659 0.70999998 -0.063488193 1.1537655e-38 313 291
-0.0074481601 0.708 -0.063309364 1.1172117e-38 314 291
-0.0061980332 0.70700002 -0.063219935 1.1264312e-38 315 291
-0.0049584266 0.70700002 -0.063219935 1.1080675e-38 316 291
-0.0037135598 0.70599997 -0.063130513 1.1172872e-38 317 291
-0.0024757064 0.70599997 -0.063130513 1.0528265e-38 318 291
-0.0012343467 0.704 -0.062951677 1.0897408e-38 319 291
0 0.704 -0.062951677 1.2000543e-38 320 291
0.0012325933 0.70300001 -0.062862262 1.2277491e-38 321 291
0.0024651866 0.70300001 -0.062862262 1.2919986e-38 322 291
0.0036977797 0.70300001 -0.062862262 1.3012181e-38 323 291
0.0049303733 0.70300001 -0.062862262 1.3562839e-38 324 291
0.0061629666 0.70300001 -0.062862262 1.3839065e-38 325 291
0.0073745195 0.70099998 -0.062683418 1.4114213e-38 326 291
0.0086036054 0.70099998 -0.062683418 1.4022017e-38 327 291
0.0098186666 0.69999999 -0.062593997 1.4389002e-38 328 291
0.011045999 0.69999999 -0.062593997 1.4204611e-38 329 291
0.012273333 0.69999999 -0.062593997 1.3928027e-38 330 291
0.013500666 0.69999999 -0.062593997 1.3835831e-38 331 291
0.014727999 0.69999999 -0.062593997 1.3926945e-38 332 291
0.015955333 0.69999999 -0.062593997 1.4019141e-38 333 291
0.017182667 0.69999999 -0.062593997 1.3926579e-38 334 291
0.018409999 0.69999999 -0.062593997 1.3742187e-38 335 291
0.019637333 0.69999999 -0.062593997 1.3467029e-38 336 291
0.020864666 0.69999999 -0.062593997 1.3374475e-38 337 291
0.022123558 0.70099998 -0.062683418 1.2549017e-38 338 291
0.023352645 0.70099998 -0.062683418 1.2088039e-38 339 291
0.024651866 0.70300001 -0.062862262 1.1445161e-38 340 291
0.025884461 0.70300001 -0.062862262 1.1076739e-38 341 291
0.027155625 0.704 -0.062951677 1.0157983e-38 342 291
0.028389972 0.704 -0.062951677 9.6048108e-39 343 291
0.029708479 0.70599997 -0.063130513 9.6040653e-39 344 291
0.030946331 0.70599997 -0.063130513 9.6040653e-39 345 291
0.032229774 0.70700002 -0.063219935 9.8792228e-39 346 291
0.033469379 0.70700002 -0.063219935 1.0709344e-38 347 291
0.034708988 0.70700002 -0.063219935 1.273085e-38 348 291
0.03599944 0.708 -0.063309364 1.3929392e-38 349 291
0.037345998 0.70999998 -0.063488193 1.5950172e-38 350 291
0.038590867 0.70999998 -0.063488193 1.6042368e-38 351 291
-0.014959441 0.71100003 -0.064824238 1.5579241e-38 308 292
-0.01371282 0.71100003 -0.064824238 1.539485e-38 309 292
-0.0124662 0.71100003 -0.064824238 1.4936729e-38 310 292
-0.01121958 0.71100003 -0.064824238 1.4383557e-38 311 292
-0.0099729598 0.71100003 -0.064824238 1.3191436e-38 312 292
-0.0087140659 0.70999998 -0.064733058 1.2546066e-38 313 292
-0.0074691991 0.70999998 -0.064733058 1.1723107e-38 314 292
-0.0062067998 0.708 -0.06455072 1.1538356e-38 315 292
-0.0049584266 0.70700002 -0.064459547 1.0804394e-38 316 292
-0.0037188199 0.70700002 -0.064459547 1.0896589e-38 317 292
-0.0024757064 0.70599997 -0.064368367 1.0069003e-38 318 292
-0.0012378532 0.70599997 -0.064368367 1.0253753e-38 319 292
0 0.704 -0.064186029 9.9775548e-39 320 292
0.0012343467 0.704 -0.064186029 1.0161947e-38 321 292
0.0024651866 0.70300001 -0.064094849 1.1081052e-38 322 292
0.0036977797 0.70300001 -0.064094849 1.1449833e-38 323 292
0.0049303733 0.70300001 -0.064094849 1.2183825e-38 324 292
0.0061629666 0.70300001 -0.064094849 1.2368575e-38 325 292
0.0073955595 0.70300001 -0.064094849 1.2918877e-38 326 292
0.0086036054 0.70099998 -0.063912503 1.2918877e-38 327 292
0.0098326923 0.70099998 -0.063912503 1.3285502e-38 328 292
0.011045999 0.69999999 -0.063821331 1.3285502e-38 329 292
0.012273333 0.69999999 -0.063821331 1.3101115e-38 330 292
0.013500666 0.69999999 -0.063821331 1.3008919e-38 331 292
0.014727999 0.69999999 -0.063821331 1.2916358e-38 332 292
0.015978126 0.70099998 -0.063912503 1.2916358e-38 333 292
0.017207211 0.70099998 -0.063912503 1.2640833e-38 334 292
0.018436298 0.70099998 -0.063912503 1.2364606e-38 335 292
0.019665385 0.70099998 -0.063912503 1.245678e-38 336 292
0.020894472 0.70099998 -0.063912503 1.1903606e-38 337 292
0.02218668 0.70300001 -0.064094849 1.0894101e-38 338 292
0.023419274 0.70300001 -0.064094849 1.0433122e-38 339 292
0.024686933 0.704 -0.064186029 9.2388631e-39 340 292
0.02592128 0.704 -0.064186029 8.6856893e-39 341 292
0.027155625 0.704 -0.064186029 8.5016428e-39 342 292
0.028389972 0.704 -0.064186029 8.5941971e-39 343 292
0.029708479 0.70599997 -0.064368367 9.4196516e-39 344 292
0.030946331 0.70599997 -0.064368367 1.0157577e-38 345 292
0.032229774 0.70700002 -0.064459547 1.1350767e-38 346 292
0.033469379 0.70700002 -0.064459547 1.2641506e-38 347 292
0.034708988 0.70700002 -0.064459547 1.4663383e-38 348 292
0.036101133 0.70999998 -0.064733058 1.5216557e-38 349 292
0.037345998 0.70999998 -0.064733058 1.61335e-38 350 292
0.038590867 0.70999998 -0.064733058 1.594875e-38 351 292
-0.014959441 0.71100003 -0.066070862 1.548813e-38 308 293
-0.01371282 0.71100003 -0.066070862 1.5026792e-38 309 293
-0.0124662 0.71100003 -0.066070862 1.4383209e-38 310 293
-0.01121958 0.71100003 -0.066070862 1.4290655e-38 311 293
-0.0099729598 0.71100003 -0.066070862 1.4750167e-38 312 293
-0.0087140659 0.70999998 -0.065977924 1.447358e-38 313 293
-0.0074691991 0.70999998 -0.065977924 1.2547508e-38 314 293
-0.0062067998 0.708 -0.065792084 1.2086889e-38 315 293
-0.0049654399 0.708 -0.065792084 1.1355059e-38 316 293
-0.0037188199 0.70700002 -0.065699153 1.1262864e-38 317 293
-0.0024757064 0.70599997 -0.065606222 1.0069357e-38 318 293
-0.0012378532 0.70599997 -0.065606222 9.5161828e-39 319 293
0 0.70599997 -0.065606222 9.6083813e-39 320 293
0.0012343467 0.704 -0.065420374 9.42399e-39 321 293
0.0024686933 0.704 -0.065420374 9.1499269e-39 322 293
0.0037030398 0.704 -0.065420374 9.3343195e-39 323 293
0.0049303733 0.70300001 -0.065327443 1.0253047e-38 324 293
0.0061629666 0.70300001 -0.065327443 1.0437799e-38 325 293
0.0073955595 0.70300001 -0.065327443 1.0712235e-38 326 293
0.0086036054 0.70099998 -0.065141588 1.0620037e-38 327 293
0.0098326923 0.70099998 -0.065141588 1.071259e-38 328 293
0.011061779 0.70099998 -0.065141588 1.0620035e-38 329 293
0.012290866 0.70099998 -0.065141588 1.080335e-38 330 293
0.013519952 0.70099998 -0.065141588 1.0895547e-38 331 293
0.014749039 0.70099998 -0.065141588 1.0802981e-38 332 293
0.015978126 0.70099998 -0.065141588 1.0710786e-38 333 293
0.017207211 0.70099998 -0.065141588 1.0620012e-38 334 293
0.018436298 0.70099998 -0.065141588 1.0620012e-38 335 293
0.019665385 0.70099998 -0.065141588 1.0711839e-38 336 293
0.020894472 0.70099998 -0.065141588 1.0527448e-38 337 293
0.02218668 0.70300001 -0.065327443 1.0342687e-38 338 293
0.023452586 0.704 -0.065420374 9.6051219e-39 339 293
0.024686933 0.704 -0.065420374 6.9390394e-39 340 293
0.02592128 0.704 -0.065420374 7.2159864e-39 341 293
0.027155625 0.704 -0.065420374 8.5009869e-39 342 293
0.028389972 0.704 -0.065420374 9.4225831e-39 343 293
0.029708479 0.70599997 -0.065606222 1.1997221e-38 344 293
0.030946331 0.70599997 -0.065606222 1.2735145e-38 345 293
0.03227536 0.708 -0.065792084 1.4294597e-38 346 293
0.033516716 0.708 -0.065792084 1.4571185e-38 347 293
-0.01371282 0.71100003 -0.067317478 1.5763285e-38 309 294
-0.0124662 0.71100003 -0.067317478 1.4934593e-38 310 294
-0.01121958 0.71100003 -0.067317478 1.4750562e-38 311 294
-0.0099729598 0.71100003 -0.067317478 1.4933872e-38 312 294
-0.0087263398 0.71100003 -0.067317478 1.4473252e-38 313 294
-0.0074691991 0.70999998 -0.067222796 1.3371549e-38 314 294
-0.0062067998 0.708 -0.067033432 1.2818376e-38 315 294
-0.0049654399 0.708 -0.067033432 1.3005965e-38 316 294
-0.0037188199 0.70700002 -0.066938758 1.3651335e-38 317 294
-0.0024792133 0.70700002 -0.066938758 1.300919e-38 318 294
-0.0012378532 0.70599997 -0.066844068 1.2456016e-38 319 294
0 0.70599997 -0.066844068 1.1630552e-38 320 294
0.0012378532 0.70599997 -0.066844068 1.1353965e-38 321 294
0.0024686933 0.704 -0.066654719 1.0711094e-38 322 294
0.0037030398 0.704 -0.066654719 1.0526703e-38 323 294
0.0049373866 0.704 -0.066654719 1.0528841e-38 324 294
0.0061717331 0.704 -0.066654719 1.0528841e-38 325 294
0.0074060797 0.704 -0.066654719 1.0437715e-38 326 294
0.0086281532 0.70300001 -0.066560037 1.0161129e-38 327 294
0.0098607466 0.70300001 -0.066560037 1.0069287e-38 328 294
0.01109334 0.70300001 -0.066560037 9.9770909e-39 329 294
0.012290866 0.70099998 -0.066370681 1.0344432e-38 330 294
0.013519952 0.70099998 -0.066370681 1.0620658e-38 331 294
0.014791119 0.70300001 -0.066560037 1.0528097e-38 332 294
0.016023712 0.70300001 -0.066560037 1.0435541e-38 333 294
0.017256306 0.70300001 -0.066560037 1.0894349e-38 334 294
0.018488899 0.70300001 -0.066560037 1.10791e-38 335 294
0.019721493 0.70300001 -0.066560037 1.1170958e-38 336 294
0.020983893 0.704 -0.066654719 1.1170958e-38 337 294
0.022218239 0.704 -0.066654719 1.052669e-38 338 294
0.023452586 0.704 -0.066654719 9.6965692e-39 339 294
0.024757065 0.70599997 -0.066844068 1.0985949e-38 340 294
0.025994917 0.70599997 -0.066844068 1.4397188e-38 341 294
0.027232772 0.70599997 -0.066844068 1.4579475e-38 342 294
0.028470624 0.70599997 -0.066844068 1.3841551e-38 343 294
0.029750559 0.70700002 -0.066938758 1.5122562e-38 344 294
0.031121666 0.70999998 -0.067222796 1.5122562e-38 345 294
-0.0087263398 0.71100003 -0.068564095 1.4473266e-38 313 295
-0.0074691991 0.70999998 -0.068467662 1.4105912e-38 314 295
-0.0062243328 0.70999998 -0.068467662 1.392152e-38 315 295
-0.0049654399 0.708 -0.068274796 1.4015143e-38 316 295
-0.00372408 0.708 -0.068274796 1.512149e-38 317 295
-0.0024792133 0.70700002 -0.068178371 1.5769728e-38 318 295
-0.0012396066 0.70700002 -0.068178371 1.63229e-38 319 295
0 0.70599997 -0.06808193 1.5681109e-38 320 295
0.0012378532 0.70599997 -0.06808193 1.4943185e-38 321 295
0.0024686933 0.704 -0.067889065 1.3654562e-38 322 295
0.0037030398 0.704 -0.067889065 1.2732606e-38 323 295
0.0049373866 0.704 -0.067889065 1.1906403e-38 324 295
0.0061717331 0.704 -0.067889065 1.1629457e-38 325 295
0.0074060797 0.704 -0.067889065 1.0620333e-38 326 295
0.0086404262 0.704 -0.067889065 1.0435583e-38 327 295
0.0098747732 0.704 -0.067889065 1.0709649e-38 328 295
0.011109119 0.704 -0.067889065 1.0986595e-38 329 295
0.012343466 0.704 -0.067889065 1.1079508e-38 330 295
0.013577812 0.704 -0.067889065 1.1171703e-38 331 295
0.014812159 0.704 -0.067889065 1.1355019e-38 332 295
0.016046507 0.704 -0.067889065 1.1355019e-38 333 295
0.017280852 0.704 -0.067889065 1.1997164e-38 334 295
0.018515198 0.704 -0.067889065 1.2181915e-38 335 295
0.019749546 0.704 -0.067889065 1.1997546e-38 336 295
0.020983893 0.704 -0.067889065 1.1628403e-38 337 295
0.022218239 0.704 -0.067889065 1.1626643e-38 338 295
0.023519212 0.70599997 -0.06808193 1.3655306e-38 339 295
0.024757065 0.70599997 -0.06808193 1.7336374e-38 340 295
0.025994917 0.70599997 -0.06808193 1.9549071e-38 341 295
0.027232772 0.70599997 -0.06808193 1.8355229e-38 342 295
0.028510952 0.70700002 -0.068178371 1.7709859e-38 343 295
-0.00372408 0.708 -0.069516152 1.4936042e-38 317 296
-0.0024792133 0.70700002 -0.069417976 1.475308e-38 318 296
-0.0012396066 0.70700002 -0.069417976 1.5306254e-38 319 296
0 0.70599997 -0.069319785 1.567538e-38 320 296
0.0012378532 0.70599997 -0.069319785 1.6412945e-38 321 296
0.0024686933 0.704 -0.06912341 1.6690591e-38 322 296
0.0037030398 0.704 -0.06912341 1.6321809e-38 323 296
0.0049373866 0.704 -0.06912341 1.5769333e-38 324 296
0.0061717331 0.704 -0.06912341 1.5308713e-38 325 296
0.0074060797 0.704 -0.06912341 1.4391058e-38 326 296
0.0086404262 0.704 -0.06912341 1.4851676e-38 327 296
0.0098747732 0.704 -0.06912341 1.5765704e-38 328 296
0.011140679 0.70599997 -0.069319785 1.5120334e-38 329 296
0.012378532 0.70599997 -0.069319785 1.3836785e-38 330 296
0.013616386 0.70599997 -0.069319785 1.374459e-38 331 296
0.014854239 0.70599997 -0.069319785 1.4111227e-38 332 296
0.016092092 0.70599997 -0.069319785 1.4387455e-38 333 296
0.017329946 0.70599997 -0.069319785 1.4754095e-38 334 296
0.018567799 0.70599997 -0.069319785 1.4293117e-38 335 296
0.019805651 0.70599997 -0.069319785 1.3372975e-38 336 296
0.021043506 0.70599997 -0.069319785 1.3465171e-38 337 296
0.022281358 0.70599997 -0.069319785 1.4016215e-38 338 296
0.023519212 0.70599997 -0.069319785 1.5491346e-38 339 296
0.024757065 0.70599997 -0.069319785 1.7332801e-38 340 296
0.02603174 0.70700002 -0.069417976 1.7240605e-38 341 296
0.027271347 0.70700002 -0.069417976 1.6596696e-38 342 296
-0.0012396066 0.70700002 -0.070657574 1.37357e-38 319 297
0 0.70599997 -0.070557632 1.3367287e-38 320 297
0.0012378532 0.70599997 -0.070557632 1.4934973e-38 321 297
0.0024686933 0.704 -0.070357755 1.7057638e-38 322 297
0.0037030398 0.704 -0.070357755 1.7887397e-38 323 297
0.0049514128 0.70599997 -0.070557632 1.8440201e-38 324 297
0.0061717331 0.704 -0.070357755 1.8163615e-38 325 297
0.0074060797 0.704 -0.070357755 1.7798053e-38 326 297
0.01487528 0.70700002 -0.070657574 1.5122209e-38 332 297
