# .PCD v.7 - Point Cloud Data file format
FIELDS x y z rgb imX imY
SIZE 4 4 4 4 4 4
TYPE F F F F F F
COUNT 1 1 1 1 1 1
WIDTH 834
HEIGHT 1
VIEWPOINT 0 0 0 1 0 0 0
POINTS 834
DATA ascii
0.041606598 0.67799997 -0.038040318 9.9564414e-39 355 272
0.042795356 0.67799997 -0.038040318 8.2990907e-39 356 272
0.044048995 0.67900002 -0.038096428 7.5615256e-39 357 272
0.045239504 0.67900002 -0.038096428 8.1269215e-39 358 272
0.046498399 0.68000001 -0.038152531 1.0432171e-38 359 272
0.047830928 0.68199998 -0.038264744 1.3186509e-38 360 272
0.049098592 0.68300003 -0.038320854 1.2910282e-38 361 272
0.05029612 0.68300003 -0.038320854 1.36446e-38 362 272
0.051719822 0.68599999 -0.03848917 1.3828991e-38 363 272
0.052999757 0.68699998 -0.038545277 1.4197771e-38 364 272
0.054204296 0.68699998 -0.038545277 1.401374e-38 365 272
0.055408835 0.68699998 -0.038545277 1.4840973e-38 366 272
0.056613375 0.68699998 -0.038545277 1.76072e-38 367 272
0.057817914 0.68699998 -0.038545277 1.8620979e-38 368 272
-0.0085667865 0.69800001 -0.040386278 1.8895785e-38 313 273
-0.0073429602 0.69800001 -0.040386278 1.6782145e-38 314 273
-0.0061103669 0.69700003 -0.040328421 1.5122264e-38 315 273
-0.0048812795 0.69599998 -0.040270556 1.4205355e-38 316 273
-0.0036504399 0.69400001 -0.040154841 1.4481943e-38 317 273
-0.00243012 0.69300002 -0.04009698 1.5032596e-38 318 273
-0.0012115532 0.69099998 -0.039981257 1.4018443e-38 319 273
0 0.69 -0.0399234 7.2028226e-39 320 273
0.0012062934 0.68800002 -0.039807681 8.3091702e-39 321 273
0.0024090798 0.68699998 -0.039749816 9.7771284e-39 322 273
0.00360836 0.68599999 -0.039691959 8.0254129e-39 323 273
0.0047901068 0.68300003 -0.039518382 6.458813e-39 324 273
0.005978866 0.68199998 -0.039460517 7.1963781e-39 325 273
0.0071535995 0.68000001 -0.039344799 7.7473995e-39 326 273
0.0083335936 0.67900002 -0.039286941 7.1942257e-39 327 273
0.0095100794 0.67799997 -0.039229076 9.0410095e-39 328 273
0.010698839 0.67799997 -0.039229076 1.1714683e-38 329 273
0.011852534 0.676 -0.039113361 1.2082724e-38 330 273
0.0130185 0.67500001 -0.039055496 1.1160766e-38 331 273
0.014202001 0.67500001 -0.039055496 9.2318454e-39 332 273
0.015362706 0.67400002 -0.038997639 1.1629292e-38 333 273
0.016544454 0.67400002 -0.038997639 1.4294681e-38 334 273
0.0177262 0.67400002 -0.038997639 1.4386876e-38 335 273
0.018907947 0.67400002 -0.038997639 1.4296103e-38 336 273
0.020089693 0.67400002 -0.038997639 1.4388299e-38 337 273
0.021271439 0.67400002 -0.038997639 1.4938586e-38 338 273
0.022453187 0.67400002 -0.038997639 1.484639e-38 339 273
0.023634933 0.67400002 -0.038997639 1.5030058e-38 340 273
0.024816679 0.67400002 -0.038997639 1.521445e-38 341 273
0.025921278 0.67199999 -0.03888192 1.2724484e-38 342 273
0.027099518 0.67199999 -0.03888192 6.916159e-39 343 273
0.02836192 0.67400002 -0.038997639 4.3408177e-39 344 273
0.0295875 0.67500001 -0.039055496 5.1705783e-39 345 273
0.030771 0.67500001 -0.039055496 3.2377099e-39 346 273
0.031954501 0.67500001 -0.039055496 2.4997861e-39 347 273
0.033137999 0.67500001 -0.039055496 1.0240239e-38 348 273
0.034372345 0.676 -0.039113361 1.2084152e-38 349 273
0.035557602 0.676 -0.039113361 1.2264915e-38 350 273
0.036742851 0.676 -0.039113361 1.1895773e-38 351 273
0.037928104 0.676 -0.039113361 1.2537549e-38 352 273
0.039113361 0.676 -0.039113361 1.124681e-38 353 273
0.040417835 0.67799997 -0.039229076 8.7604177e-39 354 273
0.041606598 0.67799997 -0.039229076 7.3774833e-39 355 273
0.042795356 0.67799997 -0.039229076 5.906693e-39 356 273
0.044048995 0.67900002 -0.039286941 5.814496e-39 357 273
0.045239504 0.67900002 -0.039286941 8.9491348e-39 358 273
0.046498399 0.68000001 -0.039344799 1.1622808e-38 359 273
0.047830928 0.68199998 -0.039460517 1.3370537e-38 360 273
0.049098592 0.68300003 -0.039518382 1.3186146e-38 361 273
0.050369758 0.68400002 -0.03957624 1.35542e-38 362 273
0.051795214 0.68699998 -0.039749816 1.3646754e-38 363 273
0.052999757 0.68699998 -0.039749816 1.3738595e-38 364 273
0.054204296 0.68699998 -0.039749816 1.3554202e-38 365 273
0.055489492 0.68800002 -0.039807681 1.4566186e-38 366 273
0.056695789 0.68800002 -0.039807681 1.7424251e-38 367 273
0.057902083 0.68800002 -0.039807681 1.9080517e-38 368 273
-0.0085667865 0.69800001 -0.041610107 1.852808e-38 313 274
-0.0073429602 0.69800001 -0.041610107 1.6413005e-38 314 274
-0.0061103669 0.69700003 -0.041550495 1.4569093e-38 315 274
-0.0048812795 0.69599998 -0.041490879 1.3744025e-38 316 274
-0.0036504399 0.69400001 -0.041371655 1.4205002e-38 317 274
-0.0024336267 0.69400001 -0.041371655 1.4665977e-38 318 274
-0.0012115532 0.69099998 -0.041192811 1.4020608e-38 319 274
0 0.69 -0.041133199 6.1926322e-39 320 274
0.0012062934 0.68800002 -0.041013971 5.2706773e-39 321 274
0.0024090798 0.68699998 -0.040954359 7.1110152e-39 322 274
0.00360836 0.68599999 -0.040894743 6.9266239e-39 323 274
0.0047971201 0.68400002 -0.040775519 7.0119882e-39 324 274
0.0059876335 0.68300003 -0.040715907 7.4726076e-39 325 274
0.00717464 0.68199998 -0.040656291 7.0134316e-39 326 274
0.0083458666 0.68000001 -0.040537067 6.8290403e-39 327 274
0.0095100794 0.67799997 -0.040417835 5.3600269e-39 328 274
0.010698839 0.67799997 -0.040417835 6.7429613e-39 329 274
0.011852534 0.676 -0.040298611 8.7680184e-39 330 274
0.013037786 0.676 -0.040298611 8.6758227e-39 331 274
0.014202001 0.67500001 -0.040238999 8.6750885e-39 332 274
0.015362706 0.67400002 -0.040179387 8.9513152e-39 333 274
0.016544454 0.67400002 -0.040179387 1.0145172e-38 334 274
0.0177262 0.67400002 -0.040179387 1.0052977e-38 335 274
0.018907947 0.67400002 -0.040179387 9.2275294e-39 336 274
0.020089693 0.67400002 -0.040179387 1.0794855e-38 337 274
0.021271439 0.67400002 -0.040179387 1.2449692e-38 338 274
0.022453187 0.67400002 -0.040179387 1.1158953e-38 339 274
0.023634933 0.67400002 -0.040179387 1.060433e-38 340 274
0.024816679 0.67400002 -0.040179387 1.0143354e-38 341 274
0.025998428 0.67400002 -0.040179387 8.6646516e-39 342 274
0.027180174 0.67400002 -0.040179387 5.7143914e-39 343 274
0.02836192 0.67400002 -0.040179387 6.4570012e-39 344 274
0.0295875 0.67500001 -0.040238999 8.300555e-39 345 274
0.030771 0.67500001 -0.040238999 7.1967312e-39 346 274
0.031954501 0.67500001 -0.040238999 4.7992847e-39 347 274
0.033137999 0.67500001 -0.040238999 9.0366767e-39 348 274
0.034372345 0.676 -0.040298611 8.8519267e-39 349 274
0.035557602 0.676 -0.040298611 7.4682622e-39 350 274
0.036742851 0.676 -0.040298611 6.084969e-39 351 274
0.037928104 0.676 -0.040298611 5.258458e-39 352 274
0.039113361 0.676 -0.040298611 5.8116317e-39 353 274
0.040417835 0.67799997 -0.040417835 4.5273739e-39 354 274
0.041606598 0.67799997 -0.040417835 5.1727433e-39 355 274
0.042795356 0.67799997 -0.040417835 7.5658598e-39 356 274
0.044048995 0.67900002 -0.040477451 7.7502511e-39 357 274
0.045239504 0.67900002 -0.040477451 9.9600441e-39 358 274
0.046635158 0.68199998 -0.040656291 1.2172379e-38 359 274
0.047901068 0.68300003 -0.040715907 1.3371259e-38 360 274
0.049170479 0.68400002 -0.040775519 1.3463456e-38 361 274
0.050517038 0.68599999 -0.040894743 1.3737871e-38 362 274
0.051795214 0.68699998 -0.040954359 1.3737871e-38 363 274
0.052999757 0.68699998 -0.040954359 1.3921546e-38 364 274
0.054204296 0.68699998 -0.040954359 1.3828991e-38 365 274
0.055489492 0.68800002 -0.041013971 1.4107008e-38 366 274
0.056695789 0.68800002 -0.041013971 1.7333855e-38 367 274
0.057902083 0.68800002 -0.041013971 1.9356025e-38 368 274
-0.0085667865 0.69800001 -0.042833932 1.8434807e-38 313 275
-0.00733244 0.69700003 -0.042772565 1.6319372e-38 314 275
-0.0061103669 0.69700003 -0.042772565 1.4475459e-38 315 275
-0.0048812795 0.69599998 -0.042711195 1.3283769e-38 316 275
-0.0036504399 0.69400001 -0.042588469 1.3744747e-38 317 275
-0.0024336267 0.69400001 -0.042588469 1.4205002e-38 318 275
-0.0012115532 0.69099998 -0.042404365 1.4112806e-38 319 275
0 0.69 -0.042342998 1.2173824e-38 320 275
0.0012062934 0.68800002 -0.042220265 9.7770976e-39 321 275
0.0024125867 0.68800002 -0.042220265 8.9505992e-39 322 275
0.0036136196 0.68699998 -0.042158898 7.3829133e-39 323 275
0.0048111463 0.68599999 -0.042097531 5.3575059e-39 324 275
0.0059964 0.68400002 -0.041974798 6.2791035e-39 325 275
0.0071851597 0.68300003 -0.041913435 7.1963935e-39 326 275
0.0083826864 0.68300003 -0.041913435 6.5510241e-39 327 275
0.0095381327 0.68000001 -0.041729335 5.630144e-39 328 275
0.010714619 0.67900002 -0.041667968 7.6584478e-39 329 275
0.011905133 0.67900002 -0.041667968 9.593463e-39 330 275
0.013076359 0.67799997 -0.041606598 8.4871169e-39 331 275
0.014223038 0.676 -0.041483864 4.9923178e-39 332 275
0.015408293 0.676 -0.041483864 5.2685445e-39 333 275
0.016593546 0.676 -0.041483864 8.3931192e-39 334 275
0.0177525 0.67500001 -0.041422497 8.3931192e-39 335 275
0.018935999 0.67500001 -0.041422497 4.9001179e-39 336 275
0.020119499 0.67500001 -0.041422497 5.4532917e-39 337 275
0.021303 0.67500001 -0.041422497 7.0209719e-39 338 275
0.022486499 0.67500001 -0.041422497 7.2971987e-39 339 275
0.023669999 0.67500001 -0.041422497 8.3916548e-39 340 275
0.0248535 0.67500001 -0.041422497 7.377863e-39 341 275
0.026037 0.67500001 -0.041422497 7.3800266e-39 342 275
0.027220501 0.67500001 -0.041422497 6.2733204e-39 343 275
0.028404001 0.67500001 -0.041422497 5.904912e-39 344 275
0.0295875 0.67500001 -0.041422497 6.8268697e-39 345 275
0.030771 0.67500001 -0.041422497 6.9154738e-39 346 275
0.032001842 0.676 -0.041483864 6.3623e-39 347 275
0.033187091 0.676 -0.041483864 9.6838454e-39 348 275
0.034372345 0.676 -0.041483864 9.4994527e-39 349 275
0.035557602 0.676 -0.041483864 8.4842204e-39 350 275
0.036742851 0.676 -0.041483864 6.1796884e-39 351 275
0.037928104 0.676 -0.041483864 5.0733605e-39 352 275
0.039229076 0.67799997 -0.041606598 5.8109255e-39 353 275
0.040417835 0.67799997 -0.041606598 5.9056421e-39 354 275
0.041606598 0.67799997 -0.041606598 6.4588158e-39 355 275
0.042795356 0.67799997 -0.041606598 7.1066866e-39 356 275
0.044048995 0.67900002 -0.041667968 7.1066866e-39 357 275
0.045306131 0.68000001 -0.041729335 9.0402514e-39 358 275
0.04670354 0.68300003 -0.041913435 1.1529175e-38 359 275
0.0479712 0.68400002 -0.041974798 1.3277988e-38 360 275
0.049386136 0.68699998 -0.042158898 1.3277988e-38 361 275
0.050590675 0.68699998 -0.042158898 1.3092145e-38 362 275
0.051870614 0.68800002 -0.042220265 1.3092145e-38 363 275
0.052999757 0.68699998 -0.042158898 1.309395e-38 364 275
0.054204296 0.68699998 -0.042158898 1.3278341e-38 365 275
0.055489492 0.68800002 -0.042220265 1.4199569e-38 366 275
0.056695789 0.68800002 -0.042220265 1.7426416e-38 367 275
-0.00733244 0.69700003 -0.043994639 1.6227172e-38 314 276
-0.0061103669 0.69700003 -0.043994639 1.4291064e-38 315 276
-0.0048812795 0.69599998 -0.043931518 1.309938e-38 316 276
-0.0036504399 0.69400001 -0.043805279 1.3559998e-38 317 276
-0.0024336267 0.69400001 -0.043805279 1.3744031e-38 318 276
-0.00121506 0.69300002 -0.043742158 1.4020257e-38 319 276
0 0.69099998 -0.043615919 1.4385077e-38 320 276
0.0012097999 0.69 -0.043552797 1.3370566e-38 321 276
0.0024125867 0.68800002 -0.043426562 1.1161119e-38 322 276
0.0036188802 0.68800002 -0.043426562 8.4874462e-39 323 276
0.0048181596 0.68699998 -0.043363437 5.3567801e-39 324 276
0.0060139326 0.68599999 -0.043300316 6.0021495e-39 325 276
0.0071956799 0.68400002 -0.043174081 7.1041979e-39 326 276
0.0083826864 0.68300003 -0.043110959 6.1826003e-39 327 276
0.009566186 0.68199998 -0.043047838 5.9967615e-39 328 276
0.0107304 0.68000001 -0.042921599 8.4856834e-39 329 276
0.011922667 0.68000001 -0.042921599 9.9608036e-39 330 276
0.013114933 0.68000001 -0.042921599 8.6700648e-39 331 276
0.01428616 0.67900002 -0.042858478 2.9654614e-39 332 276
0.015476674 0.67900002 -0.042858478 3.5182765e-39 333 276
0.016642639 0.67799997 -0.042795356 7.9335928e-39 334 276
0.017778801 0.676 -0.042669121 8.8555477e-39 335 276
0.018964052 0.676 -0.042669121 3.8867073e-39 336 276
0.020149305 0.676 -0.042669121 2.3197417e-39 337 276
0.021334561 0.676 -0.042669121 3.9550528e-40 338 276
0.022519812 0.676 -0.042669121 3.4376023e-39 339 276
0.023705067 0.676 -0.042669121 9.3150559e-39 340 276
0.024890319 0.676 -0.042669121 7.4711433e-39 341 276
0.026075572 0.676 -0.042669121 9.2206952e-39 342 276
0.027260827 0.676 -0.042669121 8.5753258e-39 343 276
0.028446076 0.676 -0.042669121 6.2711834e-39 344 276
0.029631332 0.676 -0.042669121 6.1789877e-39 345 276
0.030816587 0.676 -0.042669121 6.451623e-39 346 276
0.032001842 0.676 -0.042669121 8.2955356e-39 347 276
0.033187091 0.676 -0.042669121 1.0329568e-38 348 276
0.034474038 0.67799997 -0.042795356 1.0052621e-38 349 276
0.0356628 0.67799997 -0.042795356 9.2221414e-39 350 276
0.036851559 0.67799997 -0.042795356 6.9172506e-39 351 276
0.038040318 0.67799997 -0.042795356 5.8098437e-39 352 276
0.039229076 0.67799997 -0.042795356 6.4552131e-39 353 276
0.040477451 0.67900002 -0.042858478 6.1822219e-39 354 276
0.041667968 0.67900002 -0.042858478 6.5513646e-39 355 276
0.042858478 0.67900002 -0.042858478 7.3821945e-39 356 276
0.044048995 0.67900002 -0.042858478 7.6584212e-39 357 276
0.045439381 0.68199998 -0.043047838 9.1331659e-39 358 276
0.046771921 0.68400002 -0.043174081 1.0977439e-38 359 276
0.048111461 0.68599999 -0.043300316 1.2632622e-38 360 276
0.049386136 0.68699998 -0.043363437 1.2263479e-38 361 276
0.050664321 0.68800002 -0.043426562 1.1709942e-38 362 276
0.052021399 0.69 -0.043552797 1.1802139e-38 363 276
0.053076908 0.68800002 -0.043426562 1.2173083e-38 364 276
0.054283202 0.68800002 -0.043426562 1.2818452e-38 365 276
0.055731449 0.69099998 -0.043615919 1.3924061e-38 366 276
0.056942999 0.69099998 -0.043615919 1.7243104e-38 367 276
-0.0073429602 0.69800001 -0.045281585 1.6319372e-38 314 277
-0.0061103669 0.69700003 -0.045216713 1.4106317e-38 315 277
-0.0048812795 0.69599998 -0.045151837 1.2455455e-38 316 277
-0.0036504399 0.69400001 -0.045022093 1.2916434e-38 317 277
-0.0024336267 0.69400001 -0.045022093 1.3008629e-38 318 277
-0.00121506 0.69300002 -0.044957221 1.2916434e-38 319 277
0 0.69099998 -0.044827472 1.2729516e-38 320 277
0.0012097999 0.69 -0.0447626 1.3374885e-38 321 277
0.0024195998 0.69 -0.0447626 1.3742229e-38 322 277
0.0036188802 0.68800002 -0.044632856 1.2819914e-38 323 277
0.0048181596 0.68699998 -0.044567976 1.0884537e-38 324 277
0.0060226996 0.68699998 -0.044567976 9.7778291e-39 325 277
0.0072167199 0.68599999 -0.044503104 9.7738886e-39 326 277
0.0083949603 0.68400002 -0.04437336 7.9299774e-39 327 277
0.0095802136 0.68300003 -0.044308487 7.5655123e-39 328 277
0.010761959 0.68199998 -0.044243611 8.9484468e-39 329 277
0.011957732 0.68199998 -0.044243611 8.6725801e-39 330 277
0.013153506 0.68199998 -0.044243611 7.6584268e-39 331 277
0.01434928 0.68199998 -0.044243611 4.0671329e-39 332 277
0.015499466 0.68000001 -0.044113863 4.0671329e-39 333 277
0.016691733 0.68000001 -0.044113863 7.842116e-39 334 277
0.0178314 0.67799997 -0.043984115 9.2250505e-39 335 277
0.019020159 0.67799997 -0.043984115 5.26496e-39 336 277
0.020208918 0.67799997 -0.043984115 4.0664168e-39 337 277
0.021334561 0.676 -0.043854371 3.4253676e-39 338 277
0.022519812 0.676 -0.043854371 5.2689201e-39 339 277
0.023705067 0.676 -0.043854371 8.9498635e-39 340 277
0.024890319 0.676 -0.043854371 8.6736367e-39 341 277
0.026075572 0.676 -0.043854371 1.0783339e-38 342 277
0.027260827 0.676 -0.043854371 9.2156548e-39 343 277
0.028446076 0.676 -0.043854371 6.3669691e-39 344 277
0.029631332 0.676 -0.043854371 6.2747735e-39 345 277
0.030816587 0.676 -0.043854371 5.4464548e-39 346 277
0.03209652 0.67799997 -0.043984115 6.4609668e-39 347 277
0.033285279 0.67799997 -0.043984115 9.5941665e-39 348 277
0.034474038 0.67799997 -0.043984115 8.9487971e-39 349 277
0.035715401 0.67900002 -0.044048995 9.4043816e-39 350 277
0.036905911 0.67900002 -0.044048995 7.2838808e-39 351 277
0.038096428 0.67900002 -0.044048995 4.0649665e-39 352 277
0.039286941 0.67900002 -0.044048995 4.6181402e-39 353 277
0.040477451 0.67900002 -0.044048995 5.4500519e-39 354 277
0.041729335 0.68000001 -0.044113863 6.9248232e-39 355 277
0.042921599 0.68000001 -0.044113863 9.4112046e-39 356 277
0.044243611 0.68199998 -0.044243611 1.0517193e-38 357 277
0.045572639 0.68400002 -0.04437336 1.189615e-38 358 277
0.046908677 0.68599999 -0.044503104 1.2264931e-38 359 277
0.048181597 0.68699998 -0.044567976 1.1618114e-38 360 277
0.049458027 0.68800002 -0.044632856 1.0972744e-38 361 277
0.050811596 0.69 -0.0447626 9.6856054e-39 362 277
0.052021399 0.69 -0.0447626 1.042317e-38 363 277
0.053231198 0.69 -0.0447626 1.1528439e-38 364 277
0.054440998 0.69 -0.0447626 1.2173808e-38 365 277
0.056215372 0.69700003 -0.045216713 1.4016257e-38 366 277
-0.0073429602 0.69800001 -0.046505414 1.6412289e-38 314 278
-0.0061103669 0.69700003 -0.046438783 1.3738616e-38 315 278
-0.0048812795 0.69599998 -0.046372157 1.1720055e-38 316 278
-0.0036504399 0.69400001 -0.046238903 1.1997001e-38 317 278
-0.0024336267 0.69400001 -0.046238903 1.218031e-38 318 278
-0.0012168133 0.69400001 -0.046238903 1.2088115e-38 319 278
0 0.69300002 -0.04617228 1.1624973e-38 320 278
0.0012115532 0.69099998 -0.046039023 1.2638765e-38 321 278
0.0024195998 0.69 -0.045972396 1.4387964e-38 322 278
0.0036188802 0.68800002 -0.045839146 1.4664911e-38 323 278
0.0048251734 0.68800002 -0.045839146 1.4938972e-38 324 278
0.0060226996 0.68699998 -0.045772515 1.3740431e-38 325 278
0.0072167199 0.68599999 -0.045705888 1.2540085e-38 326 278
0.0084195063 0.68599999 -0.045705888 1.1249347e-38 327 278
0.0095942402 0.68400002 -0.045572639 1.0239167e-38 328 278
0.01077774 0.68300003 -0.045506012 9.593798e-39 329 278
0.011975267 0.68300003 -0.045506012 8.4874728e-39 330 278
0.013172794 0.68300003 -0.045506012 6.8275913e-39 331 278
0.014370319 0.68300003 -0.045506012 4.3429981e-39 332 278
0.015545053 0.68199998 -0.045439381 3.8820199e-39 333 278
0.016740825 0.68199998 -0.045439381 8.7622646e-39 334 278
0.017883999 0.68000001 -0.045306131 9.7760564e-39 335 278
0.019076265 0.68000001 -0.045306131 5.8181156e-39 336 278
0.020238725 0.67900002 -0.045239504 5.4489729e-39 337 278
0.021397678 0.67799997 -0.045172878 6.7371964e-39 338 278
0.022586439 0.67799997 -0.045172878 6.644642e-39 339 278
0.023775198 0.67799997 -0.045172878 8.6721906e-39 340 278
0.024890319 0.676 -0.045039624 1.0977083e-38 341 278
0.026075572 0.676 -0.045039624 1.2259906e-38 342 278
0.027341479 0.67799997 -0.045172878 7.9270697e-39 343 278
0.028530238 0.67799997 -0.045172878 5.9092126e-39 344 278
0.029718997 0.67799997 -0.045172878 7.8453208e-39 345 278
0.030953348 0.67900002 -0.045239504 6.4573641e-39 346 278
0.032143861 0.67900002 -0.045239504 5.0744296e-39 347 278
0.033334374 0.67900002 -0.045239504 8.2130439e-39 348 278
0.034524884 0.67900002 -0.045239504 7.7524245e-39 349 278
0.035767999 0.68000001 -0.045306131 9.1288724e-39 350 278
0.036960267 0.68000001 -0.045306131 7.7459379e-39 351 278
0.038152531 0.68000001 -0.045306131 4.1593131e-39 352 278
0.039344799 0.68000001 -0.045306131 5.4500519e-39 353 278
0.040656291 0.68199998 -0.045439381 7.6605792e-39 354 278
0.041852064 0.68199998 -0.045439381 9.3201019e-39 355 278
0.043047838 0.68199998 -0.045439381 1.1714278e-38 356 278
0.044308487 0.68300003 -0.045506012 1.2912462e-38 357 278
0.045705888 0.68599999 -0.045705888 1.3370537e-38 358 278
0.046977058 0.68699998 -0.045772515 1.309395e-38 359 278
0.048181597 0.68699998 -0.045772515 1.0697232e-38 360 278
0.049458027 0.68800002 -0.045839146 9.4986904e-39 361 278
0.050811596 0.69 -0.045972396 8.670743e-39 362 278
0.052021399 0.69 -0.045972396 9.6848964e-39 363 278
0.053308345 0.69099998 -0.046039023 1.1344048e-38 364 278
0.054677699 0.69300002 -0.04617228 1.2358198e-38 365 278
0.055892758 0.69300002 -0.04617228 1.4475436e-38 366 278
-0.0073429602 0.69800001 -0.047729239 1.6780349e-38 314 279
-0.006119133 0.69800001 -0.047729239 1.3368752e-38 315 279
-0.0048812795 0.69599998 -0.047592476 1.1167956e-38 316 279
-0.0036609597 0.69599998 -0.047592476 1.153674e-38 317 279
-0.0024336267 0.69400001 -0.047455717 1.2087399e-38 318 279
-0.0012168133 0.69400001 -0.047455717 1.1902649e-38 319 279
0 0.69300002 -0.047387339 9.8761428e-39 320 279
0.0012115532 0.69099998 -0.047250576 1.0244924e-38 321 279
0.0024231065 0.69099998 -0.047250576 1.0889574e-38 322 279
0.0036293997 0.69 -0.047182199 1.2640933e-38 323 279
0.0048251734 0.68800002 -0.047045439 1.4480159e-38 324 279
0.0060226996 0.68699998 -0.046977058 1.4203933e-38 325 279
0.0072167199 0.68599999 -0.046908677 1.4295397e-38 326 279
0.0084195063 0.68599999 -0.046908677 1.4203201e-38 327 279
0.0095942402 0.68400002 -0.046771921 1.3834421e-38 328 279
0.01077774 0.68300003 -0.04670354 1.3004661e-38 329 279
0.011975267 0.68300003 -0.04670354 1.1527385e-38 330 279
0.013172794 0.68300003 -0.04670354 9.7753095e-39 331 279
0.014370319 0.68300003 -0.04670354 6.9248092e-39 332 279
0.015567848 0.68300003 -0.04670354 6.3716355e-39 333 279
0.016740825 0.68199998 -0.046635158 9.9611512e-39 334 279
0.017936599 0.68199998 -0.046635158 1.0053707e-38 335 279
0.019132372 0.68199998 -0.046635158 5.2688822e-39 336 279
0.020268533 0.68000001 -0.046498399 5.2688822e-39 337 279
0.0214608 0.68000001 -0.046498399 7.3832664e-39 338 279
0.022586439 0.67799997 -0.046361636 5.7237465e-39 339 279
0.023775198 0.67799997 -0.046361636 9.495466e-39 340 279
0.024963958 0.67799997 -0.046361636 1.3920856e-38 341 279
0.026152719 0.67799997 -0.046361636 1.2081262e-38 342 279
0.027341479 0.67799997 -0.046361636 7.7477077e-39 343 279
0.028572321 0.67900002 -0.046430022 6.7422004e-39 344 279
0.029762832 0.67900002 -0.046430022 8.6783087e-39 345 279
0.030953348 0.67900002 -0.046430022 8.6664523e-39 346 279
0.032143861 0.67900002 -0.046430022 7.0987678e-39 347 279
0.033334374 0.67900002 -0.046430022 8.1222776e-39 348 279
0.034575731 0.68000001 -0.046498399 7.9378864e-39 349 279
0.035873197 0.68199998 -0.046635158 8.6743528e-39 350 279
0.037068974 0.68199998 -0.046635158 9.6888648e-39 351 279
0.038264744 0.68199998 -0.046635158 1.079341e-38 352 279
0.039460517 0.68199998 -0.046635158 1.1991954e-38 353 279
0.040715907 0.68300003 -0.04670354 1.3094338e-38 354 279
0.041913435 0.68300003 -0.04670354 1.3094338e-38 355 279
0.043110959 0.68300003 -0.04670354 1.3371273e-38 356 279
0.044503104 0.68599999 -0.046908677 1.3371273e-38 357 279
0.045705888 0.68599999 -0.046908677 1.2356758e-38 358 279
0.046977058 0.68699998 -0.046977058 1.1895419e-38 359 279
0.048251733 0.68800002 -0.047045439 9.1320813e-39 360 279
0.049458027 0.68800002 -0.047045439 8.2097649e-39 361 279
0.050885238 0.69099998 -0.047250576 7.2892533e-39 362 279
0.052096792 0.69099998 -0.047250576 8.8565804e-39 363 279
0.053462639 0.69300002 -0.047387339 1.1159657e-38 364 279
0.054756597 0.69400001 -0.047455717 1.2450394e-38 365 279
0.055973411 0.69400001 -0.047455717 1.4843496e-38 366 279
-0.0074691991 0.70999998 -0.049794663 1.6779627e-38 314 280
-0.0061103669 0.69700003 -0.048882935 1.3091442e-38 315 280
-0.0048882933 0.69700003 -0.048882935 1.0613711e-38 316 280
-0.0036609597 0.69599998 -0.048812799 1.1351276e-38 317 280
-0.0024406398 0.69599998 -0.048812799 1.1627509e-38 318 280
-0.0012168133 0.69400001 -0.048672531 1.1719705e-38 319 280
0 0.69300002 -0.048602402 1.0704824e-38 320 280
0.00121506 0.69300002 -0.048602402 1.0244205e-38 321 280
0.0024231065 0.69099998 -0.04846213 9.8761484e-39 322 280
0.0036293997 0.69 -0.048391998 1.0705909e-38 323 280
0.0048251734 0.68800002 -0.048251733 1.3096872e-38 324 280
0.0060314666 0.68800002 -0.048251733 1.3466014e-38 325 280
0.0072272392 0.68699998 -0.048181597 1.3742226e-38 326 280
0.0084195063 0.68599999 -0.048111461 1.3742226e-38 327 280
0.0096222926 0.68599999 -0.048111461 1.3651828e-38 328 280
0.01079352 0.68400002 -0.0479712 1.3836579e-38 329 280
0.0119928 0.68400002 -0.0479712 1.3741507e-38 330 280
0.013172794 0.68300003 -0.047901068 1.2634799e-38 331 280
0.014370319 0.68300003 -0.047901068 1.0887052e-38 332 280
0.015567848 0.68300003 -0.047901068 9.9650944e-39 333 280
0.016740825 0.68199998 -0.047830928 1.1897237e-38 334 280
0.017936599 0.68199998 -0.047830928 1.1713206e-38 335 280
0.019132372 0.68199998 -0.047830928 7.7559768e-39 336 280
0.020328145 0.68199998 -0.047830928 6.7418249e-39 337 280
0.0214608 0.68000001 -0.047690667 9.0424024e-39 338 280
0.022586439 0.67799997 -0.047550395 8.212283e-39 339 280
0.023775198 0.67799997 -0.047550395 8.666406e-39 340 280
0.024963958 0.67799997 -0.047550395 1.2262394e-38 341 280
0.026152719 0.67799997 -0.047550395 1.0978139e-38 342 280
0.027381808 0.67900002 -0.047620531 8.5806928e-39 343 280
0.028572321 0.67900002 -0.047620531 9.5937699e-39 344 280
0.029762832 0.67900002 -0.047620531 1.1991215e-38 345 280
0.030953348 0.67900002 -0.047620531 1.1709253e-38 346 280
0.032191198 0.68000001 -0.047690667 9.8653402e-39 347 280
0.03348165 0.68199998 -0.047830928 1.0882735e-38 348 280
0.034677424 0.68199998 -0.047830928 1.1435908e-38 349 280
0.035873197 0.68199998 -0.047830928 1.1712473e-38 350 280
0.037068974 0.68199998 -0.047830928 1.2542235e-38 351 280
0.038264744 0.68199998 -0.047830928 1.3096488e-38 352 280
0.039460517 0.68199998 -0.047830928 1.3004292e-38 353 280
0.040715907 0.68300003 -0.047901068 1.3647494e-38 354 280
0.041913435 0.68300003 -0.047901068 1.3463103e-38 355 280
0.043174081 0.68400002 -0.0479712 1.327871e-38 356 280
0.044567976 0.68699998 -0.048181597 1.2817733e-38 357 280
0.045772515 0.68699998 -0.048181597 1.1251855e-38 358 280
0.047045439 0.68800002 -0.048251733 1.0513931e-38 359 280
0.048251733 0.68800002 -0.048251733 8.2094146e-39 360 280
0.049601797 0.69 -0.048391998 7.8406334e-39 361 280
0.051032521 0.69300002 -0.048602402 7.7473574e-39 362 280
0.052322973 0.69400001 -0.048672531 9.3150433e-39 363 280
0.053771228 0.69700003 -0.048882935 1.1067457e-38 364 280
0.055229999 0.69999999 -0.049093332 1.2358195e-38 365 280
0.056457333 0.69999999 -0.049093332 1.5210837e-38 366 280
-0.0087140659 0.70999998 -0.051039528 1.8252217e-38 313 281
-0.0074691991 0.70999998 -0.051039528 1.705621e-38 314 281
-0.006119133 0.69800001 -0.050176892 1.3460582e-38 315 281
-0.0048953067 0.69800001 -0.050176892 1.1164714e-38 316 281
-0.00366622 0.69700003 -0.050105009 1.1533496e-38 317 281
-0.0024406398 0.69599998 -0.050033119 1.1166528e-38 318 281
-0.0012203199 0.69599998 -0.050033119 1.153531e-38 319 281
0 0.69400001 -0.049889345 1.1442395e-38 320 281
0.00121506 0.69300002 -0.049817458 1.1350199e-38 321 281
0.00243012 0.69300002 -0.049817458 1.1440597e-38 322 281
0.0036346598 0.69099998 -0.049673684 1.0887423e-38 323 281
0.0048391996 0.69 -0.049601797 1.0517918e-38 324 281
0.0060314666 0.68800002 -0.049458027 1.0241332e-38 325 281
0.0072272392 0.68699998 -0.049386136 1.0517193e-38 326 281
0.0084317802 0.68699998 -0.049386136 1.0424998e-38 327 281
0.0096222926 0.68599999 -0.049314249 1.0705178e-38 328 281
0.010825079 0.68599999 -0.049314249 1.1995916e-38 329 281
0.0119928 0.68400002 -0.049170479 1.3744031e-38 330 281
0.01319208 0.68400002 -0.049170479 1.4204649e-38 331 281
0.01439136 0.68400002 -0.049170479 1.42972e-38 332 281
0.01559064 0.68400002 -0.049170479 1.411245e-38 333 281
0.016765373 0.68300003 -0.049098592 1.4295753e-38 334 281
0.017962901 0.68300003 -0.049098592 1.3834775e-38 335 281
0.019132372 0.68199998 -0.049026705 1.3098967e-38 336 281
0.020328145 0.68199998 -0.049026705 1.1992619e-38 337 281
0.0214608 0.68000001 -0.048882935 1.217664e-38 338 281
0.022586439 0.67799997 -0.048739154 1.3098598e-38 339 281
0.023775198 0.67799997 -0.048739154 1.2632969e-38 340 281
0.025000781 0.67900002 -0.048811045 1.0696861e-38 341 281
0.026191294 0.67900002 -0.048811045 9.2285649e-39 342 281
0.027381808 0.67900002 -0.048811045 9.7817373e-39 343 281
0.028572321 0.67900002 -0.048811045 1.3368742e-38 344 281
0.029806666 0.68000001 -0.048882935 1.4566926e-38 345 281
0.030998932 0.68000001 -0.048882935 1.4198868e-38 346 281
0.032191198 0.68000001 -0.048882935 1.4291064e-38 347 281
0.03348165 0.68199998 -0.049026705 1.4106317e-38 348 281
0.034677424 0.68199998 -0.049026705 1.4014121e-38 349 281
0.035873197 0.68199998 -0.049026705 1.410632e-38 350 281
0.037068974 0.68199998 -0.049026705 1.3737897e-38 351 281
0.038320854 0.68300003 -0.049098592 1.2358198e-38 352 281
0.039518382 0.68300003 -0.049098592 1.1344048e-38 353 281
0.040775519 0.68400002 -0.049170479 1.1252215e-38 354 281
0.041974798 0.68400002 -0.049170479 1.1252215e-38 355 281
0.043300316 0.68599999 -0.049314249 1.1251855e-38 356 281
0.044567976 0.68699998 -0.049386136 1.1067104e-38 357 281
0.045839146 0.68800002 -0.049458027 1.0786924e-38 358 281
0.047045439 0.68800002 -0.049458027 9.4961849e-39 359 281
0.048391998 0.69 -0.049601797 7.3803798e-39 360 281
0.049673684 0.69099998 -0.049673684 7.8413579e-39 361 281
0.051106159 0.69400001 -0.049889345 8.3912891e-39 362 281
0.052473757 0.69599998 -0.050033119 1.0143006e-38 363 281
0.053848371 0.69800001 -0.050176892 1.0700827e-38 364 281
0.055229999 0.69999999 -0.050320663 1.189937e-38 365 281
0.056457333 0.69999999 -0.050320663 1.530303e-38 366 281
-0.0099589331 0.70999998 -0.052284397 1.8620277e-38 312 282
-0.0087140659 0.70999998 -0.052284397 1.8159299e-38 313 282
-0.0074691991 0.70999998 -0.052284397 1.7240235e-38 314 282
-0.0061629666 0.70300001 -0.051768921 1.4289616e-38 315 282
-0.0049093333 0.69999999 -0.051547997 1.1622808e-38 316 282
-0.0036714801 0.69800001 -0.051400717 1.1530612e-38 317 282
-0.0024441467 0.69700003 -0.051327083 1.0155972e-38 318 282
-0.0012220733 0.69700003 -0.051327083 1.0709146e-38 319 282
0 0.69400001 -0.051106159 1.116725e-38 320 282
0.0012168133 0.69400001 -0.051106159 1.1259446e-38 321 282
0.00243012 0.69300002 -0.051032521 1.1534591e-38 322 282
0.0036451798 0.69300002 -0.051032521 1.1442395e-38 323 282
0.0048462129 0.69099998 -0.050885238 1.08885e-38 324 282
0.0060489997 0.69 -0.050811596 1.0519717e-38 325 282
0.0072377604 0.68800002 -0.050664321 1.0150935e-38 326 282
0.0084317802 0.68699998 -0.050590675 9.9665433e-39 327 282
0.0096363192 0.68699998 -0.050590675 1.0244205e-38 328 282
0.010825079 0.68599999 -0.050517038 1.1350194e-38 329 282
0.0119928 0.68400002 -0.050369758 1.2452939e-38 330 282
0.01319208 0.68400002 -0.050369758 1.3098308e-38 331 282
0.01439136 0.68400002 -0.050369758 1.3559998e-38 332 282
0.01559064 0.68400002 -0.050369758 1.3559998e-38 333 282
0.016765373 0.68300003 -0.05029612 1.3835849e-38 334 282
0.017962901 0.68300003 -0.05029612 1.3559264e-38 335 282
0.019160427 0.68300003 -0.05029612 1.3467732e-38 336 282
0.020328145 0.68199998 -0.050222475 1.2822363e-38 337 282
0.021523919 0.68199998 -0.050222475 1.2821992e-38 338 282
0.022653066 0.68000001 -0.050075196 1.3743588e-38 339 282
0.023845334 0.68000001 -0.050075196 1.3834379e-38 340 282
0.025037598 0.68000001 -0.050075196 1.2359249e-38 341 282
0.026229866 0.68000001 -0.050075196 1.0792637e-38 342 282
0.027422134 0.68000001 -0.050075196 1.1161059e-38 343 282
0.028614398 0.68000001 -0.050075196 1.2728036e-38 344 282
0.029894331 0.68199998 -0.050222475 1.3096817e-38 345 282
0.031090107 0.68199998 -0.050222475 1.1990489e-38 346 282
0.032285877 0.68199998 -0.050222475 1.217488e-38 347 282
0.03348165 0.68199998 -0.050222475 1.2081613e-38 348 282
0.034677424 0.68199998 -0.050222475 1.1989417e-38 349 282
0.035925802 0.68300003 -0.05029612 1.263299e-38 350 282
0.037123326 0.68300003 -0.05029612 1.2079818e-38 351 282
0.038320854 0.68300003 -0.05029612 1.0884512e-38 352 282
0.03957624 0.68400002 -0.050369758 1.0239142e-38 353 282
0.040775519 0.68400002 -0.050369758 9.8728834e-39 354 282
0.042097531 0.68599999 -0.050517038 1.0333501e-38 355 282
0.043300316 0.68599999 -0.050517038 1.0975635e-38 356 282
0.044632856 0.68800002 -0.050664321 1.106819e-38 357 282
0.045839146 0.68800002 -0.050664321 1.0238069e-38 358 282
0.047045439 0.68800002 -0.050664321 9.3161125e-39 359 282
0.048391998 0.69 -0.050811596 7.8395544e-39 360 282
0.049817458 0.69300002 -0.051032521 8.3927268e-39 361 282
0.051106159 0.69400001 -0.051106159 9.0384522e-39 362 282
0.052473757 0.69599998 -0.051253434 1.0513584e-38 363 282
0.053848371 0.69800001 -0.051400717 1.1252919e-38 364 282
0.055229999 0.69999999 -0.051547997 1.2728407e-38 365 282
-0.011203799 0.70999998 -0.053529263 1.843696e-38 311 283
-0.0099589331 0.70999998 -0.053529263 1.8435526e-38 312 283
-0.008677247 0.70700002 -0.053303085 1.7974908e-38 313 283
-0.0074271196 0.70599997 -0.053227689 1.7146958e-38 314 283
-0.0061629666 0.70300001 -0.053001512 1.4842068e-38 315 283
-0.0049093333 0.69999999 -0.052775331 1.2357489e-38 316 283
-0.0036819996 0.69999999 -0.052775331 1.1804676e-38 317 283
-0.0024476533 0.69800001 -0.052624546 1.0338568e-38 318 283
-0.0012220733 0.69700003 -0.052549154 1.0522961e-38 319 283
0 0.69599998 -0.052473757 1.0340015e-38 320 283
0.0012168133 0.69400001 -0.052322973 1.0524046e-38 321 283
0.0024336267 0.69400001 -0.052322973 1.070879e-38 322 283
0.0036451798 0.69300002 -0.05224758 1.0893542e-38 323 283
0.0048462129 0.69099998 -0.052096792 1.1627863e-38 324 283
0.0060489997 0.69 -0.052021399 1.1535307e-38 325 283
0.0072377604 0.68800002 -0.051870614 1.1534222e-38 326 283
0.0084317802 0.68699998 -0.051795214 1.1165438e-38 327 283
0.0096363192 0.68699998 -0.051795214 1.1165438e-38 328 283
0.010825079 0.68599999 -0.051719822 1.0888853e-38 329 283
0.012027865 0.68599999 -0.051719822 1.0426798e-38 330 283
0.01319208 0.68400002 -0.051569041 1.0426798e-38 331 283
0.01439136 0.68400002 -0.051569041 1.0889219e-38 332 283
0.01559064 0.68400002 -0.051569041 1.107397e-38 333 283
0.016789921 0.68400002 -0.051569041 1.2269612e-38 334 283
0.017962901 0.68300003 -0.051493648 1.2546559e-38 335 283
0.019160427 0.68300003 -0.051493648 1.2639063e-38 336 283
0.020357953 0.68300003 -0.051493648 1.2546868e-38 337 283
0.021523919 0.68199998 -0.051418249 1.3465581e-38 338 283
0.022719691 0.68199998 -0.051418249 1.3742168e-38 339 283
0.023915464 0.68199998 -0.051418249 1.291567e-38 340 283
0.025111238 0.68199998 -0.051418249 1.3007865e-38 341 283
0.026307013 0.68199998 -0.051418249 1.2359234e-38 342 283
0.027502786 0.68199998 -0.051418249 1.1898256e-38 343 283
0.02869856 0.68199998 -0.051418249 1.2178089e-38 344 283
0.029894331 0.68199998 -0.051418249 1.1993338e-38 345 283
0.031090107 0.68199998 -0.051418249 9.1367603e-39 346 283
0.032285877 0.68199998 -0.051418249 8.6761408e-39 347 283
0.033530746 0.68300003 -0.051493648 8.9516627e-39 348 283
0.034728274 0.68300003 -0.051493648 8.9516627e-39 349 283
0.035925802 0.68300003 -0.051493648 9.6870684e-39 350 283
0.037123326 0.68300003 -0.051493648 9.5023184e-39 351 283
0.038376961 0.68400002 -0.051569041 9.0434926e-39 352 283
0.03957624 0.68400002 -0.051569041 9.5044694e-39 353 283
0.040775519 0.68400002 -0.051569041 1.005764e-38 354 283
0.042097531 0.68599999 -0.051719822 1.0334587e-38 355 283
0.043300316 0.68599999 -0.051719822 1.0793763e-38 356 283
0.044632856 0.68800002 -0.051870614 1.0701568e-38 357 283
0.045839146 0.68800002 -0.051870614 1.0239871e-38 358 283
0.047182199 0.69 -0.052021399 9.7785325e-39 359 283
0.04846213 0.69099998 -0.052096792 7.5658416e-39 360 283
0.049817458 0.69300002 -0.05224758 8.4877965e-39 361 283
0.051106159 0.69400001 -0.052322973 9.7760116e-39 362 283
0.052473757 0.69599998 -0.052473757 1.1251502e-38 363 283
0.053848371 0.69800001 -0.052624546 1.2265631e-38 364 283
0.0550722 0.69800001 -0.052624546 1.3648566e-38 365 283
-0.011203799 0.70999998 -0.054774132 1.8254369e-38 311 284
-0.0099589331 0.70999998 -0.054774132 1.8344409e-38 312 284
-0.008677247 0.70700002 -0.054542694 1.7791596e-38 313 284
-0.0074271196 0.70599997 -0.054465543 1.6779249e-38 314 284
-0.0061717331 0.704 -0.054311249 1.5212282e-38 315 284
-0.0049163462 0.70099998 -0.054079808 1.3463105e-38 316 284
-0.0036872597 0.70099998 -0.054079808 1.2540789e-38 317 284
-0.0024546667 0.69999999 -0.054002665 1.0429317e-38 318 284
-0.0012238267 0.69800001 -0.053848371 1.0429317e-38 319 284
0 0.69700003 -0.053771228 9.7882814e-39 320 284
0.0012203199 0.69599998 -0.053694077 9.972674e-39 321 284
0.0024336267 0.69400001 -0.053539783 1.0615881e-38 322 284
0.0036451798 0.69300002 -0.053462639 1.0800272e-38 323 284
0.00486024 0.69300002 -0.053462639 1.1168331e-38 324 284
0.0060489997 0.69 -0.053231198 1.1352362e-38 325 284
0.0072377604 0.68800002 -0.053076908 1.1444192e-38 326 284
0.0084440531 0.68800002 -0.053076908 1.1167603e-38 327 284
0.0096363192 0.68699998 -0.052999757 1.1351632e-38 328 284
0.010840859 0.68699998 -0.052999757 1.1074686e-38 329 284
0.012027865 0.68599999 -0.05292261 1.1164363e-38 330 284
0.013230653 0.68599999 -0.05292261 1.0979972e-38 331 284
0.01443344 0.68599999 -0.05292261 1.0979616e-38 332 284
0.01559064 0.68400002 -0.05276832 1.0518997e-38 333 284
0.016789921 0.68400002 -0.05276832 1.1256909e-38 334 284
0.0179892 0.68400002 -0.05276832 1.1810083e-38 335 284
0.019160427 0.68300003 -0.052691177 1.245325e-38 336 284
0.020357953 0.68300003 -0.052691177 1.1900076e-38 337 284
0.02155548 0.68300003 -0.052691177 1.272659e-38 338 284
0.022719691 0.68199998 -0.052614026 1.2634394e-38 339 284
0.023915464 0.68199998 -0.052614026 9.6938605e-39 340 284
0.025111238 0.68199998 -0.052614026 9.8782531e-39 341 284
0.026307013 0.68199998 -0.052614026 1.1257928e-38 342 284
0.027502786 0.68199998 -0.052614026 1.1350124e-38 343 284
0.02869856 0.68199998 -0.052614026 1.2178455e-38 344 284
0.029894331 0.68199998 -0.052614026 1.1809673e-38 345 284
0.031090107 0.68199998 -0.052614026 8.861974e-39 346 284
0.032333218 0.68300003 -0.052691177 8.677224e-39 347 284
0.033530746 0.68300003 -0.052691177 9.3222459e-39 348 284
0.034728274 0.68300003 -0.052691177 9.3222459e-39 349 284
0.035925802 0.68300003 -0.052691177 9.8739778e-39 350 284
0.037177678 0.68400002 -0.05276832 9.8739778e-39 351 284
0.038376961 0.68400002 -0.05276832 1.0150562e-38 352 284
0.039691959 0.68599999 -0.05292261 1.0427149e-38 353 284
0.040894743 0.68599999 -0.05292261 1.0518619e-38 354 284
0.042158898 0.68699998 -0.052999757 1.0610814e-38 355 284
0.043363437 0.68699998 -0.052999757 1.0518616e-38 356 284
0.044632856 0.68800002 -0.053076908 1.0242389e-38 357 284
0.045972396 0.69 -0.053231198 1.0239871e-38 358 284
0.047250576 0.69099998 -0.053308345 9.8707282e-39 359 284
0.048602402 0.69300002 -0.053462639 9.223198e-39 360 284
0.049889345 0.69400001 -0.053539783 9.223198e-39 361 284
0.051253434 0.69599998 -0.053694077 9.7767207e-39 362 284
0.052549154 0.69700003 -0.053771228 1.1344048e-38 363 284
0.053848371 0.69800001 -0.053848371 1.3552407e-38 364 284
0.0550722 0.69800001 -0.053848371 1.4658756e-38 365 284
-0.0099729598 0.71100003 -0.056097899 1.8528078e-38 312 285
-0.008689519 0.708 -0.055861197 1.7974905e-38 313 285
-0.0074376399 0.70700002 -0.055782299 1.6503374e-38 314 285
-0.0061717331 0.704 -0.055545598 1.5212635e-38 315 285
-0.0049303733 0.70300001 -0.0554667 1.4293932e-38 316 285
-0.0036977797 0.70300001 -0.0554667 1.3003552e-38 317 285
-0.0024581731 0.70099998 -0.055308893 1.0887761e-38 318 285
-0.0012273333 0.69999999 -0.055229999 1.0795205e-38 319 285
0 0.69700003 -0.054993302 1.0430764e-38 320 285
0.0012220733 0.69700003 -0.054993302 1.0430764e-38 321 285
0.0024406398 0.69599998 -0.054914396 1.0522611e-38 322 285
0.0036504399 0.69400001 -0.054756597 1.0706642e-38 323 285
0.00486024 0.69300002 -0.054677699 1.0157424e-38 324 285
0.0060753003 0.69300002 -0.054677699 1.0433651e-38 325 285
0.0072693196 0.69099998 -0.054519895 1.0525481e-38 326 285
0.0084440531 0.68800002 -0.054283202 1.0617676e-38 327 285
0.0096503468 0.68800002 -0.054283202 1.1168685e-38 328 285
0.010840859 0.68699998 -0.054204296 1.1168685e-38 329 285
0.012045399 0.68699998 -0.054204296 1.2087396e-38 330 285
0.013249939 0.68699998 -0.054204296 1.1810808e-38 331 285
0.01443344 0.68599999 -0.054125395 1.0521512e-38 332 285
0.015636226 0.68599999 -0.054125395 9.322969e-39 333 285
0.016839013 0.68599999 -0.054125395 1.0889572e-38 334 285
0.018041799 0.68599999 -0.054125395 1.1442745e-38 335 285
0.019244585 0.68599999 -0.054125395 1.2085203e-38 336 285
0.020387759 0.68400002 -0.053967599 1.1163605e-38 337 285
0.02158704 0.68400002 -0.053967599 1.171353e-38 338 285
0.022753006 0.68300003 -0.053888701 1.1252553e-38 339 285
0.023950534 0.68300003 -0.053888701 7.7595487e-39 340 285
0.02514806 0.68300003 -0.053888701 8.4049181e-39 341 285
0.026345588 0.68300003 -0.053888701 1.0429975e-38 342 285
0.027543113 0.68300003 -0.053888701 1.0891313e-38 343 285
0.028740639 0.68300003 -0.053888701 1.1626383e-38 344 285
0.029938167 0.68300003 -0.053888701 1.1533827e-38 345 285
0.031135695 0.68300003 -0.053888701 1.0151638e-38 346 285
0.032333218 0.68300003 -0.053888701 9.8750498e-39 347 285
0.033579841 0.68400002 -0.053967599 1.0427149e-38 348 285
0.03477912 0.68400002 -0.053967599 1.0427149e-38 349 285
0.035978399 0.68400002 -0.053967599 1.0337107e-38 350 285
0.037286382 0.68599999 -0.054125395 1.0613335e-38 351 285
0.03848917 0.68599999 -0.054125395 1.1255467e-38 352 285
0.039691959 0.68599999 -0.054125395 1.1070717e-38 353 285
0.040954359 0.68699998 -0.054204296 1.0335669e-38 354 285
0.042220265 0.68800002 -0.054283202 1.0151638e-38 355 285
0.043426562 0.68800002 -0.054283202 1.0243111e-38 356 285
0.0447626 0.69 -0.054440998 9.7821325e-39 357 285
0.046039023 0.69099998 -0.054519895 9.8718086e-39 358 285
0.047387339 0.69300002 -0.054677699 9.5030246e-39 359 285
0.048672531 0.69400001 -0.054756597 9.5901826e-39 360 285
0.050033119 0.69599998 -0.054914396 9.0370088e-39 361 285
0.051253434 0.69599998 -0.054914396 8.9440705e-39 362 285
0.052624546 0.69800001 -0.0550722 1.106457e-38 363 285
0.053848371 0.69800001 -0.0550722 1.3553834e-38 364 285
0.0550722 0.69800001 -0.0550722 1.4660181e-38 365 285
-0.0061892662 0.70599997 -0.056941248 1.4289954e-38 315 286
-0.0049373866 0.704 -0.056779943 1.4297157e-38 316 286
-0.0036977797 0.70300001 -0.056699295 1.4481548e-38 317 286
-0.0024581731 0.70099998 -0.056537982 1.3647143e-38 318 286
-0.0012273333 0.69999999 -0.056457333 1.3462752e-38 319 286
0 0.69800001 -0.056296028 1.3098308e-38 320 286
0.0012238267 0.69800001 -0.056296028 1.2268187e-38 321 286
0.0024441467 0.69700003 -0.056215372 9.7879156e-39 322 286
0.0036609597 0.69599998 -0.056134716 9.7879156e-39 323 286
0.0048672534 0.69400001 -0.055973411 1.0247822e-38 324 286
0.0060840664 0.69400001 -0.055973411 1.0616244e-38 325 286
0.0072903596 0.69300002 -0.055892758 1.0984301e-38 326 286
0.0084686 0.69 -0.055650797 1.1076857e-38 327 286
0.0096783992 0.69 -0.055650797 1.1166531e-38 328 286
0.010856641 0.68800002 -0.055489492 1.1166531e-38 329 286
0.012062933 0.68800002 -0.055489492 1.1076131e-38 330 286
0.013249939 0.68699998 -0.055408835 1.1076131e-38 331 286
0.014454478 0.68699998 -0.055408835 9.9719341e-39 332 286
0.015659019 0.68699998 -0.055408835 9.8793798e-39 333 286
0.01686356 0.68699998 -0.055408835 1.1167235e-38 334 286
0.018068098 0.68699998 -0.055408835 1.0890646e-38 335 286
0.019244585 0.68599999 -0.055328183 1.1716076e-38 336 286
0.020447372 0.68599999 -0.055328183 1.1531326e-38 337 286
0.021650158 0.68599999 -0.055328183 1.1528795e-38 338 286
0.022786319 0.68400002 -0.055166878 1.0238056e-38 339 286
0.0239856 0.68400002 -0.055166878 9.3211291e-39 340 286
0.025184879 0.68400002 -0.055166878 1.0888814e-38 341 286
0.026345588 0.68300003 -0.055086225 1.0430356e-38 342 286
0.027543113 0.68300003 -0.055086225 1.0614389e-38 343 286
0.028740639 0.68300003 -0.055086225 1.0890631e-38 344 286
0.029938167 0.68300003 -0.055086225 1.0798077e-38 345 286
0.03118128 0.68400002 -0.055166878 1.0430023e-38 346 286
0.032380559 0.68400002 -0.055166878 1.0245271e-38 347 286
0.033579841 0.68400002 -0.055166878 1.0061243e-38 348 286
0.03477912 0.68400002 -0.055166878 1.0061243e-38 349 286
0.036083598 0.68599999 -0.055328183 1.0244555e-38 350 286
0.037286382 0.68599999 -0.055328183 1.0244555e-38 351 286
0.038545277 0.68699998 -0.055408835 1.0336751e-38 352 286
0.039749816 0.68699998 -0.055408835 1.0244555e-38 353 286
0.040954359 0.68699998 -0.055408835 1.0059445e-38 354 286
0.042220265 0.68800002 -0.055489492 9.9672496e-39 355 286
0.043552797 0.69 -0.055650797 9.8746938e-39 356 286
0.044827472 0.69099998 -0.055731449 9.5062715e-39 357 286
0.04617228 0.69300002 -0.055892758 9.5966664e-39 358 286
0.047387339 0.69300002 -0.055892758 8.951297e-39 359 286
0.048672531 0.69400001 -0.055973411 8.5792733e-39 360 286
0.050033119 0.69599998 -0.056134716 7.8417082e-39 361 286
0.051253434 0.69599998 -0.056134716 8.6678564e-39 362 286
0.052624546 0.69800001 -0.056296028 1.1157138e-38 363 286
0.054234106 0.70300001 -0.056699295 1.3186493e-38 364 286
0.0554667 0.70300001 -0.056699295 1.4016613e-38 365 286
-0.0061892662 0.70599997 -0.058179103 1.4012997e-38 315 287
-0.0049514128 0.70599997 -0.058179103 1.3284796e-38 316 287
-0.0037030398 0.704 -0.058014292 1.4391503e-38 317 287
-0.0024651866 0.70300001 -0.057931885 1.4480494e-38 318 287
-0.0012273333 0.69999999 -0.05768466 1.4203907e-38 319 287
0 0.69800001 -0.057519849 1.4204283e-38 320 287
0.0012238267 0.69800001 -0.057519849 1.3466718e-38 321 287
0.0024476533 0.69800001 -0.057519849 1.153279e-38 322 287
0.00366622 0.69700003 -0.05743745 1.0979616e-38 323 287
0.0048812795 0.69599998 -0.057355035 1.006091e-38 324 287
0.0060840664 0.69400001 -0.057190225 1.0613723e-38 325 287
0.0073008798 0.69400001 -0.057190225 1.0888868e-38 326 287
0.0085054198 0.69300002 -0.057107817 1.0059108e-38 327 287
0.0096924258 0.69099998 -0.056942999 8.9606717e-39 328 287
0.010888199 0.69 -0.0568606 9.7904338e-39 329 287
0.012062933 0.68800002 -0.056695789 1.0891742e-38 330 287
0.013269227 0.68800002 -0.056695789 1.0891742e-38 331 287
0.014454478 0.68699998 -0.056613375 1.0706262e-38 332 287
0.015659019 0.68699998 -0.056613375 1.0890293e-38 333 287
0.01686356 0.68699998 -0.056613375 1.0059092e-38 334 287
0.018068098 0.68699998 -0.056613375 9.3215271e-39 335 287
0.019272638 0.68699998 -0.056613375 9.871461e-39 336 287
0.020447372 0.68599999 -0.056530971 1.0239883e-38 337 287
0.021650158 0.68599999 -0.056530971 9.7788857e-39 338 287
0.022852944 0.68599999 -0.056530971 8.2119201e-39 339 287
0.024055731 0.68599999 -0.056530971 6.1972831e-39 340 287
0.025258519 0.68599999 -0.056530971 9.1475433e-39 341 287
0.02638416 0.68400002 -0.056366164 1.1809004e-38 342 287
0.027583439 0.68400002 -0.056366164 1.144058e-38 343 287
0.02886688 0.68599999 -0.056530971 1.0797726e-38 344 287
0.030069664 0.68599999 -0.056530971 1.0705531e-38 345 287
0.031272452 0.68599999 -0.056530971 1.0337471e-38 346 287
0.032475237 0.68599999 -0.056530971 1.0245274e-38 347 287
0.033678025 0.68599999 -0.056530971 1.0061243e-38 348 287
0.034880809 0.68599999 -0.056530971 9.9690475e-39 349 287
0.036083598 0.68599999 -0.056530971 9.6939025e-39 350 287
0.037340738 0.68699998 -0.056613375 9.6017069e-39 351 287
0.038545277 0.68699998 -0.056613375 9.8764987e-39 352 287
0.039749816 0.68699998 -0.056613375 9.4155206e-39 353 287
0.041013971 0.68800002 -0.056695789 8.9559844e-39 354 287
0.042342998 0.69 -0.0568606 8.8637887e-39 355 287
0.043615919 0.69099998 -0.056942999 9.4144416e-39 356 287
0.044957221 0.69300002 -0.057107817 9.5066372e-39 357 287
0.04617228 0.69300002 -0.057107817 1.0057277e-38 358 287
0.047455717 0.69400001 -0.057190225 9.8725274e-39 359 287
0.048812799 0.69599998 -0.057355035 8.8572839e-39 360 287
0.050033119 0.69599998 -0.057355035 8.6728912e-39 361 287
0.051253434 0.69599998 -0.057355035 1.0881622e-38 362 287
0.052775331 0.69999999 -0.05768466 1.2172361e-38 363 287
0.054002665 0.69999999 -0.05768466 1.2636191e-38 364 287
0.055229999 0.69999999 -0.05768466 1.3373756e-38 365 287
-0.0061892662 0.70599997 -0.059416957 1.4749483e-38 315 288
-0.0049514128 0.70599997 -0.059416957 1.208696e-38 316 288
-0.0037030398 0.704 -0.059248637 1.2916721e-38 317 288
-0.0024651866 0.70300001 -0.059164476 1.3931264e-38 318 288
-0.0012290865 0.70099998 -0.058996156 1.4115655e-38 319 288
0 0.69999999 -0.058911994 1.4940756e-38 320 288
0.0012273333 0.69999999 -0.058911994 1.4295387e-38 321 288
0.0024476533 0.69800001 -0.058743682 1.2359294e-38 322 288
0.0036714801 0.69800001 -0.058743682 9.7778165e-39 323 288
0.0048882933 0.69700003 -0.05865952 6.5567526e-39 324 288
0.0061015999 0.69599998 -0.058575355 6.7411438e-39 325 288
0.0073008798 0.69400001 -0.058407038 5.5444153e-39 326 288
0.0085054198 0.69300002 -0.058322877 4.2536765e-39 327 288
