# .PCD v.7 - Point Cloud Data file format
FIELDS x y z rgb imX imY
SIZE 4 4 4 4 4 4
TYPE F F F F F F
COUNT 1 1 1 1 1 1
WIDTH 834
HEIGHT 1
VIEWPOINT 0 0 0 1 0 0 0
POINTS 834
DATA ascii
0.023775198 0.67799997 -0.028530238 8.5905649e-39 340 264
0.025000781 0.67900002 -0.028572321 8.3139823e-39 341 264
0.026191294 0.67900002 -0.028572321 8.9586959e-39 342 264
0.027381808 0.67900002 -0.028572321 1.0802608e-38 343 264
0.028614398 0.68000001 -0.028614398 1.3188997e-38 344 264
0.029806666 0.68000001 -0.028614398 1.3649975e-38 345 264
0.031090107 0.68199998 -0.02869856 1.3370534e-38 346 264
0.032333218 0.68300003 -0.028740639 1.2725165e-38 347 264
0.033530746 0.68300003 -0.028740639 1.2262394e-38 348 264
0.034880809 0.68599999 -0.02886688 1.1801056e-38 349 264
0.036136195 0.68699998 -0.028908957 1.1524476e-38 350 264
0.037503798 0.69 -0.029035198 1.1616672e-38 351 264
0.038713597 0.69 -0.029035198 1.1618107e-38 352 264
0.039981257 0.69099998 -0.029077278 1.2356032e-38 353 264
0.041312039 0.69300002 -0.029161438 1.3736077e-38 354 264
0.042527102 0.69300002 -0.029161438 1.5487792e-38 355 264
0.043742158 0.69300002 -0.029161438 1.7790866e-38 356 264
-0.015864158 0.69599998 -0.030507999 1.0421381e-38 307 265
-0.014580719 0.69300002 -0.0303765 8.3062989e-39 308 265
-0.013327086 0.69099998 -0.030288832 9.1360596e-39 309 265
-0.012062933 0.68800002 -0.030157333 1.0614064e-38 310 265
-0.010856641 0.68800002 -0.030157333 1.2642368e-38 311 265
-0.0096363192 0.68699998 -0.030113498 1.4848571e-38 312 265
-0.0084317802 0.68699998 -0.030113498 1.5217712e-38 313 265
-0.0072167199 0.68599999 -0.030069664 1.5034018e-38 314 265
-0.0060139326 0.68599999 -0.030069664 1.4849627e-38 315 265
-0.0047971201 0.68400002 -0.029982001 1.3742184e-38 316 265
-0.00359784 0.68400002 -0.029982001 1.2636196e-38 317 265
-0.0023950534 0.68300003 -0.029938167 1.2731612e-38 318 265
-0.0011975267 0.68300003 -0.029938167 1.2731612e-38 319 265
0 0.68199998 -0.029894331 1.1353694e-38 320 265
0.0011922666 0.68000001 -0.029806666 1.0339542e-38 321 265
0.0023810267 0.67900002 -0.029762832 8.8679898e-39 322 265
0.0035662798 0.67799997 -0.029718997 8.314816e-39 323 265
0.0047550397 0.67799997 -0.029718997 7.3982898e-39 324 265
0.0059437994 0.67799997 -0.029718997 9.1496466e-39 325 265
0.0071325595 0.67799997 -0.029718997 1.1999121e-38 326 265
0.0082967728 0.676 -0.029631332 1.2921438e-38 327 265
0.0094820261 0.676 -0.029631332 1.4295737e-38 328 265
0.01066728 0.676 -0.029631332 1.4295737e-38 329 265
0.011852534 0.676 -0.029631332 1.4295708e-38 330 265
0.013037786 0.676 -0.029631332 1.3650338e-38 331 265
0.014223038 0.676 -0.029631332 1.1531564e-38 332 265
0.015408293 0.676 -0.029631332 1.0240825e-38 333 265
0.016593546 0.676 -0.029631332 9.4196362e-39 334 265
0.017778801 0.676 -0.029631332 9.2352449e-39 335 265
0.019020159 0.67799997 -0.029718997 9.6944028e-39 336 265
0.020208918 0.67799997 -0.029718997 9.4181746e-39 337 265
0.021429239 0.67900002 -0.029762832 8.8671476e-39 338 265
0.022619752 0.67900002 -0.029762832 8.4987295e-39 339 265
0.023810266 0.67900002 -0.029762832 8.0399289e-39 340 265
0.025037598 0.68000001 -0.029806666 8.0399289e-39 341 265
0.026229866 0.68000001 -0.029806666 1.0061843e-38 342 265
0.027422134 0.68000001 -0.029806666 1.1813558e-38 343 265
0.028614398 0.68000001 -0.029806666 1.3464511e-38 344 265
0.029894331 0.68199998 -0.029894331 1.3556708e-38 345 265
0.031135695 0.68300003 -0.029938167 1.327906e-38 346 265
0.032333218 0.68300003 -0.029938167 1.2633691e-38 347 265
0.033678025 0.68599999 -0.030069664 1.2079445e-38 348 265
0.034931656 0.68699998 -0.030113498 1.1434076e-38 349 265
0.0361888 0.68800002 -0.030157333 1.1247533e-38 350 265
0.037503798 0.69 -0.030244999 1.1339729e-38 351 265
0.038769703 0.69099998 -0.030288832 1.0790148e-38 352 265
0.04009698 0.69300002 -0.0303765 1.1251485e-38 353 265
0.041312039 0.69300002 -0.0303765 1.3093226e-38 354 265
0.042588469 0.69400001 -0.030420333 1.5398115e-38 355 265
0.043805279 0.69400001 -0.030420333 1.7975258e-38 356 265
0.045022093 0.69400001 -0.030420333 1.91738e-38 357 265
-0.017182667 0.69999999 -0.031910665 1.1617038e-38 306 266
-0.015864158 0.69599998 -0.031728316 1.0971668e-38 307 266
-0.01460176 0.69400001 -0.031637147 6.9226456e-39 308 266
-0.01336566 0.69300002 -0.031591557 6.6456986e-39 309 266
-0.012115533 0.69099998 -0.031500384 7.5726996e-39 310 266
-0.010888199 0.69 -0.031454802 1.0061623e-38 311 266
-0.0096503468 0.68800002 -0.031363625 1.4385447e-38 312 266
-0.0084317802 0.68699998 -0.031318039 1.5307403e-38 313 266
-0.0072272392 0.68699998 -0.031318039 1.5677241e-38 314 266
-0.0060226996 0.68699998 -0.031318039 1.5584687e-38 315 266
-0.0048111463 0.68599999 -0.031272452 1.3002861e-38 316 266
-0.00359784 0.68400002 -0.03118128 1.0698331e-38 317 266
-0.0023985601 0.68400002 -0.03118128 1.0887405e-38 318 266
-0.00119928 0.68400002 -0.03118128 1.2178144e-38 319 266
0 0.68300003 -0.031135695 1.3561408e-38 320 266
0.0011957732 0.68199998 -0.031090107 1.3653603e-38 321 266
0.0023845332 0.68000001 -0.030998932 1.3008572e-38 322 266
0.0035767998 0.68000001 -0.030998932 1.2271007e-38 323 266
0.0047620535 0.67900002 -0.030953348 1.1075345e-38 324 266
0.0059525664 0.67900002 -0.030953348 1.1352292e-38 325 266
0.0071430802 0.67900002 -0.030953348 1.2180996e-38 326 266
0.0083213197 0.67799997 -0.030907756 1.3195146e-38 327 266
0.0095100794 0.67799997 -0.030907756 1.4204633e-38 328 266
0.010698839 0.67799997 -0.030907756 1.4020242e-38 329 266
0.011887599 0.67799997 -0.030907756 1.4203535e-38 330 266
0.013076359 0.67799997 -0.030907756 1.3926948e-38 331 266
0.014265119 0.67799997 -0.030907756 1.3005307e-38 332 266
0.015453878 0.67799997 -0.030907756 1.1714568e-38 333 266
0.016667187 0.67900002 -0.030953348 1.1165633e-38 334 266
0.017857701 0.67900002 -0.030953348 1.0612459e-38 335 266
0.019048214 0.67900002 -0.030953348 9.7847893e-39 336 266
0.020238725 0.67900002 -0.030953348 9.5078437e-39 337 266
0.021429239 0.67900002 -0.030953348 9.5082024e-39 338 266
0.022653066 0.68000001 -0.030998932 9.3241727e-39 339 266
0.023845334 0.68000001 -0.030998932 8.0388878e-39 340 266
0.025037598 0.68000001 -0.030998932 9.1455954e-39 341 266
0.026229866 0.68000001 -0.030998932 1.1717089e-38 342 266
0.027422134 0.68000001 -0.030998932 1.3007828e-38 343 266
0.028614398 0.68000001 -0.030998932 1.3557074e-38 344 266
0.029894331 0.68199998 -0.031090107 1.3464878e-38 345 266
0.031135695 0.68300003 -0.031135695 1.3187215e-38 346 266
0.032380559 0.68400002 -0.03118128 1.2726237e-38 347 266
0.033678025 0.68599999 -0.031272452 1.1802855e-38 348 266
0.03498251 0.68800002 -0.031363625 1.1434432e-38 349 266
0.036293998 0.69 -0.031454802 1.0696157e-38 350 266
0.03755815 0.69099998 -0.031500384 1.106494e-38 351 266
0.038769703 0.69099998 -0.031500384 1.1249682e-38 352 266
0.04009698 0.69300002 -0.031591557 1.1618463e-38 353 266
0.041371655 0.69400001 -0.031637147 1.3091782e-38 354 266
0.042588469 0.69400001 -0.031637147 1.567326e-38 355 266
0.043805279 0.69400001 -0.031637147 1.7792662e-38 356 266
0.045022093 0.69400001 -0.031637147 1.8899008e-38 357 266
-0.017182667 0.69999999 -0.033137999 1.3459155e-38 306 267
-0.015886955 0.69700003 -0.03299598 1.1615242e-38 307 267
-0.014643839 0.69599998 -0.032948639 8.0257464e-39 308 267
-0.01336566 0.69300002 -0.03280662 8.4867245e-39 309 267
-0.012115533 0.69099998 -0.032711938 9.3186558e-39 310 267
-0.010888199 0.69 -0.032664597 7.8435257e-39 311 267
-0.0096503468 0.68800002 -0.032569919 8.5742538e-39 312 267
-0.0084440531 0.68800002 -0.032569919 9.4962115e-39 313 267
-0.0072272392 0.68699998 -0.032522578 9.9618574e-39 314 267
-0.0060226996 0.68699998 -0.032522578 1.0238086e-38 315 267
-0.0048181596 0.68699998 -0.032522578 7.4679259e-39 316 267
-0.00360836 0.68599999 -0.032475237 4.3332745e-39 317 267
-0.0024055731 0.68599999 -0.032475237 1.4946474e-39 318 267
-0.0012027866 0.68599999 -0.032475237 3.8913736e-39 319 267
0 0.68400002 -0.032380559 9.04818e-39 320 267
0.0011975267 0.68300003 -0.032333218 1.2090636e-38 321 267
0.0023915465 0.68199998 -0.032285877 1.5034387e-38 322 267
0.00358732 0.68199998 -0.032285877 1.4850356e-38 323 267
0.0047690663 0.68000001 -0.032191198 1.5032219e-38 324 267
0.0059613334 0.68000001 -0.032191198 1.3833677e-38 325 267
0.0071535995 0.68000001 -0.032191198 1.2359995e-38 326 267
0.0083458666 0.68000001 -0.032191198 1.1530233e-38 327 267
0.0095100794 0.67799997 -0.03209652 1.2729866e-38 328 267
0.010698839 0.67799997 -0.03209652 1.3744377e-38 329 267
0.011905133 0.67900002 -0.032143861 1.4111354e-38 330 267
0.013095647 0.67900002 -0.032143861 1.3835128e-38 331 267
0.01428616 0.67900002 -0.032143861 1.4202087e-38 332 267
0.015476674 0.67900002 -0.032143861 1.4202087e-38 333 267
0.016667187 0.67900002 -0.032143861 1.4202045e-38 334 267
0.017857701 0.67900002 -0.032143861 1.3003861e-38 335 267
0.019048214 0.67900002 -0.032143861 1.1256056e-38 336 267
0.020268533 0.68000001 -0.032191198 1.0794718e-38 337 267
0.0214608 0.68000001 -0.032191198 1.0429157e-38 338 267
0.022653066 0.68000001 -0.032191198 1.0244766e-38 339 267
0.023845334 0.68000001 -0.032191198 1.0339526e-38 340 267
0.025111238 0.68199998 -0.032285877 1.1906853e-38 341 267
0.026307013 0.68199998 -0.032285877 1.3557071e-38 342 267
0.027502786 0.68199998 -0.032285877 1.3649266e-38 343 267
0.02869856 0.68199998 -0.032285877 1.3373405e-38 344 267
0.029938167 0.68300003 -0.032333218 1.3189014e-38 345 267
0.03118128 0.68400002 -0.032380559 1.3187944e-38 346 267
0.032475237 0.68599999 -0.032475237 1.2173433e-38 347 267
0.033727121 0.68699998 -0.032522578 1.0603962e-38 348 267
0.03498251 0.68800002 -0.032569919 1.0511766e-38 349 267
0.036293998 0.69 -0.032664597 1.1155339e-38 350 267
0.03755815 0.69099998 -0.032711938 1.1339732e-38 351 267
0.03888192 0.69300002 -0.03280662 1.1709939e-38 352 267
0.04009698 0.69300002 -0.03280662 1.2447506e-38 353 267
0.041371655 0.69400001 -0.032853961 1.2724436e-38 354 267
0.042588469 0.69400001 -0.032853961 1.5029686e-38 355 267
0.043805279 0.69400001 -0.032853961 1.7608267e-38 356 267
0.045022093 0.69400001 -0.032853961 1.8991201e-38 357 267
-0.017182667 0.69999999 -0.034365334 1.4566226e-38 306 268
-0.015909746 0.69800001 -0.034267146 1.2169139e-38 307 268
-0.014643839 0.69599998 -0.034168959 6.8322423e-39 308 268
-0.013384946 0.69400001 -0.034070771 7.2932204e-39 309 268
-0.012150601 0.69300002 -0.034021679 9.6870796e-39 310 268
-0.01090398 0.69099998 -0.033923492 7.8435257e-39 311 268
-0.0096783992 0.69 -0.0338744 6.6384987e-39 312 268
-0.0084440531 0.68800002 -0.033776212 8.574607e-39 313 268
-0.0072377604 0.68800002 -0.033776212 8.9444755e-39 314 268
-0.0060226996 0.68699998 -0.033727121 9.0370298e-39 315 268
-0.0048181596 0.68699998 -0.033727121 6.9172857e-39 316 268
-0.00360836 0.68599999 -0.033678025 5.0733731e-39 317 268
-0.0024055731 0.68599999 -0.033678025 7.2885919e-39 318 268
-0.0012027866 0.68599999 -0.033678025 7.2885919e-39 319 268
0 0.68400002 -0.033579841 5.3625254e-39 320 268
0.00119928 0.68400002 -0.033579841 9.8801113e-39 321 268
0.0023950534 0.68300003 -0.033530746 1.4481596e-38 322 268
0.00358732 0.68199998 -0.03348165 1.4665627e-38 323 268
0.004783093 0.68199998 -0.03348165 1.5215543e-38 324 268
0.005978866 0.68199998 -0.03348165 1.4201389e-38 325 268
0.0071535995 0.68000001 -0.033383466 1.198942e-38 326 268
0.0083458666 0.68000001 -0.033383466 1.1159301e-38 327 268
0.009524107 0.67900002 -0.033334374 1.3001421e-38 328 268
0.010714619 0.67900002 -0.033334374 1.4937529e-38 329 268
0.011905133 0.67900002 -0.033334374 1.4570898e-38 330 268
0.013114933 0.68000001 -0.033383466 1.4293951e-38 331 268
0.014307199 0.68000001 -0.033383466 1.4294301e-38 332 268
0.015499466 0.68000001 -0.033383466 1.4386497e-38 333 268
0.016691733 0.68000001 -0.033383466 1.4387553e-38 334 268
0.017883999 0.68000001 -0.033383466 1.3834379e-38 335 268
0.019076265 0.68000001 -0.033383466 1.3187903e-38 336 268
0.020328145 0.68199998 -0.03348165 1.3003152e-38 337 268
0.021523919 0.68199998 -0.03348165 1.2820543e-38 338 268
0.022719691 0.68199998 -0.03348165 1.2543956e-38 339 268
0.023915464 0.68199998 -0.03348165 1.2269908e-38 340 268
0.025111238 0.68199998 -0.03348165 1.3284061e-38 341 268
0.026345588 0.68300003 -0.033530746 1.3741465e-38 342 268
0.027543113 0.68300003 -0.033530746 1.3557074e-38 343 268
0.028740639 0.68300003 -0.033530746 1.3556718e-38 344 268
0.029982001 0.68400002 -0.033579841 1.3464522e-38 345 268
0.031272452 0.68599999 -0.033678025 1.3370537e-38 346 268
0.032522578 0.68699998 -0.033727121 1.2356026e-38 347 268
0.033776212 0.68800002 -0.033776212 1.0418852e-38 348 268
0.035084199 0.69 -0.0338744 1.0695078e-38 349 268
0.036346599 0.69099998 -0.033923492 1.0971671e-38 350 268
0.037666857 0.69300002 -0.034021679 1.1156064e-38 351 268
0.03888192 0.69300002 -0.034021679 1.1066016e-38 352 268
0.040154841 0.69400001 -0.034070771 1.1987971e-38 353 268
0.041490879 0.69599998 -0.034168959 1.3092498e-38 354 268
0.042711195 0.69599998 -0.034168959 1.5397749e-38 355 268
0.043931518 0.69599998 -0.034168959 1.7700099e-38 356 268
0.045151837 0.69599998 -0.034168959 1.9083034e-38 357 268
-0.018488899 0.70300001 -0.035745207 1.4016272e-38 305 269
-0.017207211 0.70099998 -0.035643511 1.4569096e-38 306 269
-0.015955333 0.69999999 -0.035592664 1.3554945e-38 307 269
-0.01466488 0.69700003 -0.035440128 8.2158858e-39 308 269
-0.013423519 0.69599998 -0.035389278 7.8467431e-39 309 269
-0.012168133 0.69400001 -0.035287585 1.0146616e-38 310 269
-0.010935539 0.69300002 -0.035236739 8.5792887e-39 311 269
-0.0096924258 0.69099998 -0.035135046 8.2962222e-39 312 269
-0.0084686 0.69 -0.035084199 9.8631892e-39 313 269
-0.0072377604 0.68800002 -0.03498251 9.6805986e-39 314 269
-0.0060314666 0.68800002 -0.03498251 9.7727942e-39 315 269
-0.0048181596 0.68699998 -0.034931656 7.6548381e-39 316 269
-0.0036136196 0.68699998 -0.034931656 6.1797066e-39 317 269
-0.0024090798 0.68699998 -0.034931656 9.6838636e-39 318 269
-0.0012045399 0.68699998 -0.034931656 9.7760592e-39 319 269
0 0.68599999 -0.034880809 4.5309641e-39 320 269
0.00119928 0.68400002 -0.03477912 8.034398e-39 321 269
0.0023950534 0.68300003 -0.034728274 1.2546572e-38 322 269
0.0035925799 0.68300003 -0.034728274 1.2730963e-38 323 269
0.004783093 0.68199998 -0.034677424 1.3649308e-38 324 269
0.005978866 0.68199998 -0.034677424 1.3741863e-38 325 269
0.00717464 0.68199998 -0.034677424 1.2636587e-38 326 269
0.0083704125 0.68199998 -0.034677424 1.1806468e-38 327 269
0.0095381327 0.68000001 -0.034575731 1.3462749e-38 328 269
0.0107304 0.68000001 -0.034575731 1.4753488e-38 329 269
0.011922667 0.68000001 -0.034575731 1.4293588e-38 330 269
0.013153506 0.68199998 -0.034677424 1.383261e-38 331 269
0.01434928 0.68199998 -0.034677424 1.3558538e-38 332 269
0.015545053 0.68199998 -0.034677424 1.3835125e-38 333 269
0.016740825 0.68199998 -0.034677424 1.3835831e-38 334 269
0.017936599 0.68199998 -0.034677424 1.3558885e-38 335 269
0.019132372 0.68199998 -0.034677424 1.4016976e-38 336 269
0.020328145 0.68199998 -0.034677424 1.4293923e-38 337 269
0.021523919 0.68199998 -0.034677424 1.4385034e-38 338 269
0.022719691 0.68199998 -0.034677424 1.401661e-38 339 269
0.023950534 0.68300003 -0.034728274 1.3649269e-38 340 269
0.02514806 0.68300003 -0.034728274 1.3741465e-38 341 269
0.02638416 0.68400002 -0.03477912 1.3465601e-38 342 269
0.027583439 0.68400002 -0.03477912 1.3465601e-38 343 269
0.02886688 0.68599999 -0.034880809 1.3739314e-38 344 269
0.030113498 0.68699998 -0.034931656 1.3647118e-38 345 269
0.031318039 0.68699998 -0.034931656 1.337054e-38 346 269
0.032569919 0.68800002 -0.03498251 1.2263832e-38 347 269
0.0338744 0.69 -0.035084199 1.0786911e-38 348 269
0.035135046 0.69099998 -0.035135046 1.0971302e-38 349 269
0.036451802 0.69300002 -0.035236739 1.1064221e-38 350 269
0.037721213 0.69400001 -0.035287585 1.0972024e-38 351 269
0.038938027 0.69400001 -0.035287585 1.0605034e-38 352 269
0.040328421 0.69700003 -0.035440128 1.1711741e-38 353 269
0.041550495 0.69700003 -0.035440128 1.3460206e-38 354 269
0.042772565 0.69700003 -0.035440128 1.567326e-38 355 269
0.043994639 0.69700003 -0.035440128 1.7699743e-38 356 269
-0.018488899 0.70300001 -0.036977798 1.2819534e-38 305 270
-0.017207211 0.70099998 -0.036872596 1.3557467e-38 306 270
-0.015955333 0.69999999 -0.036819998 1.4387229e-38 307 270
-0.01468592 0.69800001 -0.0367148 1.337272e-38 308 270
-0.013442807 0.69700003 -0.036662199 1.1621005e-38 309 270
-0.0122032 0.69599998 -0.036609598 1.1894363e-38 310 270
-0.01095132 0.69400001 -0.036504399 8.7600716e-39 311 270
-0.0097204801 0.69300002 -0.036451802 6.4573487e-39 312 270
-0.0084686 0.69 -0.036293998 8.0243143e-39 313 270
-0.0072377604 0.68800002 -0.0361888 9.7753095e-39 314 270
-0.0060314666 0.68800002 -0.0361888 1.143519e-38 315 270
-0.0048251734 0.68800002 -0.0361888 9.9564848e-39 316 270
-0.0036136196 0.68699998 -0.036136195 6.6374422e-39 317 270
-0.0024090798 0.68699998 -0.036136195 4.2536933e-39 318 270
-0.0012045399 0.68699998 -0.036136195 5.6366278e-39 319 270
0 0.68599999 -0.036083598 8.3045235e-39 320 270
0.0012027866 0.68599999 -0.036083598 9.5030667e-39 321 270
0.0023985601 0.68400002 -0.035978399 1.0058742e-38 322 270
0.0035925799 0.68300003 -0.035925802 9.0442297e-39 323 270
0.0047901068 0.68300003 -0.035925802 8.5836089e-39 324 270
0.005978866 0.68199998 -0.035873197 9.8743477e-39 325 270
0.00717464 0.68199998 -0.035873197 1.1158603e-38 326 270
0.0083704125 0.68199998 -0.035873197 1.0236646e-38 327 270
0.009566186 0.68199998 -0.035873197 1.0877697e-38 328 270
0.010761959 0.68199998 -0.035873197 1.0693306e-38 329 270
0.011957732 0.68199998 -0.035873197 9.3168551e-39 330 270
0.013153506 0.68199998 -0.035873197 8.9484314e-39 331 270
0.014370319 0.68300003 -0.035925802 1.0056924e-38 332 270
0.015545053 0.68199998 -0.035873197 1.2546206e-38 333 270
0.016740825 0.68199998 -0.035873197 1.3926244e-38 334 270
0.017962901 0.68300003 -0.035925802 1.3742213e-38 335 270
0.019160427 0.68300003 -0.035925802 1.392516e-38 336 270
0.020357953 0.68300003 -0.035925802 1.4109191e-38 337 270
0.02155548 0.68300003 -0.035925802 1.3926232e-38 338 270
0.022753006 0.68300003 -0.035925802 1.374148e-38 339 270
0.0239856 0.68400002 -0.035978399 1.3741117e-38 340 270
0.025184879 0.68400002 -0.035978399 1.3741117e-38 341 270
0.026461305 0.68599999 -0.036083598 1.3648919e-38 342 270
0.027664091 0.68599999 -0.036083598 1.3648919e-38 343 270
0.028908957 0.68699998 -0.036136195 1.3831512e-38 344 270
0.030113498 0.68699998 -0.036136195 1.3831512e-38 345 270
0.031363625 0.68800002 -0.0361888 1.3277985e-38 346 270
0.032664597 0.69 -0.036293998 1.2263832e-38 347 270
0.033923492 0.69099998 -0.036346599 1.0511047e-38 348 270
0.035236739 0.69300002 -0.036451802 1.0972024e-38 349 270
0.036504399 0.69400001 -0.036504399 1.106494e-38 350 270
0.037721213 0.69400001 -0.036504399 1.106494e-38 351 270
0.039050236 0.69599998 -0.036609598 1.106529e-38 352 270
0.040386278 0.69800001 -0.0367148 1.2448225e-38 353 270
0.041610107 0.69800001 -0.0367148 1.4012657e-38 354 270
0.042833932 0.69800001 -0.0367148 1.5856569e-38 355 270
0.04405776 0.69800001 -0.0367148 1.7883059e-38 356 270
-0.018409999 0.69999999 -0.038047329 1.3095044e-38 305 271
-0.017182667 0.69999999 -0.038047329 1.3003942e-38 306 271
-0.015955333 0.69999999 -0.038047329 1.4018092e-38 307 271
-0.01468592 0.69800001 -0.037938625 1.5215914e-38 308 271
-0.013462093 0.69800001 -0.037938625 1.4570544e-38 309 271
-0.012220734 0.69700003 -0.037884273 1.3831528e-38 310 271
-0.010982879 0.69599998 -0.037829921 1.1066019e-38 311 271
-0.0097345067 0.69400001 -0.037721213 8.7589758e-39 312 271
-0.008480873 0.69099998 -0.03755815 9.1277597e-39 313 271
-0.0072587994 0.69 -0.037503798 1.042282e-38 314 271
-0.0060314666 0.68800002 -0.037395094 1.337272e-38 315 271
-0.0048251734 0.68800002 -0.037395094 1.1157899e-38 316 271
-0.0036136196 0.68699998 -0.037340738 6.2715309e-39 317 271
-0.0024090798 0.68699998 -0.037340738 2.1367952e-39 318 271
-0.0012045399 0.68699998 -0.037340738 3.7037622e-39 319 271
0 0.68599999 -0.037286382 1.0238479e-38 320 271
0.0012027866 0.68599999 -0.037286382 1.2082392e-38 321 271
0.0023985601 0.68400002 -0.037177678 1.033318e-38 322 271
0.0035925799 0.68300003 -0.037123326 7.935734e-39 323 271
0.0047901068 0.68300003 -0.037123326 4.3465924e-39 324 271
0.0059876335 0.68300003 -0.037123326 5.9139167e-39 325 271
0.0071851597 0.68300003 -0.037123326 8.6697131e-39 326 271
0.0083704125 0.68199998 -0.037068974 7.2867772e-39 327 271
0.009566186 0.68199998 -0.037068974 7.0065974e-39 328 271
0.010761959 0.68199998 -0.037068974 6.2690324e-39 329 271
0.011975267 0.68300003 -0.037123326 5.2620859e-39 330 271
0.013172794 0.68300003 -0.037123326 4.4323253e-39 331 271
0.014370319 0.68300003 -0.037123326 5.9139013e-39 332 271
0.015567848 0.68300003 -0.037123326 1.0062705e-38 333 271
0.016765373 0.68300003 -0.037123326 1.4018443e-38 334 271
0.017962901 0.68300003 -0.037123326 1.3926247e-38 335 271
0.019160427 0.68300003 -0.037123326 1.3925157e-38 336 271
0.020387759 0.68400002 -0.037177678 1.3925157e-38 337 271
0.02158704 0.68400002 -0.037177678 1.374148e-38 338 271
0.022786319 0.68400002 -0.037177678 1.374148e-38 339 271
0.0239856 0.68400002 -0.037177678 1.3741117e-38 340 271
0.025258519 0.68599999 -0.037286382 1.3741117e-38 341 271
0.026461305 0.68599999 -0.037286382 1.3832234e-38 342 271
0.027704418 0.68699998 -0.037340738 1.3832234e-38 343 271
0.028908957 0.68699998 -0.037340738 1.36482e-38 344 271
0.030157333 0.68800002 -0.037395094 1.36482e-38 345 271
0.031363625 0.68800002 -0.037395094 1.3277985e-38 346 271
0.032664597 0.69 -0.037503798 1.2263832e-38 347 271
0.033923492 0.69099998 -0.03755815 1.0144782e-38 348 271
0.035236739 0.69300002 -0.037666857 1.0513564e-38 349 271
0.036504399 0.69400001 -0.037721213 1.0882347e-38 350 271
0.037829921 0.69599998 -0.037829921 1.1158933e-38 351 271
0.039106347 0.69700003 -0.037884273 1.1802855e-38 352 271
0.040502001 0.69999999 -0.038047329 1.272517e-38 353 271
0.041729331 0.69999999 -0.038047329 1.4014459e-38 354 271
0.042956665 0.69999999 -0.038047329 1.5397393e-38 355 271
0.044183996 0.69999999 -0.038047329 1.7515355e-38 356 271
-0.017182667 0.69999999 -0.039274666 1.2821351e-38 306 272
-0.015955333 0.69999999 -0.039274666 1.2821351e-38 307 272
-0.014727999 0.69999999 -0.039274666 1.392734e-38 308 272
-0.013462093 0.69800001 -0.039162453 1.4664905e-38 309 272
-0.012238266 0.69800001 -0.039162453 1.5307014e-38 310 272
-0.01099866 0.69700003 -0.039106347 1.3924079e-38 311 272
-0.0097625591 0.69599998 -0.039050236 1.2903795e-38 312 272
-0.0085054198 0.69300002 -0.03888192 1.1059883e-38 313 272
-0.0072693196 0.69099998 -0.038769703 1.1066369e-38 314 272
-0.0060489997 0.69 -0.038713597 1.4477247e-38 315 272
-0.0048391996 0.69 -0.038713597 1.1250448e-38 316 272
-0.0036188802 0.68800002 -0.038601387 6.8250578e-39 317 272
-0.0024125867 0.68800002 -0.038601387 6.5556932e-39 318 272
-0.0012045399 0.68699998 -0.038545277 6.7404432e-39 319 272
0 0.68699998 -0.038545277 1.1067148e-38 320 272
0.0012045399 0.68699998 -0.038545277 1.2173137e-38 321 272
0.0024055731 0.68599999 -0.03848917 1.0423575e-38 322 272
0.00359784 0.68400002 -0.038376961 8.5800216e-39 323 272
0.0047971201 0.68400002 -0.038376961 6.368781e-39 324 272
0.0059876335 0.68300003 -0.038320854 6.553531e-39 325 272
0.0071851597 0.68300003 -0.038320854 7.56409e-39 326 272
0.0083826864 0.68300003 -0.038320854 6.7339706e-39 327 272
0.0095802136 0.68300003 -0.038320854 7.6498158e-39 328 272
0.01077774 0.68300003 -0.038320854 7.8342071e-39 329 272
0.011975267 0.68300003 -0.038320854 9.0381383e-39 330 272
0.013172794 0.68300003 -0.038320854 8.7619115e-39 331 272
0.014370319 0.68300003 -0.038320854 7.1095578e-39 332 272
0.015567848 0.68300003 -0.038320854 1.0336405e-38 333 272
0.016765373 0.68300003 -0.038320854 1.4478346e-38 334 272
0.017962901 0.68300003 -0.038320854 1.4293953e-38 335 272
0.01918848 0.68400002 -0.038376961 1.3925879e-38 336 272
0.020387759 0.68400002 -0.038376961 1.3833683e-38 337 272
0.02158704 0.68400002 -0.038376961 1.3741483e-38 338 272
0.022786319 0.68400002 -0.038376961 1.3741483e-38 339 272
0.024055731 0.68599999 -0.03848917 1.3924076e-38 340 272
0.025295338 0.68699998 -0.038545277 1.3924076e-38 341 272
0.026499879 0.68699998 -0.038545277 1.3831881e-38 342 272
0.027704418 0.68699998 -0.038545277 1.3831881e-38 343 272
0.028951041 0.68800002 -0.038601387 1.3647847e-38 344 272
0.030157333 0.68800002 -0.038601387 1.3647847e-38 345 272
0.031454802 0.69 -0.038713597 1.3277988e-38 346 272
0.032711938 0.69099998 -0.038769703 1.2263476e-38 347 272
0.034021679 0.69300002 -0.03888192 1.0144426e-38 348 272
0.035287585 0.69400001 -0.038938027 1.0513567e-38 349 272
0.036609598 0.69599998 -0.039050236 1.1066022e-38 350 272
0.037829921 0.69599998 -0.039050236 1.1342248e-38 351 272
0.039162453 0.69800001 -0.039162453 1.1987249e-38 352 272
0.040502001 0.69999999 -0.039274666 1.2724814e-38 353 272
0.041729331 0.69999999 -0.039274666 1.3646398e-38 354 272
0.042956665 0.69999999 -0.039274666 1.4937137e-38 355 272
0.044183996 0.69999999 -0.039274666 1.7422803e-38 356 272
-0.018488899 0.70300001 -0.040675577 1.4846759e-38 305 273
-0.017256306 0.70300001 -0.040675577 1.3374888e-38 306 273
-0.015978126 0.70099998 -0.040559858 1.226854e-38 307 273
-0.014727999 0.69999999 -0.040502001 1.2638405e-38 308 273
-0.013500666 0.69999999 -0.040502001 1.3560001e-38 309 273
-0.012273333 0.69999999 -0.040502001 1.5123348e-38 310 273
-0.01099866 0.69700003 -0.040328421 1.3924807e-38 311 273
-0.0097765867 0.69700003 -0.040328421 1.3553461e-38 312 273
-0.0085176928 0.69400001 -0.040154841 1.1801744e-38 313 273
-0.0072903596 0.69300002 -0.04009698 1.1342937e-38 314 273
-0.0060577663 0.69099998 -0.039981257 1.3279045e-38 315 273
-0.0048391996 0.69 -0.0399234 9.9658245e-39 316 273
-0.0036293997 0.69 -0.0399234 6.2776392e-39 317 273
-0.0024125867 0.68800002 -0.039807681 6.375255e-39 318 273
-0.0012062934 0.68800002 -0.039807681 7.7581895e-39 319 273
0 0.68800002 -0.039807681 9.3190215e-39 320 273
0.0012045399 0.68699998 -0.039749816 9.964391e-39 321 273
0.0024090798 0.68699998 -0.039749816 8.5814565e-39 322 273
0.00360836 0.68599999 -0.039691959 8.0282827e-39 323 273
0.0048111463 0.68599999 -0.039691959 7.8421132e-39 324 273
0.0059964 0.68400002 -0.03957624 7.0123526e-39 325 273
0.0071956799 0.68400002 -0.03957624 7.3786239e-39 326 273
0.0083949603 0.68400002 -0.03957624 7.1942313e-39 327 273
0.0095802136 0.68300003 -0.039518382 6.4591816e-39 328 273
0.01077774 0.68300003 -0.039518382 6.8283228e-39 329 273
0.0119928 0.68400002 -0.03957624 9.6856559e-39 330 273
0.01319208 0.68400002 -0.03957624 9.409069e-39 331 273
0.01439136 0.68400002 -0.03957624 7.4765327e-39 332 273
0.01559064 0.68400002 -0.03957624 1.0427152e-38 333 273
0.016789921 0.68400002 -0.03957624 1.4570898e-38 334 273
0.0179892 0.68400002 -0.03957624 1.4293951e-38 335 273
0.019244585 0.68599999 -0.039691959 1.3925879e-38 336 273
0.020447372 0.68599999 -0.039691959 1.3833683e-38 337 273
0.021650158 0.68599999 -0.039691959 1.3925157e-38 338 273
0.022852944 0.68599999 -0.039691959 1.383296e-38 339 273
0.024090799 0.68699998 -0.039749816 1.3924074e-38 340 273
0.025295338 0.68699998 -0.039749816 1.3924074e-38 341 273
0.026538454 0.68800002 -0.039807681 1.3923355e-38 342 273
0.027744746 0.68800002 -0.039807681 1.3831159e-38 343 273
0.028951041 0.68800002 -0.039807681 1.3739317e-38 344 273
0.030244999 0.69 -0.0399234 1.3647121e-38 345 273
0.031500384 0.69099998 -0.039981257 1.2910282e-38 346 273
0.032711938 0.69099998 -0.039981257 1.2357108e-38 347 273
0.034021679 0.69300002 -0.04009698 1.1249334e-38 348 273
0.035287585 0.69400001 -0.040154841 1.1064584e-38 349 273
0.036662199 0.69700003 -0.040328421 1.1250053e-38 350 273
0.037938625 0.69800001 -0.040386278 1.1342248e-38 351 273
0.039274666 0.69999999 -0.040502001 1.1344401e-38 352 273
0.040559858 0.70099998 -0.040559858 1.198977e-38 353 273
0.041788943 0.70099998 -0.040559858 1.3276897e-38 354 273
0.043018032 0.70099998 -0.040559858 1.5028253e-38 355 273
-0.017256306 0.70300001 -0.041908171 1.3652195e-38 306 274
-0.016023712 0.70300001 -0.041908171 1.2730598e-38 307 274
-0.014791119 0.70300001 -0.041908171 1.19012e-38 308 274
-0.013519952 0.70099998 -0.041788943 1.19012e-38 309 274
-0.012273333 0.69999999 -0.041729331 1.3004645e-38 310 274
-0.01101444 0.69800001 -0.041610107 1.2820253e-38 311 274
-0.0097765867 0.69700003 -0.041550495 1.3004972e-38 312 274
-0.0085176928 0.69400001 -0.041371655 1.4295711e-38 313 274
-0.0072903596 0.69300002 -0.041312039 1.3831147e-38 314 274
-0.0060753003 0.69300002 -0.041312039 1.2448212e-38 315 274
-0.0048462129 0.69099998 -0.041192811 9.0495869e-39 316 274
-0.0036293997 0.69 -0.041133199 9.1417825e-39 317 274
-0.0024125867 0.68800002 -0.041013971 1.0709128e-38 318 274
-0.0012062934 0.68800002 -0.041013971 1.0063758e-38 319 274
0 0.68800002 -0.041013971 5.5451188e-39 320 274
0.0012062934 0.68800002 -0.041013971 5.7291499e-39 321 274
0.0024090798 0.68699998 -0.040954359 4.4387937e-39 322 274
0.0036136196 0.68699998 -0.040954359 5.6373368e-39 323 274
0.0048111463 0.68599999 -0.040894743 6.0943647e-39 324 274
0.0060139326 0.68599999 -0.040894743 5.4489953e-39 325 274
0.0072167199 0.68599999 -0.040894743 5.8152597e-39 326 274
0.0084195063 0.68599999 -0.040894743 5.7230641e-39 327 274
0.0095942402 0.68400002 -0.040775519 5.5379483e-39 328 274
0.01079352 0.68400002 -0.040775519 6.1833178e-39 329 274
0.0119928 0.68400002 -0.040775519 8.6733018e-39 330 274
0.01319208 0.68400002 -0.040775519 8.3970751e-39 331 274
0.01439136 0.68400002 -0.040775519 6.7400466e-39 332 274
0.01559064 0.68400002 -0.040775519 9.8746966e-39 333 274
0.016789921 0.68400002 -0.040775519 1.4293951e-38 334 274
0.018041799 0.68599999 -0.040894743 1.4017724e-38 335 274
0.019244585 0.68599999 -0.040894743 1.3925879e-38 336 274
0.020477179 0.68699998 -0.040954359 1.3833683e-38 337 274
0.021681719 0.68699998 -0.040954359 1.383368e-38 338 274
0.022886258 0.68699998 -0.040954359 1.3925876e-38 339 274
0.024090799 0.68699998 -0.040954359 1.383296e-38 340 274
0.02533216 0.68800002 -0.041013971 1.3740764e-38 341 274
0.026538454 0.68800002 -0.041013971 1.3831881e-38 342 274
0.027744746 0.68800002 -0.041013971 1.364785e-38 343 274
0.029035198 0.69 -0.041133199 1.364785e-38 344 274
0.030288832 0.69099998 -0.041192811 1.3370903e-38 345 274
0.031591557 0.69300002 -0.041312039 1.281773e-38 346 274
0.03280662 0.69300002 -0.041312039 1.2541142e-38 347 274
0.034070771 0.69400001 -0.041371655 1.198617e-38 348 274
0.035389278 0.69599998 -0.041490879 1.1617388e-38 349 274
0.036662199 0.69700003 -0.041550495 1.1250403e-38 350 274
0.037938625 0.69800001 -0.041610107 1.1342599e-38 351 274
0.039274666 0.69999999 -0.041729331 1.1802139e-38 352 274
0.040559858 0.70099998 -0.041788943 1.1617388e-38 353 274
0.041788943 0.70099998 -0.041788943 1.2262745e-38 354 274
0.043018032 0.70099998 -0.041788943 1.5028253e-38 355 274
-0.017280852 0.704 -0.043202132 1.3374888e-38 306 275
-0.016046507 0.704 -0.043202132 1.291391e-38 307 275
-0.014791119 0.70300001 -0.043140765 1.2178866e-38 308 275
-0.013519952 0.70099998 -0.043018032 1.208667e-38 309 275
-0.012273333 0.69999999 -0.042956665 1.2271396e-38 310 275
-0.01101444 0.69800001 -0.042833932 1.1994808e-38 311 275
-0.0097906133 0.69800001 -0.042833932 1.2821669e-38 312 275
-0.0085422397 0.69599998 -0.042711195 1.429716e-38 313 275
-0.0073008798 0.69400001 -0.042588469 1.4111695e-38 314 275
-0.0060753003 0.69300002 -0.042527102 1.3005349e-38 315 275
-0.0048462129 0.69099998 -0.042404365 1.1717127e-38 316 275
-0.0036346598 0.69099998 -0.042404365 1.1993355e-38 317 275
-0.0024195998 0.69 -0.042342998 1.309936e-38 318 275
-0.0012062934 0.68800002 -0.042220265 1.3375589e-38 319 275
0 0.68800002 -0.042220265 1.1807569e-38 320 275
0.0012062934 0.68800002 -0.042220265 1.0055492e-38 321 275
0.0024125867 0.68800002 -0.042220265 7.8475012e-39 322 275
0.0036188802 0.68800002 -0.042220265 7.3868832e-39 323 275
0.0048181596 0.68699998 -0.042158898 7.2017843e-39 324 275
0.0060226996 0.68699998 -0.042158898 6.7408075e-39 325 275
0.0072272392 0.68699998 -0.042158898 6.9241086e-39 326 275
0.0084317802 0.68699998 -0.042158898 6.9241086e-39 327 275
0.0096363192 0.68699998 -0.042158898 7.2903646e-39 328 275
0.010840859 0.68699998 -0.042158898 7.6595072e-39 329 275
0.012045399 0.68699998 -0.042158898 9.3165048e-39 330 275
0.013230653 0.68599999 -0.042097531 9.4087004e-39 331 275
0.01443344 0.68599999 -0.042097531 8.0307854e-39 332 275
0.015636226 0.68599999 -0.042097531 9.8746966e-39 333 275
0.016839013 0.68599999 -0.042097531 1.3558185e-38 334 275
0.018041799 0.68599999 -0.042097531 1.3742576e-38 335 275
0.019272638 0.68699998 -0.042158898 1.3650012e-38 336 275
0.020477179 0.68699998 -0.042158898 1.3650012e-38 337 275
0.021681719 0.68699998 -0.042158898 1.3466335e-38 338 275
0.022886258 0.68699998 -0.042158898 1.3097913e-38 339 275
0.024125867 0.68800002 -0.042220265 1.3281228e-38 340 275
0.02533216 0.68800002 -0.042220265 1.3465619e-38 341 275
0.026615599 0.69 -0.042342998 1.3372705e-38 342 275
0.027825398 0.69 -0.042342998 1.3280509e-38 343 275
0.029077278 0.69099998 -0.042404365 1.34631e-38 344 275
0.030288832 0.69099998 -0.042404365 1.3186511e-38 345 275
0.031591557 0.69300002 -0.042527102 1.2542224e-38 346 275
0.03280662 0.69300002 -0.042527102 1.2357474e-38 347 275
0.034070771 0.69400001 -0.042588469 1.1619546e-38 348 275
0.035389278 0.69599998 -0.042711195 1.1066372e-38 349 275
0.0367148 0.69800001 -0.042833932 1.0789429e-38 350 275
0.038047329 0.69999999 -0.042956665 1.0881625e-38 351 275
0.039274666 0.69999999 -0.042956665 1.0698676e-38 352 275
0.040675577 0.70300001 -0.043140765 1.060648e-38 353 275
0.041967787 0.704 -0.043202132 1.2903795e-38 354 275
0.043202132 0.704 -0.043202132 1.594625e-38 355 275
-0.017329946 0.70599997 -0.044562716 1.1993035e-38 306 276
-0.016092092 0.70599997 -0.044562716 1.2638405e-38 307 276
-0.014812159 0.704 -0.044436477 1.2087396e-38 308 276
-0.013558527 0.70300001 -0.04437336 1.19952e-38 309 276
-0.012290866 0.70099998 -0.044247117 1.199662e-38 310 276
-0.011045999 0.69999999 -0.044183996 1.199662e-38 311 276
-0.0098186666 0.69999999 -0.044183996 1.3190111e-38 312 276
-0.0085667865 0.69800001 -0.04405776 1.3927676e-38 313 276
-0.00733244 0.69700003 -0.043994639 1.37458e-38 314 276
-0.0061015999 0.69599998 -0.043931518 1.3653603e-38 315 276
-0.0048672534 0.69400001 -0.043805279 1.3190812e-38 316 276
-0.0036451798 0.69300002 -0.043742158 1.3190812e-38 317 276
-0.0024231065 0.69099998 -0.043615919 1.3745077e-38 318 276
-0.0012097999 0.69 -0.043552797 1.3837633e-38 319 276
0 0.69 -0.043552797 1.448051e-38 320 276
0.0012097999 0.69 -0.043552797 1.448051e-38 321 276
0.0024125867 0.68800002 -0.043426562 1.3744028e-38 322 276
0.0036188802 0.68800002 -0.043426562 1.3374885e-38 323 276
0.0048251734 0.68800002 -0.043426562 1.2638405e-38 324 276
0.0060314666 0.68800002 -0.043426562 1.2361459e-38 325 276
0.0072377604 0.68800002 -0.043426562 1.2176345e-38 326 276
0.0084440531 0.68800002 -0.043426562 1.1807922e-38 327 276
0.0096363192 0.68699998 -0.043363437 1.1989433e-38 328 276
0.010840859 0.68699998 -0.043363437 1.2081628e-38 329 276
0.012045399 0.68699998 -0.043363437 1.1901553e-38 330 276
0.013249939 0.68699998 -0.043363437 1.1901553e-38 331 276
0.014454478 0.68699998 -0.043363437 1.1346937e-38 332 276
0.015659019 0.68699998 -0.043363437 1.1992307e-38 333 276
0.01686356 0.68699998 -0.043363437 1.2914613e-38 334 276
0.018068098 0.68699998 -0.043363437 1.3375591e-38 335 276
0.019272638 0.68699998 -0.043363437 1.3741127e-38 336 276
0.020506985 0.68800002 -0.043426562 1.3372705e-38 337 276
0.021713281 0.68800002 -0.043426562 1.3096111e-38 338 276
0.022919573 0.68800002 -0.043426562 1.2727688e-38 339 276
0.024125867 0.68800002 -0.043426562 1.2728054e-38 340 276
0.025405798 0.69 -0.043552797 1.3097197e-38 341 276
0.026615599 0.69 -0.043552797 1.3463821e-38 342 276
0.027865725 0.69099998 -0.043615919 1.3371626e-38 343 276
0.029077278 0.69099998 -0.043615919 1.3186514e-38 344 276
0.0303765 0.69300002 -0.043742158 1.3002124e-38 345 276
0.031591557 0.69300002 -0.043742158 1.2358195e-38 346 276
0.032853961 0.69400001 -0.043805279 1.2081969e-38 347 276
0.034168959 0.69599998 -0.043931518 1.1619909e-38 348 276
0.035440128 0.69700003 -0.043994639 1.0606117e-38 349 276
0.036819998 0.69999999 -0.044183996 1.0236621e-38 350 276
0.038101684 0.70099998 -0.044247117 1.0421371e-38 351 276
0.039330769 0.70099998 -0.044247117 9.7785199e-39 352 276
0.040675577 0.70300001 -0.04437336 1.0331694e-38 353 276
0.041967787 0.704 -0.044436477 1.3273301e-38 354 276
0.043202132 0.704 -0.044436477 1.6039168e-38 355 276
-0.018594101 0.70700002 -0.045865446 1.1434797e-38 305 277
-0.017354494 0.70700002 -0.045865446 1.1348029e-38 306 277
-0.016092092 0.70599997 -0.04580057 1.2177791e-38 307 277
-0.014854239 0.70599997 -0.04580057 1.2180313e-38 308 277
-0.013558527 0.70300001 -0.04560595 1.1719337e-38 309 277
-0.012290866 0.70099998 -0.045476202 1.153601e-38 310 277
-0.011045999 0.69999999 -0.04541133 1.1720762e-38 311 277
-0.0098186666 0.69999999 -0.04541133 1.3097926e-38 312 277
-0.0085667865 0.69800001 -0.045281585 1.2821699e-38 313 277
-0.00733244 0.69700003 -0.045216713 1.1719294e-38 314 277
-0.0061015999 0.69599998 -0.045151837 1.1627099e-38 315 277
-0.0048672534 0.69400001 -0.045022093 1.2546515e-38 316 277
-0.0036504399 0.69400001 -0.045022093 1.3099688e-38 317 277
-0.00243012 0.69300002 -0.044957221 1.2639453e-38 318 277
-0.0012115532 0.69099998 -0.044827472 1.1809692e-38 319 277
0 0.69099998 -0.044827472 1.2360739e-38 320 277
0.0012097999 0.69 -0.0447626 1.2821717e-38 321 277
0.0024195998 0.69 -0.0447626 1.309938e-38 322 277
0.0036293997 0.69 -0.0447626 1.3559998e-38 323 277
0.0048251734 0.68800002 -0.044632856 1.3651831e-38 324 277
0.0060314666 0.68800002 -0.044632856 1.3559635e-38 325 277
0.0072377604 0.68800002 -0.044632856 1.3467434e-38 326 277
0.0084440531 0.68800002 -0.044632856 1.374438e-38 327 277
0.0096503468 0.68800002 -0.044632856 1.392697e-38 328 277
0.010856641 0.68800002 -0.044632856 1.3834775e-38 329 277
0.012062933 0.68800002 -0.044632856 1.3925891e-38 330 277
0.013269227 0.68800002 -0.044632856 1.3649664e-38 331 277
0.014475521 0.68800002 -0.044632856 1.3925172e-38 332 277
0.015681813 0.68800002 -0.044632856 1.3648584e-38 333 277
0.016888106 0.68800002 -0.044632856 1.2639824e-38 334 277
0.0180944 0.68800002 -0.044632856 1.208665e-38 335 277
0.019300694 0.68800002 -0.044632856 1.2081613e-38 336 277
0.020506985 0.68800002 -0.044632856 1.1436243e-38 337 277
0.021713281 0.68800002 -0.044632856 1.0700476e-38 338 277
0.022919573 0.68800002 -0.044632856 1.0884509e-38 339 277
0.024195999 0.69 -0.0447626 1.1528445e-38 340 277
0.025405798 0.69 -0.0447626 1.208126e-38 341 277
0.026654173 0.69099998 -0.044827472 1.217453e-38 342 277
0.027865725 0.69099998 -0.044827472 1.2358923e-38 343 277
0.029161438 0.69300002 -0.044957221 1.2634787e-38 344 277
0.0303765 0.69300002 -0.044957221 1.2450394e-38 345 277
0.031637147 0.69400001 -0.045022093 1.1713909e-38 346 277
0.032948639 0.69599998 -0.045151837 1.1344767e-38 347 277
0.034218054 0.69700003 -0.045216713 1.097347e-38 348 277
0.035490975 0.69800001 -0.045281585 1.0512132e-38 349 277
0.036872596 0.70099998 -0.045476202 9.9589609e-39 350 277
0.038210396 0.70300001 -0.04560595 1.0143354e-38 351 277
0.039442986 0.70300001 -0.04560595 1.0603962e-38 352 277
0.040733438 0.704 -0.045670826 1.1894701e-38 353 277
0.041967787 0.704 -0.045670826 1.3459486e-38 354 277
-0.018672999 0.70999998 -0.047304932 1.1619546e-38 305 278
-0.017428132 0.70999998 -0.047304932 1.1253668e-38 306 278
-0.01613768 0.708 -0.047171678 1.2451853e-38 307 278
-0.01487528 0.70700002 -0.047105055 1.2362909e-38 308 278
-0.013577812 0.704 -0.046905171 1.171754e-38 309 278
-0.012325933 0.70300001 -0.046838548 1.0704824e-38 310 278
-0.011061779 0.70099998 -0.046705291 1.1257998e-38 311 278
-0.0098186666 0.69999999 -0.046638668 1.3097212e-38 312 278
-0.0085667865 0.69800001 -0.046505414 1.2174897e-38 313 278
-0.00733244 0.69700003 -0.046438783 9.6027424e-39 314 278
-0.0061015999 0.69599998 -0.046372157 9.9715236e-39 315 278
-0.0048672534 0.69400001 -0.046238903 1.1902944e-38 316 278
-0.0036504399 0.69400001 -0.046238903 1.2640509e-38 317 278
-0.00243012 0.69300002 -0.04617228 1.2087722e-38 318 278
-0.00121506 0.69300002 -0.04617228 1.0981376e-38 319 278
0 0.69099998 -0.046039023 1.0702309e-38 320 278
0.0012115532 0.69099998 -0.046039023 1.0886702e-38 321 278
0.0024195998 0.69 -0.045972396 1.1625342e-38 322 278
0.0036293997 0.69 -0.045972396 1.2362907e-38 323 278
0.0048391996 0.69 -0.045972396 1.355856e-38 324 278
0.0060489997 0.69 -0.045972396 1.3281973e-38 325 278
0.0072587994 0.69 -0.045972396 1.3097212e-38 326 278
0.0084440531 0.68800002 -0.045839146 1.3834777e-38 327 278
0.0096503468 0.68800002 -0.045839146 1.4480144e-38 328 278
0.010888199 0.69 -0.045972396 1.4295753e-38 329 278
0.012097999 0.69 -0.045972396 1.4203554e-38 330 278
0.013269227 0.68800002 -0.045839146 1.4203554e-38 331 278
0.014475521 0.68800002 -0.045839146 1.4386497e-38 332 278
0.015681813 0.68800002 -0.045839146 1.3925879e-38 333 278
0.016888106 0.68800002 -0.045839146 1.2452556e-38 334 278
0.0180944 0.68800002 -0.045839146 1.1161817e-38 335 278
0.019356798 0.69 -0.045972396 9.870731e-39 336 278
0.020566599 0.69 -0.045972396 9.4097542e-39 337 278
0.021776399 0.69 -0.045972396 8.5807194e-39 338 278
0.022986198 0.69 -0.045972396 9.2260888e-39 339 278
0.024231065 0.69099998 -0.046039023 1.0239165e-38 340 278
0.025442619 0.69099998 -0.046039023 1.0607946e-38 341 278
0.02673132 0.69300002 -0.04617228 1.0702294e-38 342 278
0.027946379 0.69300002 -0.04617228 1.1347663e-38 343 278
0.029161438 0.69300002 -0.04617228 1.1899388e-38 344 278
0.030420333 0.69400001 -0.046238903 1.1530607e-38 345 278
0.031728316 0.69599998 -0.046372157 1.0885593e-38 346 278
0.032948639 0.69599998 -0.046372157 1.0240224e-38 347 278
0.034267146 0.69800001 -0.046505414 1.0050803e-38 348 278
0.035643511 0.70099998 -0.046705291 9.8664122e-39 349 278
0.036977798 0.70300001 -0.046838548 9.8660464e-39 350 278
0.038264744 0.704 -0.046905171 1.0511416e-38 351 278
0.039499093 0.704 -0.046905171 1.1340085e-38 352 278
0.040733438 0.704 -0.046905171 1.2538268e-38 353 278
0.041967787 0.704 -0.046905171 1.3461288e-38 354 278
-0.020086186 0.71600002 -0.048960082 1.5582873e-38 304 279
-0.0186993 0.71100003 -0.048618179 1.2632972e-38 305 279
-0.01745268 0.71100003 -0.048618179 1.2080181e-38 306 279
-0.016183265 0.70999998 -0.048549797 1.3002496e-38 307 279
-0.01489632 0.708 -0.048413038 1.1900131e-38 308 279
-0.013616386 0.70599997 -0.048276275 9.7796312e-39 309 279
-0.012343466 0.704 -0.048139516 6.2816048e-39 310 279
-0.01109334 0.70300001 -0.048071139 6.9269742e-39 311 279
-0.0098326923 0.70099998 -0.047934376 9.1328156e-39 312 279
-0.0085913334 0.69999999 -0.047865998 8.7640345e-39 313 279
-0.0073429602 0.69800001 -0.047729239 8.31454e-39 314 279
-0.0061103669 0.69700003 -0.047660861 1.0527235e-38 315 279
-0.0048812795 0.69599998 -0.047592476 1.2363948e-38 316 279
-0.0036504399 0.69400001 -0.047455717 1.2547979e-38 317 279
-0.0024336267 0.69400001 -0.047455717 1.2088818e-38 318 279
-0.00121506 0.69300002 -0.047387339 1.1351253e-38 319 279
0 0.69300002 -0.047387339 1.0883107e-38 320 279
0.0012115532 0.69099998 -0.047250576 1.0883107e-38 321 279
0.0024231065 0.69099998 -0.047250576 9.9654742e-39 322 279
0.0036346598 0.69099998 -0.047250576 9.7807228e-39 323 279
0.0048391996 0.69 -0.047182199 1.0515397e-38 324 279
0.0060489997 0.69 -0.047182199 1.0423201e-38 325 279
0.0072587994 0.69 -0.047182199 1.0146969e-38 326 279
0.0084686 0.69 -0.047182199 1.0423554e-38 327 279
0.0096783992 0.69 -0.047182199 1.0702659e-38 328 279
0.010888199 0.69 -0.047182199 1.0979606e-38 329 279
0.012097999 0.69 -0.047182199 1.0983194e-38 330 279
0.0133078 0.69 -0.047182199 1.1536366e-38 331 279
0.014517599 0.69 -0.047182199 1.2268172e-38 332 279
0.015727401 0.69 -0.047182199 1.2175976e-38 333 279
0.0169372 0.69 -0.047182199 1.0517902e-38 334 279
0.0181733 0.69099998 -0.047250576 9.3193593e-39 335 279
0.019384852 0.69099998 -0.047250576 6.9230114e-39 336 279
0.020596405 0.69099998 -0.047250576 6.1854463e-39 337 279
0.021807959 0.69099998 -0.047250576 6.001425e-39 338 279
0.023019511 0.69099998 -0.047250576 6.6467944e-39 339 279
0.024301201 0.69300002 -0.047387339 7.2950337e-39 340 279
0.02551626 0.69300002 -0.047387339 8.0325987e-39 341 279
0.02673132 0.69300002 -0.047387339 9.046015e-39 342 279
0.027946379 0.69300002 -0.047387339 9.9676125e-39 343 279
0.029203519 0.69400001 -0.047455717 1.1345862e-38 344 279
0.030420333 0.69400001 -0.047455717 1.1253665e-38 345 279
0.031728316 0.69599998 -0.047592476 1.0517534e-38 346 279
0.03299598 0.69700003 -0.047660861 9.7799675e-39 347 279
0.034365334 0.69999999 -0.047865998 8.7622226e-39 348 279
0.035745207 0.70300001 -0.048071139 9.407592e-39 349 279
0.037030395 0.704 -0.048139516 1.014371e-38 350 279
0.038264744 0.704 -0.048139516 1.0604328e-38 351 279
0.039499093 0.704 -0.048139516 1.1433353e-38 352 279
0.040849157 0.70599997 -0.048276275 1.2170918e-38 353 279
-0.020086186 0.71600002 -0.050215468 1.5952012e-38 304 280
-0.018778199 0.71399999 -0.050075196 1.3739317e-38 305 280
-0.01745268 0.71100003 -0.049864799 1.272518e-38 306 280
-0.01620606 0.71100003 -0.049864799 1.3278354e-38 307 280
-0.01489632 0.708 -0.049654398 1.3277653e-38 308 280
-0.013635674 0.70700002 -0.049584266 1.1065318e-38 309 280
-0.012343466 0.704 -0.049373865 7.0144881e-39 310 280
-0.01109334 0.70300001 -0.049303733 6.3691187e-39 311 280
-0.0098326923 0.70099998 -0.049163464 5.7259171e-39 312 280
-0.0085913334 0.69999999 -0.049093332 5.4489701e-39 313 280
-0.0073429602 0.69800001 -0.048953064 5.0906076e-39 314 280
-0.006119133 0.69800001 -0.048953064 9.6078348e-39 315 280
-0.0048882933 0.69700003 -0.048882935 1.2823879e-38 316 280
-0.0036609597 0.69599998 -0.048812799 1.2547651e-38 317 280
-0.0024336267 0.69400001 -0.048672531 1.19048e-38 318 280
-0.0012168133 0.69400001 -0.048672531 1.1536016e-38 319 280
0 0.69300002 -0.048602402 1.0614432e-38 320 280
0.00121506 0.69300002 -0.048602402 1.006126e-38 321 280
0.0024231065 0.69099998 -0.04846213 9.8783134e-39 322 280
0.0036346598 0.69099998 -0.04846213 9.6013664e-39 323 280
0.0048462129 0.69099998 -0.04846213 9.4158905e-39 324 280
0.0060577663 0.69099998 -0.04846213 9.1389435e-39 325 280
0.0072693196 0.69099998 -0.04846213 9.1375086e-39 326 280
0.008480873 0.69099998 -0.04846213 8.9531159e-39 327 280
0.0096924258 0.69099998 -0.04846213 8.5864998e-39 328 280
0.01090398 0.69099998 -0.04846213 8.8630853e-39 329 280
0.012115533 0.69099998 -0.04846213 9.6935522e-39 330 280
0.013327086 0.69099998 -0.04846213 1.0799541e-38 331 280
0.014538639 0.69099998 -0.04846213 1.1257265e-38 332 280
0.015750192 0.69099998 -0.04846213 1.0888124e-38 333 280
0.016961746 0.69099998 -0.04846213 9.5970378e-39 334 280
0.0181733 0.69099998 -0.04846213 8.2141033e-39 335 280
0.019384852 0.69099998 -0.04846213 5.7277178e-39 336 280
0.020596405 0.69099998 -0.04846213 5.6355222e-39 337 280
0.021807959 0.69099998 -0.04846213 6.2762196e-39 338 280
0.02308614 0.69300002 -0.048602402 6.3684153e-39 339 280
0.024301201 0.69300002 -0.048602402 6.2801615e-39 340 280
0.02551626 0.69300002 -0.048602402 7.5709003e-39 341 280
0.026769891 0.69400001 -0.048672531 8.7690722e-39 342 280
0.027986705 0.69400001 -0.048672531 9.6910285e-39 343 280
0.029203519 0.69400001 -0.048672531 1.0610817e-38 344 280
0.030507999 0.69599998 -0.048812799 1.0703013e-38 345 280
0.03177391 0.69700003 -0.048882935 1.0608293e-38 346 280
0.033043321 0.69800001 -0.048953064 9.9629238e-39 347 280
0.034365334 0.69999999 -0.049093332 9.6834502e-39 348 280
0.035745207 0.70300001 -0.049303733 9.9603973e-39 349 280
0.037030395 0.704 -0.049373865 1.0145861e-38 350 280
0.038264744 0.704 -0.049373865 1.060648e-38 351 280
0.039611302 0.70599997 -0.04951413 1.1617744e-38 352 280
0.040849157 0.70599997 -0.04951413 1.2355309e-38 353 280
-0.020086186 0.71600002 -0.051470853 1.5952368e-38 304 281
-0.018778199 0.71399999 -0.05132708 1.4661629e-38 305 281
