# .PCD v.7 - Point Cloud Data file format
FIELDS x y z rgb imX imY
SIZE 4 4 4 4 4 4
TYPE F F F F F F
COUNT 1 1 1 1 1 1
WIDTH 855
HEIGHT 1
VIEWPOINT 0 0 0 1 0 0 0
POINTS 855
DATA ascii
0.035178877 0.62699997 0.096741915 1.9450744e-38 352 152
0.036104642 0.62400001 0.09627904 1.935819e-38 353 152
0.016490098 0.62699997 0.095642567 1.9820247e-38 335 153
0.017617494 0.62800002 0.095795117 1.9636571e-38 336 153
0.018688779 0.62699997 0.095642567 1.9728768e-38 337 153
0.019788118 0.62699997 0.095642567 1.9728047e-38 338 153
0.020887459 0.62699997 0.095642567 1.9728047e-38 339 153
0.021986797 0.62699997 0.095642567 1.9728047e-38 340 153
0.023086138 0.62699997 0.095642567 1.9635852e-38 341 153
0.024185479 0.62699997 0.095642567 1.9635852e-38 342 153
0.025284817 0.62699997 0.095642567 1.9635852e-38 343 153
0.026384158 0.62699997 0.095642567 1.9544012e-38 344 153
0.027483499 0.62699997 0.095642567 1.9636208e-38 345 153
0.028582839 0.62699997 0.095642567 1.9360341e-38 346 153
0.0295875 0.625 0.095337495 1.9544372e-38 347 153
0.030683333 0.625 0.095337495 1.9360341e-38 348 153
0.031779166 0.625 0.095337495 1.9360341e-38 349 153
0.032874998 0.625 0.095337495 1.9727324e-38 350 153
0.033916477 0.62400001 0.095184959 1.9543293e-38 351 153
0.035010561 0.62400001 0.095184959 1.954294e-38 352 153
0.036104642 0.62400001 0.095184959 1.935819e-38 353 153
0.015390759 0.62699997 0.094543234 1.9728768e-38 334 154
0.016490098 0.62699997 0.094543234 1.9728768e-38 335 154
0.017589439 0.62699997 0.094543234 1.9636926e-38 336 154
0.018688779 0.62699997 0.094543234 1.9729124e-38 337 154
0.019788118 0.62699997 0.094543234 1.98206e-38 338 154
0.020887459 0.62699997 0.094543234 1.9728403e-38 339 154
0.021986797 0.62699997 0.094543234 1.9728047e-38 340 154
0.023012498 0.625 0.094241664 1.9728047e-38 341 154
0.024108332 0.625 0.094241664 1.9635852e-38 342 154
0.025204165 0.625 0.094241664 1.9635852e-38 343 154
0.0263 0.625 0.094241664 1.9635852e-38 344 154
0.027395833 0.625 0.094241664 1.9635852e-38 345 154
0.028491667 0.625 0.094241664 1.9360344e-38 346 154
0.029540159 0.62400001 0.094090879 1.9360344e-38 347 154
0.030634239 0.62400001 0.094090879 1.9544375e-38 348 154
0.03172832 0.62400001 0.094090879 1.9360344e-38 349 154
0.0328224 0.62400001 0.094090879 1.9543656e-38 350 154
0.033916477 0.62400001 0.094090879 1.945146e-38 351 154
0.034954455 0.62300003 0.093940094 1.9450742e-38 352 154
0.036046781 0.62300003 0.093940094 1.9358546e-38 353 154
0.037139107 0.62300003 0.093940094 1.9266713e-38 354 154
0.014245833 0.625 0.093145832 1.9545827e-38 333 155
0.015341667 0.625 0.093145832 1.9911362e-38 334 155
0.016437499 0.625 0.093145832 1.9911362e-38 335 155
0.017533332 0.625 0.093145832 1.9636571e-38 336 155
0.018629165 0.625 0.093145832 1.9728768e-38 337 155
0.01969344 0.62400001 0.092996798 1.98206e-38 338 155
0.020787518 0.62400001 0.092996798 1.9728403e-38 339 155
0.021881601 0.62400001 0.092996798 1.9728403e-38 340 155
0.022975679 0.62400001 0.092996798 1.9728403e-38 341 155
0.024031186 0.62300003 0.092847764 1.9636926e-38 342 155
0.025123514 0.62300003 0.092847764 1.9544372e-38 343 155
0.026257919 0.62400001 0.092996798 1.9635852e-38 344 155
0.027352 0.62400001 0.092996798 1.9635852e-38 345 155
0.028400492 0.62300003 0.092847764 1.9544375e-38 346 155
0.029492822 0.62300003 0.092847764 1.9360344e-38 347 155
0.030585146 0.62300003 0.092847764 1.9360347e-38 348 155
0.031677473 0.62300003 0.092847764 1.9360347e-38 349 155
0.032769799 0.62300003 0.092847764 1.954294e-38 350 155
0.033807773 0.62199998 0.092698731 1.954294e-38 351 155
0.034898344 0.62199998 0.092698731 1.9726249e-38 352 155
0.035988916 0.62199998 0.092698731 1.9726249e-38 353 155
0.01312896 0.62400001 0.091902718 1.9733105e-38 332 156
0.014200246 0.62300003 0.091755435 1.9364323e-38 333 156
0.015292573 0.62300003 0.091755435 1.9452905e-38 334 156
0.016358599 0.62199998 0.091608152 1.9268514e-38 335 156
0.017449172 0.62199998 0.091608152 1.9544375e-38 336 156
0.018539745 0.62199998 0.091608152 1.9636571e-38 337 156
0.019630319 0.62199998 0.091608152 1.9728403e-38 338 156
0.020720892 0.62199998 0.091608152 1.9728403e-38 339 156
0.021846535 0.62300003 0.091755435 1.9729124e-38 340 156
0.022902038 0.62199998 0.091608152 1.9636926e-38 341 156
0.023992613 0.62199998 0.091608152 1.9636571e-38 342 156
0.025083186 0.62199998 0.091608152 1.9544375e-38 343 156
0.02621584 0.62300003 0.091755435 1.9636571e-38 344 156
0.027308168 0.62300003 0.091755435 1.9544375e-38 345 156
0.028354904 0.62199998 0.091608152 1.9544375e-38 346 156
0.029445477 0.62199998 0.091608152 1.9544375e-38 347 156
0.030536054 0.62199998 0.091608152 1.9360344e-38 348 156
0.031626627 0.62199998 0.091608152 1.9360344e-38 349 156
0.032717198 0.62199998 0.091608152 1.9543656e-38 350 156
0.033807773 0.62199998 0.091608152 1.9543656e-38 351 156
0.034842238 0.62099999 0.091460876 1.9542937e-38 352 156
0.035931058 0.62099999 0.091460876 1.9542937e-38 353 156
0.037019879 0.62099999 0.091460876 1.9083401e-38 354 156
0.038108699 0.62099999 0.091460876 1.8714977e-38 355 156
0.012054166 0.625 0.090954162 1.7894619e-38 331 157
0.01312896 0.62400001 0.090808637 1.8816559e-38 332 157
0.014200246 0.62300003 0.090663113 1.8816559e-38 333 157
0.015292573 0.62300003 0.090663113 1.9640187e-38 334 157
0.016358599 0.62199998 0.090517581 1.9271764e-38 335 157
0.017449172 0.62199998 0.090517581 1.9730571e-38 336 157
0.018509939 0.62099999 0.090372056 1.9638375e-38 337 157
0.019598758 0.62099999 0.090372056 2.0004634e-38 338 157
0.020687578 0.62099999 0.090372056 1.9820603e-38 339 157
0.021776399 0.62099999 0.090372056 1.9728768e-38 340 157
0.022865219 0.62099999 0.090372056 1.9636571e-38 341 157
0.023954039 0.62099999 0.090372056 1.9635852e-38 342 157
0.02504286 0.62099999 0.090372056 1.9728047e-38 343 157
0.026173757 0.62199998 0.090517581 1.9635854e-38 344 157
0.027264331 0.62199998 0.090517581 1.972805e-38 345 157
0.028309319 0.62099999 0.090372056 1.9453261e-38 346 157
0.02939814 0.62099999 0.090372056 1.9361065e-38 347 157
0.03048696 0.62099999 0.090372056 1.9635854e-38 348 157
0.031575777 0.62099999 0.090372056 1.9635854e-38 349 157
0.032717198 0.62199998 0.090517581 1.9635854e-38 350 157
0.033807773 0.62199998 0.090517581 1.972805e-38 351 157
0.034842238 0.62099999 0.090372056 1.9819167e-38 352 157
0.035931058 0.62099999 0.090372056 1.9450744e-38 353 157
0.037019879 0.62099999 0.090372056 1.8347281e-38 354 157
0.038108699 0.62099999 0.090372056 1.7425324e-38 355 157
0.039197516 0.62099999 0.090372056 1.6322945e-38 356 157
0.01203488 0.62400001 0.089714557 1.7433648e-38 331 158
0.01310792 0.62300003 0.089570791 1.8172282e-38 332 158
0.014177452 0.62199998 0.089427009 1.8633259e-38 333 158
0.015268027 0.62199998 0.089427009 1.9459409e-38 334 158
0.016358599 0.62199998 0.089427009 1.918318e-38 335 158
0.017449172 0.62199998 0.089427009 1.9733102e-38 336 158
0.018509939 0.62099999 0.089283235 1.9456875e-38 337 158
0.019567199 0.62 0.089139462 1.9730218e-38 338 158
0.020654265 0.62 0.089139462 1.9638022e-38 339 158
0.021741332 0.62 0.089139462 1.9821685e-38 340 158
0.0228284 0.62 0.089139462 1.9637654e-38 341 158
0.023915466 0.62 0.089139462 1.98206e-38 342 158
0.025002534 0.62 0.089139462 1.98206e-38 343 158
0.026089599 0.62 0.089139462 1.9728768e-38 344 158
0.027176665 0.62 0.089139462 1.9728768e-38 345 158
0.028263735 0.62 0.089139462 1.9453258e-38 346 158
0.029350799 0.62 0.089139462 1.9453258e-38 347 158
0.030437866 0.62 0.089139462 1.9544378e-38 348 158
0.031575777 0.62099999 0.089283235 1.9544378e-38 349 158
0.032664597 0.62099999 0.089283235 1.9545102e-38 350 158
0.033753417 0.62099999 0.089283235 1.9452905e-38 351 158
0.034786131 0.62 0.089139462 1.9544027e-38 352 158
0.035873201 0.62 0.089139462 1.8898658e-38 353 158
0.036960267 0.62 0.089139462 1.7518968e-38 354 158
0.038108699 0.62099999 0.089283235 1.6228229e-38 355 158
0.039197516 0.62099999 0.089283235 1.558539e-38 356 158
0.010958333 0.625 0.088762499 1.7063787e-38 330 159
0.01203488 0.62400001 0.088620484 1.7248537e-38 331 159
0.01310792 0.62300003 0.088478461 1.7159578e-38 332 159
0.014177452 0.62199998 0.088336438 1.7436165e-38 333 159
0.015268027 0.62199998 0.088336438 1.7804579e-38 334 159
0.016358599 0.62199998 0.088336438 1.8265197e-38 335 159
0.017421119 0.62099999 0.088194415 1.9000231e-38 336 159
0.018480133 0.62 0.088052399 1.9184264e-38 337 159
0.019567199 0.62 0.088052399 1.9917863e-38 338 159
0.020620953 0.61900002 0.087910376 1.9917863e-38 339 159
0.021706266 0.61900002 0.087910376 2.0284838e-38 340 159
0.022791579 0.61900002 0.087910376 2.0192641e-38 341 159
0.023876892 0.61900002 0.087910376 2.037559e-38 342 159
0.024962207 0.61900002 0.087910376 2.0283036e-38 343 159
0.02604752 0.61900002 0.087910376 2.0191196e-38 344 159
0.027132833 0.61900002 0.087910376 2.0006445e-38 345 159
0.028218146 0.61900002 0.087910376 1.9822769e-38 346 159
0.029303461 0.61900002 0.087910376 1.9545824e-38 347 159
0.030388774 0.61900002 0.087910376 1.9270316e-38 348 159
0.031474087 0.61900002 0.087910376 1.9085565e-38 349 159
0.032559399 0.61900002 0.087910376 1.8442e-38 350 159
0.033699065 0.62 0.088052399 1.7796631e-38 351 159
0.034730028 0.61900002 0.087910376 1.7518249e-38 352 159
0.03581534 0.61900002 0.087910376 1.705691e-38 353 159
0.036900654 0.61900002 0.087910376 1.6045279e-38 354 159
0.038047332 0.62 0.088052399 1.539991e-38 355 159
0.039134398 0.62 0.088052399 1.5216968e-38 356 159
0.040221468 0.62 0.088052399 1.5862337e-38 357 159
0.009894059 0.62699997 0.08794719 1.733965e-38 329 160
0.010958333 0.625 0.087666661 1.7156341e-38 330 160
0.012015593 0.62300003 0.087386139 1.7156341e-38 331 160
0.01310792 0.62300003 0.087386139 1.697411e-38 332 160
0.014177452 0.62199998 0.087245859 1.697411e-38 333 160
0.015268027 0.62199998 0.087245859 1.7251055e-38 334 160
0.016332299 0.62099999 0.087105595 1.7619477e-38 335 160
0.017421119 0.62099999 0.087105595 1.7987894e-38 336 160
0.018480133 0.62 0.08696533 1.8172285e-38 337 160
0.01953564 0.61900002 0.086825065 1.8998802e-38 338 160
0.020620953 0.61900002 0.086825065 1.9090997e-38 339 160
0.021706266 0.61900002 0.086825065 1.9182824e-38 340 160
0.022791579 0.61900002 0.086825065 1.9366856e-38 341 160
0.023838319 0.61799997 0.086684793 1.9733833e-38 342 160
0.024921879 0.61799997 0.086684793 1.9456888e-38 343 160
0.02604752 0.61900002 0.086825065 1.9365048e-38 344 160
0.027132833 0.61900002 0.086825065 1.9088461e-38 345 160
0.028218146 0.61900002 0.086825065 1.8903348e-38 346 160
0.029256117 0.61799997 0.086684793 1.862676e-38 347 160
0.030339677 0.61799997 0.086684793 1.8349095e-38 348 160
0.031423237 0.61799997 0.086684793 1.8164703e-38 349 160
0.032559399 0.61900002 0.086825065 1.7428937e-38 350 160
0.033644713 0.61900002 0.086825065 1.6875763e-38 351 160
0.034730028 0.61900002 0.086825065 1.6689936e-38 352 160
0.03581534 0.61900002 0.086825065 1.6228597e-38 353 160
0.036900654 0.61900002 0.086825065 1.5859819e-38 354 160
0.038047332 0.62 0.08696533 1.5582873e-38 355 160
0.039134398 0.62 0.08696533 1.5491759e-38 356 160
0.040221468 0.62 0.08696533 1.6137129e-38 357 160
0.009894059 0.62699997 0.086847849 1.733965e-38 329 161
0.010958333 0.625 0.086570829 1.7063787e-38 330 161
0.012015593 0.62300003 0.086293809 1.7156341e-38 331 161
0.01310792 0.62300003 0.086293809 1.7249255e-38 332 161
0.014177452 0.62199998 0.086155288 1.7341451e-38 333 161
0.015268027 0.62199998 0.086155288 1.6790798e-38 334 161
0.016332299 0.62099999 0.086016774 1.6698603e-38 335 161
0.017393066 0.62 0.08587826 1.66986e-38 336 161
0.018480133 0.62 0.08587826 1.6606404e-38 337 161
0.01953564 0.61900002 0.085739754 1.6973745e-38 338 161
0.020620953 0.61900002 0.085739754 1.6973745e-38 339 161
0.021706266 0.61900002 0.085739754 1.6882262e-38 340 161
0.022754759 0.61799997 0.085601233 1.7067012e-38 341 161
0.023838319 0.61799997 0.085601233 1.7616946e-38 342 161
0.024921879 0.61799997 0.085601233 1.7524751e-38 343 161
0.026005438 0.61799997 0.085601233 1.7340354e-38 344 161
0.027088998 0.61799997 0.085601233 1.7064126e-38 345 161
0.028172556 0.61799997 0.085601233 1.6877934e-38 346 161
0.029256117 0.61799997 0.085601233 1.6416956e-38 347 161
0.030339677 0.61799997 0.085601233 1.6600268e-38 348 161
0.031423237 0.61799997 0.085601233 1.6324041e-38 349 161
0.032559399 0.61900002 0.085739754 1.6322958e-38 350 161
0.033644713 0.61900002 0.085739754 1.586234e-38 351 161
0.034730028 0.61900002 0.085739754 1.5769421e-38 352 161
0.03581534 0.61900002 0.085739754 1.5216249e-38 353 161
0.036900654 0.61900002 0.085739754 1.6042412e-38 354 161
0.038047332 0.62 0.08587826 1.6042412e-38 355 161
0.039134398 0.62 0.08587826 1.5768342e-38 356 161
0.040221468 0.62 0.08587826 1.6137126e-38 357 161
0.010958333 0.625 0.085474998 1.7156338e-38 330 162
0.012015593 0.62300003 0.085201479 1.7248534e-38 331 162
0.01310792 0.62300003 0.085201479 1.7158139e-38 332 162
0.014177452 0.62199998 0.085064717 1.7158139e-38 333 162
0.015268027 0.62199998 0.085064717 1.7066306e-38 334 162
0.016332299 0.62099999 0.084927954 1.697411e-38 335 162
0.017393066 0.62 0.084791198 1.6881915e-38 336 162
0.018480133 0.62 0.084791198 1.6605329e-38 337 162
0.01953564 0.61900002 0.084654443 1.7064505e-38 338 162
0.020620953 0.61900002 0.084654443 1.6880474e-38 339 162
0.021706266 0.61900002 0.084654443 1.6605682e-38 340 162
0.022754759 0.61799997 0.084517673 1.6605682e-38 341 162
0.023838319 0.61799997 0.084517673 1.6788632e-38 342 162
0.024921879 0.61799997 0.084517673 1.6696435e-38 343 162
0.026005438 0.61799997 0.084517673 1.6971577e-38 344 162
0.027088998 0.61799997 0.084517673 1.6879381e-38 345 162
0.028172556 0.61799997 0.084517673 1.6234009e-38 346 162
0.029256117 0.61799997 0.084517673 1.6049618e-38 347 162
0.030339677 0.61799997 0.084517673 1.6232211e-38 348 162
0.031423237 0.61799997 0.084517673 1.5955983e-38 349 162
0.032506797 0.61799997 0.084517673 1.6046378e-38 350 162
0.033644713 0.61900002 0.084654443 1.5861987e-38 351 162
0.034730028 0.61900002 0.084654443 1.595238e-38 352 162
0.03581534 0.61900002 0.084654443 1.5583958e-38 353 162
0.036900654 0.61900002 0.084654443 1.5767623e-38 354 162
0.038108699 0.62099999 0.084927954 1.5675069e-38 355 162
0.039197516 0.62099999 0.084927954 1.5767621e-38 356 162
0.040351212 0.62199998 0.085064717 1.6044566e-38 357 162
0.041508414 0.62300003 0.085201479 1.7060526e-38 358 162
0.012015593 0.62300003 0.08410915 1.7248534e-38 331 163
0.01310792 0.62300003 0.08410915 1.7065943e-38 332 163
0.014177452 0.62199998 0.083974138 1.7158139e-38 333 163
0.015268027 0.62199998 0.083974138 1.7066662e-38 334 163
0.016332299 0.62099999 0.083839133 1.7066662e-38 335 163
0.017421119 0.62099999 0.083839133 1.6974464e-38 336 163
0.018480133 0.62 0.083704136 1.6697878e-38 337 163
0.01953564 0.61900002 0.083569124 1.7063787e-38 338 163
0.020620953 0.61900002 0.083569124 1.6879394e-38 339 163
0.021706266 0.61900002 0.083569124 1.6512413e-38 340 163
0.022754759 0.61799997 0.083434112 1.6420218e-38 341 163
0.023838319 0.61799997 0.083434112 1.6235824e-38 342 163
0.024921879 0.61799997 0.083434112 1.6143628e-38 343 163
0.026005438 0.61799997 0.083434112 1.6602083e-38 344 163
0.027088998 0.61799997 0.083434112 1.6418051e-38 345 163
0.028172556 0.61799997 0.083434112 1.6234012e-38 346 163
0.029256117 0.61799997 0.083434112 1.6049262e-38 347 163
0.030339677 0.61799997 0.083434112 1.6140016e-38 348 163
0.031423237 0.61799997 0.083434112 1.5863429e-38 349 163
0.032506797 0.61799997 0.083434112 1.595418e-38 350 163
0.033644713 0.61900002 0.083569124 1.5769788e-38 351 163
0.034730028 0.61900002 0.083569124 1.5952017e-38 352 163
0.03581534 0.61900002 0.083569124 1.5767267e-38 353 163
0.036900654 0.61900002 0.083569124 1.5675425e-38 354 163
0.038108699 0.62099999 0.083839133 1.5675425e-38 355 163
0.039260637 0.62199998 0.083974138 1.5492113e-38 356 163
0.040416088 0.62300003 0.08410915 1.5768339e-38 357 163
0.041508414 0.62300003 0.08410915 1.7060526e-38 358 163
0.012015593 0.62300003 0.083016828 1.7247455e-38 331 164
0.01310792 0.62300003 0.083016828 1.7158139e-38 332 164
0.014200246 0.62300003 0.083016828 1.7342171e-38 333 164
0.015292573 0.62300003 0.083016828 1.7342169e-38 334 164
0.016358599 0.62199998 0.082883567 1.7342169e-38 335 164
0.017421119 0.62099999 0.082750313 1.706594e-38 336 164
0.018480133 0.62 0.082617059 1.6881549e-38 337 164
0.01953564 0.61900002 0.082483813 1.6879394e-38 338 164
0.020620953 0.61900002 0.082483813 1.6695363e-38 339 164
0.021706266 0.61900002 0.082483813 1.6511334e-38 340 164
0.022754759 0.61799997 0.082350552 1.6419139e-38 341 164
0.023838319 0.61799997 0.082350552 1.6419136e-38 342 164
0.024921879 0.61799997 0.082350552 1.6235105e-38 343 164
0.026005438 0.61799997 0.082350552 1.6602083e-38 344 164
0.027088998 0.61799997 0.082350552 1.6418051e-38 345 164
0.028172556 0.61799997 0.082350552 1.6417321e-38 346 164
0.029256117 0.61799997 0.082350552 1.6141095e-38 347 164
0.030339677 0.61799997 0.082350552 1.6049252e-38 348 164
0.031423237 0.61799997 0.082350552 1.5864501e-38 349 164
0.032559399 0.61900002 0.082483813 1.6046731e-38 350 164
0.033644713 0.61900002 0.082483813 1.5677588e-38 351 164
0.034730028 0.61900002 0.082483813 1.5859819e-38 352 164
0.03581534 0.61900002 0.082483813 1.5675069e-38 353 164
0.036960267 0.62 0.082617059 1.5583228e-38 354 164
0.038231432 0.62300003 0.083016828 1.5399197e-38 355 164
0.039323762 0.62300003 0.083016828 1.5399197e-38 356 164
0.04048096 0.62400001 0.083150074 1.5859816e-38 357 164
0.041641664 0.625 0.083283328 1.7060526e-38 358 164
0.012015593 0.62300003 0.081924498 1.6879391e-38 331 165
0.01310792 0.62300003 0.081924498 1.688084e-38 332 165
0.014200246 0.62300003 0.081924498 1.6973394e-38 333 165
0.015292573 0.62300003 0.081924498 1.6882997e-38 334 165
0.0163849 0.62300003 0.081924498 1.6882997e-38 335 165
0.017449172 0.62199998 0.081792995 1.6974108e-38 336 165
0.018509939 0.62099999 0.0816615 1.6697881e-38 337 165
0.019567199 0.62 0.081529997 1.6696082e-38 338 165
0.020620953 0.61900002 0.081398502 1.651169e-38 339 165
0.021706266 0.61900002 0.081398502 1.6235827e-38 340 165
0.022791579 0.61900002 0.081398502 1.6143631e-38 341 165
0.023838319 0.61799997 0.081266992 1.6143625e-38 342 165
0.024921879 0.61799997 0.081266992 1.6143625e-38 343 165
0.026005438 0.61799997 0.081266992 1.6326572e-38 344 165
0.027088998 0.61799997 0.081266992 1.6419126e-38 345 165
0.028172556 0.61799997 0.081266992 1.6234006e-38 346 165
0.029256117 0.61799997 0.081266992 1.6141811e-38 347 165
0.030339677 0.61799997 0.081266992 1.6140365e-38 348 165
0.031423237 0.61799997 0.081266992 1.5864138e-38 349 165
0.032559399 0.61900002 0.081398502 1.6229325e-38 350 165
0.033644713 0.61900002 0.081398502 1.5767986e-38 351 165
0.034730028 0.61900002 0.081398502 1.5491757e-38 352 165
0.03581534 0.61900002 0.081398502 1.5307364e-38 353 165
0.036960267 0.62 0.081529997 1.5307364e-38 354 165
0.038292799 0.62400001 0.082055993 1.5215168e-38 355 165
0.03938688 0.62400001 0.082055993 1.5123696e-38 356 165
0.040545832 0.625 0.082187496 1.5769065e-38 357 165
0.041641664 0.625 0.082187496 1.706053e-38 358 165
0.01310792 0.62300003 0.080832176 1.6512769e-38 332 166
0.014200246 0.62300003 0.080832176 1.6512769e-38 333 166
0.015292573 0.62300003 0.080832176 1.6513134e-38 334 166
0.0163849 0.62300003 0.080832176 1.6513134e-38 335 166
0.017449172 0.62199998 0.080702424 1.6788279e-38 336 166
0.018509939 0.62099999 0.080572672 1.6696082e-38 337 166
0.019598758 0.62099999 0.080572672 1.6420574e-38 338 166
0.020654265 0.62 0.080442935 1.6235824e-38 339 166
0.021741332 0.62 0.080442935 1.6235461e-38 340 166
0.022791579 0.61900002 0.080313183 1.6235461e-38 341 166
0.023876892 0.61900002 0.080313183 1.6143262e-38 342 166
0.024962207 0.61900002 0.080313183 1.6235458e-38 343 166
0.02604752 0.61900002 0.080313183 1.6326572e-38 344 166
0.027132833 0.61900002 0.080313183 1.6050344e-38 345 166
0.028218146 0.61900002 0.080313183 1.6234009e-38 346 166
0.029303461 0.61900002 0.080313183 1.5680835e-38 347 166
0.030388774 0.61900002 0.080313183 1.5862703e-38 348 166
0.031474087 0.61900002 0.080313183 1.5586476e-38 349 166
0.032559399 0.61900002 0.080313183 1.5767986e-38 350 166
0.033644713 0.61900002 0.080313183 1.5491759e-38 351 166
0.034730028 0.61900002 0.080313183 1.5582876e-38 352 166
0.035873201 0.62 0.080442935 1.5398844e-38 353 166
0.037079491 0.62199998 0.080702424 1.5215168e-38 354 166
0.038292799 0.62400001 0.08096192 1.5215168e-38 355 166
0.03938688 0.62400001 0.08096192 1.5399561e-38 356 166
0.040545832 0.625 0.081091665 1.6044929e-38 357 166
0.041641664 0.625 0.081091665 1.7060174e-38 358 166
0.01422304 0.62400001 0.07986784 1.6603883e-38 333 167
0.01531712 0.62400001 0.07986784 1.6420574e-38 334 167
0.0163849 0.62300003 0.079739846 1.6420574e-38 335 167
0.017449172 0.62199998 0.079611845 1.6328738e-38 336 167
0.018539745 0.62199998 0.079611845 1.6328738e-38 337 167
0.019598758 0.62099999 0.079483859 1.6328019e-38 338 167
0.020687578 0.62099999 0.079483859 1.6143628e-38 339 167
0.021741332 0.62 0.079355866 1.6143625e-38 340 167
0.022791579 0.61900002 0.079227872 1.5867397e-38 341 167
0.023876892 0.61900002 0.079227872 1.6142906e-38 342 167
0.024962207 0.61900002 0.079227872 1.6050709e-38 343 167
0.02604752 0.61900002 0.079227872 1.6050346e-38 344 167
0.027132833 0.61900002 0.079227872 1.5958151e-38 345 167
0.028218146 0.61900002 0.079227872 1.586415e-38 346 167
0.029303461 0.61900002 0.079227872 1.5679759e-38 347 167
0.030388774 0.61900002 0.079227872 1.5586473e-38 348 167
0.031474087 0.61900002 0.079227872 1.5494276e-38 349 167
0.032559399 0.61900002 0.079227872 1.5768342e-38 350 167
0.033699065 0.62 0.079355866 1.5491757e-38 351 167
0.034786131 0.62 0.079355866 1.5583228e-38 352 167
0.035931058 0.62099999 0.079483859 1.5399197e-38 353 167
0.037139107 0.62300003 0.079739846 1.5307364e-38 354 167
0.038354166 0.625 0.079995833 1.5215168e-38 355 167
0.039449997 0.625 0.079995833 1.5492125e-38 356 167
0.040545832 0.625 0.079995833 1.6045299e-38 357 167
0.041641664 0.625 0.079995833 1.6876865e-38 358 167
0.01429142 0.62699997 0.079152472 1.6696802e-38 333 168
0.01531712 0.62400001 0.078773759 1.6421293e-38 334 168
0.0163849 0.62300003 0.078647524 1.6421293e-38 335 168
0.017449172 0.62199998 0.078521274 1.6328019e-38 336 168
0.018539745 0.62199998 0.078521274 1.6235824e-38 337 168
0.019598758 0.62099999 0.078395031 1.6143628e-38 338 168
0.020687578 0.62099999 0.078395031 1.6051432e-38 339 168
0.021741332 0.62 0.078268796 1.6233662e-38 340 168
0.0228284 0.62 0.078268796 1.6233662e-38 341 168
0.023915466 0.62 0.078268796 1.6141107e-38 342 168
0.024962207 0.61900002 0.078142561 1.6233662e-38 343 168
0.02604752 0.61900002 0.078142561 1.6049267e-38 344 168
0.027176665 0.62 0.078268796 1.5772682e-38 345 168
0.028218146 0.61900002 0.078142561 1.567904e-38 346 168
0.029303461 0.61900002 0.078142561 1.567904e-38 347 168
0.030388774 0.61900002 0.078142561 1.5769791e-38 348 168
0.03152493 0.62 0.078268796 1.5677235e-38 349 168
0.032612 0.62 0.078268796 1.5768342e-38 350 168
0.033753417 0.62099999 0.078395031 1.5583952e-38 351 168
0.034842238 0.62099999 0.078395031 1.5492113e-38 352 168
0.035988916 0.62199998 0.078521274 1.5492113e-38 353 168
0.037198719 0.62400001 0.078773759 1.5216249e-38 354 168
0.038354166 0.625 0.078899994 1.5216249e-38 355 168
0.039449997 0.625 0.078899994 1.5582879e-38 356 168
0.040545832 0.625 0.078899994 1.6043857e-38 357 168
0.041641664 0.625 0.078899994 1.6876865e-38 358 168
0.01323416 0.62900001 0.078302108 1.6788998e-38 332 169
0.01429142 0.62699997 0.078053132 1.6788998e-38 333 169
0.015341667 0.625 0.077804163 1.6605682e-38 334 169
0.0164112 0.62400001 0.077679679 1.6697878e-38 335 169
0.017477227 0.62300003 0.077555194 1.688083e-38 336 169
0.018539745 0.62199998 0.077430703 1.6696079e-38 337 169
0.019630319 0.62199998 0.077430703 1.6511688e-38 338 169
0.020720892 0.62199998 0.077430703 1.6235461e-38 339 169
0.021776399 0.62099999 0.077306218 1.6418051e-38 340 169
0.022865219 0.62099999 0.077306218 1.6325854e-38 341 169
0.023954039 0.62099999 0.077306218 1.6141107e-38 342 169
0.025002534 0.62 0.077181734 1.6141107e-38 343 169
0.026089599 0.62 0.077181734 1.5957069e-38 344 169
0.027176665 0.62 0.077181734 1.5773038e-38 345 169
0.028263735 0.62 0.077181734 1.5954545e-38 346 169
0.029350799 0.62 0.077181734 1.5954545e-38 347 169
0.030437866 0.62 0.077181734 1.5861984e-38 348 169
0.031575777 0.62099999 0.077306218 1.5769788e-38 349 169
0.032664597 0.62099999 0.077306218 1.5952733e-38 350 169
0.033807773 0.62199998 0.077430703 1.5860538e-38 351 169
0.034898344 0.62199998 0.077430703 1.5860891e-38 352 169
0.036046781 0.62300003 0.077555194 1.5768337e-38 353 169
0.037258331 0.625 0.077804163 1.5492113e-38 354 169
0.038354166 0.625 0.077804163 1.5307361e-38 355 169
0.039576236 0.62699997 0.078053132 1.5031503e-38 356 169
0.040675577 0.62699997 0.078053132 1.5584677e-38 357 169
0.041774917 0.62699997 0.078053132 1.6692469e-38 358 169
0.013192079 0.62699997 0.076953799 1.6605685e-38 332 170
0.01429142 0.62699997 0.076953799 1.6697881e-38 333 170
0.015390759 0.62699997 0.076953799 1.6974108e-38 334 170
0.016437499 0.625 0.076708332 1.7158859e-38 335 170
0.017477227 0.62300003 0.076462865 1.7434014e-38 336 170
0.018569553 0.62300003 0.076462865 1.7157786e-38 337 170
0.019661881 0.62300003 0.076462865 1.7156341e-38 338 170
0.020720892 0.62199998 0.076340124 1.6879394e-38 339 170
0.021811465 0.62199998 0.076340124 1.6603164e-38 340 170
0.022902038 0.62199998 0.076340124 1.6510969e-38 341 170
0.023954039 0.62099999 0.076217398 1.6326577e-38 342 170
0.02504286 0.62099999 0.076217398 1.6049991e-38 343 170
0.026131678 0.62099999 0.076217398 1.5958148e-38 344 170
0.027220499 0.62099999 0.076217398 1.5773757e-38 345 170
0.028263735 0.62 0.076094665 1.6138939e-38 346 170
0.029350799 0.62 0.076094665 1.6046744e-38 347 170
0.030437866 0.62 0.076094665 1.5954545e-38 348 170
0.031575777 0.62099999 0.076217398 1.5954545e-38 349 170
0.032717198 0.62199998 0.076340124 1.5954536e-38 350 170
0.033807773 0.62199998 0.076340124 1.586234e-38 351 170
0.034954455 0.62300003 0.076462865 1.5861614e-38 352 170
0.036046781 0.62300003 0.076462865 1.5677223e-38 353 170
0.037258331 0.625 0.076708332 1.5583225e-38 354 170
0.038354166 0.625 0.076708332 1.5306998e-38 355 170
0.039449997 0.625 0.076708332 1.512297e-38 356 170
0.040545832 0.625 0.076708332 1.5307361e-38 357 170
0.041774917 0.62699997 0.076953799 1.6231492e-38 358 170
0.013192079 0.62699997 0.07585445 1.7341098e-38 332 171
0.01429142 0.62699997 0.07585445 1.7156707e-38 333 171
0.015390759 0.62699997 0.07585445 1.6881915e-38 334 171
0.016437499 0.625 0.0756125 1.7066306e-38 335 171
0.017505281 0.62400001 0.075491518 1.7066309e-38 336 171
0.018599359 0.62400001 0.075491518 1.6974113e-38 337 171
0.019661881 0.62300003 0.075370543 1.7064508e-38 338 171
0.020754207 0.62300003 0.075370543 1.6880477e-38 339 171
0.021846535 0.62300003 0.075370543 1.6696082e-38 340 171
0.022902038 0.62199998 0.075249553 1.6788279e-38 341 171
0.023992613 0.62199998 0.075249553 1.6879028e-38 342 171
0.025083186 0.62199998 0.075249553 1.6694637e-38 343 171
0.026173757 0.62199998 0.075249553 1.6326928e-38 344 171
0.027264331 0.62199998 0.075249553 1.6234731e-38 345 171
0.028354904 0.62199998 0.075249553 1.6599915e-38 346 171
0.029445477 0.62199998 0.075249553 1.6599915e-38 347 171
0.030536054 0.62199998 0.075249553 1.6324044e-38 348 171
0.031626627 0.62199998 0.075249553 1.6139293e-38 349 171
0.032717198 0.62199998 0.075249553 1.6047094e-38 350 171
0.033862129 0.62300003 0.075370543 1.5862703e-38 351 171
0.034954455 0.62300003 0.075370543 1.6044929e-38 352 171
0.036046781 0.62300003 0.075370543 1.5860538e-38 353 171
0.037198719 0.62400001 0.075491518 1.5675422e-38 354 171
0.038292799 0.62400001 0.075491518 1.5583225e-38 355 171
0.03938688 0.62400001 0.075491518 1.5582506e-38 356 171
0.04048096 0.62400001 0.075491518 1.5398115e-38 357 171
0.013192079 0.62699997 0.074755117 1.7341465e-38 332 172
0.01429142 0.62699997 0.074755117 1.7341465e-38 333 172
0.015390759 0.62699997 0.074755117 1.6607133e-38 334 172
0.016437499 0.625 0.074516661 1.6514937e-38 335 172
0.017505281 0.62400001 0.074397437 1.6881559e-38 336 172
0.018599359 0.62400001 0.074397437 1.6697528e-38 337 172
0.019661881 0.62300003 0.074278213 1.7064508e-38 338 172
0.020754207 0.62300003 0.074278213 1.7064508e-38 339 172
0.021846535 0.62300003 0.074278213 1.688083e-38 340 172
0.022938859 0.62300003 0.074278213 1.688083e-38 341 172
0.024031186 0.62300003 0.074278213 1.6604236e-38 342 172
0.025083186 0.62199998 0.074158981 1.6512041e-38 343 172
0.026173757 0.62199998 0.074158981 1.6602792e-38 344 172
0.027264331 0.62199998 0.074158981 1.6602792e-38 345 172
0.028354904 0.62199998 0.074158981 1.6602066e-38 346 172
0.029445477 0.62199998 0.074158981 1.650987e-38 347 172
0.030585146 0.62300003 0.074278213 1.6324757e-38 348 172
0.031677473 0.62300003 0.074278213 1.6140365e-38 349 172
0.032769799 0.62300003 0.074278213 1.6046731e-38 350 172
0.033862129 0.62300003 0.074278213 1.5954536e-38 351 172
0.034954455 0.62300003 0.074278213 1.6228246e-38 352 172
0.036046781 0.62300003 0.074278213 1.6228246e-38 353 172
0.037198719 0.62400001 0.074397437 1.6043484e-38 354 172
0.038292799 0.62400001 0.074397437 1.5766899e-38 355 172
0.03938688 0.62400001 0.074397437 1.5214803e-38 356 172
0.04048096 0.62400001 0.074397437 1.4384683e-38 357 172
0.01429142 0.62699997 0.073655777 1.679261e-38 333 173
0.015390759 0.62699997 0.073655777 1.7803875e-38 334 173
0.016437499 0.625 0.07342083 1.7619483e-38 335 173
0.017505281 0.62400001 0.073303364 1.7158503e-38 336 173
0.018599359 0.62400001 0.073303364 1.6881915e-38 337 173
0.01969344 0.62400001 0.073303364 1.7064508e-38 338 173
0.020754207 0.62300003 0.073185883 1.7064508e-38 339 173
0.021846535 0.62300003 0.073185883 1.6605329e-38 340 173
0.022938859 0.62300003 0.073185883 1.6605329e-38 341 173
0.024031186 0.62300003 0.073185883 1.6420218e-38 342 173
0.025123514 0.62300003 0.073185883 1.6235827e-38 343 173
0.02621584 0.62300003 0.073185883 1.641877e-38 344 173
0.027264331 0.62199998 0.07306841 1.6326575e-38 345 173
0.028354904 0.62199998 0.07306841 1.6418402e-38 346 173
0.029492822 0.62300003 0.073185883 1.6141813e-38 347 173
0.030585146 0.62300003 0.073185883 1.6232208e-38 348 173
0.031677473 0.62300003 0.073185883 1.595598e-38 349 173
0.032769799 0.62300003 0.073185883 1.6415158e-38 350 173
0.033862129 0.62300003 0.073185883 1.6415158e-38 351 173
0.034954455 0.62300003 0.073185883 1.6597384e-38 352 173
0.036046781 0.62300003 0.073185883 1.6320438e-38 353 173
0.037198719 0.62400001 0.073303364 1.548851e-38 354 173
0.038292799 0.62400001 0.073303364 1.3552402e-38 355 173
0.03938688 0.62400001 0.073303364 1.0240922e-38 356 173
0.04048096 0.62400001 0.073303364 1.0240922e-38 357 173
0.016437499 0.625 0.072324999 1.6974838e-38 335 174
0.017505281 0.62400001 0.072209284 1.6975194e-38 336 174
0.018599359 0.62400001 0.072209284 1.6790442e-38 337 174
0.01969344 0.62400001 0.072209284 1.6882997e-38 338 174
0.020754207 0.62300003 0.072093561 1.6975194e-38 339 174
0.021846535 0.62300003 0.072093561 1.7341815e-38 340 174
0.022938859 0.62300003 0.072093561 1.6973392e-38 341 174
0.024031186 0.62300003 0.072093561 1.7064508e-38 342 174
0.025123514 0.62300003 0.072093561 1.6696084e-38 343 174
0.02621584 0.62300003 0.072093561 1.6510969e-38 344 174
0.027308168 0.62300003 0.072093561 1.6418773e-38 345 174
0.028400492 0.62300003 0.072093561 1.6602792e-38 346 174
0.029492822 0.62300003 0.072093561 1.6326205e-38 347 174
0.030585146 0.62300003 0.072093561 1.6232208e-38 348 174
0.031677473 0.62300003 0.072093561 1.595598e-38 349 174
0.032769799 0.62300003 0.072093561 1.6505188e-38 350 174
0.033862129 0.62300003 0.072093561 1.6320438e-38 351 174
0.034954455 0.62300003 0.072093561 1.6225712e-38 352 174
0.036046781 0.62300003 0.072093561 1.4658026e-38 353 174
0.037198719 0.62400001 0.072209284 1.1897908e-38 354 174
0.038292799 0.62400001 0.072209284 9.8696043e-39 355 174
0.03938688 0.62400001 0.072209284 9.1360022e-39 356 174
0.016490098 0.62699997 0.071457095 1.2184632e-38 335 175
0.017533332 0.625 0.071229167 1.4394082e-38 336 175
0.018599359 0.62400001 0.071115203 1.5223842e-38 337 175
0.01969344 0.62400001 0.071115203 1.6145073e-38 338 175
0.020787518 0.62400001 0.071115203 1.6790442e-38 339 175
0.021846535 0.62300003 0.071001239 1.7341451e-38 340 175
0.022938859 0.62300003 0.071001239 1.7249255e-38 341 175
0.024031186 0.62300003 0.071001239 1.7616593e-38 342 175
0.025123514 0.62300003 0.071001239 1.7432202e-38 343 175
0.02621584 0.62300003 0.071001239 1.7154886e-38 344 175
0.027308168 0.62300003 0.071001239 1.6970495e-38 345 175
0.028400492 0.62300003 0.071001239 1.7153439e-38 346 175
0.029492822 0.62300003 0.071001239 1.6692819e-38 347 175
0.030585146 0.62300003 0.071001239 1.6505907e-38 348 175
0.031677473 0.62300003 0.071001239 1.5860538e-38 349 175
0.032769799 0.62300003 0.071001239 1.5028253e-38 350 175
0.033862129 0.62300003 0.071001239 1.3276897e-38 351 175
0.034954455 0.62300003 0.071001239 1.1708123e-38 352 175
0.036046781 0.62300003 0.071001239 8.942253e-39 353 175
0.037198719 0.62400001 0.071115203 5.6350864e-39 354 175
0.038292799 0.62400001 0.071115203 5.6350864e-39 355 175
0.017533332 0.625 0.070133328 1.0518268e-38 336 176
0.018629165 0.625 0.070133328 1.1348029e-38 337 176
0.019724999 0.625 0.070133328 1.2085944e-38 338 176
0.020787518 0.62400001 0.070021123 1.2639118e-38 339 176
0.021881601 0.62400001 0.070021123 1.3651828e-38 340 176
0.022975679 0.62400001 0.070021123 1.448159e-38 341 176
0.024031186 0.62300003 0.069908909 1.4848924e-38 342 176
0.025123514 0.62300003 0.069908909 1.4387945e-38 343 176
0.02621584 0.62300003 0.069908909 1.447905e-38 344 176
0.027308168 0.62300003 0.069908909 1.4386852e-38 345 176
0.028400492 0.62300003 0.069908909 1.4109178e-38 346 176
0.029492822 0.62300003 0.069908909 1.3279057e-38 347 176
0.030585146 0.62300003 0.069908909 1.2723367e-38 348 176
0.031677473 0.62300003 0.069908909 1.1801409e-38 349 176
0.032769799 0.62300003 0.069908909 1.0696138e-38 350 176
0.033862129 0.62300003 0.069908909 9.5897902e-39 351 176
0.034954455 0.62300003 0.069908909 7.4761277e-39 352 176
0.036046781 0.62300003 0.069908909 7.1073452e-39 353 176
0.019724999 0.625 0.069037497 7.4747054e-39 338 177
0.020787518 0.62400001 0.068927035 7.9353234e-39 339 177
0.021881601 0.62400001 0.068927035 8.212639e-39 340 177
0.022975679 0.62400001 0.068927035 9.2267923e-39 341 177
0.024031186 0.62300003 0.06881658 9.6856152e-39 342 177
0.025123514 0.62300003 0.06881658 9.6856152e-39 343 177
0.02621584 0.62300003 0.06881658 9.7767151e-39 344 177
0.027308168 0.62300003 0.06881658 9.7767151e-39 345 177
0.028400492 0.62300003 0.06881658 9.7749046e-39 346 177
0.029492822 0.62300003 0.06881658 8.4841658e-39 347 177
0.030634239 0.62400001 0.068927035 7.92992e-39 348 177
0.03172832 0.62400001 0.068927035 7.1001579e-39 349 177
0.032769799 0.62300003 0.06881658 6.8246626e-39 350 177
0.033862129 0.62300003 0.06881658 7.0090553e-39 351 177
0.020787518 0.62400001 0.067832954 9.5915923e-39 339 178
0.021881601 0.62400001 0.067832954 9.4986904e-39 340 178
0.022975679 0.62400001 0.067832954 9.8671128e-39 341 178
0.02406976 0.62400001 0.067832954 9.223198e-39 342 178
0.025123514 0.62300003 0.067724258 9.3153936e-39 343 178
0.02621584 0.62300003 0.067724258 9.9585952e-39 344 178
0.027352 0.62400001 0.067832954 9.7742039e-39 345 178
0.02844608 0.62400001 0.067832954 9.3146481e-39 346 178
0.029540159 0.62400001 0.067832954 9.4990394e-39 347 178
0.030634239 0.62400001 0.067832954 1.014369e-38 348 178
0.03172832 0.62400001 0.067832954 1.0696864e-38 349 178
0.0328224 0.62400001 0.067832954 1.1617391e-38 350 178
0.022975679 0.62400001 0.066738874 1.152771e-38 341 179
0.02406976 0.62400001 0.066738874 1.152736e-38 342 179
0.025163841 0.62400001 0.066738874 1.1066741e-38 343 179
0.026257919 0.62400001 0.066738874 1.0607202e-38 344 179
0.027352 0.62400001 0.066738874 1.0607202e-38 345 179
0.02844608 0.62400001 0.066738874 1.1160005e-38 346 179
0.029540159 0.62400001 0.066738874 1.1989767e-38 347 179
0.030634239 0.62400001 0.066738874 1.3001396e-38 348 179
0.0011852533 0.676 -0.011852534 1.0427346e-38 321 250
0.0023669999 0.67500001 -0.011835 9.1405284e-39 322 250
0.0035505001 0.67500001 -0.011835 8.5873546e-39 323 250
0.053336397 0.676 -0.011852534 9.0458328e-39 365 250
0.054521654 0.676 -0.011852534 9.6890302e-39 366 250
-0.0072587994 0.69 -0.0133078 2.018651e-38 314 251
-0.0060314666 0.68800002 -0.013269227 1.7881261e-38 315 251
-0.0048111463 0.68599999 -0.013230653 1.4381404e-38 316 251
-0.00360836 0.68599999 -0.013230653 1.1799927e-38 317 251
-0.0023950534 0.68300003 -0.013172794 1.1441183e-38 318 251
-0.0011957732 0.68199998 -0.013153506 1.2270944e-38 319 251
0 0.68199998 -0.013153506 1.1995391e-38 320 251
0.0011852533 0.676 -0.013037786 1.1350022e-38 321 251
0.0023669999 0.67500001 -0.0130185 9.9706478e-39 322 251
0.00354524 0.67400002 -0.012999214 9.4174754e-39 323 251
0.0047129598 0.67199999 -0.012960639 8.2225349e-39 324 251
0.0058824331 0.671 -0.012941353 7.5771655e-39 325 251
0.0070589199 0.671 -0.012941353 6.9325248e-39 326 251
0.010525259 0.667 -0.012864206 7.6679416e-39 329 251
0.011677199 0.66600001 -0.01284492 7.6665123e-39 330 251
0.01284492 0.66600001 -0.01284492 7.2055342e-39 331 251
0.013970559 0.66399997 -0.012806346 6.5591138e-39 332 251
0.015134773 0.66399997 -0.012806346 5.7289944e-39 333 251
0.052151144 0.676 -0.013037786 9.5053704e-39 364 251
0.053336397 0.676 -0.013037786 9.597566e-39 365 251
0.054521654 0.676 -0.013037786 1.0331884e-38 366 251
0.055706903 0.676 -0.013037786 9.1333411e-39 367 251
0.057060476 0.67799997 -0.013076359 1.042197e-38 368 251
-0.0072587994 0.69 -0.014517599 2.0369466e-38 314 252
-0.0060314666 0.68800002 -0.014475521 1.843336e-38 315 252
-0.0048111463 0.68599999 -0.01443344 1.49353e-38 316 252
-0.00360836 0.68599999 -0.01443344 1.1892845e-38 317 252
-0.0023950534 0.68300003 -0.014370319 1.0888378e-38 318 252
-0.0011957732 0.68199998 -0.01434928 1.190289e-38 319 252
0 0.68000001 -0.014307199 1.1536583e-38 320 252
0.0011852533 0.676 -0.014223038 1.1352192e-38 321 252
0.0023669999 0.67500001 -0.014202001 1.0156122e-38 322 252
0.00354524 0.67400002 -0.01418096 9.5107528e-39 323 252
0.0047129598 0.67199999 -0.01413888 8.9600635e-39 324 252
0.0058824331 0.671 -0.01411784 8.4990882e-39 325 252
0.0070589199 0.671 -0.01411784 8.4058178e-39 326 252
0.0081985854 0.66799998 -0.014054719 8.2214293e-39 327 252
0.0093698129 0.66799998 -0.014054719 8.4940869e-39 328 252
0.010525259 0.667 -0.014033679 8.4018913e-39 329 252
0.011677199 0.66600001 -0.014012639 7.6657892e-39 330 252
0.01284492 0.66600001 -0.014012639 7.2973669e-39 331 252
0.013970559 0.66399997 -0.013970559 6.5591082e-39 332 252
0.015134773 0.66399997 -0.013970559 5.7293475e-39 333 252
0.026857559 0.66600001 -0.014012639 7.8530714e-39 343 252
0.028025279 0.66600001 -0.014012639 7.8516449e-39 344 252
0.04327051 0.667 -0.014033679 9.0466175e-39 357 252
0.04437336 0.66600001 -0.014012639 9.3221156e-39 358 252
0.045541082 0.66600001 -0.014012639 9.1373642e-39 359 252
0.052151144 0.676 -0.014223038 9.8727054e-39 364 252
0.053336397 0.676 -0.014223038 1.0149291e-38 365 252
0.054521654 0.676 -0.014223038 1.0240061e-38 366 252
0.055706903 0.676 -0.014223038 9.3181051e-39 367 252
0.057060476 0.67799997 -0.014265119 1.0607087e-38 368 252
-0.0072377604 0.68800002 -0.015681813 2.0369466e-38 314 253
-0.0060226996 0.68699998 -0.015659019 1.8986532e-38 315 253
-0.0048111463 0.68599999 -0.015636226 1.5487401e-38 316 253
-0.00360836 0.68599999 -0.015636226 1.2813728e-38 317 253
-0.0023950534 0.68300003 -0.015567848 1.1163873e-38 318 253
-0.0011975267 0.68300003 -0.015567848 1.1533016e-38 319 253
0 0.68000001 -0.015499466 1.1536208e-38 320 253
0.0011852533 0.676 -0.015408293 1.125998e-38 321 253
0.0023669999 0.67500001 -0.0153855 1.0065008e-38 322 253
0.00354524 0.67400002 -0.015362706 9.5118346e-39 323 253
0.0047269869 0.67400002 -0.015362706 8.6856487e-39 324 253
0.0058911997 0.67199999 -0.01531712 8.5008973e-39 325 253
0.0070589199 0.671 -0.015294326 9.0519299e-39 326 253
0.0081985854 0.66799998 -0.015225946 9.0519299e-39 327 253
0.0093698129 0.66799998 -0.015225946 1.0331178e-38 328 253
0.010525259 0.667 -0.015203152 9.4095819e-39 329 253
0.011677199 0.66600001 -0.01518036 7.1154895e-39 330 253
0.01284492 0.66600001 -0.01518036 6.4701201e-39 331 253
0.013970559 0.66399997 -0.015134773 5.4574339e-39 332 253
0.015134773 0.66399997 -0.015134773 4.8120645e-39 333 253
0.016298985 0.66399997 -0.015134773 4.9049846e-39 334 253
0.025574118 0.66299999 -0.015111978 6.6563261e-39 342 253
0.026696252 0.662 -0.015089186 7.8548692e-39 343 253
0.027856959 0.662 -0.015089186 8.5892169e-39 344 253
0.029017664 0.662 -0.015089186 8.8654437e-39 345 253
0.03853476 0.66600001 -0.01518036 1.0059325e-38 353 253
0.039702479 0.66600001 -0.01518036 9.7809358e-39 354 253
0.040870197 0.66600001 -0.01518036 9.504709e-39 355 253
0.042037919 0.66600001 -0.01518036 9.0455217e-39 356 253
0.04327051 0.667 -0.015203152 8.9533261e-39 357 253
0.04437336 0.66600001 -0.01518036 9.6876289e-39 358 253
0.045541082 0.66600001 -0.01518036 9.8720202e-39 359 253
0.046989333 0.67000002 -0.015271533 9.7815818e-39 360 253
0.048235953 0.671 -0.015294326 9.7815818e-39 361 253
0.049412437 0.671 -0.015294326 9.6897393e-39 362 253
0.050664317 0.67199999 -0.01531712 9.7819349e-39 363 253
0.052151144 0.676 -0.015408293 1.0147866e-38 364 253
0.053336397 0.676 -0.015408293 1.0240061e-38 365 253
0.054682959 0.67799997 -0.015453878 1.0699243e-38 366 253
0.055871718 0.67799997 -0.015453878 9.3159499e-39 367 253
0.057144642 0.67900002 -0.015476674 1.0884397e-38 368 253
-0.0072377604 0.68800002 -0.016888106 2.0093959e-38 314 254
-0.0060226996 0.68699998 -0.01686356 1.8711024e-38 315 254
-0.0048181596 0.68699998 -0.01686356 1.5396648e-38 316 254
-0.00360836 0.68599999 -0.016839013 1.2722975e-38 317 254
-0.0023985601 0.68400002 -0.016789921 1.1255347e-38 318 254
-0.0011975267 0.68300003 -0.016765373 1.1531932e-38 319 254
0 0.68000001 -0.016691733 1.0800438e-38 320 254
0.0011852533 0.676 -0.016593546 1.0524211e-38 321 254
0.0023669999 0.67500001 -0.016569 9.9731631e-39 322 254
0.00354524 0.67400002 -0.016544454 9.6965748e-39 323 254
0.0047269869 0.67400002 -0.016544454 9.0529836e-39 324 254
0.0058911997 0.67199999 -0.01649536 9.0529836e-39 325 254
0.0070589199 0.671 -0.016470812 9.7877026e-39 326 254
0.0082231332 0.67000002 -0.016446266 1.0156125e-38 327 254
0.0093698129 0.66799998 -0.016397171 1.0335144e-38 328 254
0.010525259 0.667 -0.016372627 9.2291563e-39 329 254
0.011694733 0.667 -0.016372627 7.7601401e-39 330 254
0.01284492 0.66600001 -0.016348081 7.4831944e-39 331 254
0.013970559 0.66399997 -0.016298985 6.1038753e-39 332 254
0.015134773 0.66399997 -0.016298985 5.2741133e-39 333 254
0.016298985 0.66399997 -0.016298985 4.7223884e-39 334 254
0.0174632 0.66399997 -0.016298985 4.9067797e-39 335 254
0.018683519 0.66600001 -0.016348081 5.6414651e-39 336 254
0.019851239 0.66600001 -0.016348081 5.3652369e-39 337 254
0.02101896 0.66600001 -0.016348081 5.6414483e-39 338 254
0.02218668 0.66600001 -0.016348081 6.2868177e-39 339 254
0.023284266 0.66399997 -0.016298985 6.7474329e-39 340 254
0.024448479 0.66399997 -0.016298985 6.9318241e-39 341 254
0.025574118 0.66299999 -0.016274439 7.4850105e-39 342 254
0.026696252 0.662 -0.016249891 8.2225756e-39 343 254
0.027856959 0.662 -0.016249891 9.049116e-39 344 254
0.028973831 0.66100001 -0.016225345 9.3257015e-39 345 254
0.030132787 0.66100001 -0.016225345 9.7849014e-39 346 254
0.031339079 0.662 -0.016249891 1.0061848e-38 347 254
0.032499783 0.662 -0.016249891 1.0154044e-38 348 254
0.033711337 0.66299999 -0.016274439 1.0154044e-38 349 254
0.03619932 0.66600001 -0.016348081 1.0889081e-38 351 254
0.037367038 0.66600001 -0.016348081 1.1346801e-38 352 254
0.03853476 0.66600001 -0.016348081 1.0701432e-38 353 254
0.039702479 0.66600001 -0.016348081 1.1160228e-38 354 254
0.040870197 0.66600001 -0.016348081 1.0791087e-38 355 254
0.042037919 0.66600001 -0.016348081 9.9627528e-39 356 254
0.043335386 0.66799998 -0.016397171 9.5939689e-39 357 254
0.044506609 0.66799998 -0.016397171 9.9648814e-39 358 254
0.045677837 0.66799998 -0.016397171 1.0241468e-38 359 254
0.046989333 0.67000002 -0.016446266 1.0425122e-38 360 254
0.048235953 0.671 -0.016470812 1.0425122e-38 361 254
0.049412437 0.671 -0.016470812 1.0332941e-38 362 254
0.050664317 0.67199999 -0.01649536 1.0332941e-38 363 254
0.052151144 0.676 -0.016593546 1.0331184e-38 364 254
0.053494196 0.67799997 -0.016642639 1.0423379e-38 365 254
0.054682959 0.67799997 -0.016642639 9.8727264e-39 366 254
0.055871718 0.67799997 -0.016642639 9.1348026e-39 367 254
0.057144642 0.67900002 -0.016667187 1.1803838e-38 368 254
-0.0060226996 0.68699998 -0.018068098 1.8527356e-38 315 255
-0.0048181596 0.68699998 -0.018068098 1.5489216e-38 316 255
-0.0036136196 0.68699998 -0.018068098 1.2907739e-38 317 255
-0.0023985601 0.68400002 -0.0179892 1.1254649e-38 318 255
-0.0011975267 0.68300003 -0.017962901 1.0977704e-38 319 255
0 0.68000001 -0.017883999 1.0982331e-38 320 255
0.0011887599 0.67799997 -0.0178314 1.0706104e-38 321 255
0.0023705065 0.676 -0.017778801 9.9731659e-39 322 255
0.0035505001 0.67500001 -0.0177525 9.5121877e-39 323 255
0.0047339997 0.67500001 -0.0177525 9.0537081e-39 324 255
0.0059087332 0.67400002 -0.0177262 8.9611537e-39 325 255
0.0070694401 0.67199999 -0.017673599 9.2370456e-39 326 255
0.0082354061 0.671 -0.0176473 9.3292426e-39 327 255
0.0093698129 0.66799998 -0.017568398 9.5107584e-39 328 255
0.010525259 0.667 -0.0175421 9.0497803e-39 329 255
0.011694733 0.667 -0.0175421 8.957935e-39 330 255
0.01284492 0.66600001 -0.017515799 9.234882e-39 331 255
0.014012639 0.66600001 -0.017515799 8.7749856e-39 332 255
0.01518036 0.66600001 -0.017515799 8.1296162e-39 333 255
0.016298985 0.66399997 -0.0174632 7.4871209e-39 334 255
0.0174632 0.66399997 -0.0174632 7.1183398e-39 335 255
0.018683519 0.66600001 -0.017515799 7.4845999e-39 336 255
0.019851239 0.66600001 -0.017515799 7.3002087e-39 337 255
0.02101896 0.66600001 -0.017515799 7.2087361e-39 338 255
0.02218668 0.66600001 -0.017515799 7.2087361e-39 339 255
0.023284266 0.66399997 -0.0174632 7.3016576e-39 340 255
0.024448479 0.66399997 -0.0174632 7.3016576e-39 341 255
0.025574118 0.66299999 -0.017436899 8.3122278e-39 342 255
0.026736578 0.66299999 -0.017436899 9.2345443e-39 343 255
0.027856959 0.662 -0.017410601 9.6933966e-39 344 255
0.028973831 0.66100001 -0.0173843 9.7855923e-39 345 255
0.030132787 0.66100001 -0.0173843 9.8774348e-39 346 255
0.031339079 0.662 -0.017410601 9.8774348e-39 347 255
0.032499783 0.662 -0.017410601 1.0336595e-38 348 255
0.033711337 0.66299999 -0.017436899 1.0336595e-38 349 255
0.0349264 0.66399997 -0.0174632 1.107162e-38 350 255
0.03619932 0.66600001 -0.017515799 1.107162e-38 351 255
0.037367038 0.66600001 -0.017515799 1.1622605e-38 352 255
0.03853476 0.66600001 -0.017515799 1.1346017e-38 353 255
0.039702479 0.66600001 -0.017515799 1.162079e-38 354 255
0.040870197 0.66600001 -0.017515799 1.1344203e-38 355 255
0.042101037 0.667 -0.0175421 1.0606284e-38 356 255
0.043335386 0.66799998 -0.017568398 1.03297e-38 357 255
0.044639867 0.67000002 -0.017620999 1.0975777e-38 358 255
0.0458146 0.67000002 -0.017620999 1.1067971e-38 359 255
0.047059465 0.671 -0.0176473 1.0609511e-38 360 255
0.048235953 0.671 -0.0176473 1.0609511e-38 361 255
0.049486078 0.67199999 -0.017673599 1.0608449e-38 362 255
0.050815105 0.67400002 -0.0177262 1.0424418e-38 363 255
0.052151144 0.676 -0.017778801 1.0423011e-38 364 255
0.053494196 0.67799997 -0.0178314 1.0330815e-38 365 255
0.054682959 0.67799997 -0.0178314 9.6883324e-39 366 255
0.055954125 0.67900002 -0.017857701 9.5043012e-39 367 255
0.057144642 0.67900002 -0.017857701 1.2633242e-38 368 255
0.058421064 0.68000001 -0.017883999 1.7150469e-38 369 255
-0.0060226996 0.68699998 -0.019272638 1.8619554e-38 315 256
-0.0048181596 0.68699998 -0.019272638 1.5581059e-38 316 256
-0.0036136196 0.68699998 -0.019272638 1.3184331e-38 317 256
-0.0023985601 0.68400002 -0.01918848 1.1622016e-38 318 256
