# .PCD v.7 - Point Cloud Data file format
FIELDS x y z rgb imX imY
SIZE 4 4 4 4 4 4
TYPE F F F F F F
COUNT 1 1 1 1 1 1
WIDTH 824
HEIGHT 1
VIEWPOINT 0 0 0 1 0 0 0
POINTS 824
DATA ascii
-0.03348165 0.68199998 -0.009566186 1.1341507e-38 292 248
-0.032191198 0.68000001 -0.0095381327 1.1157117e-38 293 248
-0.030998932 0.68000001 -0.0095381327 9.2210147e-39 294 248
-0.029806666 0.68000001 -0.0095381327 8.3908939e-39 295 248
-0.028572321 0.67900002 -0.009524107 7.837374e-39 296 248
-0.027381808 0.67900002 -0.009524107 7.6529814e-39 297 248
-0.026152719 0.67799997 -0.0095100794 7.1019726e-39 298 248
-0.024963958 0.67799997 -0.0095100794 7.1019726e-39 299 248
-0.023705067 0.676 -0.0094820261 7.2852849e-39 300 248
-0.022519812 0.676 -0.0094820261 7.1012537e-39 301 248
-0.021397678 0.67799997 -0.0095100794 7.2849219e-39 302 248
-0.020208918 0.67799997 -0.0095100794 7.6533443e-39 303 248
-0.019020159 0.67799997 -0.0095100794 8.1128819e-39 304 248
-0.0178314 0.67799997 -0.0095100794 8.2050775e-39 305 248
-0.016642639 0.67799997 -0.0095100794 8.4805784e-39 306 248
-0.015453878 0.67799997 -0.0095100794 8.0192401e-39 307 248
-0.014265119 0.67799997 -0.0095100794 7.7437267e-39 308 248
-0.013095647 0.67900002 -0.009524107 8.7582387e-39 309 248
-0.011905133 0.67900002 -0.009524107 9.6794663e-39 310 248
-0.010698839 0.67799997 -0.0095100794 9.9560518e-39 311 248
-0.0095100794 0.67799997 -0.0095100794 9.9553302e-39 312 248
-0.0083213197 0.67799997 -0.0095100794 9.5869064e-39 313 248
-0.0071430802 0.67900002 -0.009524107 9.1226982e-39 314 248
-0.0059525664 0.67900002 -0.009524107 8.3851332e-39 315 248
-0.0047620535 0.67900002 -0.009524107 8.2922173e-39 316 248
-0.0035767998 0.68000001 -0.0095381327 8.47661e-39 317 248
-0.0023845332 0.68000001 -0.0095381327 8.2028901e-39 318 248
-0.0011957732 0.68199998 -0.009566186 8.2950858e-39 319 248
0 0.68199998 -0.009566186 8.2032432e-39 320 248
0.0011975267 0.68300003 -0.0095802136 8.2954389e-39 321 248
0.0023950534 0.68300003 -0.0095802136 8.5709496e-39 322 248
0.0035925799 0.68300003 -0.0095802136 8.5709496e-39 323 248
0.0047971201 0.68400002 -0.0095942402 8.3851304e-39 324 248
0.0060139326 0.68599999 -0.0096222926 7.8319566e-39 325 248
0.0072272392 0.68699998 -0.0096363192 7.3717057e-39 326 248
0.0084440531 0.68800002 -0.0096503468 7.2791514e-39 327 248
0.0096783992 0.69 -0.0096783992 7.5557299e-39 328 248
0.010935539 0.69300002 -0.0097204801 8.477326e-39 329 248
0.012168133 0.69400001 -0.0097345067 8.847891e-39 330 248
0.013423519 0.69599998 -0.0097625591 9.0322822e-39 331 248
0.01468592 0.69800001 -0.0097906133 1.0599235e-38 332 248
0.015909746 0.69800001 -0.0097906133 1.2350952e-38 333 248
0.017182667 0.69999999 -0.0098186666 1.6588704e-38 334 248
0.018409999 0.69999999 -0.0098186666 1.6588704e-38 335 248
0.019637333 0.69999999 -0.0098186666 1.6586186e-38 336 248
0.020864666 0.69999999 -0.0098186666 1.6678383e-38 337 248
-0.048672531 0.69400001 -0.01095132 1.0970561e-38 280 249
-0.047387339 0.69300002 -0.010935539 1.014044e-38 281 249
-0.046039023 0.69099998 -0.01090398 1.0880176e-38 282 249
-0.044827472 0.69099998 -0.01090398 1.1064567e-38 283 249
-0.043615919 0.69099998 -0.01090398 1.0789062e-38 284 249
-0.042342998 0.69 -0.010888199 1.0696866e-38 285 249
-0.041013971 0.68800002 -0.010856641 1.0789059e-38 286 249
-0.039749816 0.68699998 -0.010840859 1.1065287e-38 287 249
-0.03848917 0.68599999 -0.010825079 1.1341151e-38 288 249
-0.037177678 0.68400002 -0.01079352 1.1341151e-38 289 249
-0.035925802 0.68300003 -0.01077774 1.1341507e-38 290 249
-0.034677424 0.68199998 -0.010761959 1.1157117e-38 291 249
-0.03348165 0.68199998 -0.010761959 1.1157473e-38 292 249
-0.032285877 0.68199998 -0.010761959 1.1157473e-38 293 249
-0.030998932 0.68000001 -0.0107304 9.129182e-39 294 249
-0.029806666 0.68000001 -0.0107304 8.2075845e-39 295 249
-0.028614398 0.68000001 -0.0107304 7.7455441e-39 296 249
-0.027381808 0.67900002 -0.010714619 7.469316e-39 297 249
-0.026191294 0.67900002 -0.010714619 6.9183072e-39 298 249
-0.024963958 0.67799997 -0.010698839 6.8261116e-39 299 249
-0.023775198 0.67799997 -0.010698839 6.8261088e-39 300 249
-0.022586439 0.67799997 -0.010698839 7.1948899e-39 301 249
-0.021397678 0.67799997 -0.010698839 7.2874401e-39 302 249
-0.020238725 0.67900002 -0.010714619 7.2874401e-39 303 249
-0.019048214 0.67900002 -0.010714619 8.0210422e-39 304 249
-0.017857701 0.67900002 -0.010714619 8.2054335e-39 305 249
-0.016667187 0.67900002 -0.010714619 9.21634e-39 306 249
-0.015476674 0.67900002 -0.010714619 9.9542638e-39 307 249
-0.01428616 0.67900002 -0.010714619 1.0138642e-38 308 249
-0.013095647 0.67900002 -0.010714619 1.0138642e-38 309 249
-0.011905133 0.67900002 -0.010714619 1.0140793e-38 310 249
-0.010714619 0.67900002 -0.010714619 1.0140793e-38 311 249
-0.009524107 0.67900002 -0.010714619 1.0322668e-38 312 249
-0.0083335936 0.67900002 -0.010714619 9.953884e-39 313 249
-0.0071430802 0.67900002 -0.010714619 9.398562e-39 314 249
-0.0059613334 0.68000001 -0.0107304 8.2922145e-39 315 249
-0.0047690663 0.68000001 -0.0107304 8.1085463e-39 316 249
-0.00358732 0.68199998 -0.010761959 8.3851332e-39 317 249
-0.0023915465 0.68199998 -0.010761959 8.0185031e-39 318 249
-0.0011957732 0.68199998 -0.010761959 8.0185031e-39 319 249
0 0.68300003 -0.01077774 8.2018153e-39 320 249
0.0011975267 0.68300003 -0.01077774 8.2018153e-39 321 249
0.0023950534 0.68300003 -0.01077774 8.4776819e-39 322 249
0.00359784 0.68400002 -0.01079352 8.3854863e-39 323 249
0.0048111463 0.68599999 -0.010825079 8.1085463e-39 324 249
0.0060226996 0.68699998 -0.010840859 7.5557327e-39 325 249
0.0072272392 0.68699998 -0.010840859 7.0958419e-39 326 249
0.0084440531 0.68800002 -0.010856641 7.0036463e-39 327 249
0.0096924258 0.69099998 -0.01090398 7.2805849e-39 328 249
0.01095132 0.69400001 -0.01095132 8.0181499e-39 329 249
0.0122032 0.69599998 -0.010982879 8.9397335e-39 330 249
0.013442807 0.69700003 -0.01099866 9.4007102e-39 331 249
0.01468592 0.69800001 -0.01101444 1.0875102e-38 332 249
0.015909746 0.69800001 -0.01101444 1.2442429e-38 333 249
0.017182667 0.69999999 -0.011045999 1.6496865e-38 334 249
0.018409999 0.69999999 -0.011045999 1.658906e-38 335 249
0.019637333 0.69999999 -0.011045999 1.6678383e-38 336 249
0.020864666 0.69999999 -0.011045999 1.6678383e-38 337 249
-0.048672531 0.69400001 -0.012168133 1.1614128e-38 280 250
-0.047250576 0.69099998 -0.012115533 1.0231194e-38 281 250
-0.046039023 0.69099998 -0.012115533 1.0419201e-38 282 250
-0.044827472 0.69099998 -0.012115533 1.0419201e-38 283 250
-0.043615919 0.69099998 -0.012115533 1.0142261e-38 284 250
-0.042220265 0.68800002 -0.012062933 1.0050065e-38 285 250
-0.041013971 0.68800002 -0.012062933 1.0143693e-38 286 250
-0.039749816 0.68699998 -0.012045399 1.0696866e-38 287 250
-0.03848917 0.68599999 -0.012027865 1.1341154e-38 288 250
-0.037177678 0.68400002 -0.0119928 1.1064567e-38 289 250
-0.035978399 0.68400002 -0.0119928 1.1341151e-38 290 250
-0.034728274 0.68300003 -0.011975267 1.115712e-38 291 250
-0.03348165 0.68199998 -0.011957732 1.1341504e-38 292 250
-0.032285877 0.68199998 -0.011957732 1.1065276e-38 293 250
-0.030998932 0.68000001 -0.011922667 9.0380654e-39 294 250
-0.029806666 0.68000001 -0.011922667 8.1161077e-39 295 250
-0.028614398 0.68000001 -0.011922667 7.5604326e-39 296 250
-0.027422134 0.68000001 -0.011922667 7.468237e-39 297 250
-0.026191294 0.67900002 -0.011905133 7.1923732e-39 298 250
-0.025000781 0.67900002 -0.011905133 7.1923732e-39 299 250
-0.023775198 0.67799997 -0.011887599 7.1945242e-39 300 250
-0.022586439 0.67799997 -0.011887599 7.3789168e-39 301 250
-0.021429239 0.67900002 -0.011905133 7.562585e-39 302 250
-0.020238725 0.67900002 -0.011905133 7.562585e-39 303 250
-0.019048214 0.67900002 -0.011905133 8.2029153e-39 304 250
-0.017857701 0.67900002 -0.011905133 8.5713391e-39 305 250
-0.016667187 0.67900002 -0.011905133 9.1248632e-39 306 250
-0.015476674 0.67900002 -0.011905133 1.0784743e-38 307 250
-0.01428616 0.67900002 -0.011905133 1.0417385e-38 308 250
-0.013095647 0.67900002 -0.011905133 1.0140796e-38 309 250
-0.011922667 0.68000001 -0.011922667 1.0416654e-38 310 250
-0.010714619 0.67900002 -0.011905133 1.0232623e-38 311 250
-0.009524107 0.67900002 -0.011905133 1.041414e-38 312 250
-0.0083458666 0.68000001 -0.011922667 1.0045358e-38 313 250
-0.0071535995 0.68000001 -0.011922667 9.2145281e-39 314 250
-0.0059613334 0.68000001 -0.011922667 8.4769631e-39 315 250
-0.0047690663 0.68000001 -0.011922667 8.1096225e-39 316 250
-0.00358732 0.68199998 -0.011957732 8.2018181e-39 317 250
-0.0023915465 0.68199998 -0.011957732 8.2018153e-39 318 250
-0.0011975267 0.68300003 -0.011975267 8.1096183e-39 319 250
0 0.68300003 -0.011975267 8.1089022e-39 320 250
0.00119928 0.68400002 -0.0119928 8.2010993e-39 321 250
0.0023985601 0.68400002 -0.0119928 8.3851304e-39 322 250
0.00359784 0.68400002 -0.0119928 8.3851304e-39 323 250
0.0048111463 0.68599999 -0.012027865 7.9252298e-39 324 250
0.0060226996 0.68699998 -0.012045399 7.4642531e-39 325 250
0.0072377604 0.68800002 -0.012062933 7.0951202e-39 326 250
0.0084440531 0.68800002 -0.012062933 7.0951202e-39 327 250
0.0096924258 0.69099998 -0.012115533 7.5564515e-39 328 250
0.010982879 0.69599998 -0.0122032 8.2940166e-39 329 250
0.0122032 0.69599998 -0.0122032 8.9404524e-39 330 250
0.013423519 0.69599998 -0.0122032 9.4936261e-39 331 250
0.01468592 0.69800001 -0.012238266 1.1152409e-38 332 250
0.015909746 0.69800001 -0.012238266 1.2535343e-38 333 250
0.017182667 0.69999999 -0.012273333 1.658906e-38 334 250
0.018436298 0.70099998 -0.012290866 1.658906e-38 335 250
0.019665385 0.70099998 -0.012290866 1.6586186e-38 336 250
-0.048672531 0.69400001 -0.013384946 1.2903069e-38 280 251
-0.047250576 0.69099998 -0.013327086 1.1336102e-38 281 251
-0.046039023 0.69099998 -0.013327086 1.0326286e-38 282 251
-0.044827472 0.69099998 -0.013327086 1.004934e-38 283 251
-0.043615919 0.69099998 -0.013327086 8.9437202e-39 284 251
-0.042220265 0.68800002 -0.013269227 7.9295697e-39 285 251
-0.041013971 0.68800002 -0.013269227 7.7480581e-39 286 251
-0.039749816 0.68699998 -0.013249939 8.8547658e-39 287 251
-0.03848917 0.68599999 -0.013230653 1.0053662e-38 288 251
-0.037286382 0.68599999 -0.013230653 1.0606836e-38 289 251
-0.035978399 0.68400002 -0.01319208 1.115712e-38 290 251
-0.03477912 0.68400002 -0.01319208 1.115712e-38 291 251
-0.033530746 0.68300003 -0.013172794 1.1248233e-38 292 251
-0.032285877 0.68199998 -0.013153506 1.1248233e-38 293 251
-0.031090107 0.68199998 -0.013153506 9.4061277e-39 294 251
-0.029894331 0.68199998 -0.013153506 8.2075845e-39 295 251
-0.028614398 0.68000001 -0.013114933 7.2838471e-39 296 251
-0.027422134 0.68000001 -0.013114933 7.2838471e-39 297 251
-0.026229866 0.68000001 -0.013114933 7.1923704e-39 298 251
-0.025037598 0.68000001 -0.013114933 7.3771204e-39 299 251
-0.023810266 0.67900002 -0.013095647 7.1952374e-39 300 251
-0.022619752 0.67900002 -0.013095647 7.3799888e-39 301 251
-0.0214608 0.68000001 -0.013114933 8.2036314e-39 302 251
-0.020268533 0.68000001 -0.013114933 8.2036314e-39 303 251
-0.019076265 0.68000001 -0.013114933 8.3869437e-39 304 251
-0.017857701 0.67900002 -0.013095647 8.5716951e-39 305 251
-0.016667187 0.67900002 -0.013095647 8.7568024e-39 306 251
-0.015476674 0.67900002 -0.013095647 9.5869232e-39 307 251
-0.014307199 0.68000001 -0.013114933 9.9546141e-39 308 251
-0.013114933 0.68000001 -0.013114933 1.0323036e-38 309 251
-0.011922667 0.68000001 -0.013114933 1.023227e-38 310 251
-0.0107304 0.68000001 -0.013114933 1.0140075e-38 311 251
-0.0095381327 0.68000001 -0.013114933 1.0322668e-38 312 251
-0.0083458666 0.68000001 -0.013114933 1.004608e-38 313 251
-0.0071535995 0.68000001 -0.013114933 9.2145309e-39 314 251
-0.005978866 0.68199998 -0.013153506 8.4766072e-39 315 251
-0.004783093 0.68199998 -0.013153506 7.9248739e-39 316 251
-0.00358732 0.68199998 -0.013153506 8.2018209e-39 317 251
-0.0023950534 0.68300003 -0.013172794 8.3854835e-39 318 251
-0.0011975267 0.68300003 -0.013172794 8.3854835e-39 319 251
0 0.68400002 -0.01319208 8.1099742e-39 320 251
0.0012027866 0.68599999 -0.013230653 8.2021713e-39 321 251
0.0024055731 0.68599999 -0.013230653 8.2943669e-39 322 251
0.00360836 0.68599999 -0.013230653 8.2943669e-39 323 251
0.0048181596 0.68699998 -0.013249939 7.9252298e-39 324 251
0.0060226996 0.68699998 -0.013249939 7.4642531e-39 325 251
0.0072377604 0.68800002 -0.013269227 7.0951202e-39 326 251
0.0084686 0.69 -0.0133078 7.0951202e-39 327 251
0.0097204801 0.69300002 -0.01336566 7.5564515e-39 328 251
0.010982879 0.69599998 -0.013423519 8.3862122e-39 329 251
0.0122032 0.69599998 -0.013423519 9.216319e-39 330 251
0.013423519 0.69599998 -0.013423519 9.6772985e-39 331 251
0.01468592 0.69800001 -0.013462093 1.1705227e-38 332 251
0.015955333 0.69999999 -0.013500666 1.2719738e-38 333 251
0.017207211 0.70099998 -0.013519952 1.6587985e-38 334 251
0.018515198 0.704 -0.013577812 1.6587985e-38 335 251
0.019749546 0.704 -0.013577812 1.6586186e-38 336 251
-0.04617228 0.69300002 -0.014580719 1.0050788e-38 282 252
-0.044957221 0.69300002 -0.014580719 9.0366361e-39 283 252
-0.043742158 0.69300002 -0.014580719 7.5622319e-39 284 252
-0.042342998 0.69 -0.014517599 6.7324698e-39 285 252
-0.041013971 0.68800002 -0.014475521 5.4474931e-39 286 252
-0.039749816 0.68699998 -0.014454478 6.7382319e-39 287 252
-0.03848917 0.68599999 -0.01443344 8.9476831e-39 288 252
-0.037286382 0.68599999 -0.01443344 1.0238422e-38 289 252
-0.036083598 0.68599999 -0.01443344 1.106529e-38 290 252
-0.03477912 0.68400002 -0.01439136 1.0789062e-38 291 252
-0.033579841 0.68400002 -0.01439136 1.0696861e-38 292 252
-0.032333218 0.68300003 -0.014370319 1.0696861e-38 293 252
-0.031090107 0.68199998 -0.01434928 9.5894371e-39 294 252
-0.029894331 0.68199998 -0.01434928 8.4834497e-39 295 252
-0.02869856 0.68199998 -0.01434928 7.6522597e-39 296 252
-0.027502786 0.68199998 -0.01434928 7.4678684e-39 297 252
-0.026229866 0.68000001 -0.014307199 8.0203191e-39 298 252
-0.025037598 0.68000001 -0.014307199 8.1125162e-39 299 252
-0.023845334 0.68000001 -0.014307199 7.7462504e-39 300 252
-0.022653066 0.68000001 -0.014307199 7.7462504e-39 301 252
-0.021523919 0.68199998 -0.01434928 8.018887e-39 302 252
-0.020268533 0.68000001 -0.014307199 8.1110827e-39 303 252
-0.019076265 0.68000001 -0.014307199 8.3887457e-39 304 252
-0.017883999 0.68000001 -0.014307199 8.573137e-39 305 252
-0.016691733 0.68000001 -0.014307199 8.2958284e-39 306 252
-0.015499466 0.68000001 -0.014307199 8.6646096e-39 307 252
-0.014307199 0.68000001 -0.014307199 9.404327e-39 308 252
-0.013114933 0.68000001 -0.014307199 9.9574994e-39 309 252
-0.011922667 0.68000001 -0.014307199 1.0048601e-38 310 252
-0.0107304 0.68000001 -0.014307199 1.0140796e-38 311 252
-0.0095381327 0.68000001 -0.014307199 1.0415219e-38 312 252
-0.0083704125 0.68199998 -0.01434928 1.0046077e-38 313 252
-0.00717464 0.68199998 -0.01434928 9.7659026e-39 314 252
-0.005978866 0.68199998 -0.01434928 8.5673594e-39 315 252
-0.0047901068 0.68300003 -0.014370319 8.1085463e-39 316 252
-0.0035925799 0.68300003 -0.014370319 8.2011021e-39 317 252
-0.0023950534 0.68300003 -0.014370319 8.2018153e-39 318 252
-0.00119928 0.68400002 -0.01439136 8.2018153e-39 319 252
0 0.68599999 -0.01443344 7.6515142e-39 320 252
0.0012027866 0.68599999 -0.01443344 7.6515142e-39 321 252
0.0024055731 0.68599999 -0.01443344 7.9270235e-39 322 252
0.00360836 0.68599999 -0.01443344 7.9270235e-39 323 252
0.0048181596 0.68699998 -0.014454478 8.1089022e-39 324 252
0.0060314666 0.68800002 -0.014475521 7.4635328e-39 325 252
0.0072587994 0.69 -0.014517599 7.3709813e-39 326 252
0.008480873 0.69099998 -0.014538639 7.4631769e-39 327 252
0.0097204801 0.69300002 -0.014580719 7.6493632e-39 328 252
0.010982879 0.69599998 -0.014643839 8.3869283e-39 329 252
0.0122032 0.69599998 -0.014643839 8.9404552e-39 330 252
0.013423519 0.69599998 -0.014643839 9.5858246e-39 331 252
0.014727999 0.69999999 -0.014727999 1.1429364e-38 332 252
0.015955333 0.69999999 -0.014727999 1.2720103e-38 333 252
0.017280852 0.704 -0.014812159 1.6495437e-38 334 252
0.018515198 0.704 -0.014812159 1.6587991e-38 335 252
0.019749546 0.704 -0.014812159 1.6678386e-38 336 252
-0.046438783 0.69700003 -0.015886955 9.8660436e-39 282 253
-0.045022093 0.69400001 -0.015818574 8.4831092e-39 283 253
-0.043742158 0.69300002 -0.015795778 5.8148463e-39 284 253
-0.042404365 0.69099998 -0.015750192 4.5241075e-39 285 253
-0.041013971 0.68800002 -0.015681813 5.5328714e-39 286 253
-0.039749816 0.68699998 -0.015659019 6.7314132e-39 287 253
-0.038545277 0.68699998 -0.015659019 7.658396e-39 288 253
-0.037286382 0.68599999 -0.015636226 8.8565804e-39 289 253
-0.036083598 0.68599999 -0.015636226 1.0509967e-38 290 253
-0.034880809 0.68599999 -0.015636226 1.0786555e-38 291 253
-0.033579841 0.68400002 -0.01559064 1.0880532e-38 292 253
-0.032333218 0.68300003 -0.015567848 1.0695782e-38 293 253
-0.031135695 0.68300003 -0.015567848 9.8653009e-39 294 253
-0.029938167 0.68300003 -0.015567848 9.4043242e-39 295 253
-0.02869856 0.68199998 -0.015545053 9.2170645e-39 296 253
-0.027502786 0.68199998 -0.015545053 8.7560863e-39 297 253
-0.026307013 0.68199998 -0.015545053 8.2054335e-39 298 253
-0.025037598 0.68000001 -0.015499466 8.1132378e-39 299 253
-0.023845334 0.68000001 -0.015499466 7.9302885e-39 300 253
-0.022653066 0.68000001 -0.015499466 7.8380929e-39 301 253
-0.021523919 0.68199998 -0.015545053 7.9284893e-39 302 253
-0.020328145 0.68199998 -0.015545053 8.0206863e-39 303 253
-0.019132372 0.68199998 -0.015545053 8.6646096e-39 304 253
-0.017936599 0.68199998 -0.015545053 8.9411978e-39 305 253
-0.016740825 0.68199998 -0.015545053 8.4812917e-39 306 253
-0.015545053 0.68199998 -0.015545053 8.5738461e-39 307 253
-0.01434928 0.68199998 -0.015545053 8.8511504e-39 308 253
-0.013153506 0.68199998 -0.015545053 9.2199315e-39 309 253
-0.011957732 0.68199998 -0.015545053 9.9546113e-39 310 253
-0.010761959 0.68199998 -0.015545053 1.0323392e-38 311 253
-0.009566186 0.68199998 -0.015545053 1.0047526e-38 312 253
-0.0083704125 0.68199998 -0.015545053 9.5869064e-39 313 253
-0.00717464 0.68199998 -0.015545053 9.1226982e-39 314 253
-0.0059876335 0.68300003 -0.015567848 7.924155e-39 315 253
-0.0047901068 0.68300003 -0.015567848 7.8312405e-39 316 253
-0.0035925799 0.68300003 -0.015567848 8.3844143e-39 317 253
-0.0023985601 0.68400002 -0.01559064 8.0185059e-39 318 253
-0.0012027866 0.68599999 -0.015636226 7.7415588e-39 319 253
0 0.68599999 -0.015636226 7.7408456e-39 320 253
0.0012045399 0.68699998 -0.015659019 7.9248767e-39 321 253
0.0024090798 0.68699998 -0.015659019 7.9259543e-39 322 253
0.0036136196 0.68699998 -0.015659019 8.0181499e-39 323 253
0.0048251734 0.68800002 -0.015681813 7.7408428e-39 324 253
0.0060314666 0.68800002 -0.015681813 7.5564515e-39 325 253
0.0072587994 0.69 -0.015727401 7.4639e-39 326 253
0.0085054198 0.69300002 -0.015795778 7.5560956e-39 327 253
0.0097345067 0.69400001 -0.015818574 8.1088994e-39 328 253
0.01099866 0.69700003 -0.015886955 8.7542688e-39 329 253
0.0122032 0.69599998 -0.015864158 9.3077957e-39 330 253
0.013423519 0.69599998 -0.015864158 9.7687739e-39 331 253
0.014727999 0.69999999 -0.015955333 1.0416291e-38 332 253
0.015955333 0.69999999 -0.015955333 1.2075454e-38 333 253
0.017256306 0.70300001 -0.016023712 1.6496512e-38 334 253
0.018488899 0.70300001 -0.016023712 1.6496512e-38 335 253
-0.046438783 0.69700003 -0.017109027 9.6834502e-39 282 254
-0.045022093 0.69400001 -0.017035386 8.484907e-39 283 254
-0.043742158 0.69300002 -0.01701084 6.2740294e-39 284 254
-0.042404365 0.69099998 -0.016961746 5.2598775e-39 285 254
-0.041133199 0.69 -0.0169372 4.7989161e-39 286 254
-0.039807681 0.68800002 -0.016888106 5.5368399e-39 287 254
-0.038545277 0.68699998 -0.01686356 6.369469e-39 288 254
-0.037340738 0.68699998 -0.01686356 7.3836196e-39 289 254
-0.036136195 0.68699998 -0.01686356 8.9484061e-39 290 254
-0.034880809 0.68599999 -0.016839013 9.4093843e-39 291 254
-0.033678025 0.68599999 -0.016839013 9.9607448e-39 292 254
-0.032380559 0.68400002 -0.016789921 9.8685477e-39 293 254
-0.03118128 0.68400002 -0.016789921 9.8671002e-39 294 254
-0.029938167 0.68300003 -0.016765373 9.3139264e-39 295 254
-0.028740639 0.68300003 -0.016765373 8.8518721e-39 296 254
-0.027502786 0.68199998 -0.016740825 8.2986983e-39 297 254
-0.026307013 0.68199998 -0.016740825 8.3887457e-39 298 254
-0.025111238 0.68199998 -0.016740825 8.3887457e-39 299 254
-0.023915464 0.68199998 -0.016740825 7.9299228e-39 300 254
-0.022719691 0.68199998 -0.016740825 8.1139539e-39 301 254
-0.021523919 0.68199998 -0.016740825 7.838446e-39 302 254
-0.020328145 0.68199998 -0.016740825 7.838446e-39 303 254
-0.019132372 0.68199998 -0.016740825 7.6547806e-39 304 254
-0.017936599 0.68199998 -0.016740825 7.562585e-39 305 254
-0.016740825 0.68199998 -0.016740825 8.4820134e-39 306 254
-0.015545053 0.68199998 -0.016740825 8.666406e-39 307 254
-0.01434928 0.68199998 -0.016740825 8.4816476e-39 308 254
-0.013153506 0.68199998 -0.016740825 8.7582359e-39 309 254
-0.011957732 0.68199998 -0.016740825 9.8627814e-39 310 254
-0.010761959 0.68199998 -0.016740825 9.954977e-39 311 254
-0.009566186 0.68199998 -0.016740825 1.0321589e-38 312 254
-0.0083704125 0.68199998 -0.016740825 9.9531652e-39 313 254
-0.0071851597 0.68300003 -0.016765373 1.0041761e-38 314 254
-0.0059876335 0.68300003 -0.016765373 9.1201647e-39 315 254
-0.0047901068 0.68300003 -0.016765373 8.7535402e-39 316 254
-0.00359784 0.68400002 -0.016789921 8.569509e-39 317 254
-0.0023985601 0.68400002 -0.016789921 8.2922117e-39 318 254
-0.0012027866 0.68599999 -0.016839013 8.2000161e-39 319 254
0 0.68599999 -0.016839013 7.09836e-39 320 254
0.0012045399 0.68699998 -0.01686356 7.09836e-39 321 254
0.0024090798 0.68699998 -0.01686356 7.1916277e-39 322 254
0.0036136196 0.68699998 -0.01686356 7.3760203e-39 323 254
0.0048251734 0.68800002 -0.016888106 7.7422777e-39 324 254
0.0060489997 0.69 -0.0169372 7.3738553e-39 325 254
0.0072693196 0.69099998 -0.016961746 7.3727833e-39 326 254
0.0085054198 0.69300002 -0.01701084 7.1883907e-39 327 254
0.0097625591 0.69599998 -0.017084479 7.6490129e-39 328 254
0.01101444 0.69800001 -0.017133573 8.3865779e-39 329 254
0.012238266 0.69800001 -0.017133573 8.7564366e-39 330 254
0.013462093 0.69800001 -0.017133573 9.1252192e-39 331 254
0.014727999 0.69999999 -0.017182667 9.8631205e-39 332 254
0.015955333 0.69999999 -0.017182667 1.1706674e-38 333 254
0.017256306 0.70300001 -0.017256306 1.6587985e-38 334 254
0.018488899 0.70300001 -0.017256306 1.6680181e-38 335 254
0.020030079 0.71399999 -0.017526319 1.6586186e-38 336 254
-0.046505414 0.69800001 -0.0183574 9.7763647e-39 282 255
-0.045022093 0.69400001 -0.0182522 8.4856259e-39 283 255
-0.043805279 0.69400001 -0.0182522 6.8261242e-39 284 255
-0.042404365 0.69099998 -0.0181733 5.904528e-39 285 255
-0.041133199 0.69 -0.018146999 5.4417674e-39 286 255
-0.039807681 0.68800002 -0.0180944 5.3495718e-39 287 255
-0.038545277 0.68699998 -0.018068098 4.7121113e-39 288 255
-0.037340738 0.68699998 -0.018068098 6.0028501e-39 289 255
-0.036136195 0.68699998 -0.018068098 7.9357003e-39 290 255
-0.034880809 0.68599999 -0.018041799 8.7654596e-39 291 255
-0.033678025 0.68599999 -0.018041799 9.6838006e-39 292 255
-0.032475237 0.68599999 -0.018041799 9.6838006e-39 293 255
-0.03118128 0.68400002 -0.0179892 9.4986876e-39 294 255
-0.029982001 0.68400002 -0.0179892 9.0380682e-39 295 255
-0.028740639 0.68300003 -0.017962901 8.576374e-39 296 255
-0.027543113 0.68300003 -0.017962901 8.1157546e-39 297 255
-0.026345588 0.68300003 -0.017962901 8.1136008e-39 298 255
-0.025111238 0.68199998 -0.017936599 8.1136008e-39 299 255
-0.023915464 0.68199998 -0.017936599 7.7469735e-39 300 255
-0.022719691 0.68199998 -0.017936599 7.9310046e-39 301 255
-0.02155548 0.68300003 -0.017962901 7.7469735e-39 302 255
-0.020328145 0.68199998 -0.017936599 7.6547778e-39 303 255
-0.019132372 0.68199998 -0.017936599 7.6536946e-39 304 255
-0.017936599 0.68199998 -0.017936599 7.7462504e-39 305 255
-0.016740825 0.68199998 -0.017936599 8.6660389e-39 306 255
-0.015545053 0.68199998 -0.017936599 8.7582359e-39 307 255
-0.01434928 0.68199998 -0.017936599 8.1132224e-39 308 255
-0.013153506 0.68199998 -0.017936599 8.3894492e-39 309 255
-0.011957732 0.68199998 -0.017936599 9.5869064e-39 310 255
-0.010761959 0.68199998 -0.017936599 9.8631345e-39 311 255
-0.009566186 0.68199998 -0.017936599 1.0137924e-38 312 255
-0.0083826864 0.68300003 -0.017962901 1.0045727e-38 313 255
-0.0071851597 0.68300003 -0.017962901 9.6773013e-39 314 255
-0.0059964 0.68400002 -0.0179892 9.400713e-39 315 255
-0.0047971201 0.68400002 -0.0179892 8.8496889e-39 316 255
-0.00359784 0.68400002 -0.0179892 8.4805462e-39 317 255
-0.0024055731 0.68599999 -0.018041799 8.201451e-39 318 255
-0.0012027866 0.68599999 -0.018041799 7.8323097e-39 319 255
0 0.68699998 -0.018068098 7.188755e-39 320 255
0.0012045399 0.68699998 -0.018068098 7.2809506e-39 321 255
0.0024090798 0.68699998 -0.018068098 7.1905529e-39 322 255
0.0036188802 0.68800002 -0.0180944 7.3753029e-39 323 255
0.0048391996 0.69 -0.018146999 7.2834576e-39 324 255
0.0060577663 0.69099998 -0.0181733 7.1912619e-39 325 255
0.0072903596 0.69300002 -0.018225901 7.1883879e-39 326 255
0.0085176928 0.69400001 -0.0182522 7.0039966e-39 327 255
0.0097625591 0.69599998 -0.018304799 7.92236e-39 328 255
0.01099866 0.69700003 -0.018331099 8.9365119e-39 329 255
0.012220734 0.69700003 -0.018331099 9.0322977e-39 330 255
0.013462093 0.69800001 -0.0183574 8.5716782e-39 331 255
0.014727999 0.69999999 -0.018409999 9.4950555e-39 332 255
0.015955333 0.69999999 -0.018409999 1.1892142e-38 333 255
0.017182667 0.69999999 -0.018409999 1.6587985e-38 334 255
0.018778199 0.71399999 -0.018778199 1.6587985e-38 335 255
0.020030079 0.71399999 -0.018778199 1.6678019e-38 336 255
0.021281958 0.71399999 -0.018778199 1.6862051e-38 337 255
-0.047865998 0.69999999 -0.019637333 1.1981835e-38 281 256
-0.046505414 0.69800001 -0.019581227 9.5001352e-39 282 256
-0.045151837 0.69599998 -0.019525118 8.4859818e-39 283 256
-0.043805279 0.69400001 -0.019469013 6.7357306e-39 284 256
-0.042527102 0.69300002 -0.01944096 4.7074254e-39 285 256
-0.041192811 0.69099998 -0.019384852 4.8871643e-39 286 256
-0.0399234 0.69 -0.019356798 4.5187405e-39 287 256
-0.038601387 0.68800002 -0.019300694 4.1557033e-39 288 256
-0.037340738 0.68699998 -0.019272638 5.9992572e-39 289 256
-0.036136195 0.68699998 -0.019272638 7.8424243e-39 290 256
-0.034931656 0.68699998 -0.019272638 8.5799893e-39 291 256
-0.033678025 0.68599999 -0.019244585 9.0402332e-39 292 256
-0.032475237 0.68599999 -0.019244585 8.9480362e-39 293 256
-0.031272452 0.68599999 -0.019244585 9.0384311e-39 294 256
-0.030069664 0.68599999 -0.019244585 8.8540399e-39 295 256
-0.02878272 0.68400002 -0.01918848 8.576374e-39 296 256
-0.027543113 0.68300003 -0.019160427 8.1157546e-39 297 256
-0.026345588 0.68300003 -0.019160427 8.1139567e-39 298 256
-0.025111238 0.68199998 -0.019132372 7.8373712e-39 299 256
-0.023915464 0.68199998 -0.019132372 7.8380901e-39 300 256
-0.022719691 0.68199998 -0.019132372 8.1150357e-39 301 256
-0.02155548 0.68300003 -0.019160427 8.2072285e-39 302 256
-0.020357953 0.68300003 -0.019160427 7.9306417e-39 303 256
-0.019160427 0.68300003 -0.019160427 7.9302759e-39 304 256
-0.017936599 0.68199998 -0.019132372 8.2986983e-39 305 256
-0.016740825 0.68199998 -0.019132372 9.8631373e-39 306 256
-0.015545053 0.68199998 -0.019132372 9.955333e-39 307 256
-0.01434928 0.68199998 -0.019132372 9.5869036e-39 308 256
-0.013153506 0.68199998 -0.019132372 9.7709347e-39 309 256
-0.011957732 0.68199998 -0.019132372 1.0230472e-38 310 256
-0.01077774 0.68300003 -0.019160427 1.0322668e-38 311 256
-0.0095802136 0.68300003 -0.019160427 1.0506336e-38 312 256
-0.0083826864 0.68300003 -0.019160427 1.041414e-38 313 256
-0.0071851597 0.68300003 -0.019160427 1.0321939e-38 314 256
-0.0059964 0.68400002 -0.01918848 1.0137907e-38 315 256
-0.0048111463 0.68599999 -0.019244585 9.5854532e-39 316 256
-0.00360836 0.68599999 -0.019244585 8.8478882e-39 317 256
-0.0024090798 0.68699998 -0.019272638 8.1096183e-39 318 256
-0.0012045399 0.68699998 -0.019272638 7.6490003e-39 319 256
0 0.68699998 -0.019272638 6.9132457e-39 320 256
0.0012062934 0.68800002 -0.019300694 7.0054427e-39 321 256
0.0024125867 0.68800002 -0.019300694 6.9150478e-39 322 256
0.0036188802 0.68800002 -0.019300694 7.1912745e-39 323 256
0.0048391996 0.69 -0.019356798 7.0987132e-39 324 256
0.0060577663 0.69099998 -0.019384852 6.7299307e-39 325 256
0.0072903596 0.69300002 -0.01944096 7.2791514e-39 326 256
0.0085176928 0.69400001 -0.019469013 7.2791514e-39 327 256
0.0097625591 0.69599998 -0.019525118 7.5564515e-39 328 256
0.01099866 0.69700003 -0.019553173 8.6624389e-39 329 256
0.012220734 0.69700003 -0.019553173 8.940458e-39 330 256
0.013462093 0.69800001 -0.019581227 8.3872842e-39 331 256
0.014749039 0.70099998 -0.019665385 1.0137907e-38 332 256
0.015978126 0.70099998 -0.019665385 1.2627189e-38 333 256
0.017354494 0.70700002 -0.019833706 1.6771298e-38 334 256
0.0186993 0.71100003 -0.01994592 1.6771298e-38 335 256
0.020030079 0.71399999 -0.020030079 1.6586186e-38 336 256
0.021281958 0.71399999 -0.020030079 1.6586186e-38 337 256
-0.049373865 0.704 -0.020983893 1.3272205e-38 280 257
-0.047865998 0.69999999 -0.020864666 1.1704879e-38 281 257
-0.046505414 0.69800001 -0.020805053 9.6838034e-39 282 257
-0.045281585 0.69800001 -0.020805053 8.4852602e-39 283 257
-0.043931518 0.69599998 -0.020745439 6.5524156e-39 284 257
-0.042588469 0.69400001 -0.020685827 4.2475234e-39 285 257
-0.041312039 0.69300002 -0.020656019 4.8864328e-39 286 257
-0.039981257 0.69099998 -0.020596405 4.7942358e-39 287 257
-0.038713597 0.69 -0.020566599 4.7971169e-39 288 257
-0.037395094 0.68800002 -0.020506985 6.0878557e-39 289 257
-0.036136195 0.68699998 -0.020477179 7.2903365e-39 290 257
-0.034931656 0.68699998 -0.020477179 8.3041283e-39 291 257
-0.033727121 0.68699998 -0.020477179 8.6721724e-39 292 257
-0.032475237 0.68599999 -0.020447372 8.5799767e-39 293 257
-0.031272452 0.68599999 -0.020447372 8.5781761e-39 294 257
-0.030069664 0.68599999 -0.020447372 8.3937834e-39 295 257
-0.02886688 0.68599999 -0.020447372 8.2075985e-39 296 257
-0.027583439 0.68400002 -0.020387759 7.7469791e-39 297 257
-0.02638416 0.68400002 -0.020387759 7.9281361e-39 298 257
-0.02514806 0.68300003 -0.020357953 7.6519094e-39 299 257
-0.023915464 0.68199998 -0.020328145 7.8373712e-39 300 257
-0.022719691 0.68199998 -0.020328145 8.3905436e-39 301 257
-0.02155548 0.68300003 -0.020357953 8.4830938e-39 302 257
-0.020357953 0.68300003 -0.020357953 8.2065055e-39 303 257
-0.019160427 0.68300003 -0.020357953 8.5738433e-39 304 257
-0.017962901 0.68300003 -0.020357953 9.3114083e-39 305 257
-0.016765373 0.68300003 -0.020357953 1.041666e-38 306 257
-0.015567848 0.68300003 -0.020357953 1.041666e-38 307 257
-0.014370319 0.68300003 -0.020357953 1.050921e-38 308 257
-0.013172794 0.68300003 -0.020357953 1.0416654e-38 309 257
-0.011975267 0.68300003 -0.020357953 1.0599607e-38 310 257
-0.01077774 0.68300003 -0.020357953 1.0599607e-38 311 257
-0.0095802136 0.68300003 -0.020357953 1.0415217e-38 312 257
-0.0083826864 0.68300003 -0.020357953 1.0323021e-38 313 257
-0.0071851597 0.68300003 -0.020357953 1.0413775e-38 314 257
-0.0059964 0.68400002 -0.020387759 1.0321578e-38 315 257
-0.0048111463 0.68599999 -0.020447372 9.7687739e-39 316 257
-0.00360836 0.68599999 -0.020447372 9.0308501e-39 317 257
-0.0024090798 0.68699998 -0.020477179 7.7422805e-39 318 257
-0.0012045399 0.68699998 -0.020477179 7.3734994e-39 319 257
0 0.68699998 -0.020477179 7.0054427e-39 320 257
0.0012062934 0.68800002 -0.020506985 7.0054427e-39 321 257
0.0024125867 0.68800002 -0.020506985 6.823571e-39 322 257
0.0036188802 0.68800002 -0.020506985 6.823571e-39 323 257
0.0048391996 0.69 -0.020566599 7.0976384e-39 324 257
0.0060577663 0.69099998 -0.020596405 6.8210501e-39 325 257
0.0072903596 0.69300002 -0.020656019 7.096195e-39 326 257
0.0085176928 0.69400001 -0.020685827 7.096195e-39 327 257
0.0097625591 0.69599998 -0.020745439 7.6489975e-39 328 257
0.01101444 0.69800001 -0.020805053 8.5705936e-39 329 257
0.012238266 0.69800001 -0.020805053 9.03012e-39 330 257
0.013519952 0.70099998 -0.020894472 8.2921963e-39 331 257
0.014791119 0.70300001 -0.020954086 1.0504875e-38 332 257
0.016046507 0.704 -0.020983893 1.2993798e-38 333 257
0.017354494 0.70700002 -0.021073313 1.6771654e-38 334 257
0.0186204 0.708 -0.021103119 1.6495427e-38 335 257
0.020086186 0.71600002 -0.021341572 1.6493275e-38 336 257
0.021341572 0.71600002 -0.021341572 1.658547e-38 337 257
-0.049373865 0.704 -0.022218239 1.3916132e-38 280 258
-0.047934376 0.70099998 -0.022123558 1.2625394e-38 281 258
-0.046638668 0.69999999 -0.022091998 1.05114e-38 282 258
-0.045281585 0.69800001 -0.02202888 9.0362689e-39 283 258
-0.043994639 0.69700003 -0.02199732 6.7353635e-39 284 258
-0.042588469 0.69400001 -0.021902639 5.7208528e-39 285 258
-0.041312039 0.69300002 -0.021871079 5.7179844e-39 286 258
-0.039981257 0.69099998 -0.021807959 5.5335931e-39 287 258
-0.038713597 0.69 -0.021776399 5.6275838e-39 288 258
-0.037503798 0.69 -0.021776399 6.3651502e-39 289 258
-0.0361888 0.68800002 -0.021713281 7.2892505e-39 290 258
-0.034931656 0.68699998 -0.021681719 8.1193713e-39 291 258
-0.033727121 0.68699998 -0.021681719 8.3041129e-39 292 258
-0.032522578 0.68699998 -0.021681719 8.2119173e-39 293 258
-0.031272452 0.68599999 -0.021650158 8.3934303e-39 294 258
-0.030069664 0.68599999 -0.021650158 7.8402565e-39 295 258
-0.02886688 0.68599999 -0.021650158 8.1132505e-39 296 258
-0.027664091 0.68599999 -0.021650158 7.5600767e-39 297 258
-0.02638416 0.68400002 -0.02158704 7.6508304e-39 298 258
-0.02514806 0.68300003 -0.02155548 7.6508304e-39 299 258
-0.023950534 0.68300003 -0.02155548 8.020322e-39 300 258
-0.022753006 0.68300003 -0.02155548 8.9419195e-39 301 258
-0.02155548 0.68300003 -0.02155548 8.851156e-39 302 258
-0.020357953 0.68300003 -0.02155548 8.574209e-39 303 258
-0.019160427 0.68300003 -0.02155548 9.3096104e-39 304 258
-0.017962901 0.68300003 -0.02155548 1.0047175e-38 305 258
-0.016765373 0.68300003 -0.02155548 1.0416307e-38 306 258
-0.015567848 0.68300003 -0.02155548 1.06007e-38 307 258
-0.014370319 0.68300003 -0.02155548 1.0600334e-38 308 258
-0.013172794 0.68300003 -0.02155548 1.0508137e-38 309 258
-0.011975267 0.68300003 -0.02155548 1.0415938e-38 310 258
-0.01077774 0.68300003 -0.02155548 1.0508134e-38 311 258
-0.0095802136 0.68300003 -0.02155548 1.0690727e-38 312 258
-0.0083949603 0.68400002 -0.02158704 1.0598532e-38 313 258
-0.0071956799 0.68400002 -0.02158704 1.0690004e-38 314 258
-0.0059964 0.68400002 -0.02158704 1.07822e-38 315 258
-0.0048111463 0.68599999 -0.021650158 9.9528092e-39 316 258
-0.00360836 0.68599999 -0.021650158 8.7546248e-39 317 258
-0.0024090798 0.68699998 -0.021681719 7.8344803e-39 318 258
-0.0012045399 0.68699998 -0.021681719 7.2813066e-39 319 258
0 0.68699998 -0.021681719 6.7295775e-39 320 258
0.0012062934 0.68800002 -0.021713281 6.7295775e-39 321 258
0.0024125867 0.68800002 -0.021713281 6.9136129e-39 322 258
0.0036293997 0.69 -0.021776399 6.9136129e-39 323 258
0.0048462129 0.69099998 -0.021807959 7.0965608e-39 324 258
0.0060753003 0.69300002 -0.021871079 7.0965608e-39 325 258
0.0072903596 0.69300002 -0.021871079 7.0036463e-39 326 258
0.0085176928 0.69400001 -0.021902639 6.6348652e-39 327 258
0.0097765867 0.69700003 -0.02199732 7.006149e-39 328 258
0.01101444 0.69800001 -0.02202888 8.4812791e-39 329 258
0.012273333 0.69999999 -0.022091998 9.6736888e-39 330 258
0.013519952 0.70099998 -0.022123558 8.6591767e-39 331 258
0.014791119 0.70300001 -0.02218668 1.1057327e-38 332 258
0.016114887 0.70700002 -0.022312919 1.3546609e-38 333 258
0.017354494 0.70700002 -0.022312919 1.6495427e-38 334 258
0.0186204 0.708 -0.022344479 1.6402871e-38 335 258
0.020086186 0.71600002 -0.022596961 1.6676584e-38 336 258
0.021371379 0.71700001 -0.02262852 1.676878e-38 337 258
-0.049163464 0.70099998 -0.023352645 1.4468583e-38 280 259
-0.047865998 0.69999999 -0.023319334 1.3546268e-38 281 259
-0.046505414 0.69800001 -0.023252707 1.1523027e-38 282 259
-0.045216713 0.69700003 -0.023219392 9.679116e-39 283 259
-0.043931518 0.69599998 -0.023186078 6.4569689e-39 284 259
-0.042711195 0.69599998 -0.023186078 6.2729378e-39 285 259
-0.041371655 0.69400001 -0.023119451 6.7310419e-39 286 259
-0.04009698 0.69300002 -0.02308614 6.8235962e-39 287 259
-0.038769703 0.69099998 -0.023019511 6.3665754e-39 288 259
-0.037503798 0.69 -0.022986198 6.9197491e-39 289 259
-0.0361888 0.68800002 -0.022919573 6.9233491e-39 290 259
-0.034931656 0.68699998 -0.022886258 7.3839671e-39 291 259
-0.033727121 0.68699998 -0.022886258 7.7523825e-39 292 259
-0.032522578 0.68699998 -0.022886258 7.7523825e-39 293 259
-0.031272452 0.68599999 -0.022852944 7.4739991e-39 294 259
-0.030069664 0.68599999 -0.022852944 6.7364327e-39 295 259
-0.02886688 0.68599999 -0.022852944 7.1005503e-39 296 259
-0.027664091 0.68599999 -0.022852944 6.7317664e-39 297 259
-0.026461305 0.68599999 -0.022852944 6.2725875e-39 298 259
-0.025184879 0.68400002 -0.022786319 6.1803918e-39 299 259
-0.023950534 0.68300003 -0.022753006 6.9165121e-39 300 259
-0.022753006 0.68300003 -0.022753006 8.3916422e-39 301 259
-0.02155548 0.68300003 -0.022753006 9.4014683e-39 302 259
-0.020357953 0.68300003 -0.022753006 8.4798722e-39 303 259
-0.019160427 0.68300003 -0.022753006 8.6664088e-39 304 259
-0.017962901 0.68300003 -0.022753006 9.9571476e-39 305 259
-0.016765373 0.68300003 -0.022753006 1.0784012e-38 306 259
-0.015567848 0.68300003 -0.022753006 1.0784012e-38 307 259
-0.014370319 0.68300003 -0.022753006 1.0876917e-38 308 259
-0.013172794 0.68300003 -0.022753006 1.0784362e-38 309 259
-0.0119928 0.68400002 -0.022786319 1.0784718e-38 310 259
-0.01079352 0.68400002 -0.022786319 1.0784718e-38 311 259
-0.0095942402 0.68400002 -0.022786319 1.0876195e-38 312 259
-0.0083949603 0.68400002 -0.022786319 1.0599607e-38 313 259
-0.0071956799 0.68400002 -0.022786319 1.0414138e-38 314 259
-0.0060139326 0.68599999 -0.022852944 1.0321942e-38 315 259
-0.0048111463 0.68599999 -0.022852944 9.400713e-39 316 259
-0.00360836 0.68599999 -0.022852944 8.2943669e-39 317 259
-0.0024090798 0.68699998 -0.022886258 7.189834e-39 318 259
-0.0012045399 0.68699998 -0.022886258 6.8210501e-39 319 259
0 0.68800002 -0.022919573 6.2693253e-39 320 259
0.0012062934 0.68800002 -0.022919573 6.3615209e-39 321 259
0.0024195998 0.69 -0.022986198 6.1774926e-39 322 259
0.0036293997 0.69 -0.022986198 6.3622426e-39 323 259
0.0048462129 0.69099998 -0.023019511 6.5459079e-39 324 259
0.0060753003 0.69300002 -0.02308614 6.6381036e-39 325 259
0.0072903596 0.69300002 -0.02308614 7.3709869e-39 326 259
0.0085422397 0.69599998 -0.023186078 7.5553795e-39 327 259
0.0097906133 0.69800001 -0.023252707 7.6511625e-39 328 259
0.011045999 0.69999999 -0.023319334 8.8497043e-39 329 259
0.012273333 0.69999999 -0.023319334 1.0227581e-38 330 259
0.013519952 0.70099998 -0.023352645 9.3978222e-39 331 259
0.014791119 0.70300001 -0.023419274 1.2346985e-38 332 259
0.016046507 0.704 -0.023452586 1.4099062e-38 333 259
0.01745268 0.71100003 -0.023685781 1.6493991e-38 334 259
0.018751899 0.713 -0.023752406 1.6493991e-38 335 259
0.020086186 0.71600002 -0.023852346 1.6309959e-38 336 259
0.021371379 0.71700001 -0.02388566 1.6309959e-38 337 259
-0.049163464 0.70099998 -0.024581732 1.4653695e-38 280 260
-0.047865998 0.69999999 -0.024546666 1.3823933e-38 281 260
-0.046505414 0.69800001 -0.024476532 1.2719401e-38 282 260
-0.045216713 0.69700003 -0.024441468 1.0414869e-38 283 260
-0.043931518 0.69599998 -0.0244064 5.5367979e-39 284 260
-0.042711195 0.69599998 -0.0244064 5.9055818e-39 285 260
-0.041371655 0.69400001 -0.024336265 6.9168751e-39 286 260
-0.04009698 0.69300002 -0.024301201 7.0090707e-39 287 260
-0.038769703 0.69099998 -0.024231065 6.6456832e-39 288 260
-0.03755815 0.69099998 -0.024231065 6.8300745e-39 289 260
-0.036293998 0.69 -0.024195999 7.0162608e-39 290 260
-0.03498251 0.68800002 -0.024125867 7.2932064e-39 291 260
-0.033727121 0.68699998 -0.024090799 7.8438592e-39 292 260
-0.032522578 0.68699998 -0.024090799 7.6591092e-39 293 260
-0.031318039 0.68699998 -0.024090799 7.2896065e-39 294 260
-0.030069664 0.68599999 -0.024055731 6.2754559e-39 295 260
-0.02886688 0.68599999 -0.024055731 6.0863941e-39 296 260
-0.027664091 0.68599999 -0.024055731 5.717613e-39 297 260
-0.026461305 0.68599999 -0.024055731 5.8080164e-39 298 260
-0.025184879 0.68400002 -0.0239856 5.5310694e-39 299 260
-0.0239856 0.68400002 -0.0239856 6.176073e-39 300 260
-0.022786319 0.68400002 -0.0239856 7.1902236e-39 301 260
-0.02158704 0.68400002 -0.0239856 7.7401547e-39 302 260
-0.020387759 0.68400002 -0.0239856 7.3717324e-39 303 260
-0.01918848 0.68400002 -0.0239856 7.9252565e-39 304 260
-0.0179892 0.68400002 -0.0239856 8.3858745e-39 305 260
-0.016789921 0.68400002 -0.0239856 8.6620858e-39 306 260
-0.01559064 0.68400002 -0.0239856 8.6620858e-39 307 260
-0.01439136 0.68400002 -0.0239856 8.2032629e-39 308 260
-0.01319208 0.68400002 -0.0239856 7.7422833e-39 309 260
-0.0119928 0.68400002 -0.0239856 7.3727861e-39 310 260
-0.01079352 0.68400002 -0.0239856 7.0958391e-39 311 260
-0.0095942402 0.68400002 -0.0239856 6.9107262e-39 312 260
-0.0083949603 0.68400002 -0.0239856 6.4501068e-39 313 260
-0.0072167199 0.68599999 -0.024055731 5.9887657e-39 314 260
-0.0060139326 0.68599999 -0.024055731 5.7125389e-39 315 260
-0.0048111463 0.68599999 -0.024055731 5.5303085e-39 316 260
-0.0036136196 0.68699998 -0.024090799 6.0834822e-39 317 260
-0.0024090798 0.68699998 -0.024090799 6.9103759e-39 318 260
-0.0012045399 0.68699998 -0.024090799 6.8181802e-39 319 260
0 0.68800002 -0.024125867 6.3604419e-39 320 260
0.0012097999 0.69 -0.024195999 5.9916594e-39 321 260
0.0024195998 0.69 -0.024195999 6.2671701e-39 322 260
0.0036346598 0.69099998 -0.024231065 6.5441171e-39 323 260
0.00486024 0.69300002 -0.024301201 6.9128926e-39 324 260
0.0060753003 0.69300002 -0.024301201 7.097644e-39 325 260
0.0073008798 0.69400001 -0.024336265 7.4660538e-39 326 260
0.0085545136 0.69700003 -0.024441468 7.5582494e-39 327 260
0.0097906133 0.69800001 -0.024476532 8.753187e-39 328 260
0.011045999 0.69999999 -0.024546666 9.6755021e-39 329 260
0.012273333 0.69999999 -0.024546666 1.0504887e-38 330 260
0.013519952 0.70099998 -0.024581732 1.0966225e-38 331 260
0.014812159 0.704 -0.024686933 1.3452261e-38 332 260
0.016046507 0.704 -0.024686933 1.4742999e-38 333 260
0.017526319 0.71399999 -0.025037598 1.6309959e-38 334 260
0.018778199 0.71399999 -0.025037598 1.6125568e-38 335 260
0.020114239 0.71700001 -0.0251428 1.6308878e-38 336 260
0.021371379 0.71700001 -0.0251428 1.6308878e-38 337 260
-0.049163464 0.70099998 -0.025810819 1.483736e-38 280 261
-0.047865998 0.69999999 -0.025773998 1.4284186e-38 281 261
-0.046505414 0.69800001 -0.025700359 1.3548791e-38 282 261
-0.045216713 0.69700003 -0.025663542 1.2258053e-38 283 261
-0.043931518 0.69599998 -0.025626717 8.9401048e-39 284 261
-0.042711195 0.69599998 -0.025626717 7.0039966e-39 285 261
-0.041371655 0.69400001 -0.025553079 6.823941e-39 286 261
-0.04009698 0.69300002 -0.02551626 8.1146798e-39 287 261
-0.03888192 0.69300002 -0.02551626 7.4750711e-39 288 261
-0.03755815 0.69099998 -0.025442619 7.6594624e-39 289 261
-0.036293998 0.69 -0.025405798 7.384323e-39 290 261
-0.035084199 0.69 -0.025405798 7.384323e-39 291 261
-0.033776212 0.68800002 -0.02533216 7.1084592e-39 292 261
-0.032522578 0.68699998 -0.025295338 6.8315136e-39 293 261
-0.031318039 0.68699998 -0.025295338 6.9208281e-39 294 261
-0.030113498 0.68699998 -0.025295338 6.3676544e-39 295 261
-0.02886688 0.68599999 -0.025258519 6.5466478e-39 296 261
-0.027664091 0.68599999 -0.025258519 6.0860284e-39 297 261
-0.026461305 0.68599999 -0.025258519 6.0860284e-39 298 261
-0.025258519 0.68599999 -0.025258519 6.0860284e-39 299 261
-0.024055731 0.68599999 -0.025258519 6.0867473e-39 300 261
-0.022852944 0.68599999 -0.025258519 6.3633356e-39 301 261
-0.021650158 0.68599999 -0.025258519 7.004389e-39 302 261
-0.020447372 0.68599999 -0.025258519 6.9121933e-39 303 261
-0.01918848 0.68400002 -0.025184879 7.1880572e-39 304 261
-0.0179892 0.68400002 -0.025184879 7.2802528e-39 305 261
-0.016789921 0.68400002 -0.025184879 7.7401393e-39 306 261
-0.01559064 0.68400002 -0.025184879 7.3709967e-39 307 261
-0.01439136 0.68400002 -0.025184879 7.0029372e-39 308 261
-0.01319208 0.68400002 -0.025184879 6.6345148e-39 309 261
-0.0119928 0.68400002 -0.025184879 7.0007918e-39 310 261
-0.010825079 0.68599999 -0.025258519 6.8167607e-39 311 261
-0.0096222926 0.68599999 -0.025258519 6.4486971e-39 312 261
-0.0084195063 0.68599999 -0.025258519 6.7249252e-39 313 261
-0.0072167199 0.68599999 -0.025258519 6.7252783e-39 314 261
-0.0060226996 0.68699998 -0.025295338 6.4490502e-39 315 261
-0.0048181596 0.68699998 -0.025295338 6.6345148e-39 316 261
-0.0036136196 0.68699998 -0.025295338 7.0029372e-39 317 261
-0.0024090798 0.68699998 -0.025295338 6.4529934e-39 318 261
-0.0012062934 0.68800002 -0.02533216 6.0842109e-39 319 261
0 0.68800002 -0.02533216 5.8987505e-39 320 261
0.0012097999 0.69 -0.025405798 5.7140005e-39 321 261
0.0024195998 0.69 -0.025405798 5.7147221e-39 322 261
0.0036346598 0.69099998 -0.025442619 6.6366784e-39 323 261
0.00486024 0.69300002 -0.02551626 7.7408554e-39 324 261
0.0060840664 0.69400001 -0.025553079 7.8334098e-39 325 261
0.0073219193 0.69599998 -0.025626717 8.0174255e-39 326 261
0.0085545136 0.69700003 -0.025663542 8.2940138e-39 327 261
0.0098186666 0.69999999 -0.025773998 8.8475379e-39 328 261
0.011045999 0.69999999 -0.025773998 9.6772985e-39 329 261
0.012273333 0.69999999 -0.025773998 1.0598882e-38 330 261
0.013519952 0.70099998 -0.025810819 1.1336806e-38 331 261
0.014854239 0.70599997 -0.025994917 1.2901608e-38 332 261
0.016092092 0.70599997 -0.025994917 1.4284542e-38 333 261
0.017501773 0.713 -0.026252659 1.6309604e-38 334 261
0.018778199 0.71399999 -0.026289478 1.6125212e-38 335 261
0.020114239 0.71700001 -0.02639994 1.6308159e-38 336 261
-0.049163464 0.70099998 -0.027039904 1.4837363e-38 280 262
-0.047934376 0.70099998 -0.027039904 1.4376385e-38 281 262
-0.046505414 0.69800001 -0.026924185 1.3642067e-38 282 262
-0.045281585 0.69800001 -0.026924185 1.3272924e-38 283 262
-0.043994639 0.69700003 -0.026885614 1.1888199e-38 284 262
-0.042711195 0.69599998 -0.026847038 8.1081764e-39 285 262
-0.041371655 0.69400001 -0.026769891 5.5346273e-39 286 262
-0.04009698 0.69300002 -0.02673132 8.3926932e-39 287 262
-0.03888192 0.69300002 -0.02673132 8.3973833e-39 288 262
-0.03755815 0.69099998 -0.026654173 8.2126334e-39 289 262
-0.036293998 0.69 -0.026615599 8.1200874e-39 290 262
-0.035084199 0.69 -0.026615599 7.5669136e-39 291 262
-0.033776212 0.68800002 -0.026538454 7.2892533e-39 292 262
-0.032569919 0.68800002 -0.026538454 6.8282766e-39 293 262
-0.031318039 0.68699998 -0.026499879 7.1016223e-39 294 262
-0.030113498 0.68699998 -0.026499879 6.917231e-39 295 262
-0.028908957 0.68699998 -0.026499879 7.0072588e-39 296 262
-0.027664091 0.68599999 -0.026461305 6.8228676e-39 297 262
-0.026461305 0.68599999 -0.026461305 6.4562402e-39 298 262
-0.025258519 0.68599999 -0.026461305 6.4562402e-39 299 262
-0.024055731 0.68599999 -0.026461305 6.8239438e-39 300 262
-0.022852944 0.68599999 -0.026461305 6.8239438e-39 301 262
-0.021650158 0.68599999 -0.026461305 7.2831198e-39 302 262
-0.020447372 0.68599999 -0.026461305 7.2831198e-39 303 262
-0.019244585 0.68599999 -0.026461305 7.3727987e-39 304 262
-0.018041799 0.68599999 -0.026461305 7.55719e-39 305 262
-0.016839013 0.68599999 -0.026461305 8.0174465e-39 306 262
-0.015636226 0.68599999 -0.026461305 8.0174465e-39 307 262
-0.01439136 0.68400002 -0.02638416 7.9245264e-39 308 262
-0.01319208 0.68400002 -0.02638416 7.4635496e-39 309 262
-0.012027865 0.68599999 -0.026461305 7.0954888e-39 310 262
-0.010825079 0.68599999 -0.026461305 7.0954888e-39 311 262
-0.0096222926 0.68599999 -0.026461305 7.0962049e-39 312 262
-0.0084195063 0.68599999 -0.026461305 7.0962049e-39 313 262
-0.0072167199 0.68599999 -0.026461305 7.4639e-39 314 262
-0.0060226996 0.68699998 -0.026499879 7.4639e-39 315 262
-0.0048181596 0.68699998 -0.026499879 7.4638972e-39 316 262
-0.0036136196 0.68699998 -0.026499879 7.6486472e-39 317 262
-0.0024125867 0.68800002 -0.026538454 6.6377378e-39 318 262
-0.0012062934 0.68800002 -0.026538454 5.9923684e-39 319 262
