# .PCD v.7 - Point Cloud Data file format
FIELDS x y z rgb imX imY
SIZE 4 4 4 4 4 4
TYPE F F F F F F
COUNT 1 1 1 1 1 1
WIDTH 819
HEIGHT 1
VIEWPOINT 0 0 0 1 0 0 0
POINTS 819
DATA ascii
-0.00119928 0.68400002 -0.0023985601 9.7694745e-39 319 242
0 0.68400002 -0.0023985601 1.0136815e-38 320 242
0.0012027866 0.68599999 -0.0024055731 1.0321206e-38 321 242
0.0024090798 0.68699998 -0.0024090798 1.0136459e-38 322 242
0.0036188802 0.68800002 -0.0024125867 1.0136459e-38 323 242
0.0048462129 0.69099998 -0.0024231065 1.0136812e-38 324 242
0.0060753003 0.69300002 -0.00243012 1.0597789e-38 325 242
0.0072903596 0.69300002 -0.00243012 1.0689983e-38 326 242
0.0085176928 0.69400001 -0.0024336267 1.0044614e-38 327 242
0.0097625591 0.69599998 -0.0024406398 9.3059783e-39 328 242
0.01099866 0.69700003 -0.0024441467 9.3981753e-39 329 242
0.012220734 0.69700003 -0.0024441467 1.3087448e-38 330 242
0.013442807 0.69700003 -0.0024441467 1.5484174e-38 331 242
0.01466488 0.69700003 -0.0024441467 1.4750212e-38 332 242
-0.055308893 0.70099998 -0.0036872597 1.4384319e-38 275 243
-0.054002665 0.69999999 -0.0036819996 1.419885e-38 276 243
-0.052775331 0.69999999 -0.0036819996 1.3737871e-38 277 243
-0.051400717 0.69800001 -0.0036714801 1.2447132e-38 278 243
-0.050033119 0.69599998 -0.0036609597 1.1986155e-38 279 243
-0.048672531 0.69400001 -0.0036504399 1.1986155e-38 280 243
-0.047387339 0.69300002 -0.0036451798 1.1893958e-38 281 243
-0.046039023 0.69099998 -0.0036346598 1.1342233e-38 282 243
-0.044632856 0.68800002 -0.0036188802 9.9592986e-39 283 243
-0.043363437 0.68699998 -0.0036136196 8.3923485e-39 284 243
-0.042097531 0.68599999 -0.00360836 8.1154015e-39 285 243
-0.040775519 0.68400002 -0.00359784 8.1150511e-39 286 243
-0.039518382 0.68300003 -0.0035925799 8.1150511e-39 287 243
-0.038320854 0.68300003 -0.0035925799 7.6565911e-39 288 243
-0.037068974 0.68199998 -0.00358732 7.7487881e-39 289 243
-0.035873197 0.68199998 -0.00358732 8.3909135e-39 290 243
-0.034575731 0.68000001 -0.0035767998 8.4831092e-39 291 243
-0.033383466 0.68000001 -0.0035767998 8.7582541e-39 292 243
-0.032191198 0.68000001 -0.0035767998 9.1266765e-39 293 243
-0.030998932 0.68000001 -0.0035767998 9.4986876e-39 294 243
-0.029806666 0.68000001 -0.0035767998 9.6834376e-39 295 243
-0.028572321 0.67900002 -0.0035715401 9.5912364e-39 296 243
-0.027381808 0.67900002 -0.0035715401 9.9600175e-39 297 243
-0.026152719 0.67799997 -0.0035662798 1.0327358e-38 298 243
-0.024963958 0.67799997 -0.0035662798 1.0327358e-38 299 243
-0.023705067 0.676 -0.0035557596 1.0601065e-38 300 243
-0.022519812 0.676 -0.0035557596 1.0324839e-38 301 243
-0.021429239 0.67900002 -0.0035715401 1.0232995e-38 302 243
-0.020238725 0.67900002 -0.0035715401 9.956049e-39 303 243
-0.019048214 0.67900002 -0.0035715401 9.1273702e-39 304 243
-0.017857701 0.67900002 -0.0035715401 8.666392e-39 305 243
-0.016691733 0.68000001 -0.0035767998 8.8489882e-39 306 243
-0.015499466 0.68000001 -0.0035767998 8.9411838e-39 307 243
-0.014307199 0.68000001 -0.0035767998 9.0322977e-39 308 243
-0.013095647 0.67900002 -0.0035715401 9.1244933e-39 309 243
-0.011905133 0.67900002 -0.0035715401 9.4025123e-39 310 243
-0.010714619 0.67900002 -0.0035715401 9.8631317e-39 311 243
-0.009524107 0.67900002 -0.0035715401 9.9556805e-39 312 243
-0.0083458666 0.68000001 -0.0035767998 1.0047876e-38 313 243
-0.0071535995 0.68000001 -0.0035767998 1.0046433e-38 314 243
-0.005978866 0.68199998 -0.00358732 9.9542371e-39 315 243
-0.004783093 0.68199998 -0.00358732 9.6776545e-39 316 243
-0.0035925799 0.68300003 -0.0035925799 9.4932632e-39 317 243
-0.0023950534 0.68300003 -0.0035925799 9.4911108e-39 318 243
-0.00119928 0.68400002 -0.00359784 9.2145253e-39 319 243
0 0.68599999 -0.00360836 9.9506442e-39 320 243
0.0012045399 0.68699998 -0.0036136196 1.0411622e-38 321 243
0.0024125867 0.68800002 -0.0036188802 9.8602451e-39 322 243
0.0036293997 0.69 -0.0036293997 9.8602451e-39 323 243
0.0048462129 0.69099998 -0.0036346598 1.0136465e-38 324 243
0.0060753003 0.69300002 -0.0036451798 1.0504887e-38 325 243
0.0073008798 0.69400001 -0.0036504399 1.0321572e-38 326 243
0.0085176928 0.69400001 -0.0036504399 1.0137181e-38 327 243
0.0097625591 0.69599998 -0.0036609597 9.8595178e-39 328 243
0.01099866 0.69700003 -0.00366622 1.0597084e-38 329 243
0.012220734 0.69700003 -0.00366622 1.3825013e-38 330 243
0.013442807 0.69700003 -0.00366622 1.5576729e-38 331 243
0.01466488 0.69700003 -0.00366622 1.5301584e-38 332 243
-0.055545598 0.704 -0.0049373866 1.5030053e-38 275 244
-0.054079808 0.70099998 -0.0049163462 1.4844222e-38 276 244
-0.052775331 0.69999999 -0.0049093333 1.4014462e-38 277 244
-0.051400717 0.69800001 -0.0048953067 1.2538253e-38 278 244
-0.050176892 0.69800001 -0.0048953067 1.2261666e-38 279 244
-0.048812799 0.69599998 -0.0048812795 1.1986155e-38 280 244
-0.047455717 0.69400001 -0.0048672534 1.1893958e-38 281 244
-0.046039023 0.69099998 -0.0048462129 1.1434429e-38 282 244
-0.0447626 0.69 -0.0048391996 1.0051494e-38 283 244
-0.043426562 0.68800002 -0.0048251734 7.9324535e-39 284 244
-0.042097531 0.68599999 -0.0048111463 7.8402565e-39 285 244
-0.040894743 0.68599999 -0.0048111463 7.6544401e-39 286 244
-0.03957624 0.68400002 -0.0047971201 7.5622445e-39 287 244
-0.038320854 0.68300003 -0.0047901068 7.5626004e-39 288 244
-0.037068974 0.68199998 -0.004783093 7.654796e-39 289 244
-0.035873197 0.68199998 -0.004783093 8.5735055e-39 290 244
-0.034677424 0.68199998 -0.004783093 8.6657026e-39 291 244
-0.033383466 0.68000001 -0.0047690663 8.850447e-39 292 244
-0.032191198 0.68000001 -0.0047690663 9.1270324e-39 293 244
-0.030998932 0.68000001 -0.0047690663 9.4057717e-39 294 244
-0.029806666 0.68000001 -0.0047690663 9.8667499e-39 295 244
-0.028572321 0.67900002 -0.0047620535 1.0050415e-38 296 244
-0.027381808 0.67900002 -0.0047620535 1.0234807e-38 297 244
-0.026191294 0.67900002 -0.0047620535 1.0326639e-38 298 244
-0.024963958 0.67799997 -0.0047550397 1.0326639e-38 299 244
-0.023775198 0.67799997 -0.0047550397 1.0601068e-38 300 244
-0.022586439 0.67799997 -0.0047550397 1.0417037e-38 301 244
-0.021429239 0.67900002 -0.0047620535 1.0325557e-38 302 244
-0.020268533 0.68000001 -0.0047690663 1.0049329e-38 303 244
-0.019076265 0.68000001 -0.0047690663 9.2174148e-39 304 244
-0.017883999 0.68000001 -0.0047690663 8.664241e-39 305 244
-0.016740825 0.68199998 -0.004783093 8.7564366e-39 306 244
-0.015545053 0.68199998 -0.004783093 8.7564366e-39 307 244
-0.014307199 0.68000001 -0.0047690663 8.8468344e-39 308 244
-0.013114933 0.68000001 -0.0047690663 8.6624417e-39 309 244
-0.011922667 0.68000001 -0.0047690663 9.3078084e-39 310 244
-0.0107304 0.68000001 -0.0047690663 9.8609821e-39 311 244
-0.0095381327 0.68000001 -0.0047690663 9.6780174e-39 312 244
-0.0083704125 0.68199998 -0.004783093 9.6780174e-39 313 244
-0.00717464 0.68199998 -0.004783093 9.3074398e-39 314 244
-0.005978866 0.68199998 -0.004783093 9.2152442e-39 315 244
-0.0047901068 0.68300003 -0.0047901068 9.1230514e-39 316 244
-0.00359784 0.68400002 -0.0047971201 9.0308557e-39 317 244
-0.0023985601 0.68400002 -0.0047971201 9.0301355e-39 318 244
-0.0012027866 0.68599999 -0.0048111463 9.1223325e-39 319 244
0 0.68699998 -0.0048181596 9.5833036e-39 320 244
0.0012045399 0.68699998 -0.0048181596 9.8602507e-39 321 244
0.0024125867 0.68800002 -0.0048251734 9.8602451e-39 322 244
0.0036293997 0.69 -0.0048391996 9.7680494e-39 323 244
0.0048462129 0.69099998 -0.0048462129 1.0044629e-38 324 244
0.0060753003 0.69300002 -0.00486024 1.0229379e-38 325 244
0.0073008798 0.69400001 -0.0048672534 1.0413768e-38 326 244
0.0085176928 0.69400001 -0.0048672534 1.0321572e-38 327 244
0.0097625591 0.69599998 -0.0048812795 1.0319421e-38 328 244
0.01099866 0.69700003 -0.0048882933 1.1241736e-38 329 244
0.012238266 0.69800001 -0.0048953067 1.4376385e-38 330 244
0.013442807 0.69700003 -0.0048882933 1.5943712e-38 331 244
0.01466488 0.69700003 -0.0048882933 1.6127383e-38 332 244
-0.055545598 0.704 -0.0061717331 1.5674705e-38 275 245
-0.054234106 0.70300001 -0.0061629666 1.539704e-38 276 245
-0.052850723 0.70099998 -0.0061454331 1.392191e-38 277 245
-0.051547997 0.69999999 -0.0061366665 1.1986877e-38 278 245
-0.050320663 0.69999999 -0.0061366665 1.1802487e-38 279 245
-0.048882935 0.69700003 -0.0061103669 1.171029e-38 280 245
-0.047455717 0.69400001 -0.0060840664 1.171029e-38 281 245
-0.046039023 0.69099998 -0.0060577663 1.1802136e-38 282 245
-0.0447626 0.69 -0.0060489997 1.0327005e-38 283 245
-0.043426562 0.68800002 -0.0060314666 7.8420586e-39 284 245
-0.042158898 0.68699998 -0.0060226996 7.2888848e-39 285 245
-0.040894743 0.68599999 -0.0060139326 7.654796e-39 286 245
-0.03957624 0.68400002 -0.0059964 7.3782106e-39 287 245
-0.038376961 0.68400002 -0.0059964 7.5618788e-39 288 245
-0.037123326 0.68300003 -0.0059876335 7.6540744e-39 289 245
-0.035873197 0.68199998 -0.005978866 8.5735055e-39 290 245
-0.034677424 0.68199998 -0.005978866 8.5735055e-39 291 245
-0.03348165 0.68199998 -0.005978866 8.5749419e-39 292 245
-0.032285877 0.68199998 -0.005978866 8.758973e-39 293 245
-0.030998932 0.68000001 -0.0059613334 8.5774586e-39 294 245
-0.029806666 0.68000001 -0.0059613334 9.038078e-39 295 245
-0.028614398 0.68000001 -0.0059613334 9.6820027e-39 296 245
-0.027381808 0.67900002 -0.0059525664 9.8663939e-39 297 245
-0.026191294 0.67900002 -0.0059525664 1.0509951e-38 298 245
-0.025000781 0.67900002 -0.0059525664 1.0509951e-38 299 245
-0.023810266 0.67900002 -0.0059525664 1.0876213e-38 300 245
-0.022619752 0.67900002 -0.0059525664 1.0415235e-38 301 245
-0.0214608 0.68000001 -0.0059613334 9.5890742e-39 302 245
-0.020328145 0.68199998 -0.005978866 9.4965198e-39 303 245
-0.019132372 0.68199998 -0.005978866 8.9422698e-39 304 245
-0.017936599 0.68199998 -0.005978866 8.4812917e-39 305 245
-0.016740825 0.68199998 -0.005978866 8.7564366e-39 306 245
-0.015545053 0.68199998 -0.005978866 8.664241e-39 307 245
-0.014307199 0.68000001 -0.0059613334 9.1219822e-39 308 245
-0.013114933 0.68000001 -0.0059613334 8.9372308e-39 309 245
-0.011922667 0.68000001 -0.0059613334 9.0315816e-39 310 245
-0.0107304 0.68000001 -0.0059613334 9.400004e-39 311 245
-0.0095381327 0.68000001 -0.0059613334 9.4003599e-39 312 245
-0.0083704125 0.68199998 -0.005978866 8.8471875e-39 313 245
-0.00717464 0.68199998 -0.005978866 8.9372308e-39 314 245
-0.005978866 0.68199998 -0.005978866 9.0294278e-39 315 245
-0.0047901068 0.68300003 -0.0059876335 8.6627949e-39 316 245
-0.00359784 0.68400002 -0.0059964 8.7549905e-39 317 245
-0.0023985601 0.68400002 -0.0059964 8.6627893e-39 318 245
-0.0012027866 0.68599999 -0.0060139326 8.7553436e-39 319 245
0 0.68699998 -0.0060226996 9.3985564e-39 320 245
0.0012045399 0.68699998 -0.0060226996 9.6755021e-39 321 245
0.0024125867 0.68800002 -0.0060314666 9.768055e-39 322 245
0.0036293997 0.69 -0.0060489997 9.6754993e-39 323 245
0.0048462129 0.69099998 -0.0060577663 9.7684025e-39 324 245
0.0060753003 0.69300002 -0.0060753003 1.0321575e-38 325 245
0.0073008798 0.69400001 -0.0060840664 1.0413768e-38 326 245
0.0085176928 0.69400001 -0.0060840664 1.0229376e-38 327 245
0.0097765867 0.69700003 -0.0061103669 1.0043913e-38 328 245
0.011045999 0.69999999 -0.0061366665 1.0689283e-38 329 245
0.012273333 0.69999999 -0.0061366665 1.4100874e-38 330 245
0.013500666 0.69999999 -0.0061366665 1.6036982e-38 331 245
0.014727999 0.69999999 -0.0061366665 1.6403244e-38 332 245
-0.055545598 0.704 -0.0074060797 1.5399197e-38 275 246
-0.054311249 0.704 -0.0074060797 1.4844941e-38 276 246
-0.053001512 0.70300001 -0.0073955595 1.3369811e-38 277 246
-0.051621638 0.70099998 -0.0073745195 1.0790131e-38 278 246
-0.050320663 0.69999999 -0.0073639993 1.0790131e-38 279 246
-0.048953064 0.69800001 -0.0073429602 1.1799969e-38 280 246
-0.047592476 0.69599998 -0.0073219193 1.2076554e-38 281 246
-0.04617228 0.69300002 -0.0072903596 1.1618463e-38 282 246
-0.044827472 0.69099998 -0.0072693196 1.0143693e-38 283 246
-0.043426562 0.68800002 -0.0072377604 7.7498629e-39 284 246
-0.042158898 0.68699998 -0.0072272392 7.1966892e-39 285 246
-0.040954359 0.68699998 -0.0072272392 7.6540772e-39 286 246
-0.039691959 0.68599999 -0.0072167199 7.4693272e-39 287 246
-0.03848917 0.68599999 -0.0072167199 7.9299354e-39 288 246
-0.037123326 0.68300003 -0.0071851597 8.1146854e-39 289 246
-0.035925802 0.68300003 -0.0071851597 8.5749419e-39 290 246
-0.034677424 0.68199998 -0.00717464 8.5749419e-39 291 246
-0.03348165 0.68199998 -0.00717464 8.5749419e-39 292 246
-0.032285877 0.68199998 -0.00717464 8.4827462e-39 293 246
-0.030998932 0.68000001 -0.0071535995 8.1154015e-39 294 246
-0.029806666 0.68000001 -0.0071535995 8.2075985e-39 295 246
-0.028614398 0.68000001 -0.0071535995 9.7720361e-39 296 246
-0.027422134 0.68000001 -0.0071535995 1.0324851e-38 297 246
-0.026229866 0.68000001 -0.0071535995 1.0693261e-38 298 246
-0.025037598 0.68000001 -0.0071535995 1.0970208e-38 299 246
-0.023845334 0.68000001 -0.0071535995 1.1152803e-38 300 246
-0.022653066 0.68000001 -0.0071535995 9.0323033e-39 301 246
-0.021523919 0.68199998 -0.00717464 7.0104804e-39 302 246
-0.020328145 0.68199998 -0.00717464 7.5636542e-39 303 246
-0.019132372 0.68199998 -0.00717464 8.7560835e-39 304 246
-0.017936599 0.68199998 -0.00717464 8.7560835e-39 305 246
-0.016740825 0.68199998 -0.00717464 8.7571555e-39 306 246
-0.015545053 0.68199998 -0.00717464 8.8493511e-39 307 246
-0.01434928 0.68199998 -0.00717464 9.0315788e-39 308 246
-0.013153506 0.68199998 -0.00717464 8.9393832e-39 309 246
-0.011957732 0.68199998 -0.00717464 9.1244933e-39 310 246
-0.010761959 0.68199998 -0.00717464 9.2170477e-39 311 246
-0.009566186 0.68199998 -0.00717464 9.3081615e-39 312 246
-0.0083704125 0.68199998 -0.00717464 9.0319347e-39 313 246
-0.00717464 0.68199998 -0.00717464 8.6627921e-39 314 246
-0.0059876335 0.68300003 -0.0071851597 8.6627921e-39 315 246
-0.0047971201 0.68400002 -0.0071956799 8.479477e-39 316 246
-0.00360836 0.68599999 -0.0072167199 8.3872814e-39 317 246
-0.0024055731 0.68599999 -0.0072167199 8.5698748e-39 318 246
-0.0012027866 0.68599999 -0.0072167199 8.6620704e-39 319 246
0 0.68699998 -0.0072272392 9.3974746e-39 320 246
0.0012062934 0.68800002 -0.0072377604 1.0042844e-38 321 246
0.0024125867 0.68800002 -0.0072377604 9.6765727e-39 322 246
0.0036293997 0.69 -0.0072587994 9.6765727e-39 323 246
0.0048462129 0.69099998 -0.0072693196 9.8609541e-39 324 246
0.0060753003 0.69300002 -0.0072903596 1.0137181e-38 325 246
0.0073008798 0.69400001 -0.0073008798 1.0046064e-38 326 246
0.0085422397 0.69599998 -0.0073219193 9.861673e-39 327 246
0.0097765867 0.69700003 -0.00733244 8.8464448e-39 328 246
0.011045999 0.69999999 -0.0073639993 9.2152288e-39 329 246
0.012273333 0.69999999 -0.0073639993 1.3548775e-38 330 246
0.013500666 0.69999999 -0.0073639993 1.5761472e-38 331 246
-0.054311249 0.704 -0.0086404262 1.5303396e-38 276 247
-0.053001512 0.70300001 -0.0086281532 1.3552039e-38 277 247
-0.051621638 0.70099998 -0.0086036054 9.6827075e-39 278 247
-0.050392549 0.70099998 -0.0086036054 9.7749046e-39 279 247
-0.048953064 0.69800001 -0.0085667865 1.0974174e-38 280 247
-0.047592476 0.69599998 -0.0085422397 1.1066369e-38 281 247
-0.04617228 0.69300002 -0.0085054198 1.1618107e-38 282 247
-0.044827472 0.69099998 -0.008480873 1.0419924e-38 283 247
-0.043552797 0.69 -0.0084686 8.2083174e-39 284 247
-0.042220265 0.68800002 -0.0084440531 7.6551436e-39 285 247
-0.040954359 0.68699998 -0.0084317802 8.2054461e-39 286 247
-0.039691959 0.68599999 -0.0084195063 7.9292193e-39 287 247
-0.03848917 0.68599999 -0.0084195063 8.022131e-39 288 247
-0.037286382 0.68599999 -0.0084195063 8.4831092e-39 289 247
-0.035978399 0.68400002 -0.0083949603 8.4834623e-39 290 247
-0.034728274 0.68300003 -0.0083826864 8.4834623e-39 291 247
-0.033530746 0.68300003 -0.0083826864 8.5756579e-39 292 247
-0.032333218 0.68300003 -0.0083826864 8.6678536e-39 293 247
-0.031090107 0.68199998 -0.0083704125 9.035913e-39 294 247
-0.029894331 0.68199998 -0.0083704125 9.12811e-39 295 247
-0.028614398 0.68000001 -0.0083458666 9.8653037e-39 296 247
-0.027422134 0.68000001 -0.0083458666 1.0141892e-38 297 247
-0.026229866 0.68000001 -0.0083458666 1.0326992e-38 298 247
-0.025037598 0.68000001 -0.0083458666 1.0511023e-38 299 247
-0.023845334 0.68000001 -0.0083458666 1.0600349e-38 300 247
-0.022653066 0.68000001 -0.0083458666 8.7564366e-39 301 247
-0.021523919 0.68199998 -0.0083704125 7.0094112e-39 302 247
-0.020328145 0.68199998 -0.0083704125 7.562585e-39 303 247
-0.019132372 0.68199998 -0.0083704125 8.3887457e-39 304 247
-0.017936599 0.68199998 -0.0083704125 8.3887457e-39 305 247
-0.016740825 0.68199998 -0.0083704125 8.8486323e-39 306 247
-0.015545053 0.68199998 -0.0083704125 8.9408279e-39 307 247
-0.01434928 0.68199998 -0.0083704125 8.6635193e-39 308 247
-0.013153506 0.68199998 -0.0083704125 8.5713237e-39 309 247
-0.011957732 0.68199998 -0.0083704125 8.8479064e-39 310 247
-0.010761959 0.68199998 -0.0083704125 9.2170477e-39 311 247
-0.009566186 0.68199998 -0.0083704125 9.4918339e-39 312 247
-0.0083826864 0.68300003 -0.0083826864 8.8464645e-39 313 247
-0.0071851597 0.68300003 -0.0083826864 8.6624389e-39 314 247
-0.0059876335 0.68300003 -0.0083826864 8.2018209e-39 315 247
-0.0047971201 0.68400002 -0.0083949603 7.8341244e-39 316 247
-0.00360836 0.68599999 -0.0084195063 7.7419274e-39 317 247
-0.0024055731 0.68599999 -0.0084195063 7.5582494e-39 318 247
-0.0012045399 0.68699998 -0.0084317802 7.7422805e-39 319 247
0 0.68800002 -0.0084440531 8.6645913e-39 320 247
0.0012062934 0.68800002 -0.0084440531 9.1255681e-39 321 247
0.0024195998 0.69 -0.0084686 9.4936261e-39 322 247
0.0036293997 0.69 -0.0084686 9.217398e-39 323 247
0.0048462129 0.69099998 -0.008480873 9.4925373e-39 324 247
0.0060840664 0.69400001 -0.0085176928 1.0045711e-38 325 247
0.0073008798 0.69400001 -0.0085176928 9.8609639e-39 326 247
0.0085422397 0.69599998 -0.0085422397 9.4925401e-39 327 247
0.0097765867 0.69700003 -0.0085545136 8.9382845e-39 328 247
0.011045999 0.69999999 -0.0085913334 9.3992627e-39 329 247
0.012273333 0.69999999 -0.0085913334 1.4007232e-38 330 247
0.013500666 0.69999999 -0.0085913334 1.6219929e-38 331 247
-0.054311249 0.704 -0.0098747732 1.5669291e-38 276 248
-0.053076904 0.704 -0.0098747732 1.3917574e-38 277 248
-0.051842559 0.704 -0.0098747732 8.7596764e-39 278 248
-0.050392549 0.70099998 -0.0098326923 8.5756453e-39 279 248
-0.049093332 0.69999999 -0.0098186666 1.0789425e-38 280 248
-0.047592476 0.69599998 -0.0097625591 1.1250403e-38 281 248
-0.04617228 0.69300002 -0.0097204801 1.1618463e-38 282 248
-0.044827472 0.69099998 -0.0096924258 1.0419921e-38 283 248
-0.043615919 0.69099998 -0.0096924258 8.6678536e-39 284 248
-0.042220265 0.68800002 -0.0096503468 8.3912667e-39 285 248
-0.041013971 0.68800002 -0.0096503468 8.2972788e-39 286 248
-0.039749816 0.68699998 -0.0096363192 8.2050832e-39 287 248
-0.03848917 0.68599999 -0.0096222926 8.1143295e-39 288 248
-0.037286382 0.68599999 -0.0096222926 8.483112e-39 289 248
-0.036083598 0.68599999 -0.0096222926 8.2997997e-39 290 248
-0.03477912 0.68400002 -0.0095942402 8.2072454e-39 291 248
-0.033530746 0.68300003 -0.0095802136 8.6660557e-39 292 248
-0.032333218 0.68300003 -0.0095802136 9.3114251e-39 293 248
-0.031090107 0.68199998 -0.009566186 1.0142611e-38 294 248
-0.029894331 0.68199998 -0.009566186 1.0695785e-38 295 248
-0.02869856 0.68199998 -0.009566186 9.869254e-39 296 248
-0.027422134 0.68000001 -0.0095381327 9.869254e-39 297 248
-0.026229866 0.68000001 -0.0095381327 1.0510668e-38 298 248
-0.025037598 0.68000001 -0.0095381327 1.0510668e-38 299 248
-0.023845334 0.68000001 -0.0095381327 1.0050059e-38 300 248
-0.022653066 0.68000001 -0.0095381327 8.2987011e-39 301 248
-0.021523919 0.68199998 -0.009566186 7.4696663e-39 302 248
-0.020328145 0.68199998 -0.009566186 7.9306445e-39 303 248
-0.019160427 0.68300003 -0.0095802136 8.4805756e-39 304 248
-0.017962901 0.68300003 -0.0095802136 8.6646068e-39 305 248
-0.016765373 0.68300003 -0.0095802136 8.8486351e-39 306 248
-0.015567848 0.68300003 -0.0095802136 8.8486351e-39 307 248
-0.014370319 0.68300003 -0.0095802136 8.5709734e-39 308 248
-0.013172794 0.68300003 -0.0095802136 8.3865807e-39 309 248
-0.011975267 0.68300003 -0.0095802136 8.7567926e-39 310 248
-0.01077774 0.68300003 -0.0095802136 9.125215e-39 311 248
-0.0095802136 0.68300003 -0.0095802136 8.941537e-39 312 248
-0.0083826864 0.68300003 -0.0095802136 8.2039719e-39 313 248
-0.0071851597 0.68300003 -0.0095802136 8.1067512e-39 314 248
-0.0059964 0.68400002 -0.0095942402 8.0145556e-39 315 248
-0.0048111463 0.68599999 -0.0096222926 7.6461416e-39 316 248
-0.00360836 0.68599999 -0.0096222926 7.553946e-39 317 248
-0.0024055731 0.68599999 -0.0096222926 7.3706309e-39 318 248
-0.0012045399 0.68699998 -0.0096363192 7.5550236e-39 319 248
0 0.68800002 -0.0096503468 8.2972508e-39 320 248
0.0012062934 0.68800002 -0.0096503468 8.9426202e-39 321 248
0.0024195998 0.69 -0.0096783992 9.4007102e-39 322 248
0.0036293997 0.69 -0.0096783992 9.216319e-39 323 248
0.00486024 0.69300002 -0.0097204801 9.3999886e-39 324 248
0.0060840664 0.69400001 -0.0097345067 9.7687711e-39 325 248
0.0073008798 0.69400001 -0.0097345067 9.4936261e-39 326 248
0.0085422397 0.69599998 -0.0097625591 9.309595e-39 327 248
0.0097906133 0.69800001 -0.0097906133 9.1234017e-39 328 248
0.011061779 0.70099998 -0.0098326923 1.0321945e-38 329 248
0.012290866 0.70099998 -0.0098326923 1.465153e-38 330 248
0.013519952 0.70099998 -0.0098326923 1.6679834e-38 331 248
-0.054465543 0.70599997 -0.011140679 1.5668926e-38 276 249
-0.053076904 0.704 -0.011109119 1.4009044e-38 277 249
-0.051842559 0.704 -0.011109119 8.7582387e-39 278 249
-0.050392549 0.70099998 -0.011061779 8.1128693e-39 279 249
-0.049163464 0.70099998 -0.011061779 9.8681946e-39 280 249
-0.047455717 0.69400001 -0.01095132 1.0789792e-38 281 249
-0.04617228 0.69300002 -0.010935539 1.1157489e-38 282 249
-0.044957221 0.69300002 -0.010935539 1.0512119e-38 283 249
-0.043615919 0.69099998 -0.01090398 9.1281128e-39 284 249
-0.042220265 0.68800002 -0.010856641 8.7589702e-39 285 249
-0.041013971 0.68800002 -0.010856641 8.6649823e-39 286 249
-0.039749816 0.68699998 -0.010840859 8.5727867e-39 287 249
-0.03848917 0.68599999 -0.010825079 7.656947e-39 288 249
-0.037286382 0.68599999 -0.010825079 7.7491441e-39 289 249
-0.036083598 0.68599999 -0.010825079 8.2976417e-39 290 249
-0.03477912 0.68400002 -0.01079352 8.2976417e-39 291 249
-0.033579841 0.68400002 -0.01079352 8.5749419e-39 292 249
-0.032333218 0.68300003 -0.01077774 9.1281156e-39 293 249
-0.031135695 0.68300003 -0.01077774 1.0326286e-38 294 249
-0.029938167 0.68300003 -0.01077774 1.087946e-38 295 249
-0.02869856 0.68199998 -0.010761959 1.0420271e-38 296 249
-0.027502786 0.68199998 -0.010761959 1.0328074e-38 297 249
-0.026307013 0.68199998 -0.010761959 1.0327352e-38 298 249
-0.025111238 0.68199998 -0.010761959 1.0235157e-38 299 249
-0.023915464 0.68199998 -0.010761959 1.0233009e-38 300 249
-0.022719691 0.68199998 -0.010761959 8.6660417e-39 301 249
-0.02155548 0.68300003 -0.01077774 8.2965473e-39 302 249
-0.020357953 0.68300003 -0.01077774 8.4812973e-39 303 249
-0.019160427 0.68300003 -0.01077774 8.4812917e-39 304 249
-0.017962901 0.68300003 -0.01077774 8.5738461e-39 305 249
-0.016765373 0.68300003 -0.01077774 8.7564394e-39 306 249
-0.015567848 0.68300003 -0.01077774 8.7564394e-39 307 249
-0.014370319 0.68300003 -0.01077774 8.3883772e-39 308 249
-0.013172794 0.68300003 -0.01077774 8.3883772e-39 309 249
-0.011975267 0.68300003 -0.01077774 8.4816448e-39 310 249
-0.01077774 0.68300003 -0.01077774 8.7585904e-39 311 249
-0.0095802136 0.68300003 -0.01077774 8.8489882e-39 312 249
-0.0083949603 0.68400002 -0.01079352 6.91288e-39 313 249
-0.0071956799 0.68400002 -0.01079352 6.7270664e-39 314 249
-0.0060139326 0.68599999 -0.010825079 6.7270664e-39 315 249
-0.0048181596 0.68699998 -0.010840859 6.7267105e-39 316 249
-0.0036136196 0.68699998 -0.010840859 6.6345148e-39 317 249
-0.0024090798 0.68699998 -0.010840859 6.5441143e-39 318 249
-0.0012062934 0.68800002 -0.010856641 7.0972881e-39 319 249
0 0.68800002 -0.010856641 8.4791267e-39 320 249
0.0012097999 0.69 -0.010888199 9.2166917e-39 321 249
0.0024195998 0.69 -0.010888199 9.2170421e-39 322 249
0.0036346598 0.69099998 -0.01090398 8.9404552e-39 323 249
0.00486024 0.69300002 -0.010935539 9.2159631e-39 324 249
0.0060840664 0.69400001 -0.01095132 9.4929101e-39 325 249
0.0073219193 0.69599998 -0.010982879 9.3095978e-39 326 249
0.0085422397 0.69599998 -0.010982879 9.1248464e-39 327 249
0.0097906133 0.69800001 -0.01101444 9.0319319e-39 328 249
0.011061779 0.70099998 -0.011061779 1.0322671e-38 329 249
0.012290866 0.70099998 -0.011061779 1.4376385e-38 330 249
0.013519952 0.70099998 -0.011061779 1.6496884e-38 331 249
-0.054465543 0.70599997 -0.012378532 1.5852235e-38 276 250
-0.053076904 0.704 -0.012343466 1.4377104e-38 277 250
-0.051842559 0.704 -0.012343466 9.0333935e-39 278 250
-0.050392549 0.70099998 -0.012290866 7.7426547e-39 279 250
-0.049163464 0.70099998 -0.012290866 9.1309981e-39 280 250
-0.047455717 0.69400001 -0.012168133 9.9607602e-39 281 250
-0.04617228 0.69300002 -0.012150601 1.0788709e-38 282 250
-0.044957221 0.69300002 -0.012150601 1.0511763e-38 283 250
-0.043615919 0.69099998 -0.012115533 1.0048627e-38 284 250
-0.042220265 0.68800002 -0.012062933 9.4032578e-39 285 250
-0.041013971 0.68800002 -0.012062933 8.758973e-39 286 250
-0.039749816 0.68699998 -0.012045399 8.4827462e-39 287 250
-0.03848917 0.68599999 -0.012027865 7.8402565e-39 288 250
-0.037286382 0.68599999 -0.012027865 7.8402565e-39 289 250
-0.036083598 0.68599999 -0.012027865 8.4813071e-39 290 250
-0.034880809 0.68599999 -0.012027865 8.5738615e-39 291 250
-0.033579841 0.68400002 -0.0119928 8.4834651e-39 292 250
-0.032380559 0.68400002 -0.0119928 8.8522476e-39 293 250
-0.031135695 0.68300003 -0.011975267 9.4043396e-39 294 250
-0.029938167 0.68300003 -0.011975267 9.7734823e-39 295 250
-0.028740639 0.68300003 -0.011975267 1.0234453e-38 296 250
-0.027502786 0.68199998 -0.011957732 1.0234453e-38 297 250
-0.026307013 0.68199998 -0.011957732 1.0509951e-38 298 250
-0.025111238 0.68199998 -0.011957732 1.0509951e-38 299 250
-0.023915464 0.68199998 -0.011957732 1.0325204e-38 300 250
-0.022719691 0.68199998 -0.011957732 8.7582387e-39 301 250
-0.02155548 0.68300003 -0.011975267 8.2054307e-39 302 250
-0.020357953 0.68300003 -0.011975267 8.2976263e-39 303 250
-0.019160427 0.68300003 -0.011975267 8.2979794e-39 304 250
-0.017962901 0.68300003 -0.011975267 8.2979794e-39 305 250
-0.016765373 0.68300003 -0.011975267 8.664241e-39 306 250
-0.015567848 0.68300003 -0.011975267 8.664241e-39 307 250
-0.014370319 0.68300003 -0.011975267 8.4798498e-39 308 250
-0.013172794 0.68300003 -0.011975267 8.3876527e-39 309 250
-0.011975267 0.68300003 -0.011975267 8.3887303e-39 310 250
-0.01077774 0.68300003 -0.011975267 8.6649571e-39 311 250
-0.0095942402 0.68400002 -0.0119928 8.6642438e-39 312 250
-0.0083949603 0.68400002 -0.0119928 6.6355812e-39 313 250
-0.0072167199 0.68599999 -0.012027865 6.4519214e-39 314 250
-0.0060139326 0.68599999 -0.012027865 6.2671701e-39 315 250
-0.0048181596 0.68699998 -0.012045399 6.542315e-39 316 250
-0.0036136196 0.68699998 -0.012045399 6.542315e-39 317 250
-0.0024090798 0.68699998 -0.012045399 6.7285013e-39 318 250
-0.0012062934 0.68800002 -0.012062933 7.1898396e-39 319 250
0 0.69 -0.012097999 8.4791295e-39 320 250
0.0012097999 0.69 -0.012097999 9.2166959e-39 321 250
0.0024231065 0.69099998 -0.012115533 9.400713e-39 322 250
0.0036346598 0.69099998 -0.012115533 9.3081587e-39 323 250
0.00486024 0.69300002 -0.012150601 9.217398e-39 324 250
0.0060840664 0.69400001 -0.012168133 9.217398e-39 325 250
0.0073219193 0.69599998 -0.0122032 9.1255681e-39 326 250
0.0085422397 0.69599998 -0.0122032 8.8493413e-39 327 250
0.0097906133 0.69800001 -0.012238266 8.9415342e-39 328 250
0.011061779 0.70099998 -0.012290866 1.0232273e-38 329 250
0.012290866 0.70099998 -0.012290866 1.4560053e-38 330 250
0.013616386 0.70599997 -0.012378532 1.6680552e-38 331 250
-0.054465543 0.70599997 -0.013616386 1.6128102e-38 276 251
-0.053076904 0.704 -0.013577812 1.446858e-38 277 251
-0.051842559 0.704 -0.013577812 9.0333935e-39 278 251
-0.050536323 0.70300001 -0.013558527 7.1898396e-39 279 251
-0.049163464 0.70099998 -0.013519952 8.8519001e-39 280 251
-0.047934376 0.70099998 -0.013519952 9.9578889e-39 281 251
-0.046238903 0.69400001 -0.013384946 9.8707156e-39 282 251
-0.044957221 0.69300002 -0.01336566 9.6863243e-39 283 251
-0.043615919 0.69099998 -0.013327086 9.8656779e-39 284 251
-0.042220265 0.68800002 -0.013269227 9.1281128e-39 285 251
-0.041013971 0.68800002 -0.013269227 8.6657026e-39 286 251
-0.039749816 0.68699998 -0.013249939 8.6657026e-39 287 251
-0.038545277 0.68699998 -0.013249939 8.2075985e-39 288 251
-0.037286382 0.68599999 -0.013230653 8.2075985e-39 289 251
-0.036083598 0.68599999 -0.013230653 8.3912667e-39 290 251
-0.034880809 0.68599999 -0.013230653 8.3912667e-39 291 251
-0.033678025 0.68599999 -0.013230653 8.7589702e-39 292 251
-0.032380559 0.68400002 -0.01319208 8.8511658e-39 293 251
-0.03118128 0.68400002 -0.01319208 9.1270324e-39 294 251
-0.029982001 0.68400002 -0.01319208 9.4958164e-39 295 251
-0.02878272 0.68400002 -0.01319208 1.0048622e-38 296 251
-0.027543113 0.68300003 -0.013172794 1.0417403e-38 297 251
-0.026345588 0.68300003 -0.013172794 1.0693261e-38 298 251
-0.025111238 0.68199998 -0.013153506 1.0693261e-38 299 251
-0.023915464 0.68199998 -0.013153506 1.0692548e-38 300 251
-0.022719691 0.68199998 -0.013153506 9.1248632e-39 301 251
-0.02155548 0.68300003 -0.013172794 7.9306417e-39 302 251
-0.020357953 0.68300003 -0.013172794 8.0228373e-39 303 251
-0.019160427 0.68300003 -0.013172794 8.3890989e-39 304 251
-0.017962901 0.68300003 -0.013172794 8.3890989e-39 305 251
-0.016765373 0.68300003 -0.013172794 8.6649627e-39 306 251
-0.015567848 0.68300003 -0.013172794 8.4805728e-39 307 251
-0.014370319 0.68300003 -0.013172794 8.2961788e-39 308 251
-0.013172794 0.68300003 -0.013172794 8.2039817e-39 309 251
-0.0119928 0.68400002 -0.01319208 8.3887303e-39 310 251
-0.01079352 0.68400002 -0.01319208 8.7575114e-39 311 251
-0.0095942402 0.68400002 -0.01319208 8.9397489e-39 312 251
-0.0083949603 0.68400002 -0.01319208 6.6352183e-39 313 251
-0.0072167199 0.68599999 -0.013230653 6.9103787e-39 314 251
-0.0060226996 0.68699998 -0.013249939 6.7256273e-39 315 251
-0.0048181596 0.68699998 -0.013249939 6.2668071e-39 316 251
-0.0036188802 0.68800002 -0.013269227 6.5430353e-39 317 251
-0.0024125867 0.68800002 -0.013269227 6.5444674e-39 318 251
-0.0012097999 0.69 -0.0133078 7.3738679e-39 319 251
0 0.69099998 -0.013327086 8.6627949e-39 320 251
0.0012115532 0.69099998 -0.013327086 9.4003599e-39 321 251
0.0024231065 0.69099998 -0.013327086 9.217398e-39 322 251
0.0036451798 0.69300002 -0.01336566 9.309595e-39 323 251
0.0048672534 0.69400001 -0.013384946 9.2181182e-39 324 251
0.0060840664 0.69400001 -0.013384946 9.1259212e-39 325 251
0.0073219193 0.69599998 -0.013423519 8.8493385e-39 326 251
0.0085667865 0.69800001 -0.013462093 8.7571429e-39 327 251
0.0098326923 0.70099998 -0.013519952 9.2181182e-39 328 251
0.01109334 0.70300001 -0.013558527 1.087764e-38 329 251
0.012378532 0.70599997 -0.013616386 1.4652249e-38 330 251
0.013616386 0.70599997 -0.013616386 1.6588357e-38 331 251
-0.054311249 0.704 -0.014812159 1.612666e-38 276 252
-0.053076904 0.704 -0.014812159 1.4835921e-38 277 252
-0.051842559 0.704 -0.014812159 9.1241458e-39 278 252
-0.050536323 0.70300001 -0.014791119 7.2802346e-39 279 252
-0.049163464 0.70099998 -0.014749039 7.7477077e-39 280 252
-0.047934376 0.70099998 -0.014749039 9.1306422e-39 281 252
-0.046438783 0.69700003 -0.01466488 9.5937755e-39 282 252
-0.045022093 0.69400001 -0.01460176 9.224993e-39 283 252
-0.043742158 0.69300002 -0.014580719 9.7734851e-39 284 252
-0.042342998 0.69 -0.014517599 8.9433643e-39 285 252
-0.041013971 0.68800002 -0.014475521 9.1252416e-39 286 252
-0.039749816 0.68699998 -0.014454478 8.9408503e-39 287 252
-0.038545277 0.68699998 -0.014454478 8.3923457e-39 288 252
-0.037340738 0.68699998 -0.014454478 8.3923457e-39 289 252
-0.036136195 0.68699998 -0.014454478 8.5752922e-39 290 252
-0.034880809 0.68599999 -0.01443344 8.7593233e-39 291 252
-0.033678025 0.68599999 -0.01443344 8.4834623e-39 292 252
-0.032475237 0.68599999 -0.01443344 8.4834623e-39 293 252
-0.031272452 0.68599999 -0.01443344 8.6685752e-39 294 252
-0.030069664 0.68599999 -0.01443344 8.9451635e-39 295 252
-0.02886688 0.68599999 -0.01443344 9.4968884e-39 296 252
-0.027583439 0.68400002 -0.01439136 9.866031e-39 297 252
-0.02638416 0.68400002 -0.01439136 1.0234438e-38 298 252
-0.02514806 0.68300003 -0.014370319 1.0326992e-38 299 252
-0.023950534 0.68300003 -0.014370319 1.0783296e-38 300 252
-0.022786319 0.68400002 -0.01439136 9.4925569e-39 301 252
-0.02158704 0.68400002 -0.01439136 7.9313577e-39 302 252
-0.020387759 0.68400002 -0.01439136 7.7473266e-39 303 252
-0.01918848 0.68400002 -0.01439136 8.2065055e-39 304 252
-0.0179892 0.68400002 -0.01439136 8.2065055e-39 305 252
-0.016789921 0.68400002 -0.01439136 8.4809288e-39 306 252
-0.01559064 0.68400002 -0.01439136 8.6649599e-39 307 252
-0.01439136 0.68400002 -0.01439136 8.2965347e-39 308 252
-0.01319208 0.68400002 -0.01439136 8.2965347e-39 309 252
-0.0119928 0.68400002 -0.01439136 7.8384292e-39 310 252
-0.01079352 0.68400002 -0.01439136 8.206853e-39 311 252
-0.0095942402 0.68400002 -0.01439136 8.664241e-39 312 252
-0.0084195063 0.68599999 -0.01443344 6.5437415e-39 313 252
-0.0072272392 0.68699998 -0.014454478 6.8199809e-39 314 252
-0.0060226996 0.68699998 -0.014454478 6.6352309e-39 315 252
-0.0048251734 0.68800002 -0.014475521 6.4508354e-39 316 252
-0.0036188802 0.68800002 -0.014475521 6.4508354e-39 317 252
-0.0024195998 0.69 -0.014517599 6.820697e-39 318 252
-0.0012097999 0.69 -0.014517599 7.1898396e-39 319 252
0 0.69099998 -0.014538639 8.5713265e-39 320 252
0.0012115532 0.69099998 -0.014538639 9.1244989e-39 321 252
0.0024231065 0.69099998 -0.014538639 9.1266457e-39 322 252
0.0036451798 0.69300002 -0.014580719 9.0344501e-39 323 252
0.0048672534 0.69400001 -0.01460176 8.7589408e-39 324 252
0.0061015999 0.69599998 -0.014643839 8.5745495e-39 325 252
0.00733244 0.69700003 -0.01466488 8.4816448e-39 326 252
0.0085913334 0.69999999 -0.014727999 8.3894492e-39 327 252
0.0098747732 0.704 -0.014812159 8.8497043e-39 328 252
0.011109119 0.704 -0.014812159 1.0878008e-38 329 252
0.012378532 0.70599997 -0.014854239 1.4469299e-38 330 252
0.013616386 0.70599997 -0.014854239 1.5944431e-38 331 252
-0.054465543 0.70599997 -0.016092092 1.6219579e-38 276 253
-0.053227689 0.70599997 -0.016092092 1.492884e-38 277 253
-0.051842559 0.704 -0.016046507 9.400011e-39 278 253
-0.050608214 0.704 -0.016046507 7.2791514e-39 279 253
-0.049303733 0.70300001 -0.016023712 8.2065279e-39 280 253
-0.047934376 0.70099998 -0.015978126 9.2206798e-39 281 253
-0.046505414 0.69800001 -0.015909746 9.224993e-39 282 253
-0.045151837 0.69599998 -0.015864158 9.224993e-39 283 253
-0.043805279 0.69400001 -0.015818574 9.497617e-39 284 253
-0.042404365 0.69099998 -0.015750192 9.1288345e-39 285 253
-0.041133199 0.69 -0.015727401 8.8504498e-39 286 253
-0.039807681 0.68800002 -0.015681813 8.7582541e-39 287 253
-0.038545277 0.68699998 -0.015659019 8.7589702e-39 288 253
-0.037340738 0.68699998 -0.015659019 8.8511658e-39 289 253
-0.036136195 0.68699998 -0.015659019 8.6678536e-39 290 253
-0.034931656 0.68699998 -0.015659019 8.4834623e-39 291 253
-0.033678025 0.68599999 -0.015636226 8.4827406e-39 292 253
-0.032475237 0.68599999 -0.015636226 8.9437174e-39 293 253
-0.031272452 0.68599999 -0.015636226 8.6689284e-39 294 253
-0.030069664 0.68599999 -0.015636226 8.3923429e-39 295 253
-0.02886688 0.68599999 -0.015636226 8.9429957e-39 296 253
-0.027583439 0.68400002 -0.01559064 9.4961695e-39 297 253
-0.02638416 0.68400002 -0.01559064 1.0326636e-38 298 253
-0.025184879 0.68400002 -0.01559064 1.0602863e-38 299 253
-0.0239856 0.68400002 -0.01559064 1.0325555e-38 300 253
-0.022786319 0.68400002 -0.01559064 8.9426202e-39 301 253
-0.02158704 0.68400002 -0.01559064 8.0203163e-39 302 253
-0.020387759 0.68400002 -0.01559064 8.1128721e-39 303 253
-0.01918848 0.68400002 -0.01559064 8.2054307e-39 304 253
-0.018041799 0.68599999 -0.015636226 8.2054307e-39 305 253
-0.016839013 0.68599999 -0.015636226 8.4812917e-39 306 253
-0.015636226 0.68599999 -0.015636226 8.3890961e-39 307 253
-0.01443344 0.68599999 -0.015636226 8.1128693e-39 308 253
-0.013230653 0.68599999 -0.015636226 7.8359223e-39 309 253
-0.012027865 0.68599999 -0.015636226 8.0206723e-39 310 253
-0.010825079 0.68599999 -0.015636226 8.1128693e-39 311 253
-0.0096222926 0.68599999 -0.015636226 8.2969004e-39 312 253
-0.0084317802 0.68699998 -0.015659019 6.3607922e-39 313 253
-0.0072272392 0.68699998 -0.015659019 6.3604391e-39 314 253
-0.0060314666 0.68800002 -0.015681813 6.2682434e-39 315 253
-0.0048251734 0.68800002 -0.015681813 6.4508354e-39 316 253
-0.0036188802 0.68800002 -0.015681813 6.6355868e-39 317 253
-0.0024195998 0.69 -0.015727401 6.7281356e-39 318 253
-0.0012115532 0.69099998 -0.015750192 7.5578963e-39 319 253
0 0.69300002 -0.015795778 8.662076e-39 320 253
0.00121506 0.69300002 -0.015795778 9.6758692e-39 321 253
0.00243012 0.69300002 -0.015795778 9.1255653e-39 322 253
0.0036504399 0.69400001 -0.015818574 9.1255653e-39 323 253
0.0048672534 0.69400001 -0.015818574 8.5749152e-39 324 253
0.0061015999 0.69599998 -0.015864158 8.2983298e-39 325 253
0.0073429602 0.69800001 -0.015909746 8.2061369e-39 326 253
0.0086036054 0.70099998 -0.015978126 8.2061369e-39 327 253
0.0098747732 0.704 -0.016046507 8.5741936e-39 328 253
0.011109119 0.704 -0.016046507 1.0233715e-38 329 253
0.012378532 0.70599997 -0.016092092 1.3733889e-38 330 253
0.013616386 0.70599997 -0.016092092 1.5669639e-38 331 253
-0.054465543 0.70599997 -0.017329946 1.612666e-38 276 254
-0.053227689 0.70599997 -0.017329946 1.5296899e-38 277 254
-0.051842559 0.704 -0.017280852 1.0597828e-38 278 254
-0.050608214 0.704 -0.017280852 8.3851332e-39 279 254
-0.049303733 0.70300001 -0.017256306 8.5753048e-39 280 254
-0.047934376 0.70099998 -0.017207211 9.1284786e-39 281 254
-0.046505414 0.69800001 -0.017133573 8.4892286e-39 282 254
-0.045151837 0.69599998 -0.017084479 8.397033e-39 283 254
-0.043805279 0.69400001 -0.017035386 8.8533336e-39 284 254
-0.042404365 0.69099998 -0.016961746 8.4849098e-39 285 254
-0.041192811 0.69099998 -0.016961746 8.3919953e-39 286 254
-0.0399234 0.69 -0.0169372 8.2072454e-39 287 254
-0.038601387 0.68800002 -0.016888106 8.2997969e-39 288 254
-0.037395094 0.68800002 -0.016888106 8.6682193e-39 289 254
-0.036136195 0.68699998 -0.01686356 8.7604051e-39 290 254
-0.034931656 0.68699998 -0.01686356 8.5756551e-39 291 254
-0.033727121 0.68699998 -0.01686356 8.9440705e-39 292 254
-0.032522578 0.68699998 -0.01686356 9.4046899e-39 293 254
-0.031272452 0.68599999 -0.016839013 9.6809139e-39 294 254
-0.030069664 0.68599999 -0.016839013 9.4965226e-39 295 254
-0.02886688 0.68599999 -0.016839013 9.4036081e-39 296 254
-0.027664091 0.68599999 -0.016839013 1.0048976e-38 297 254
-0.026461305 0.68599999 -0.016839013 1.0143317e-38 298 254
-0.025258519 0.68599999 -0.016839013 1.0419904e-38 299 254
-0.024055731 0.68599999 -0.016839013 1.0968759e-38 300 254
-0.022852944 0.68599999 -0.016839013 9.7702158e-39 301 254
-0.021650158 0.68599999 -0.016839013 8.4816448e-39 302 254
-0.020447372 0.68599999 -0.016839013 8.7585904e-39 303 254
-0.019244585 0.68599999 -0.016839013 8.8493539e-39 304 254
-0.018041799 0.68599999 -0.016839013 8.6649627e-39 305 254
-0.016839013 0.68599999 -0.016839013 8.0210366e-39 306 254
-0.015636226 0.68599999 -0.016839013 7.9288396e-39 307 254
-0.01443344 0.68599999 -0.016839013 7.9288396e-39 308 254
-0.013230653 0.68599999 -0.016839013 7.836644e-39 309 254
-0.012045399 0.68699998 -0.01686356 7.8369971e-39 310 254
-0.010840859 0.68699998 -0.01686356 8.1135854e-39 311 254
-0.0096363192 0.68699998 -0.01686356 8.3869339e-39 312 254
-0.0084317802 0.68699998 -0.01686356 7.0036407e-39 313 254
-0.0072377604 0.68800002 -0.016888106 6.635584e-39 314 254
-0.0060314666 0.68800002 -0.016888106 6.7277797e-39 315 254
-0.0048251734 0.68800002 -0.016888106 6.9114479e-39 316 254
-0.0036293997 0.69 -0.0169372 7.0958391e-39 317 254
-0.0024195998 0.69 -0.0169372 7.1880347e-39 318 254
-0.0012115532 0.69099998 -0.016961746 7.6490129e-39 319 254
0 0.69300002 -0.01701084 8.7546388e-39 320 254
0.00121506 0.69300002 -0.01701084 9.2156155e-39 321 254
0.00243012 0.69300002 -0.01701084 8.8497043e-39 322 254
0.0036504399 0.69400001 -0.017035386 8.7575086e-39 323 254
0.0048812795 0.69599998 -0.017084479 8.2064999e-39 324 254
0.0061015999 0.69599998 -0.017084479 7.9302731e-39 325 254
0.0073429602 0.69800001 -0.017133573 7.8387991e-39 326 254
0.0086036054 0.70099998 -0.017207211 7.7462448e-39 327 254
0.0099028256 0.70599997 -0.017329946 8.2986857e-39 328 254
0.011140679 0.70599997 -0.017329946 1.0050044e-38 329 254
0.012396066 0.70700002 -0.017354494 1.4191988e-38 330 254
0.013635674 0.70700002 -0.017354494 1.622065e-38 331 254
-0.054542694 0.70700002 -0.018594101 1.5942985e-38 276 255
-0.053303085 0.70700002 -0.018594101 1.4929193e-38 277 255
-0.051989835 0.70599997 -0.018567799 1.1611613e-38 278 255
-0.050751984 0.70599997 -0.018567799 1.0136124e-38 279 255
-0.049373865 0.704 -0.018515198 8.7625701e-39 280 255
-0.047934376 0.70099998 -0.018436298 8.7625701e-39 281 255
-0.046505414 0.69800001 -0.0183574 8.4881496e-39 282 255
-0.045216713 0.69700003 -0.018331099 8.3037598e-39 283 255
-0.043805279 0.69400001 -0.0182522 8.4845567e-39 284 255
-0.042527102 0.69300002 -0.018225901 8.02358e-39 285 255
-0.041192811 0.69099998 -0.0181733 8.0217807e-39 286 255
-0.0399234 0.69 -0.018146999 7.9295851e-39 287 255
-0.038713597 0.69 -0.018146999 8.2072454e-39 288 255
-0.037395094 0.68800002 -0.0180944 8.6682221e-39 289 255
-0.036136195 0.68699998 -0.018068098 8.5763768e-39 290 255
-0.034931656 0.68699998 -0.018068098 8.3923457e-39 291 255
-0.033727121 0.68699998 -0.018068098 9.0369864e-39 292 255
-0.032522578 0.68699998 -0.018068098 9.9589427e-39 293 255
-0.031318039 0.68699998 -0.018068098 1.0051847e-38 294 255
-0.030069664 0.68599999 -0.018041799 1.0328074e-38 295 255
-0.02886688 0.68599999 -0.018041799 1.0235157e-38 296 255
-0.027664091 0.68599999 -0.018041799 1.0235157e-38 297 255
-0.026461305 0.68599999 -0.018041799 1.0327352e-38 298 255
-0.025258519 0.68599999 -0.018041799 1.0327352e-38 299 255
-0.024055731 0.68599999 -0.018041799 1.0417753e-38 300 255
-0.022852944 0.68599999 -0.018041799 1.0049329e-38 301 255
-0.021681719 0.68699998 -0.018068098 1.0232639e-38 302 255
-0.020447372 0.68599999 -0.018041799 1.0324836e-38 303 255
-0.019244585 0.68599999 -0.018041799 9.2192127e-39 304 255
-0.018068098 0.68699998 -0.018068098 8.0206695e-39 305 255
-0.01686356 0.68699998 -0.018068098 7.6529758e-39 306 255
-0.015659019 0.68699998 -0.018068098 7.5607801e-39 307 255
-0.014454478 0.68699998 -0.018068098 7.7437295e-39 308 255
-0.013249939 0.68699998 -0.018068098 7.7437295e-39 309 255
-0.012045399 0.68699998 -0.018068098 7.8359223e-39 310 255
-0.010840859 0.68699998 -0.018068098 8.0206723e-39 311 255
-0.0096363192 0.68699998 -0.018068098 8.2039817e-39 312 255
-0.0084317802 0.68699998 -0.018068098 7.0979943e-39 313 255
-0.0072377604 0.68800002 -0.0180944 7.4631825e-39 314 255
-0.0060489997 0.69 -0.018146999 7.2784325e-39 315 255
-0.0048391996 0.69 -0.018146999 6.8210501e-39 316 255
-0.0036293997 0.69 -0.018146999 7.0054427e-39 317 255
-0.0024231065 0.69099998 -0.0181733 7.2805877e-39 318 255
-0.00121506 0.69300002 -0.018225901 7.8337601e-39 319 255
0 0.69300002 -0.018225901 8.6627949e-39 320 255
0.0012168133 0.69400001 -0.0182522 9.3081643e-39 321 255
0.0024336267 0.69400001 -0.0182522 8.8497043e-39 322 255
0.0036504399 0.69400001 -0.0182522 8.665313e-39 323 255
0.0048812795 0.69599998 -0.018304799 7.8387991e-39 324 255
0.0061103669 0.69700003 -0.018331099 7.6540478e-39 325 255
0.0073639993 0.69999999 -0.018409999 7.4707355e-39 326 255
0.0086036054 0.70099998 -0.018436298 7.1023131e-39 327 255
0.0099028256 0.70599997 -0.018567799 8.2064845e-39 328 255
0.011140679 0.70599997 -0.018567799 1.0327343e-38 329 255
0.012396066 0.70700002 -0.018594101 1.4376735e-38 330 255
0.013635674 0.70700002 -0.018594101 1.6220648e-38 331 255
-0.054542694 0.70700002 -0.019833706 1.6126657e-38 276 256
-0.053303085 0.70700002 -0.019833706 1.5204701e-38 277 256
-0.051989835 0.70599997 -0.019805651 1.1979315e-38 278 256
-0.050751984 0.70599997 -0.019805651 1.0781131e-38 279 256
-0.049373865 0.704 -0.019749546 9.2239014e-39 280 256
-0.047934376 0.70099998 -0.019665385 9.1313456e-39 281 256
-0.046638668 0.69999999 -0.019637333 8.028968e-39 282 256
-0.045281585 0.69800001 -0.019581227 7.7523797e-39 283 256
-0.043931518 0.69599998 -0.019525118 7.8409866e-39 284 256
-0.042588469 0.69400001 -0.019469013 6.9190289e-39 285 256
-0.041312039 0.69300002 -0.01944096 7.2831437e-39 286 256
-0.039981257 0.69099998 -0.019384852 7.2831437e-39 287 256
-0.038713597 0.69 -0.019356798 7.2888876e-39 288 256
-0.037503798 0.69 -0.019356798 8.3026808e-39 289 256
-0.0361888 0.68800002 -0.019300694 8.5756579e-39 290 256
-0.034931656 0.68699998 -0.019272638 8.5756579e-39 291 256
-0.033727121 0.68699998 -0.019272638 9.5894399e-39 292 256
-0.032522578 0.68699998 -0.019272638 1.0419201e-38 293 256
-0.031318039 0.68699998 -0.019272638 1.0695416e-38 294 256
-0.030113498 0.68699998 -0.019272638 1.0695416e-38 295 256
-0.028908957 0.68699998 -0.019272638 1.0328427e-38 296 256
-0.027664091 0.68599999 -0.019244585 1.0144396e-38 297 256
-0.026461305 0.68599999 -0.019244585 1.0327352e-38 298 256
-0.025258519 0.68599999 -0.019244585 1.0235157e-38 299 256
-0.024055731 0.68599999 -0.019244585 1.0509949e-38 300 256
-0.022852944 0.68599999 -0.019244585 1.0325557e-38 301 256
-0.021681719 0.68699998 -0.019272638 1.0417387e-38 302 256
-0.020447372 0.68599999 -0.019244585 1.0417387e-38 303 256
-0.019244585 0.68599999 -0.019244585 9.0344655e-39 304 256
-0.018068098 0.68699998 -0.019272638 7.651531e-39 305 256
-0.01686356 0.68699998 -0.019272638 7.1927263e-39 306 256
-0.015659019 0.68699998 -0.019272638 7.1927263e-39 307 256
-0.014454478 0.68699998 -0.019272638 7.3753169e-39 308 256
-0.013249939 0.68699998 -0.019272638 7.3753169e-39 309 256
-0.012045399 0.68699998 -0.019272638 7.6511779e-39 310 256
-0.010840859 0.68699998 -0.019272638 7.9281235e-39 311 256
-0.0096363192 0.68699998 -0.019272638 8.3876527e-39 312 256
-0.0084440531 0.68800002 -0.019300694 7.7422833e-39 313 256
-0.0072377604 0.68800002 -0.019300694 7.4639e-39 314 256
-0.0060489997 0.69 -0.019356798 7.2795073e-39 315 256
-0.0048462129 0.69099998 -0.019384852 6.8206942e-39 316 256
-0.0036346598 0.69099998 -0.019384852 6.8206942e-39 317 256
-0.00243012 0.69300002 -0.01944096 6.8206942e-39 318 256
-0.00121506 0.69300002 -0.01944096 7.3738679e-39 319 256
0 0.69300002 -0.01944096 8.3869339e-39 320 256
0.0012168133 0.69400001 -0.019469013 8.9397489e-39 321 256
0.0024336267 0.69400001 -0.019469013 8.6649599e-39 322 256
0.0036609597 0.69599998 -0.019525118 8.2961788e-39 323 256
0.0048882933 0.69700003 -0.019553173 7.3781867e-39 324 256
0.006119133 0.69800001 -0.019581227 7.10196e-39 325 256
0.0073639993 0.69999999 -0.019637333 7.0104776e-39 326 256
0.0086036054 0.70099998 -0.019665385 6.6420538e-39 327 256
0.0099028256 0.70599997 -0.019805651 9.0330039e-39 328 256
0.011140679 0.70599997 -0.019805651 1.1429732e-38 329 256
0.012396066 0.70700002 -0.019833706 1.4744076e-38 330 256
0.013635674 0.70700002 -0.019833706 1.6403597e-38 331 256
0.01487528 0.70700002 -0.019833706 1.6586542e-38 332 256
-0.053303085 0.70700002 -0.021073313 1.5481288e-38 277 257
-0.05206348 0.70700002 -0.021073313 1.2440292e-38 278 257
-0.050751984 0.70599997 -0.021043506 1.1518696e-38 279 257
-0.049373865 0.704 -0.020983893 9.5004911e-39 280 257
-0.047934376 0.70099998 -0.020894472 9.1313484e-39 281 257
-0.046638668 0.69999999 -0.020864666 8.3037598e-39 282 257
-0.045281585 0.69800001 -0.020805053 7.8427802e-39 283 257
-0.043994639 0.69700003 -0.020775247 7.2896065e-39 284 257
-0.042588469 0.69400001 -0.020685827 5.906672e-39 285 257
-0.041312039 0.69300002 -0.020656019 6.913994e-39 286 257
-0.04009698 0.69300002 -0.020656019 6.6370484e-39 287 257
-0.038769703 0.69099998 -0.020596405 6.3658593e-39 288 257
-0.03755815 0.69099998 -0.020596405 7.6565981e-39 289 257
