# .PCD v.7 - Point Cloud Data file format
FIELDS x y z rgb imX imY
SIZE 4 4 4 4 4 4
TYPE F F F F F F
COUNT 1 1 1 1 1 1
WIDTH 842
HEIGHT 1
VIEWPOINT 0 0 0 1 0 0 0
POINTS 842
DATA ascii
-0.017962901 0.68300003 0.016765373 6.4650754e-39 305 226
-0.016765373 0.68300003 0.016765373 6.7402232e-39 306 226
-0.015567848 0.68300003 0.016765373 6.7402232e-39 307 226
-0.014370319 0.68300003 0.016765373 7.2905187e-39 308 226
-0.013172794 0.68300003 0.016765373 7.1983245e-39 309 226
-0.0119928 0.68400002 0.016789921 7.2905187e-39 310 226
-0.010840859 0.68699998 0.01686356 7.3830717e-39 311 226
-0.0096222926 0.68599999 0.016839013 7.6575076e-39 312 226
-0.0084195063 0.68599999 0.016839013 8.3950726e-39 313 226
-0.0072167199 0.68599999 0.016839013 9.4957169e-39 314 226
-0.0060226996 0.68699998 0.01686356 1.0048891e-38 315 226
-0.0048181596 0.68699998 0.01686356 1.0690687e-38 316 226
-0.0036136196 0.68699998 0.01686356 1.0690687e-38 317 226
-0.0024125867 0.68800002 0.016888106 9.4971686e-39 318 226
-0.0012097999 0.69 0.0169372 9.128026e-39 319 226
0 0.69099998 0.016961746 8.1196039e-39 320 226
0.00121506 0.69300002 0.01701084 7.9352113e-39 321 226
0.00243012 0.69300002 0.01701084 8.2103703e-39 322 226
0.0036451798 0.69300002 0.01701084 9.1323266e-39 323 226
0.0048672534 0.69400001 0.017035386 1.0601711e-38 324 226
0.0060840664 0.69400001 0.017035386 9.4957225e-39 325 226
0.0073008798 0.69400001 0.017035386 6.2757096e-39 326 226
0.0085913334 0.69999999 0.017182667 7.7508396e-39 327 226
-0.055545598 0.704 0.016046507 1.5029332e-38 275 227
-0.054311249 0.704 0.016046507 1.2265629e-38 276 227
-0.053076904 0.704 0.016046507 1.0145129e-38 277 227
-0.051842559 0.704 0.016046507 1.143335e-38 278 227
-0.050536323 0.70300001 0.016023712 1.1525545e-38 279 227
-0.048953064 0.69800001 0.015909746 1.023409e-38 280 227
-0.047455717 0.69400001 0.015818574 1.004934e-38 281 227
-0.04617228 0.69300002 0.015795778 9.3153754e-39 282 227
-0.044827472 0.69099998 0.015750192 9.4994065e-39 283 227
-0.043552797 0.69 0.015727401 9.9581972e-39 284 227
-0.042220265 0.68800002 0.015681813 9.4053836e-39 285 227
-0.040954359 0.68699998 0.015659019 7.5668407e-39 286 227
-0.039749816 0.68699998 0.015659019 7.4746451e-39 287 227
-0.038545277 0.68699998 0.015659019 7.1987547e-39 288 227
-0.037286382 0.68599999 0.015636226 7.1987547e-39 289 227
-0.036083598 0.68599999 0.015636226 7.0168465e-39 290 227
-0.034880809 0.68599999 0.015636226 6.9246509e-39 291 227
-0.033678025 0.68599999 0.015636226 7.107596e-39 292 227
-0.032380559 0.68400002 0.01559064 7.2919887e-39 293 227
-0.03118128 0.68400002 0.01559064 7.3859625e-39 294 227
-0.029982001 0.68400002 0.01559064 7.4781582e-39 295 227
-0.028740639 0.68300003 0.015567848 7.2951822e-39 296 227
-0.027543113 0.68300003 0.015567848 6.926764e-39 297 227
-0.026345588 0.68300003 0.015567848 6.5594221e-39 298 227
-0.02514806 0.68300003 0.015567848 6.5594221e-39 299 227
-0.023950534 0.68300003 0.015567848 6.4665104e-39 300 227
-0.022753006 0.68300003 0.015567848 6.4665104e-39 301 227
-0.02155548 0.68300003 0.015567848 6.5576284e-39 302 227
-0.020357953 0.68300003 0.015567848 6.4650754e-39 303 227
-0.019160427 0.68300003 0.015567848 6.4650754e-39 304 227
-0.017962901 0.68300003 0.015567848 6.4650754e-39 305 227
-0.016789921 0.68400002 0.01559064 6.8317e-39 306 227
-0.01559064 0.68400002 0.01559064 6.8317e-39 307 227
-0.01439136 0.68400002 0.01559064 7.1983245e-39 308 227
-0.013230653 0.68599999 0.015636226 7.1983245e-39 309 227
-0.012027865 0.68599999 0.015636226 7.3816367e-39 310 227
-0.010840859 0.68699998 0.015659019 7.7500549e-39 311 227
-0.0096363192 0.68699998 0.015659019 9.1287168e-39 312 227
-0.0084317802 0.68699998 0.015659019 1.0234704e-38 313 227
-0.0072272392 0.68699998 0.015659019 1.0234381e-38 314 227
-0.0060226996 0.68699998 0.015659019 1.0510966e-38 315 227
-0.0048181596 0.68699998 0.015659019 1.0325853e-38 316 227
-0.0036188802 0.68800002 0.015681813 9.4957337e-39 317 227
-0.0024125867 0.68800002 0.015681813 7.5642778e-39 318 227
-0.0012097999 0.69 0.015727401 7.6568335e-39 319 227
0 0.69099998 0.015750192 8.1174361e-39 320 227
0.0012168133 0.69400001 0.015818574 8.4862173e-39 321 227
0.0024336267 0.69400001 0.015818574 8.94542e-39 322 227
0.0036504399 0.69400001 0.015818574 9.682985e-39 323 227
0.0048812795 0.69599998 0.015864158 1.0418414e-38 324 227
0.0061015999 0.69599998 0.015864158 9.9574377e-39 325 227
0.0073219193 0.69599998 0.015864158 8.7614141e-39 326 227
0.0085913334 0.69999999 0.015955333 8.8536111e-39 327 227
-0.055545598 0.704 0.014812159 1.5397393e-38 275 228
-0.054311249 0.704 0.014812159 1.3001752e-38 276 228
-0.053076904 0.704 0.014812159 1.0144046e-38 277 228
-0.051842559 0.704 0.014812159 1.0327358e-38 278 228
-0.050536323 0.70300001 0.014791119 1.0880532e-38 279 228
-0.048953064 0.69800001 0.01468592 9.7745542e-39 280 228
-0.047455717 0.69400001 0.01460176 9.4979674e-39 281 228
-0.04617228 0.69300002 0.014580719 9.4986904e-39 282 228
-0.044827472 0.69099998 0.014538639 9.6830817e-39 283 228
-0.043615919 0.69099998 0.014538639 1.0143314e-38 284 228
-0.042342998 0.69 0.014517599 9.4979449e-39 285 228
-0.041013971 0.68800002 0.014475521 8.2107794e-39 286 228
-0.039807681 0.68800002 0.014475521 7.6576071e-39 287 228
-0.038545277 0.68699998 0.014454478 7.290237e-39 288 228
-0.037340738 0.68699998 0.014454478 7.1054871e-39 289 228
-0.036136195 0.68699998 0.014454478 6.9239474e-39 290 228
-0.034880809 0.68599999 0.01443344 6.8317518e-39 291 228
-0.033678025 0.68599999 0.01443344 7.0146997e-39 292 228
-0.032475237 0.68599999 0.01443344 7.291288e-39 293 228
-0.031272452 0.68599999 0.01443344 7.3863311e-39 294 228
-0.030069664 0.68599999 0.01443344 7.3863311e-39 295 228
-0.02878272 0.68400002 0.01439136 7.5699712e-39 296 228
-0.027583439 0.68400002 0.01439136 7.2933886e-39 297 228
-0.026345588 0.68300003 0.014370319 6.651975e-39 298 228
-0.02514806 0.68300003 0.014370319 6.4672278e-39 299 228
-0.023950534 0.68300003 0.014370319 6.5587046e-39 300 228
-0.022753006 0.68300003 0.014370319 6.3743161e-39 301 228
-0.02158704 0.68400002 0.01439136 6.5576284e-39 302 228
-0.020357953 0.68300003 0.014370319 6.5576284e-39 303 228
-0.019160427 0.68300003 0.014370319 6.5569109e-39 304 228
-0.0179892 0.68400002 0.01439136 6.5569109e-39 305 228
-0.016789921 0.68400002 0.01439136 7.1983245e-39 306 228
-0.015659019 0.68699998 0.014454478 7.1983245e-39 307 228
-0.014454478 0.68699998 0.014454478 7.2898012e-39 308 228
-0.013249939 0.68699998 0.014454478 7.2898012e-39 309 228
-0.012045399 0.68699998 0.014454478 7.6568013e-39 310 228
-0.010840859 0.68699998 0.014454478 8.763509e-39 311 228
-0.0096363192 0.68699998 0.014454478 1.04166e-38 312 228
-0.0084317802 0.68699998 0.014454478 1.0969774e-38 313 228
-0.0072272392 0.68699998 0.014454478 1.1060547e-38 314 228
-0.0060226996 0.68699998 0.014454478 1.0783601e-38 315 228
-0.0048181596 0.68699998 0.014454478 9.8630743e-39 316 228
-0.0036188802 0.68800002 0.014475521 9.0333122e-39 317 228
-0.0024125867 0.68800002 0.014475521 7.2887699e-39 318 228
-0.0012115532 0.69099998 0.014538639 7.2887699e-39 319 228
0 0.69300002 0.014580719 7.1990896e-39 320 228
0.0012168133 0.69400001 0.01460176 7.7522634e-39 321 228
0.0024336267 0.69400001 0.01460176 9.680834e-39 322 228
0.0036504399 0.69400001 0.01460176 1.0326203e-38 323 228
0.0048812795 0.69599998 0.014643839 1.0324781e-38 324 228
0.0061015999 0.69599998 0.014643839 1.0047834e-38 325 228
0.0073639993 0.69999999 0.014727999 9.1284085e-39 326 228
0.0086036054 0.70099998 0.014749039 9.5890265e-39 327 228
-0.056779943 0.704 0.013577812 1.5490311e-38 274 229
-0.055545598 0.704 0.013577812 1.5398115e-38 275 229
-0.054311249 0.704 0.013577812 1.3553849e-38 276 229
-0.053076904 0.704 0.013577812 1.1157123e-38 277 229
-0.051842559 0.704 0.013577812 1.0049346e-38 278 229
-0.050536323 0.70300001 0.013558527 9.6805636e-39 279 229
-0.048953064 0.69800001 0.013462093 9.3132258e-39 280 229
-0.047592476 0.69599998 0.013423519 9.3132258e-39 281 229
-0.046238903 0.69400001 0.013384946 9.497973e-39 282 229
-0.044957221 0.69300002 0.01336566 9.6820055e-39 283 229
-0.043615919 0.69099998 0.013327086 9.4990267e-39 284 229
-0.042342998 0.69 0.0133078 9.3142767e-39 285 229
-0.041133199 0.69 0.0133078 8.6699667e-39 286 229
-0.039807681 0.68800002 0.013269227 8.0245973e-39 287 229
-0.038545277 0.68699998 0.013249939 7.2891777e-39 288 229
-0.037340738 0.68699998 0.013249939 7.196982e-39 289 229
-0.036136195 0.68699998 0.013249939 6.9221748e-39 290 229
-0.034880809 0.68599999 0.013230653 6.9221748e-39 291 229
-0.033678025 0.68599999 0.013230653 7.0136445e-39 292 229
-0.032475237 0.68599999 0.013230653 7.1980358e-39 293 229
-0.031272452 0.68599999 0.013230653 7.384906e-39 294 229
-0.030069664 0.68599999 0.013230653 7.4771016e-39 295 229
-0.02886688 0.68599999 0.013230653 7.2026293e-39 296 229
-0.027583439 0.68400002 0.01319208 6.9260466e-39 297 229
-0.02638416 0.68400002 0.01319208 6.7430931e-39 298 229
-0.02514806 0.68300003 0.013172794 6.5587046e-39 299 229
-0.023950534 0.68300003 0.013172794 6.6498226e-39 300 229
-0.022753006 0.68300003 0.013172794 6.5576284e-39 301 229
-0.02158704 0.68400002 0.01319208 6.5576284e-39 302 229
-0.020387759 0.68400002 0.01319208 6.5576284e-39 303 229
-0.01918848 0.68400002 0.01319208 6.5565522e-39 304 229
-0.0179892 0.68400002 0.01319208 6.464358e-39 305 229
-0.01686356 0.68699998 0.013249939 7.2898012e-39 306 229
-0.015659019 0.68699998 0.013249939 7.197607e-39 307 229
-0.014454478 0.68699998 0.013249939 7.2905187e-39 308 229
-0.013249939 0.68699998 0.013249939 7.2905187e-39 309 229
-0.012045399 0.68699998 0.013249939 8.2085528e-39 310 229
-0.010840859 0.68699998 0.013249939 1.0052465e-38 311 229
-0.0096363192 0.68699998 0.013249939 1.1705213e-38 312 229
-0.0084317802 0.68699998 0.013249939 1.1520822e-38 313 229
-0.0072272392 0.68699998 0.013249939 1.0691784e-38 314 229
-0.0060226996 0.68699998 0.013249939 9.9542189e-39 315 229
-0.0048181596 0.68699998 0.013249939 8.2993415e-39 316 229
-0.0036188802 0.68800002 0.013269227 7.5617765e-39 317 229
-0.0024125867 0.68800002 0.013269227 7.2876727e-39 318 229
-0.00121506 0.69300002 0.01336566 7.3798683e-39 319 229
0 0.69400001 0.013384946 7.6571839e-39 320 229
0.0012203199 0.69599998 0.013423519 8.57878e-39 321 229
0.0024406398 0.69599998 0.013423519 9.5900859e-39 322 229
0.00366622 0.69700003 0.013442807 9.9585097e-39 323 229
0.0048882933 0.69700003 0.013442807 1.0139679e-38 324 229
0.006119133 0.69800001 0.013462093 9.9552881e-39 325 229
0.0073429602 0.69800001 0.013462093 8.8525573e-39 326 229
0.0085913334 0.69999999 0.013500666 9.1291428e-39 327 229
-0.05826151 0.70700002 0.012396066 1.5673623e-38 273 230
-0.056779943 0.704 0.012343466 1.5397759e-38 274 230
-0.055545598 0.704 0.012343466 1.5397759e-38 275 230
-0.054311249 0.704 0.012343466 1.309395e-38 276 230
-0.053076904 0.704 0.012343466 1.1157842e-38 277 230
-0.051842559 0.704 0.012343466 1.0326652e-38 278 230
-0.050536323 0.70300001 0.012325933 9.2203057e-39 279 230
-0.048953064 0.69800001 0.012238266 9.3128698e-39 280 230
-0.047592476 0.69599998 0.0122032 9.3128698e-39 281 230
-0.046238903 0.69400001 0.012168133 9.4061403e-39 282 230
-0.044957221 0.69300002 0.012150601 9.5905329e-39 283 230
-0.043615919 0.69099998 0.012115533 1.0050766e-38 284 230
-0.042404365 0.69099998 0.012115533 9.8667345e-39 285 230
-0.041133199 0.69 0.012097999 8.7625253e-39 286 230
-0.0399234 0.69 0.012097999 7.5643408e-39 287 230
-0.038601387 0.68800002 0.012062933 7.4724927e-39 288 230
-0.037340738 0.68699998 0.012045399 7.3802971e-39 289 230
-0.036136195 0.68699998 0.012045399 7.1058584e-39 290 230
-0.034931656 0.68699998 0.012045399 6.9218273e-39 291 230
-0.033678025 0.68599999 0.012027865 6.829982e-39 292 230
-0.032475237 0.68599999 0.012027865 6.7374262e-39 293 230
-0.031272452 0.68599999 0.012027865 7.1083191e-39 294 230
-0.030069664 0.68599999 0.012027865 7.1083191e-39 295 230
-0.02886688 0.68599999 0.012027865 7.2019118e-39 296 230
-0.027664091 0.68599999 0.012027865 6.9253291e-39 297 230
-0.026461305 0.68599999 0.012027865 6.5587046e-39 298 230
-0.025184879 0.68400002 0.0119928 6.4665104e-39 299 230
-0.0239856 0.68400002 0.0119928 6.6498226e-39 300 230
-0.022786319 0.68400002 0.0119928 6.6498226e-39 301 230
-0.02158704 0.68400002 0.0119928 6.4665104e-39 302 230
-0.020387759 0.68400002 0.0119928 6.3743161e-39 303 230
-0.019244585 0.68599999 0.012027865 6.9224593e-39 304 230
-0.018041799 0.68599999 0.012027865 7.0146535e-39 305 230
-0.01686356 0.68699998 0.012045399 7.2898012e-39 306 230
-0.015659019 0.68699998 0.012045399 7.3819955e-39 307 230
-0.014454478 0.68699998 0.012045399 7.1068477e-39 308 230
-0.013249939 0.68699998 0.012045399 7.4752659e-39 309 230
-0.012045399 0.68699998 0.012045399 8.8524999e-39 310 230
-0.010840859 0.68699998 0.012045399 1.051202e-38 311 230
-0.0096363192 0.68699998 0.012045399 1.1246758e-38 312 230
-0.0084317802 0.68699998 0.012045399 1.0877617e-38 313 230
-0.0072272392 0.68699998 0.012045399 9.7719731e-39 314 230
-0.0060226996 0.68699998 0.012045399 8.296843e-39 315 230
-0.0048181596 0.68699998 0.012045399 7.9301862e-39 316 230
-0.0036188802 0.68800002 0.012062933 7.745795e-39 317 230
-0.00243012 0.69300002 0.012150601 6.828491e-39 318 230
-0.00121506 0.69300002 0.012150601 7.0128836e-39 319 230
0 0.69400001 0.012168133 7.6568279e-39 320 230
0.0012203199 0.69599998 0.0122032 8.5787828e-39 321 230
0.0024441467 0.69700003 0.012220734 8.9461626e-39 322 230
0.00366622 0.69700003 0.012220734 9.1301938e-39 323 230
0.0048882933 0.69700003 0.012220734 9.8641743e-39 324 230
0.006119133 0.69800001 0.012238266 9.8641743e-39 325 230
0.0073429602 0.69800001 0.012238266 9.4954114e-39 326 230
0.0085913334 0.69999999 0.012273333 7.3749119e-39 327 230
-0.05826151 0.70700002 0.011156459 1.5672904e-38 273 231
-0.056941248 0.70599997 0.011140679 1.5489592e-38 274 231
-0.055703394 0.70599997 0.011140679 1.5397396e-38 275 231
-0.054311249 0.704 0.011109119 1.3093228e-38 276 231
-0.053076904 0.704 0.011109119 1.1064923e-38 277 231
-0.051842559 0.704 0.011109119 1.0694713e-38 278 231
-0.050608214 0.704 0.011109119 9.8649506e-39 279 231
-0.049163464 0.70099998 0.011061779 9.3132258e-39 280 231
-0.047865998 0.69999999 0.011045999 9.3132258e-39 281 231
-0.046238903 0.69400001 0.01095132 9.4061403e-39 282 231
-0.044957221 0.69300002 0.010935539 9.5905329e-39 283 231
-0.043742158 0.69300002 0.010935539 1.0051497e-38 284 231
-0.042404365 0.69099998 0.01090398 1.0327724e-38 285 231
-0.041192811 0.69099998 0.01090398 8.8554468e-39 286 231
-0.0399234 0.69 0.010888199 7.2884798e-39 287 231
-0.038601387 0.68800002 0.010856641 7.840555e-39 288 231
-0.037340738 0.68699998 0.010840859 7.655805e-39 289 231
-0.036136195 0.68699998 0.010840859 7.1976981e-39 290 231
-0.034931656 0.68699998 0.010840859 7.1055025e-39 291 231
-0.033727121 0.68699998 0.010840859 6.9210972e-39 292 231
-0.032475237 0.68599999 0.010825079 6.9210972e-39 293 231
-0.031272452 0.68599999 0.010825079 6.556946e-39 294 231
-0.030069664 0.68599999 0.010825079 6.556946e-39 295 231
-0.02886688 0.68599999 0.010825079 6.8338524e-39 296 231
-0.027664091 0.68599999 0.010825079 6.7416581e-39 297 231
-0.026461305 0.68599999 0.010825079 6.7420169e-39 298 231
-0.025258519 0.68599999 0.010825079 6.6498226e-39 299 231
-0.024055731 0.68599999 0.010825079 6.5587046e-39 300 231
-0.022852944 0.68599999 0.010825079 6.4665104e-39 301 231
-0.021650158 0.68599999 0.010825079 6.5572697e-39 302 231
-0.020447372 0.68599999 0.010825079 6.2810457e-39 303 231
-0.019244585 0.68599999 0.010825079 6.9221005e-39 304 231
-0.018068098 0.68699998 0.010840859 6.9221005e-39 305 231
-0.01686356 0.68699998 0.010840859 7.1979657e-39 306 231
-0.015659019 0.68699998 0.010840859 7.1979657e-39 307 231
-0.014454478 0.68699998 0.010840859 7.2908802e-39 308 231
-0.013249939 0.68699998 0.010840859 7.844054e-39 309 231
-0.012045399 0.68699998 0.010840859 9.5886356e-39 310 231
-0.010840859 0.68699998 0.010840859 1.0787177e-38 311 231
-0.0096363192 0.68699998 0.010840859 1.0878696e-38 312 231
-0.0084317802 0.68699998 0.010840859 1.0048935e-38 313 231
-0.0072272392 0.68699998 0.010840859 8.7606756e-39 314 231
-0.0060226996 0.68699998 0.010840859 7.1011542e-39 315 231
-0.0048181596 0.68699998 0.010840859 7.471694e-39 316 231
-0.0036188802 0.68800002 0.010856641 7.3791382e-39 317 231
-0.00243012 0.69300002 0.010935539 6.9206712e-39 318 231
-0.0012168133 0.69400001 0.01095132 7.1968994e-39 319 231
0 0.69400001 0.01095132 8.0252405e-39 320 231
0.0012220733 0.69700003 0.01099866 8.6706099e-39 321 231
0.0024441467 0.69700003 0.01099866 9.3124214e-39 322 231
0.00366622 0.69700003 0.01099866 9.5893671e-39 323 231
0.0048882933 0.69700003 0.01099866 1.0139679e-38 324 231
0.006119133 0.69800001 0.01101444 1.0139679e-38 325 231
0.0073429602 0.69800001 0.01101444 9.8613198e-39 326 231
0.0085913334 0.69999999 0.011045999 6.8188641e-39 327 231
-0.05826151 0.70700002 0.0099168532 1.5672904e-38 273 232
-0.057021905 0.70700002 0.0099168532 1.5490311e-38 274 232
-0.055703394 0.70599997 0.0099028256 1.5490311e-38 275 232
-0.054311249 0.704 0.0098747732 1.318614e-38 276 232
-0.053076904 0.704 0.0098747732 1.1157836e-38 277 232
-0.051842559 0.704 0.0098747732 1.0879104e-38 278 232
-0.050608214 0.704 0.0098747732 1.0141539e-38 279 232
-0.049163464 0.70099998 0.0098326923 9.3135887e-39 280 232
-0.047865998 0.69999999 0.0098186666 9.037362e-39 281 232
-0.046438783 0.69700003 0.0097765867 9.4061403e-39 282 232
-0.045022093 0.69400001 0.0097345067 9.6827286e-39 283 232
-0.043742158 0.69300002 0.0097204801 9.6838006e-39 284 232
-0.042527102 0.69300002 0.0097204801 9.7759962e-39 285 232
-0.041192811 0.69099998 0.0096924258 8.9472921e-39 286 232
-0.0399234 0.69 0.0096783992 7.3803251e-39 287 232
-0.038601387 0.68800002 0.0096503468 7.7480006e-39 288 232
-0.037395094 0.68800002 0.0096503468 7.7480006e-39 289 232
-0.0361888 0.68800002 0.0096503468 7.1976981e-39 290 232
-0.034931656 0.68699998 0.0096363192 7.1055025e-39 291 232
-0.033727121 0.68699998 0.0096363192 6.8296288e-39 292 232
-0.032522578 0.68699998 0.0096363192 6.5526818e-39 293 232
-0.031318039 0.68699998 0.0096363192 6.5562243e-39 294 232
-0.030113498 0.68699998 0.0096363192 6.5562243e-39 295 232
-0.02886688 0.68599999 0.0096222926 6.7420169e-39 296 232
-0.027664091 0.68599999 0.0096222926 6.7420169e-39 297 232
-0.026461305 0.68599999 0.0096222926 6.7423756e-39 298 232
-0.025258519 0.68599999 0.0096222926 6.7423756e-39 299 232
-0.024055731 0.68599999 0.0096222926 6.4665104e-39 300 232
-0.022852944 0.68599999 0.0096222926 6.3743161e-39 301 232
-0.021681719 0.68699998 0.0096363192 6.6473115e-39 302 232
-0.020477179 0.68699998 0.0096363192 6.3710875e-39 303 232
-0.019300694 0.68800002 0.0096503468 7.0125011e-39 304 232
-0.018068098 0.68699998 0.0096363192 7.1968895e-39 305 232
-0.01686356 0.68699998 0.0096363192 7.2890838e-39 306 232
-0.015681813 0.68800002 0.0096503468 7.8422548e-39 307 232
-0.014475521 0.68800002 0.0096503468 8.1181578e-39 308 232
-0.013249939 0.68699998 0.0096363192 9.2241466e-39 309 232
-0.012045399 0.68699998 0.0096363192 1.069249e-38 310 232
-0.010840859 0.68699998 0.0096363192 1.133786e-38 311 232
-0.0096363192 0.68699998 0.0096363192 1.1337507e-38 312 232
-0.0084317802 0.68699998 0.0096363192 9.217007e-39 313 232
-0.0072377604 0.68800002 0.0096503468 7.1958484e-39 314 232
-0.0060314666 0.68800002 0.0096503468 6.550479e-39 315 232
-0.0048251734 0.68800002 0.0096503468 6.6455262e-39 316 232
-0.0036346598 0.69099998 0.0096924258 7.01395e-39 317 232
-0.00243012 0.69300002 0.0097204801 7.0132494e-39 318 232
-0.0012168133 0.69400001 0.0097345067 7.4745877e-39 319 232
0 0.69400001 0.0097345067 8.6692002e-39 320 232
0.0012220733 0.69700003 0.0097765867 9.222374e-39 321 232
0.0024441467 0.69700003 0.0097765867 1.0140753e-38 322 232
0.0036714801 0.69800001 0.0097906133 1.0140753e-38 323 232
0.0048953067 0.69800001 0.0097906133 1.0417708e-38 324 232
0.006119133 0.69800001 0.0097906133 1.0141481e-38 325 232
0.0073639993 0.69999999 0.0098186666 1.0501298e-38 326 232
0.0086281532 0.70300001 0.0098607466 8.1964063e-39 327 232
-0.058343921 0.708 0.008689519 1.5673979e-38 273 233
-0.057021905 0.70700002 0.008677247 1.5765456e-38 274 233
-0.055782299 0.70700002 0.008677247 1.567326e-38 275 233
-0.054311249 0.704 0.0086404262 1.3554921e-38 276 233
-0.053076904 0.704 0.0086404262 1.1618813e-38 277 233
-0.051989835 0.70599997 0.0086649731 1.1248238e-38 278 233
-0.050608214 0.704 0.0086404262 1.0234088e-38 279 233
-0.049163464 0.70099998 0.0086036054 9.8645975e-39 280 233
-0.047865998 0.69999999 0.0085913334 9.5883707e-39 281 233
-0.046438783 0.69700003 0.0085545136 9.222828e-39 282 233
-0.045151837 0.69599998 0.0085422397 9.4990562e-39 283 233
-0.043742158 0.69300002 0.0085054198 9.6830845e-39 284 233
-0.042527102 0.69300002 0.0085054198 1.0144063e-38 285 233
-0.041192811 0.69099998 0.008480873 9.3153515e-39 286 233
-0.039981257 0.69099998 0.008480873 7.6558316e-39 287 233
-0.038713597 0.69 0.0084686 8.2997367e-39 288 233
-0.037395094 0.68800002 0.0084440531 7.9309527e-39 289 233
-0.0361888 0.68800002 0.0084440531 7.2895336e-39 290 233
-0.03498251 0.68800002 0.0084440531 7.197338e-39 291 233
-0.033727121 0.68699998 0.0084317802 7.104771e-39 292 233
-0.032522578 0.68699998 0.0084317802 7.012574e-39 293 233
-0.031318039 0.68699998 0.0084317802 6.5562215e-39 294 233
-0.030113498 0.68699998 0.0084317802 6.4640259e-39 295 233
-0.028908957 0.68699998 0.0084317802 6.5583459e-39 296 233
-0.027664091 0.68599999 0.0084195063 6.5583459e-39 297 233
-0.026461305 0.68599999 0.0084195063 6.5587046e-39 298 233
-0.025258519 0.68599999 0.0084195063 6.4665104e-39 299 233
-0.024055731 0.68599999 0.0084195063 6.6498226e-39 300 233
-0.022852944 0.68599999 0.0084195063 6.5576284e-39 301 233
-0.021681719 0.68699998 0.0084317802 6.8299063e-39 302 233
-0.020477179 0.68699998 0.0084317802 6.6458766e-39 303 233
-0.019272638 0.68699998 0.0084317802 6.6455178e-39 304 233
-0.0180944 0.68800002 0.0084440531 6.9221005e-39 305 233
-0.016888106 0.68800002 0.0084440531 7.290883e-39 306 233
-0.015681813 0.68800002 0.0084440531 7.8436981e-39 307 233
-0.014475521 0.68800002 0.0084440531 9.6826291e-39 308 233
-0.013269227 0.68800002 0.0084440531 1.0327998e-38 309 233
-0.012062933 0.68800002 0.0084440531 1.1060213e-38 310 233
-0.010856641 0.68800002 0.0084440531 1.1152409e-38 311 233
-0.0096503468 0.68800002 0.0084440531 1.0418768e-38 312 233
-0.0084440531 0.68800002 0.0084440531 8.0216826e-39 313 233
-0.0072377604 0.68800002 0.0084440531 7.1018353e-39 314 233
-0.0060314666 0.68800002 0.0084440531 7.8394003e-39 315 233
-0.0048251734 0.68800002 0.0084440531 8.3911293e-39 316 233
-0.0036346598 0.69099998 0.008480873 8.6677162e-39 317 233
-0.00243012 0.69300002 0.0085054198 8.942899e-39 318 233
-0.0012168133 0.69400001 0.0085176928 9.4960728e-39 319 233
0 0.69599998 0.0085422397 9.3113649e-39 320 233
0.0012220733 0.69700003 0.0085545136 9.7723416e-39 321 233
0.0024476533 0.69800001 0.0085667865 1.0234402e-38 322 233
0.0036714801 0.69800001 0.0085667865 1.0234402e-38 323 233
0.0048953067 0.69800001 0.0085667865 1.1059846e-38 324 233
0.0061366665 0.69999999 0.0085913334 9.8613044e-39 325 233
0.0073639993 0.69999999 0.0085913334 7.3756504e-39 326 233
0.0086281532 0.70300001 0.0086281532 6.5458897e-39 327 233
0.0098747732 0.704 0.0086404262 1.1339712e-38 328 233
-0.057344519 0.71100003 0.0074797203 1.5399191e-38 274 234
-0.056018997 0.70999998 0.0074691991 1.5306995e-38 275 234
-0.054619838 0.708 0.0074481601 1.4014825e-38 276 234
-0.053303085 0.70700002 0.0074376399 1.2078716e-38 277 234
-0.051989835 0.70599997 0.0074271196 1.1615943e-38 278 234
-0.050608214 0.704 0.0074060797 1.1062769e-38 279 234
-0.049373865 0.704 0.0074060797 9.5908861e-39 280 234
-0.047865998 0.69999999 0.0073639993 9.3142978e-39 281 234
-0.046505414 0.69800001 0.0073429602 9.4990562e-39 282 234
-0.045216713 0.69700003 0.00733244 9.315025e-39 283 234
-0.043805279 0.69400001 0.0073008798 9.7742011e-39 284 234
-0.042527102 0.69300002 0.0072903596 9.9585924e-39 285 234
-0.041312039 0.69300002 0.0072903596 9.4061249e-39 286 234
-0.039981257 0.69099998 0.0072693196 8.5763642e-39 287 234
-0.038769703 0.69099998 0.0072693196 8.0253162e-39 288 234
-0.037503798 0.69 0.0072587994 7.564338e-39 289 234
-0.036293998 0.69 0.0072587994 7.4728459e-39 290 234
-0.03498251 0.68800002 0.0072377604 7.3806502e-39 291 234
-0.033776212 0.68800002 0.0072377604 7.1051367e-39 292 234
-0.032522578 0.68699998 0.0072272392 6.9207441e-39 293 234
-0.031318039 0.68699998 0.0072272392 6.7399079e-39 294 234
-0.030113498 0.68699998 0.0072272392 6.7399079e-39 295 234
-0.028908957 0.68699998 0.0072272392 6.833495e-39 296 234
-0.027704418 0.68699998 0.0072272392 6.7412994e-39 297 234
-0.026461305 0.68599999 0.0072167199 6.7412994e-39 298 234
-0.025258519 0.68599999 0.0072167199 6.7412994e-39 299 234
-0.024055731 0.68599999 0.0072167199 6.7412994e-39 300 234
-0.022852944 0.68599999 0.0072167199 6.5569109e-39 301 234
-0.021681719 0.68699998 0.0072272392 7.012864e-39 302 234
-0.020477179 0.68699998 0.0072272392 6.9206684e-39 303 234
-0.019272638 0.68699998 0.0072272392 6.8295476e-39 304 234
-0.0180944 0.68800002 0.0072377604 7.1061331e-39 305 234
-0.016888106 0.68800002 0.0072377604 7.6561035e-39 306 234
-0.015681813 0.68800002 0.0072377604 9.2234306e-39 307 234
-0.014475521 0.68800002 0.0072377604 1.1247109e-38 308 234
-0.013269227 0.68800002 0.0072377604 1.1431141e-38 309 234
-0.012062933 0.68800002 0.0072377604 1.1060939e-38 310 234
-0.010856641 0.68800002 0.0072377604 1.0876548e-38 311 234
-0.0096503468 0.68800002 0.0072377604 9.6840962e-39 312 234
-0.0084440531 0.68800002 0.0072377604 8.2089662e-39 313 234
-0.0072377604 0.68800002 0.0072377604 9.128026e-39 314 234
-0.0060314666 0.68800002 0.0072377604 9.404973e-39 315 234
-0.0048391996 0.69 0.0072587994 9.1298308e-39 316 234
-0.0036346598 0.69099998 0.0072693196 9.1298308e-39 317 234
-0.0024336267 0.69400001 0.0073008798 1.0690692e-38 318 234
-0.0012168133 0.69400001 0.0073008798 1.0690692e-38 319 234
0 0.69700003 0.00733244 9.1259058e-39 320 234
0.0012238267 0.69800001 0.0073429602 9.3102985e-39 321 234
0.0024476533 0.69800001 0.0073429602 1.0876548e-38 322 234
0.0036819996 0.69999999 0.0073639993 1.124497e-38 323 234
0.0049093333 0.69999999 0.0073639993 1.0323377e-38 324 234
0.0061454331 0.70099998 0.0073745195 7.5571494e-39 325 234
0.0073955595 0.70300001 0.0073955595 4.2460408e-39 326 234
0.0086404262 0.704 0.0074060797 4.9836059e-39 327 234
0.0098747732 0.704 0.0074060797 1.106276e-38 328 234
-0.057344519 0.71100003 0.0062330998 1.5490311e-38 274 235
-0.056097899 0.71100003 0.0062330998 1.5490311e-38 275 235
-0.054774132 0.70999998 0.0062243328 1.3646765e-38 276 235
-0.053378478 0.708 0.0062067998 1.1803211e-38 277 235
-0.051989835 0.70599997 0.0061892662 1.1525182e-38 278 235
-0.050608214 0.704 0.0061717331 1.1432628e-38 279 235
-0.049373865 0.704 0.0061717331 1.0511754e-38 280 235
-0.047865998 0.69999999 0.0061366665 9.6816327e-39 281 235
-0.046505414 0.69800001 0.006119133 9.6820055e-39 282 235
-0.045216713 0.69700003 0.0061103669 9.4054186e-39 283 235
-0.043805279 0.69400001 0.0060840664 9.9567945e-39 284 235
-0.042588469 0.69400001 0.0060840664 1.0141186e-38 285 235
-0.041312039 0.69300002 0.0060753003 9.4068437e-39 286 235
-0.04009698 0.69300002 0.0060753003 9.0380626e-39 287 235
-0.038769703 0.69099998 0.0060577663 8.9444026e-39 288 235
-0.03755815 0.69099998 0.0060577663 8.2990332e-39 289 235
-0.036293998 0.69 0.0060489997 8.2990094e-39 290 235
-0.035084199 0.69 0.0060489997 8.0227826e-39 291 235
-0.033776212 0.68800002 0.0060314666 7.1044207e-39 292 235
-0.032569919 0.68800002 0.0060314666 6.9196693e-39 293 235
-0.031363625 0.68800002 0.0060314666 7.473887e-39 294 235
-0.030113498 0.68699998 0.0060226996 7.7501138e-39 295 235
-0.028908957 0.68699998 0.0060226996 8.0259468e-39 296 235
-0.027704418 0.68699998 0.0060226996 7.472773e-39 297 235
-0.026499879 0.68699998 0.0060226996 7.014306e-39 298 235
-0.025258519 0.68599999 0.0060139326 7.1986972e-39 299 235
-0.024055731 0.68599999 0.0060139326 7.0161038e-39 300 235
-0.022852944 0.68599999 0.0060139326 6.9239082e-39 301 235
-0.021681719 0.68699998 0.0060226996 7.3816465e-39 302 235
-0.020506985 0.68800002 0.0060314666 7.2894509e-39 303 235
-0.019300694 0.68800002 0.0060314666 7.2894509e-39 304 235
-0.0180944 0.68800002 0.0060314666 7.9348203e-39 305 235
-0.016888106 0.68800002 0.0060314666 9.7733828e-39 306 235
-0.015681813 0.68800002 0.0060314666 1.0510948e-38 307 235
-0.014475521 0.68800002 0.0060314666 1.1337519e-38 308 235
-0.013269227 0.68800002 0.0060314666 1.0969097e-38 309 235
-0.012062933 0.68800002 0.0060314666 1.0416291e-38 310 235
-0.010856641 0.68800002 0.0060314666 1.0416291e-38 311 235
-0.0096503468 0.68800002 0.0060314666 1.0509554e-38 312 235
-0.0084440531 0.68800002 0.0060314666 9.9567399e-39 313 235
-0.0072587994 0.69 0.0060489997 9.6776278e-39 314 235
-0.0060577663 0.69099998 0.0060577663 8.7560317e-39 315 235
-0.0048462129 0.69099998 0.0060577663 8.2025076e-39 316 235
-0.0036451798 0.69300002 0.0060753003 8.2025076e-39 317 235
-0.0024336267 0.69400001 0.0060840664 9.7716381e-39 318 235
-0.0012168133 0.69400001 0.0060840664 1.0417008e-38 319 235
0 0.69700003 0.0061103669 9.8584458e-39 320 235
0.0012238267 0.69800001 0.006119133 9.7662502e-39 321 235
0.0024476533 0.69800001 0.006119133 9.9535183e-39 322 235
0.0036819996 0.69999999 0.0061366665 9.4003445e-39 323 235
0.0049093333 0.69999999 0.0061366665 8.0202939e-39 324 235
0.0061629666 0.70300001 0.0061629666 6.8217507e-39 325 235
0.0074060797 0.704 0.0061717331 4.2435227e-39 326 235
0.0086404262 0.704 0.0061717331 5.1651203e-39 327 235
0.0099028256 0.70599997 0.0061892662 1.0877645e-38 328 235
-0.057344519 0.71100003 0.0049864799 1.5398115e-38 274 236
-0.056097899 0.71100003 0.0049864799 1.5305919e-38 275 236
-0.054774132 0.70999998 0.0049794666 1.3646398e-38 276 236
-0.053378478 0.708 0.0049654399 1.171029e-38 277 236
-0.051989835 0.70599997 0.0049514128 1.1708492e-38 278 236
-0.050751984 0.70599997 0.0049514128 1.1708492e-38 279 236
-0.049373865 0.704 0.0049373866 1.0971653e-38 280 236
-0.047934376 0.70099998 0.0049163462 1.0234088e-38 281 236
-0.046638668 0.69999999 0.0049093333 9.3153782e-39 282 236
-0.045281585 0.69800001 0.0048953067 9.2231811e-39 283 236
-0.043931518 0.69599998 0.0048812795 9.5908889e-39 284 236
-0.042588469 0.69400001 0.0048672534 9.9593112e-39 285 236
-0.041371655 0.69400001 0.0048672534 9.869268e-39 286 236
-0.04009698 0.69300002 0.00486024 9.2238986e-39 287 236
-0.03888192 0.69300002 0.00486024 9.6805411e-39 288 236
-0.03755815 0.69099998 0.0048462129 9.219563e-39 289 236
-0.036346599 0.69099998 0.0048462129 8.9429565e-39 290 236
-0.035135046 0.69099998 0.0048462129 8.7585652e-39 291 236
-0.0338744 0.69 0.0048391996 7.1044361e-39 292 236
-0.032664597 0.69 0.0048391996 6.366871e-39 293 236
-0.031363625 0.68800002 0.0048251734 8.5763193e-39 294 236
-0.030157333 0.68800002 0.0048251734 8.945462e-39 295 236
-0.028908957 0.68699998 0.0048181596 8.57702e-39 296 236
-0.027704418 0.68699998 0.0048181596 7.3788355e-39 297 236
-0.026499879 0.68699998 0.0048181596 7.0114739e-39 298 236
-0.025295338 0.68699998 0.0048181596 7.4724507e-39 299 236
-0.024090799 0.68699998 0.0048181596 7.2015965e-39 300 236
-0.022886258 0.68699998 0.0048181596 7.2015965e-39 301 236
-0.021713281 0.68800002 0.0048251734 7.3838144e-39 302 236
-0.020506985 0.68800002 0.0048251734 7.2916173e-39 303 236
-0.019300694 0.68800002 0.0048251734 7.7497424e-39 304 236
-0.0180944 0.68800002 0.0048251734 9.1330356e-39 305 236
-0.016888106 0.68800002 0.0048251734 1.1062712e-38 306 236
-0.015681813 0.68800002 0.0048251734 1.0786125e-38 307 236
-0.014475521 0.68800002 0.0048251734 1.0048585e-38 308 236
-0.013269227 0.68800002 0.0048251734 9.2184658e-39 309 236
-0.012062933 0.68800002 0.0048251734 7.9298934e-39 310 236
-0.010856641 0.68800002 0.0048251734 9.1284365e-39 311 236
-0.0096503468 0.68800002 0.0048251734 1.0878349e-38 312 236
-0.0084686 0.69 0.0048391996 1.0601403e-38 313 236
-0.0072693196 0.69099998 0.0048462129 9.1233989e-39 314 236
-0.0060577663 0.69099998 0.0048462129 5.8043562e-39 315 236
-0.00486024 0.69300002 0.00486024 4.6965891e-39 316 236
-0.0036451798 0.69300002 0.00486024 5.9873279e-39 317 236
-0.0024406398 0.69599998 0.0048812795 8.3915974e-39 318 236
-0.0012203199 0.69599998 0.0048812795 1.0051119e-38 319 236
0 0.69700003 0.0048882933 9.8602479e-39 320 236
0.0012238267 0.69800001 0.0048953067 9.2148784e-39 321 236
0.0024476533 0.69800001 0.0048953067 8.0170723e-39 322 236
0.0036819996 0.69999999 0.0049093333 6.6341379e-39 323 236
0.0049163462 0.70099998 0.0049163462 5.6221566e-39 324 236
0.0061892662 0.70599997 0.0049514128 6.359723e-39 325 236
0.0074271196 0.70599997 0.0049514128 5.7172207e-39 326 236
0.0086649731 0.70599997 0.0049514128 5.625025e-39 327 236
-0.057586476 0.71399999 0.0037556398 1.5122248e-38 274 237
-0.056255698 0.713 0.0037503797 1.5214803e-38 275 237
-0.054851279 0.71100003 0.0037398601 1.3831149e-38 276 237
-0.053529263 0.70999998 0.0037345996 1.2079072e-38 277 237
-0.05206348 0.70700002 0.0037188199 1.1615943e-38 278 237
-0.050751984 0.70599997 0.0037135598 1.1062769e-38 279 237
-0.049373865 0.704 0.0037030398 9.6820027e-39 280 237
-0.047934376 0.70099998 0.0036872597 9.6820027e-39 281 237
-0.046705291 0.70099998 0.0036872597 9.4061403e-39 282 237
-0.045281585 0.69800001 0.0036714801 9.3139446e-39 283 237
-0.043994639 0.69700003 0.00366622 9.3153782e-39 284 237
-0.042711195 0.69599998 0.0036609597 1.0606117e-38 285 237
-0.041371655 0.69400001 0.0036504399 1.0882697e-38 286 237
-0.04009698 0.69300002 0.0036451798 1.0606469e-38 287 237
-0.03888192 0.69300002 0.0036451798 1.0972006e-38 288 237
-0.037666857 0.69300002 0.0036451798 1.0787615e-38 289 237
-0.036346599 0.69099998 0.0036346598 1.0879079e-38 290 237
-0.035135046 0.69099998 0.0036346598 1.0602851e-38 291 237
-0.033923492 0.69099998 0.0036346598 9.589049e-39 292 237
-0.032664597 0.69 0.0036293997 8.7592883e-39 293 237
-0.031454802 0.69 0.0036293997 9.4057297e-39 294 237
-0.030244999 0.69 0.0036293997 9.4979267e-39 295 237
-0.028951041 0.68800002 0.0036188802 9.0380234e-39 296 237
-0.027744746 0.68800002 0.0036188802 7.2863078e-39 297 237
-0.026499879 0.68699998 0.0036136196 6.9175057e-39 298 237
-0.025295338 0.68699998 0.0036136196 7.9316562e-39 299 237
-0.024090799 0.68699998 0.0036136196 7.570386e-39 300 237
-0.022886258 0.68699998 0.0036136196 7.570386e-39 301 237
-0.021713281 0.68800002 0.0036188802 7.4760072e-39 302 237
-0.020506985 0.68800002 0.0036188802 7.2916145e-39 303 237
-0.019300694 0.68800002 0.0036188802 8.027058e-39 304 237
-0.0180944 0.68800002 0.0036188802 9.3177968e-39 305 237
-0.016888106 0.68800002 0.0036188802 8.4823329e-39 306 237
-0.015727401 0.69 0.0036293997 6.2696363e-39 307 237
-0.014517599 0.69 0.0036293997 5.3455487e-39 308 237
-0.0133078 0.69 0.0036293997 4.7001793e-39 309 237
-0.012097999 0.69 0.0036293997 3.5117128e-39 310 237
-0.010935539 0.69300002 0.0036451798 7.0151467e-39 311 237
-0.0096924258 0.69099998 0.0036346598 1.1612331e-38 312 237
-0.008480873 0.69099998 0.0036346598 1.1336102e-38 313 237
-0.0072903596 0.69300002 0.0036451798 8.9393832e-39 314 237
-0.0060753003 0.69300002 0.0036451798 5.0671667e-39 315 237
-0.0048672534 0.69400001 0.0036504399 4.5158104e-39 316 237
-0.0036504399 0.69400001 0.0036504399 5.6221566e-39 317 237
-0.0024406398 0.69599998 0.0036609597 7.7433637e-39 318 237
-0.0012203199 0.69599998 0.0036609597 8.2961788e-39 319 237
0 0.69700003 0.00366622 7.7390421e-39 320 237
0.0012238267 0.69800001 0.0036714801 7.4624538e-39 321 237
0.0024476533 0.69800001 0.0036714801 6.4519214e-39 322 237
0.0036819996 0.69999999 0.0036819996 6.0827788e-39 323 237
0.0049163462 0.70099998 0.0036872597 5.8965995e-39 324 237
0.0061892662 0.70599997 0.0037135598 6.3572175e-39 325 237
0.0074271196 0.70599997 0.0037135598 6.7299335e-39 326 237
-0.057747785 0.71600002 0.0025107733 1.5121532e-38 274 238
-0.0563346 0.71399999 0.0025037599 1.5305563e-38 275 238
-0.054851279 0.71100003 0.0024932399 1.3923708e-38 276 238
-0.053529263 0.70999998 0.0024897333 1.2356382e-38 277 238
-0.05206348 0.70700002 0.0024792133 1.1432634e-38 278 238
-0.050751984 0.70599997 0.0024757064 1.0141895e-38 279 238
-0.049373865 0.704 0.0024686933 9.4958164e-39 280 238
-0.047934376 0.70099998 0.0024581731 9.5883707e-39 281 238
-0.046705291 0.70099998 0.0024581731 9.3128698e-39 282 238
-0.045281585 0.69800001 0.0024476533 9.2206742e-39 283 238
-0.043994639 0.69700003 0.0024441467 9.1306296e-39 284 238
-0.042772565 0.69700003 0.0024441467 1.0421368e-38 285 238
-0.041490879 0.69599998 0.0024406398 1.0516788e-38 286 238
-0.040154841 0.69400001 0.0024336267 1.070118e-38 287 238
-0.03888192 0.69300002 0.00243012 1.1985802e-38 288 238
-0.037666857 0.69300002 0.00243012 1.1893605e-38 289 238
-0.036451802 0.69300002 0.00243012 1.1617375e-38 290 238
-0.035135046 0.69099998 0.0024231065 1.152518e-38 291 238
-0.033923492 0.69099998 0.0024231065 1.1431532e-38 292 238
-0.032664597 0.69 0.0024195998 1.0786163e-38 293 238
-0.031454802 0.69 0.0024195998 1.0418794e-38 294 238
-0.030244999 0.69 0.0024195998 1.0234402e-38 295 238
-0.028951041 0.68800002 0.0024125867 9.8663365e-39 296 238
-0.027744746 0.68800002 0.0024125867 8.0227826e-39 297 238
-0.026538454 0.68800002 0.0024125867 6.2728523e-39 298 238
-0.025295338 0.68699998 0.0024090798 8.2089605e-39 299 238
-0.024090799 0.68699998 0.0024090798 9.1308622e-39 300 238
-0.022886258 0.68699998 0.0024090798 8.6698826e-39 301 238
-0.021713281 0.68800002 0.0024125867 7.016101e-39 302 238
-0.020566599 0.69 0.0024195998 6.9239054e-39 303 238
-0.019356798 0.69 0.0024195998 8.0267021e-39 304 238
-0.018146999 0.69 0.0024195998 9.3174409e-39 305 238
-0.0169372 0.69 0.0024195998 8.847891e-39 306 238
-0.015727401 0.69 0.0024195998 5.7132396e-39 307 238
-0.014538639 0.69099998 0.0024231065 2.6733356e-39 308 238
-0.013327086 0.69099998 0.0024231065 2.7658913e-39 309 238
-0.012150601 0.69300002 0.00243012 4.7052435e-39 310 238
-0.010935539 0.69300002 0.00243012 7.6551436e-39 311 238
-0.0097204801 0.69300002 0.00243012 1.1058804e-38 312 238
-0.0085054198 0.69300002 0.00243012 1.069038e-38 313 238
-0.0072903596 0.69300002 0.00243012 7.5632885e-39 314 238
-0.0060753003 0.69300002 0.00243012 4.2438856e-39 315 238
-0.0048672534 0.69400001 0.0024336267 5.1608323e-39 316 238
-0.0036504399 0.69400001 0.0024336267 5.8062017e-39 317 238
-0.0024406398 0.69599998 0.0024406398 6.543764e-39 318 238
-0.0012203199 0.69599998 0.0024406398 6.9125451e-39 319 238
0 0.69700003 0.0024441467 6.4497691e-39 320 238
0.0012238267 0.69800001 0.0024476533 6.0809879e-39 321 238
0.0024546667 0.69999999 0.0024546667 5.8994791e-39 322 238
0.0036872597 0.70099998 0.0024581731 5.715448e-39 323 238
0.0049514128 0.70599997 0.0024757064 5.7147221e-39 324 238
0.0061980332 0.70700002 0.0024792133 6.2678959e-39 325 238
0.0074481601 0.708 0.00248272 6.5480547e-39 326 238
0.008689519 0.708 0.00248272 7.4703698e-39 327 238
-0.057747785 0.71600002 0.0012553866 1.4937137e-38 274 239
-0.0563346 0.71399999 0.00125188 1.5029332e-38 275 239
-0.054851279 0.71100003 0.00124662 1.3830793e-38 276 239
-0.053529263 0.70999998 0.0012448666 1.2540055e-38 277 239
-0.05206348 0.70700002 0.0012396066 1.1432634e-38 278 239
-0.050751984 0.70599997 0.0012378532 1.0510317e-38 279 239
-0.049373865 0.704 0.0012343467 9.7741983e-39 280 239
-0.048139516 0.704 0.0012343467 9.4057745e-39 281 239
-0.046705291 0.70099998 0.0012290865 9.3139418e-39 282 239
-0.04541133 0.69999999 0.0012273333 9.4061375e-39 283 239
-0.04405776 0.69800001 0.0012238267 9.4994093e-39 284 239
-0.042772565 0.69700003 0.0012220733 1.0144779e-38 285 239
-0.041490879 0.69599998 0.0012203199 1.0514989e-38 286 239
-0.040154841 0.69400001 0.0012168133 1.0514989e-38 287 239
-0.038938027 0.69400001 0.0012168133 1.1248238e-38 288 239
-0.037666857 0.69300002 0.00121506 1.1432631e-38 289 239
-0.036451802 0.69300002 0.00121506 1.1432984e-38 290 239
-0.035236739 0.69300002 0.00121506 1.152518e-38 291 239
-0.033923492 0.69099998 0.0012115532 1.1434053e-38 292 239
-0.032711938 0.69099998 0.0012115532 1.0973075e-38 293 239
-0.031454802 0.69 0.0012097999 1.0421331e-38 294 239
-0.030244999 0.69 0.0012097999 1.0605722e-38 295 239
-0.029035198 0.69 0.0012097999 1.1248573e-38 296 239
-0.027825398 0.69 0.0012097999 9.2202692e-39 297 239
-0.026538454 0.68800002 0.0012062934 7.1026368e-39 298 239
-0.02533216 0.68800002 0.0012062934 9.6841144e-39 299 239
-0.024125867 0.68800002 0.0012062934 1.0969758e-38 300 239
-0.022919573 0.68800002 0.0012062934 9.4942693e-39 301 239
-0.021776399 0.69 0.0012097999 6.8335076e-39 302 239
-0.020566599 0.69 0.0012097999 6.4650852e-39 303 239
-0.019356798 0.69 0.0012097999 7.6589971e-39 304 239
-0.018146999 0.69 0.0012097999 9.3181597e-39 305 239
-0.0169372 0.69 0.0012097999 1.1796353e-38 306 239
-0.015750192 0.69099998 0.0012115532 9.6758524e-39 307 239
-0.014538639 0.69099998 0.0012115532 4.6976793e-39 308 239
-0.013327086 0.69099998 0.0012115532 4.882072e-39 309 239
-0.012150601 0.69300002 0.00121506 8.4769757e-39 310 239
-0.010935539 0.69300002 0.00121506 8.5691713e-39 311 239
-0.0097204801 0.69300002 0.00121506 6.8192368e-39 312 239
-0.0085054198 0.69300002 0.00121506 6.8192368e-39 313 239
-0.0072903596 0.69300002 0.00121506 5.7197416e-39 314 239
-0.0060840664 0.69400001 0.0012168133 3.6914377e-39 315 239
-0.0048672534 0.69400001 0.0012168133 5.1586743e-39 316 239
-0.0036609597 0.69599998 0.0012203199 5.5274568e-39 317 239
-0.0024406398 0.69599998 0.0012203199 5.3459396e-39 318 239
-0.0012203199 0.69599998 0.0012203199 6.0835061e-39 319 239
0 0.69800001 0.0012238267 6.4497691e-39 320 239
0.0012273333 0.69999999 0.0012273333 6.4497691e-39 321 239
0.0024581731 0.70099998 0.0012290865 5.7165228e-39 322 239
0.0037030398 0.704 0.0012343467 5.6239685e-39 323 239
0.0049373866 0.704 0.0012343467 5.5296078e-39 324 239
0.0062067998 0.708 0.00124136 6.0827816e-39 325 239
0.0074481601 0.708 0.00124136 7.0969083e-39 326 239
0.008689519 0.708 0.00124136 9.4943548e-39 327 239
0.0099589331 0.70999998 0.0012448666 1.2441723e-38 328 239
-0.057747785 0.71600002 -0 1.5028609e-38 274 240
-0.0563346 0.71399999 -0 1.4844219e-38 275 240
-0.054851279 0.71100003 -0 1.382971e-38 276 240
-0.053529263 0.70999998 -0 1.2723723e-38 277 240
-0.05206348 0.70700002 -0 1.1524826e-38 278 240
-0.050751984 0.70599997 -0 1.0787261e-38 279 240
-0.04951413 0.70599997 -0 1.0048622e-38 280 240
-0.048139516 0.704 -0 1.0233011e-38 281 240
-0.046705291 0.70099998 -0 9.2238986e-39 282 240
-0.04541133 0.69999999 -0 9.2238986e-39 283 240
-0.04405776 0.69800001 -0 9.3168159e-39 284 240
-0.042772565 0.69700003 -0 9.7781542e-39 285 240
-0.041490879 0.69599998 -0 9.6859515e-39 286 240
-0.040154841 0.69400001 -0 9.4093647e-39 287 240
-0.038938027 0.69400001 -0 9.8667471e-39 288 240
-0.037666857 0.69300002 -0 1.0327724e-38 289 240
-0.036451802 0.69300002 -0 1.0879813e-38 290 240
-0.035236739 0.69300002 -0 1.115604e-38 291 240
-0.033923492 0.69099998 -0 1.1340068e-38 292 240
-0.032711938 0.69099998 -0 1.1247514e-38 293 240
-0.031500384 0.69099998 -0 1.0696488e-38 294 240
-0.030288832 0.69099998 -0 1.0973075e-38 295 240
-0.029035198 0.69 -0 1.2169823e-38 296 240
-0.027825398 0.69 -0 1.0049324e-38 297 240
-0.026615599 0.69 -0 8.1146602e-39 298 240
-0.02533216 0.68800002 -0 1.0511748e-38 299 240
-0.024125867 0.68800002 -0 1.1342176e-38 300 240
-0.022986198 0.69 -0 9.6822956e-39 301 240
-0.021807959 0.69099998 -0 7.9355462e-39 302 240
-0.020596405 0.69099998 -0 6.8288385e-39 303 240
-0.019384852 0.69099998 -0 7.6593447e-39 304 240
-0.0181733 0.69099998 -0 9.2266704e-39 305 240
-0.016961746 0.69099998 -0 1.1982538e-38 306 240
-0.015750192 0.69099998 -0 1.1060942e-38 307 240
-0.014538639 0.69099998 -0 3.6882007e-39 308 240
-0.01336566 0.69300002 -0 3.5034508e-39 309 240
-0.012150601 0.69300002 -0 8.2940138e-39 310 240
-0.010935539 0.69300002 -0 7.74084e-39 311 240
-0.0097204801 0.69300002 -0 6.3517903e-39 312 240
-0.0085054198 0.69300002 -0 5.8908135e-39 313 240
-0.0073008798 0.69400001 -0 4.6980535e-39 314 240
-0.0060840664 0.69400001 -0 4.974639e-39 315 240
-0.0048812795 0.69599998 -0 4.8813812e-39 316 240
-0.0036609597 0.69599998 -0 4.6051544e-39 317 240
-0.0024441467 0.69700003 -0 4.9753817e-39 318 240
-0.0012220733 0.69700003 -0 5.4363584e-39 319 240
0 0.69999999 -0 5.5314253e-39 320 240
0.0012273333 0.69999999 -0 5.6236209e-39 321 240
0.0024651866 0.70300001 -0 5.8998323e-39 322 240
0.0037030398 0.704 -0 5.8998323e-39 323 240
0.0049373866 0.704 -0 6.3597258e-39 324 240
0.0062067998 0.708 -0 6.2671701e-39 325 240
0.0074691991 0.70999998 -0 6.1774771e-39 326 240
0.0087140659 0.70999998 -0 8.6667591e-39 327 240
0.0099589331 0.70999998 -0 1.1708476e-38 328 240
-0.0563346 0.71399999 -0.00125188 1.4383237e-38 275 241
-0.054851279 0.71100003 -0.00124662 1.3737515e-38 276 241
-0.053529263 0.70999998 -0.0012448666 1.2631527e-38 277 241
-0.05206348 0.70700002 -0.0012396066 1.1524826e-38 278 241
-0.050751984 0.70599997 -0.0012378532 1.0879457e-38 279 241
-0.04951413 0.70599997 -0.0012378532 9.4972443e-39 280 241
-0.048139516 0.704 -0.0012343467 9.6816355e-39 281 241
-0.046705291 0.70099998 -0.0012290865 9.2231811e-39 282 241
-0.04541133 0.69999999 -0.0012273333 9.2231811e-39 283 241
-0.04405776 0.69800001 -0.0012238267 9.4061375e-39 284 241
-0.042772565 0.69700003 -0.0012220733 9.8671156e-39 285 241
-0.041550495 0.69700003 -0.0012220733 1.0144057e-38 286 241
-0.040270556 0.69599998 -0.0012203199 9.8674687e-39 287 241
-0.038938027 0.69400001 -0.0012168133 9.0377123e-39 288 241
-0.037721213 0.69400001 -0.0012168133 8.853321e-39 289 241
-0.036451802 0.69300002 -0.00121506 9.4036207e-39 290 241
-0.035236739 0.69300002 -0.00121506 9.3114251e-39 291 241
-0.034021679 0.69300002 -0.00121506 9.2192253e-39 292 241
-0.032711938 0.69099998 -0.0012115532 9.5883679e-39 293 241
-0.031500384 0.69099998 -0.0012115532 1.014369e-38 294 241
-0.030288832 0.69099998 -0.0012115532 1.0789059e-38 295 241
-0.029035198 0.69 -0.0012097999 1.1433347e-38 296 241
-0.027825398 0.69 -0.0012097999 9.589793e-39 297 241
-0.026615599 0.69 -0.0012097999 8.205781e-39 298 241
-0.025405798 0.69 -0.0012097999 1.0602866e-38 299 241
-0.024195999 0.69 -0.0012097999 1.1709546e-38 300 241
-0.022986198 0.69 -0.0012097999 1.0695752e-38 301 241
-0.021871079 0.69300002 -0.00121506 9.4975161e-39 302 241
-0.020596405 0.69099998 -0.0012115532 8.4833628e-39 303 241
-0.019384852 0.69099998 -0.0012115532 8.3040134e-39 304 241
-0.0181733 0.69099998 -0.0012115532 9.3181654e-39 305 241
-0.016961746 0.69099998 -0.0012115532 1.1431888e-38 306 241
-0.015750192 0.69099998 -0.0012115532 1.0601769e-38 307 241
-0.014538639 0.69099998 -0.0012115532 3.5963709e-39 308 241
-0.01336566 0.69300002 -0.00121506 3.2275897e-39 309 241
-0.012150601 0.69300002 -0.00121506 7.7430106e-39 310 241
-0.010935539 0.69300002 -0.00121506 7.8352062e-39 311 241
-0.0097204801 0.69300002 -0.00121506 7.8265714e-39 312 241
-0.0085054198 0.69300002 -0.00121506 5.7982662e-39 313 241
-0.0073008798 0.69400001 -0.0012168133 3.5953017e-39 314 241
-0.0060840664 0.69400001 -0.0012168133 4.1481167e-39 315 241
-0.0048812795 0.69599998 -0.0012203199 4.6062236e-39 316 241
-0.00366622 0.69700003 -0.0012220733 4.514028e-39 317 241
-0.0024476533 0.69800001 -0.0012238267 5.0657626e-39 318 241
-0.0012273333 0.69999999 -0.0012273333 5.8033277e-39 319 241
0 0.69999999 -0.0012273333 5.8047668e-39 320 241
0.0012273333 0.69999999 -0.0012273333 5.989158e-39 321 241
0.0024651866 0.70300001 -0.0012325933 5.991309e-39 322 241
0.0037135598 0.70599997 -0.0012378532 6.5444828e-39 323 241
0.0049514128 0.70599997 -0.0012378532 6.9153953e-39 324 241
0.0062067998 0.708 -0.00124136 7.1919808e-39 325 241
0.0074691991 0.70999998 -0.0012448666 7.3738399e-39 326 241
0.0087140659 0.70999998 -0.0012448666 8.2032404e-39 327 241
0.0099589331 0.70999998 -0.0012448666 1.1063107e-38 328 241
0.011203799 0.70999998 -0.0012448666 1.4105561e-38 329 241
-0.0563346 0.71399999 -0.0025037599 1.4107373e-38 275 242
-0.055005573 0.713 -0.0025002533 1.3736796e-38 276 242
