# .PCD v.7 - Point Cloud Data file format
FIELDS x y z rgb imX imY
SIZE 4 4 4 4 4 4
TYPE F F F F F F
COUNT 1 1 1 1 1 1
WIDTH 839
HEIGHT 1
VIEWPOINT 0 0 0 1 0 0 0
POINTS 839
DATA ascii
-0.055973411 0.69400001 0.015818574 1.5398468e-38 274 227
-0.054756597 0.69400001 0.015818574 1.3093579e-38 275 227
-0.053462639 0.69300002 0.015795778 1.0513191e-38 276 227
-0.05224758 0.69300002 0.015795778 7.3785399e-39 277 227
-0.051032521 0.69300002 0.015795778 6.91831e-39 278 227
-0.049673684 0.69099998 0.015750192 6.2729406e-39 279 227
-0.04846213 0.69099998 0.015750192 7.3742659e-39 280 227
-0.046908677 0.68599999 0.015636226 7.5586572e-39 281 227
-0.045572639 0.68400002 0.01559064 6.2779797e-39 282 227
-0.044243611 0.68199998 0.015545053 7.7531097e-39 283 227
-0.043047838 0.68199998 0.015545053 1.1062066e-38 284 227
-0.041729335 0.68000001 0.015499466 1.1339013e-38 285 227
-0.040477451 0.67900002 0.015476674 1.1433353e-38 286 227
-0.039286941 0.67900002 0.015476674 1.1340798e-38 287 227
-0.038040318 0.67799997 0.015453878 1.0971658e-38 288 227
-0.036851559 0.67799997 0.015453878 1.051032e-38 289 227
-0.035557602 0.676 0.015408293 9.6859515e-39 290 227
-0.034372345 0.676 0.015408293 1.0239125e-38 291 227
-0.033187091 0.676 0.015408293 9.7759541e-39 292 227
-0.031954501 0.67500001 0.0153855 7.9324017e-39 293 227
-0.030771 0.67500001 0.0153855 6.3675717e-39 294 227
-0.0295875 0.67500001 0.0153855 5.9065935e-39 295 227
-0.028404001 0.67500001 0.0153855 4.9832135e-39 296 227
-0.027220501 0.67500001 0.0153855 5.72078e-39 297 227
-0.026037 0.67500001 0.0153855 6.4604862e-39 298 227
-0.0248535 0.67500001 0.0153855 6.8296288e-39 299 227
-0.023669999 0.67500001 0.0153855 6.8306784e-39 300 227
-0.022519812 0.676 0.015408293 6.6462872e-39 301 227
-0.021334561 0.676 0.015408293 6.5526692e-39 302 227
-0.020149305 0.676 0.015408293 6.5526692e-39 303 227
-0.018964052 0.676 0.015408293 6.8278142e-39 304 227
-0.017778801 0.676 0.015408293 7.2884336e-39 305 227
-0.016593546 0.676 0.015408293 8.1178047e-39 306 227
-0.015408293 0.676 0.015408293 8.5787828e-39 307 227
-0.014223038 0.676 0.015408293 8.3932972e-39 308 227
-0.013037786 0.676 0.015408293 8.0245132e-39 309 227
-0.011887599 0.67799997 0.015453878 7.7489871e-39 310 227
-0.010698839 0.67799997 0.015453878 7.4720415e-39 311 227
-0.0095100794 0.67799997 0.015453878 6.6458766e-39 312 227
-0.0083335936 0.67900002 0.015476674 6.4614881e-39 313 227
-0.0071430802 0.67900002 0.015476674 6.3700113e-39 314 227
-0.0059613334 0.68000001 0.015499466 6.1859816e-39 315 227
-0.0047690663 0.68000001 0.015499466 6.1856229e-39 316 227
-0.00358732 0.68199998 0.015545053 6.3696526e-39 317 227
-0.0023915465 0.68199998 0.015545053 6.3692939e-39 318 227
-0.0011975267 0.68300003 0.015567848 6.6462353e-39 319 227
0 0.68400002 0.01559064 7.1972497e-39 320 227
0.0012027866 0.68599999 0.015636226 7.4741953e-39 321 227
0.0024090798 0.68699998 0.015659019 7.6568069e-39 322 227
0.0036188802 0.68800002 0.015681813 8.394372e-39 323 227
0.0048251734 0.68800002 0.015681813 1.0967254e-38 324 227
0.0060489997 0.69 0.015727401 1.059883e-38 325 227
0.0072693196 0.69099998 0.015750192 9.307032e-39 326 227
0.0085054198 0.69300002 0.015795778 8.4772714e-39 327 227
0.0097765867 0.69700003 0.015886955 1.1435833e-38 328 227
-0.057355035 0.69599998 0.014643839 1.5765818e-38 273 228
-0.055973411 0.69400001 0.01460176 1.5398112e-38 274 228
-0.054756597 0.69400001 0.01460176 1.3462004e-38 275 228
-0.053462639 0.69300002 0.014580719 1.0881975e-38 276 228
-0.05224758 0.69300002 0.014580719 8.3004976e-39 277 228
-0.051032521 0.69300002 0.014580719 8.022131e-39 278 228
-0.049673684 0.69099998 0.014538639 7.7455441e-39 279 228
-0.04846213 0.69099998 0.014538639 6.9168751e-39 280 228
-0.046977058 0.68699998 0.014454478 6.732844e-39 281 228
-0.045572639 0.68400002 0.01439136 5.9974425e-39 282 228
-0.044243611 0.68199998 0.01434928 6.6428119e-39 283 228
-0.043047838 0.68199998 0.01434928 8.7604177e-39 284 228
-0.041729335 0.68000001 0.014307199 9.4979842e-39 285 228
-0.040537067 0.68000001 0.014307199 1.0419201e-38 286 228
-0.039286941 0.67900002 0.01428616 1.0787983e-38 287 228
-0.038096428 0.67900002 0.01428616 1.0696864e-38 288 228
-0.036851559 0.67799997 0.014265119 1.0419918e-38 289 228
-0.0356628 0.67799997 0.014265119 1.0513191e-38 290 228
-0.034372345 0.676 0.014223038 1.0789778e-38 291 228
-0.033187091 0.676 0.014223038 1.0142595e-38 292 228
-0.032001842 0.676 0.014223038 9.1280834e-39 293 228
-0.030816587 0.676 0.014223038 8.3019045e-39 294 228
-0.029631332 0.676 0.014223038 8.2097074e-39 295 228
-0.028446076 0.676 0.014223038 7.3792405e-39 296 228
-0.027220501 0.67500001 0.014202001 7.0108181e-39 297 228
-0.026037 0.67500001 0.014202001 7.3806446e-39 298 228
-0.0248535 0.67500001 0.014202001 7.5653946e-39 299 228
-0.023669999 0.67500001 0.014202001 7.3813327e-39 300 228
-0.022486499 0.67500001 0.014202001 7.19694e-39 301 228
-0.021334561 0.676 0.014223038 6.9203755e-39 302 228
-0.020149305 0.676 0.014223038 6.7359843e-39 303 228
-0.018964052 0.676 0.014223038 6.7359787e-39 304 228
-0.017778801 0.676 0.014223038 6.828533e-39 305 228
-0.016593546 0.676 0.014223038 7.1058206e-39 306 228
-0.015408293 0.676 0.014223038 7.2902118e-39 307 228
-0.014223038 0.676 0.014223038 7.2891202e-39 308 228
-0.013037786 0.676 0.014223038 7.1969246e-39 309 228
-0.011887599 0.67799997 0.014265119 7.3809277e-39 310 228
-0.010698839 0.67799997 0.014265119 7.288732e-39 311 228
-0.0095100794 0.67799997 0.014265119 6.9217418e-39 312 228
-0.0083335936 0.67900002 0.01428616 6.6448004e-39 313 228
-0.0071430802 0.67900002 0.01428616 6.1866991e-39 314 228
-0.0059613334 0.68000001 0.014307199 6.0945049e-39 315 228
-0.004783093 0.68199998 0.01434928 6.1856229e-39 316 228
-0.00358732 0.68199998 0.01434928 6.3696526e-39 317 228
-0.0023915465 0.68199998 0.01434928 6.5536823e-39 318 228
-0.0011975267 0.68300003 0.014370319 6.7380722e-39 319 228
0 0.68599999 0.01443344 7.3816437e-39 320 228
0.0012045399 0.68699998 0.014454478 7.4738394e-39 321 228
0.0024125867 0.68800002 0.014475521 7.9312456e-39 322 228
0.0036188802 0.68800002 0.014475521 9.2219844e-39 323 228
0.0048391996 0.69 0.014517599 1.1245658e-38 324 228
0.0060489997 0.69 0.014517599 9.7705283e-39 325 228
0.0072693196 0.69099998 0.014538639 6.2746558e-39 326 228
0.0085422397 0.69599998 0.014643839 7.1044179e-39 327 228
0.0097765867 0.69700003 0.01466488 1.1618782e-38 328 228
-0.055892758 0.69300002 0.01336566 1.5490308e-38 274 229
-0.054677699 0.69300002 0.01336566 1.3738951e-38 275 229
-0.053462639 0.69300002 0.01336566 1.1157486e-38 276 229
-0.05224758 0.69300002 0.01336566 8.7607583e-39 277 229
-0.050885238 0.69099998 0.013327086 8.1172035e-39 278 229
-0.049673684 0.69099998 0.013327086 7.9324535e-39 279 229
-0.048391998 0.69 0.0133078 7.4743522e-39 280 229
-0.046977058 0.68699998 0.013249939 7.2899596e-39 281 229
-0.045705888 0.68599999 0.013230653 6.9183072e-39 282 229
-0.044308487 0.68300003 0.013172794 6.1807422e-39 283 229
-0.043110959 0.68300003 0.013172794 5.3524262e-39 284 229
-0.041852064 0.68199998 0.013153506 5.0758393e-39 285 229
-0.040537067 0.68000001 0.013114933 5.9952761e-39 286 229
-0.039344799 0.68000001 0.013114933 7.0094266e-39 287 229
-0.038152531 0.68000001 0.013114933 8.2065279e-39 288 229
-0.036905911 0.67900002 0.013095647 9.1281255e-39 289 229
-0.0356628 0.67799997 0.013076359 9.9567973e-39 290 229
-0.034474038 0.67799997 0.013076359 1.0141189e-38 291 229
-0.033187091 0.676 0.013037786 9.8653037e-39 292 229
-0.032001842 0.676 0.013037786 9.4965226e-39 293 229
-0.030816587 0.676 0.013037786 9.8670974e-39 294 229
-0.029631332 0.676 0.013037786 1.0051847e-38 295 229
-0.028446076 0.676 0.013037786 1.0052201e-38 296 229
-0.027260827 0.676 0.013037786 9.3142767e-39 297 229
-0.026075572 0.676 0.013037786 8.4869754e-39 298 229
-0.0248535 0.67500001 0.0130185 7.933803e-39 299 229
-0.023669999 0.67500001 0.0130185 7.749748e-39 300 229
-0.022486499 0.67500001 0.0130185 7.472801e-39 301 229
-0.021334561 0.676 0.013037786 7.1036878e-39 302 229
-0.020149305 0.676 0.013037786 7.0114922e-39 303 229
-0.018964052 0.676 0.013037786 6.7363318e-39 304 229
-0.017778801 0.676 0.013037786 6.7363318e-39 305 229
-0.016593546 0.676 0.013037786 7.0128963e-39 306 229
-0.015408293 0.676 0.013037786 6.8288651e-39 307 229
-0.014265119 0.67799997 0.013076359 6.9203349e-39 308 229
-0.013076359 0.67799997 0.013076359 6.9203349e-39 309 229
-0.011887599 0.67799997 0.013076359 7.289095e-39 310 229
-0.010698839 0.67799997 0.013076359 7.1968994e-39 311 229
-0.009524107 0.67900002 0.013095647 6.830265e-39 312 229
-0.0083458666 0.68000001 0.013114933 6.4614881e-39 313 229
-0.0071535995 0.68000001 0.013114933 6.0033868e-39 314 229
-0.005978866 0.68199998 0.013153506 6.0033868e-39 315 229
-0.004783093 0.68199998 0.013153506 6.3692939e-39 316 229
-0.00358732 0.68199998 0.013153506 6.4614881e-39 317 229
-0.0023950534 0.68300003 0.013172794 6.5529649e-39 318 229
-0.00119928 0.68400002 0.01319208 7.0139402e-39 319 229
0 0.68599999 0.013230653 7.5660406e-39 320 229
0.0012045399 0.68699998 0.013249939 7.5660406e-39 321 229
0.0024125867 0.68800002 0.013269227 8.2064004e-39 322 229
0.0036188802 0.68800002 0.013269227 9.5893362e-39 323 229
0.0048391996 0.69 0.0133078 1.0785752e-38 324 229
0.0060489997 0.69 0.0133078 8.9421998e-39 325 229
0.0072693196 0.69099998 0.013327086 6.1820888e-39 326 229
0.008480873 0.69099998 0.013327086 7.9338058e-39 327 229
0.0097765867 0.69700003 0.013442807 1.1986842e-38 328 229
-0.055892758 0.69300002 0.012150601 1.52148e-38 274 230
-0.054677699 0.69300002 0.012150601 1.373967e-38 275 230
-0.053462639 0.69300002 0.012150601 1.0513917e-38 276 230
-0.05224758 0.69300002 0.012150601 7.7480483e-39 277 230
-0.050885238 0.69099998 0.012115533 7.9317361e-39 278 230
-0.049673684 0.69099998 0.012115533 8.0239331e-39 279 230
-0.048391998 0.69 0.012097999 8.8536868e-39 280 230
-0.047045439 0.68800002 0.012062933 9.038078e-39 281 230
-0.045705888 0.68599999 0.012027865 8.9430013e-39 282 230
-0.044308487 0.68300003 0.011975267 8.2050775e-39 283 230
-0.043110959 0.68300003 0.011975267 7.1012537e-39 284 230
-0.041852064 0.68199998 0.011957732 7.3774805e-39 285 230
-0.040656291 0.68199998 0.011957732 7.7455469e-39 286 230
-0.039344799 0.68000001 0.011922667 7.9299382e-39 287 230
-0.038152531 0.68000001 0.011922667 8.1132533e-39 288 230
-0.036905911 0.67900002 0.011905133 8.1132533e-39 289 230
-0.035715401 0.67900002 0.011905133 6.5513169e-39 290 230
-0.034474038 0.67799997 0.011887599 6.5513169e-39 291 230
-0.033285279 0.67799997 0.011887599 7.5597109e-39 292 230
-0.032001842 0.676 0.011852534 8.6660585e-39 293 230
-0.030816587 0.676 0.011852534 9.4043396e-39 294 230
-0.029631332 0.676 0.011852534 9.7734823e-39 295 230
-0.028446076 0.676 0.011852534 9.4061249e-39 296 230
-0.027260827 0.676 0.011852534 8.8529511e-39 297 230
-0.026075572 0.676 0.011852534 8.1182125e-39 298 230
-0.024890319 0.676 0.011852534 8.0260168e-39 299 230
-0.023705067 0.676 0.011852534 7.658644e-39 300 230
-0.022519812 0.676 0.011852534 7.1054702e-39 301 230
-0.021334561 0.676 0.011852534 7.1026158e-39 302 230
-0.020149305 0.676 0.011852534 7.0104202e-39 303 230
-0.018964052 0.676 0.011852534 6.643783e-39 304 230
-0.017778801 0.676 0.011852534 6.4597519e-39 305 230
-0.016642639 0.67799997 0.011887599 6.4608071e-39 306 230
-0.015453878 0.67799997 0.011887599 6.4608071e-39 307 230
-0.014265119 0.67799997 0.011887599 6.5522768e-39 308 230
-0.013076359 0.67799997 0.011887599 6.6444725e-39 309 230
-0.011887599 0.67799997 0.011887599 7.1054296e-39 310 230
-0.010714619 0.67900002 0.011905133 7.013234e-39 311 230
-0.009524107 0.67900002 0.011905133 6.6458766e-39 312 230
-0.0083458666 0.68000001 0.011922667 6.4611294e-39 313 230
-0.00717464 0.68199998 0.011957732 6.3700113e-39 314 230
-0.005978866 0.68199998 0.011957732 6.1859816e-39 315 230
-0.004783093 0.68199998 0.011957732 6.3689352e-39 316 230
-0.0035925799 0.68300003 0.011975267 6.4611294e-39 317 230
-0.0023950534 0.68300003 0.011975267 7.0121424e-39 318 230
-0.00119928 0.68400002 0.0119928 7.2887292e-39 319 230
0 0.68699998 0.012045399 7.6568013e-39 320 230
0.0012062934 0.68800002 0.012062933 7.8415513e-39 321 230
0.0024125867 0.68800002 0.012062933 8.4829971e-39 322 230
0.0036293997 0.69 0.012097999 9.8659315e-39 323 230
0.0048391996 0.69 0.012097999 1.0418046e-38 324 230
0.0060489997 0.69 0.012097999 8.3897421e-39 325 230
0.0072693196 0.69099998 0.012115533 5.907297e-39 326 230
0.008480873 0.69099998 0.012115533 8.9497514e-39 327 230
-0.055892758 0.69300002 0.010935539 1.5398112e-38 274 231
-0.054677699 0.69300002 0.010935539 1.4107373e-38 275 231
-0.053462639 0.69300002 0.010935539 1.0881978e-38 276 231
-0.05224758 0.69300002 0.010935539 7.4707383e-39 277 231
-0.051032521 0.69300002 0.010935539 7.5625976e-39 278 231
-0.049673684 0.69099998 0.01090398 8.0239359e-39 279 231
-0.04846213 0.69099998 0.01090398 8.6696584e-39 280 231
-0.047045439 0.68800002 0.010856641 9.5912546e-39 281 231
-0.045772515 0.68699998 0.010840859 9.7745514e-39 282 231
-0.04437336 0.68400002 0.01079352 9.4061277e-39 283 231
-0.043174081 0.68400002 0.01079352 8.5760111e-39 284 231
-0.041913435 0.68300003 0.01077774 9.1291848e-39 285 231
-0.040656291 0.68199998 0.010761959 1.0694713e-38 286 231
-0.039460517 0.68199998 0.010761959 1.0786908e-38 287 231
-0.038152531 0.68000001 0.0107304 1.004934e-38 288 231
-0.036960267 0.68000001 0.0107304 8.4820134e-39 289 231
-0.035715401 0.67900002 0.010714619 6.4587528e-39 290 231
-0.034524884 0.67900002 0.010714619 6.2743601e-39 291 231
-0.033285279 0.67799997 0.010698839 7.0079749e-39 292 231
-0.03209652 0.67799997 0.010698839 7.9302913e-39 293 231
-0.030907756 0.67799997 0.010698839 8.7589758e-39 294 231
-0.029718997 0.67799997 0.010698839 8.8511714e-39 295 231
-0.028446076 0.676 0.01066728 8.7593261e-39 296 231
-0.027260827 0.676 0.01066728 8.3905436e-39 297 231
-0.026075572 0.676 0.01066728 7.9327674e-39 298 231
-0.024890319 0.676 0.01066728 8.3941057e-39 299 231
-0.023705067 0.676 0.01066728 8.5791906e-39 300 231
-0.022519812 0.676 0.01066728 6.9196693e-39 301 231
-0.021397678 0.67799997 0.010698839 6.6420104e-39 302 231
-0.020208918 0.67799997 0.010698839 6.734206e-39 303 231
-0.019020159 0.67799997 0.010698839 6.643067e-39 304 231
-0.0178314 0.67799997 0.010698839 6.5508699e-39 305 231
-0.016642639 0.67799997 0.010698839 6.5515678e-39 306 231
-0.015453878 0.67799997 0.010698839 6.5515678e-39 307 231
-0.014265119 0.67799997 0.010698839 6.3682555e-39 308 231
-0.013095647 0.67900002 0.010714619 6.4604512e-39 309 231
-0.011905133 0.67900002 0.010714619 6.7373758e-39 310 231
-0.010714619 0.67900002 0.010714619 6.64482e-39 311 231
-0.0095381327 0.68000001 0.0107304 6.4618468e-39 312 231
-0.0083458666 0.68000001 0.0107304 6.1856229e-39 313 231
-0.00717464 0.68199998 0.010761959 6.0941461e-39 314 231
-0.005978866 0.68199998 0.010761959 6.0941461e-39 315 231
-0.004783093 0.68199998 0.010761959 6.1856229e-39 316 231
-0.0035925799 0.68300003 0.01077774 6.4618468e-39 317 231
-0.0023985601 0.68400002 0.01079352 6.9206656e-39 318 231
-0.0012027866 0.68599999 0.010825079 7.2894481e-39 319 231
0 0.68699998 0.010840859 7.6568069e-39 320 231
0.0012062934 0.68800002 0.010856641 7.8411982e-39 321 231
0.0024195998 0.69 0.010888199 9.2191272e-39 322 231
0.0036293997 0.69 0.010888199 1.0141442e-38 323 231
0.0048391996 0.69 0.010888199 1.0415878e-38 324 231
0.0060489997 0.69 0.010888199 8.940748e-39 325 231
0.0072693196 0.69099998 0.01090398 7.0114922e-39 326 231
0.008480873 0.69099998 0.01090398 9.6851654e-39 327 231
-0.055892758 0.69300002 0.0097204801 1.5489589e-38 274 232
-0.054677699 0.69300002 0.0097204801 1.4567631e-38 275 232
-0.053462639 0.69300002 0.0097204801 1.1801053e-38 276 232
-0.05224758 0.69300002 0.0097204801 8.2057838e-39 277 232
-0.051032521 0.69300002 0.0097204801 7.4700348e-39 278 232
-0.049673684 0.69099998 0.0096924258 8.0228499e-39 279 232
-0.04846213 0.69099998 0.0096924258 7.5647486e-39 280 232
-0.047045439 0.68800002 0.0096503468 8.7632918e-39 281 232
-0.045772515 0.68699998 0.0096363192 1.0051144e-38 282 232
-0.044503104 0.68599999 0.0096222926 1.0972742e-38 283 232
-0.043300316 0.68599999 0.0096222926 1.0972374e-38 284 232
-0.041913435 0.68300003 0.0095802136 1.0972374e-38 285 232
-0.040715907 0.68300003 0.0095802136 1.1065287e-38 286 232
-0.039460517 0.68199998 0.009566186 1.1157842e-38 287 232
-0.038264744 0.68199998 0.009566186 1.0971653e-38 288 232
-0.036960267 0.68000001 0.0095381327 9.9574994e-39 289 232
-0.035767999 0.68000001 0.0095381327 8.9433488e-39 290 232
-0.034524884 0.67900002 0.009524107 8.666762e-39 291 232
-0.033334374 0.67900002 0.009524107 7.565815e-39 292 232
-0.03209652 0.67799997 0.0095100794 7.6583708e-39 293 232
-0.030907756 0.67799997 0.0095100794 8.6678536e-39 294 232
-0.029718997 0.67799997 0.0095100794 8.6678536e-39 295 232
-0.028530238 0.67799997 0.0095100794 8.8508029e-39 296 232
-0.027260827 0.676 0.0094820261 8.6664116e-39 297 232
-0.026075572 0.676 0.0094820261 8.3012038e-39 298 232
-0.024890319 0.676 0.0094820261 9.4997456e-39 299 232
-0.023705067 0.676 0.0094820261 9.8663519e-39 300 232
-0.022519812 0.676 0.0094820261 7.4696257e-39 301 232
-0.021397678 0.67799997 0.0095100794 6.8260513e-39 302 232
-0.020208918 0.67799997 0.0095100794 6.7338557e-39 303 232
-0.019020159 0.67799997 0.0095100794 6.5498106e-39 304 232
-0.0178314 0.67799997 0.0095100794 6.3654193e-39 305 232
-0.016642639 0.67799997 0.0095100794 6.7334661e-39 306 232
-0.015453878 0.67799997 0.0095100794 6.7334661e-39 307 232
-0.014265119 0.67799997 0.0095100794 6.4579526e-39 308 232
-0.013095647 0.67900002 0.009524107 6.5501483e-39 309 232
-0.011905133 0.67900002 0.009524107 6.4600784e-39 310 232
-0.010714619 0.67900002 0.009524107 6.4600784e-39 311 232
-0.0095381327 0.68000001 0.0095381327 6.0937874e-39 312 232
-0.0083704125 0.68199998 0.009566186 6.0015932e-39 313 232
-0.00717464 0.68199998 0.009566186 6.0019519e-39 314 232
-0.005978866 0.68199998 0.009566186 6.0941461e-39 315 232
-0.0047901068 0.68300003 0.0095802136 6.4611294e-39 316 232
-0.0035925799 0.68300003 0.0095802136 6.6455178e-39 317 232
-0.0023985601 0.68400002 0.0095942402 7.0139402e-39 318 232
-0.0012027866 0.68599999 0.0096222926 7.1983315e-39 319 232
0 0.68699998 0.0096363192 7.4713409e-39 320 232
0.0012062934 0.68800002 0.0096503468 8.3011015e-39 321 232
0.0024195998 0.69 0.0096783992 1.0784305e-38 322 232
0.0036293997 0.69 0.0096783992 1.0784305e-38 323 232
0.0048462129 0.69099998 0.0096924258 1.0140388e-38 324 232
0.0060577663 0.69099998 0.0096924258 9.4024647e-39 325 232
0.0072903596 0.69300002 0.0097204801 8.482686e-39 326 232
0.0085176928 0.69400001 0.0097345067 9.7734248e-39 327 232
-0.055892758 0.69300002 0.0085054198 1.5489942e-38 274 233
-0.054677699 0.69300002 0.0085054198 1.4567984e-38 275 233
-0.053462639 0.69300002 0.0085054198 1.2077997e-38 276 233
-0.05224758 0.69300002 0.0085054198 8.9437048e-39 277 233
-0.051032521 0.69300002 0.0085054198 8.3905464e-39 278 233
-0.049817458 0.69300002 0.0085054198 8.2983508e-39 279 233
-0.04846213 0.69099998 0.008480873 8.1150483e-39 280 233
-0.047182199 0.69 0.0084686 8.5760265e-39 281 233
-0.045772515 0.68699998 0.0084317802 9.6809321e-39 282 233
-0.044567976 0.68699998 0.0084317802 1.0510694e-38 283 233
-0.043300316 0.68599999 0.0084195063 1.0972737e-38 284 233
-0.041974798 0.68400002 0.0083949603 1.0788706e-38 285 233
-0.040715907 0.68300003 0.0083826864 1.0789057e-38 286 233
-0.039460517 0.68199998 0.0083704125 1.0789057e-38 287 233
-0.038264744 0.68199998 0.0083704125 1.0973444e-38 288 233
-0.036960267 0.68000001 0.0083458666 1.0605021e-38 289 233
-0.035767999 0.68000001 0.0083458666 1.0603572e-38 290 233
-0.034575731 0.68000001 0.0083458666 9.9582028e-39 291 233
-0.033334374 0.67900002 0.0083335936 9.0387661e-39 292 233
-0.032143861 0.67900002 0.0083335936 8.8543734e-39 293 233
-0.030953348 0.67900002 0.0083335936 9.0344655e-39 294 233
-0.029718997 0.67799997 0.0083213197 9.1266611e-39 295 233
-0.028530238 0.67799997 0.0083213197 8.9440705e-39 296 233
-0.027341479 0.67799997 0.0083213197 8.7593205e-39 297 233
-0.026152719 0.67799997 0.0083213197 8.8522252e-39 298 233
-0.024963958 0.67799997 0.0083213197 1.0142964e-38 299 233
-0.023705067 0.676 0.0082967728 9.5922902e-39 300 233
-0.022519812 0.676 0.0082967728 6.9186155e-39 301 233
-0.021397678 0.67799997 0.0083213197 6.9164491e-39 302 233
-0.020208918 0.67799997 0.0083213197 7.0090034e-39 303 233
-0.019020159 0.67799997 0.0083213197 6.9160749e-39 304 233
-0.0178314 0.67799997 0.0083213197 6.7320438e-39 305 233
-0.016642639 0.67799997 0.0083213197 6.9164253e-39 306 233
-0.015453878 0.67799997 0.0083213197 6.9164253e-39 307 233
-0.01428616 0.67900002 0.0083335936 6.365757e-39 308 233
-0.013114933 0.68000001 0.0083458666 6.4579526e-39 309 233
-0.011922667 0.68000001 0.0083458666 6.0923721e-39 310 233
-0.0107304 0.68000001 0.0083458666 6.0923721e-39 311 233
-0.009566186 0.68199998 0.0083704125 6.1856229e-39 312 233
-0.0083704125 0.68199998 0.0083704125 6.1856229e-39 313 233
-0.00717464 0.68199998 0.0083704125 5.9108339e-39 314 233
-0.0059876335 0.68300003 0.0083826864 5.9108339e-39 315 233
-0.0047901068 0.68300003 0.0083826864 6.5533236e-39 316 233
-0.00359784 0.68400002 0.0083949603 6.9221005e-39 317 233
-0.0024055731 0.68599999 0.0084195063 7.3809249e-39 318 233
-0.0012027866 0.68599999 0.0084195063 7.4731205e-39 319 233
0 0.68699998 0.0084317802 7.5621114e-39 320 233
0.0012062934 0.68800002 0.0084440531 8.8528502e-39 321 233
0.0024195998 0.69 0.0084686 1.0692485e-38 322 233
0.0036346598 0.69099998 0.008480873 1.0692485e-38 323 233
0.0048462129 0.69099998 0.008480873 1.0873298e-38 324 233
0.0060753003 0.69300002 0.0085054198 9.9517008e-39 325 233
0.0072903596 0.69300002 0.0085054198 6.6431104e-39 326 233
0.0085176928 0.69400001 0.0085176928 8.302273e-39 327 233
-0.056134716 0.69599998 0.0073219193 1.5490308e-38 274 234
-0.054756597 0.69400001 0.0073008798 1.4476516e-38 275 234
-0.053539783 0.69400001 0.0073008798 1.226311e-38 276 234
-0.05224758 0.69300002 0.0072903596 9.8663841e-39 277 234
-0.051032521 0.69300002 0.0072903596 9.2206616e-39 278 234
-0.049817458 0.69300002 0.0072903596 9.128466e-39 279 234
-0.048602402 0.69300002 0.0072903596 8.4859818e-39 280 234
-0.047250576 0.69099998 0.0072693196 8.4859818e-39 281 234
-0.045839146 0.68800002 0.0072377604 9.0359298e-39 282 234
-0.044567976 0.68699998 0.0072272392 8.7597017e-39 283 234
-0.043363437 0.68699998 0.0072272392 8.484907e-39 284 234
-0.041974798 0.68400002 0.0071956799 8.3005158e-39 285 234
-0.040775519 0.68400002 0.0071956799 8.4852574e-39 286 234
-0.039518382 0.68300003 0.0071851597 9.4994093e-39 287 234
-0.038264744 0.68199998 0.00717464 1.0051141e-38 288 234
-0.037068974 0.68199998 0.00717464 1.0143337e-38 289 234
-0.035767999 0.68000001 0.0071535995 1.0328804e-38 290 234
-0.034575731 0.68000001 0.0071535995 1.0512835e-38 291 234
-0.033383466 0.68000001 0.0071535995 9.5015575e-39 292 234
-0.032191198 0.68000001 0.0071535995 8.4877657e-39 293 234
-0.030953348 0.67900002 0.0071430802 8.8529539e-39 294 234
-0.029762832 0.67900002 0.0071430802 8.6682039e-39 295 234
-0.028572321 0.67900002 0.0071430802 8.9429985e-39 296 234
-0.027341479 0.67799997 0.0071325595 8.7586073e-39 297 234
-0.026152719 0.67799997 0.0071325595 8.851156e-39 298 234
-0.024963958 0.67799997 0.0071325595 9.4965254e-39 299 234
-0.023775198 0.67799997 0.0071325595 9.4990239e-39 300 234
-0.022586439 0.67799997 0.0071325595 7.1015774e-39 301 234
-0.021429239 0.67900002 0.0071430802 6.7338585e-39 302 234
-0.020238725 0.67900002 0.0071430802 6.7338585e-39 303 234
-0.019048214 0.67900002 0.0071430802 6.8246094e-39 304 234
-0.017857701 0.67900002 0.0071430802 6.7320536e-39 305 234
-0.016667187 0.67900002 0.0071430802 6.7327627e-39 306 234
-0.015476674 0.67900002 0.0071430802 6.7327627e-39 307 234
-0.014307199 0.68000001 0.0071535995 6.1817357e-39 308 234
-0.013114933 0.68000001 0.0071535995 5.9973444e-39 309 234
-0.011957732 0.68199998 0.00717464 6.0920162e-39 310 234
-0.010761959 0.68199998 0.00717464 6.0920162e-39 311 234
-0.009566186 0.68199998 0.00717464 5.9104751e-39 312 234
-0.0083704125 0.68199998 0.00717464 5.8182809e-39 313 234
-0.00717464 0.68199998 0.00717464 6.1856229e-39 314 234
-0.0059876335 0.68300003 0.0071851597 6.3696526e-39 315 234
-0.0047901068 0.68300003 0.0071851597 6.8291888e-39 316 234
-0.00359784 0.68400002 0.0071956799 7.1061359e-39 317 234
-0.0024055731 0.68599999 0.0072167199 7.656451e-39 318 234
-0.0012045399 0.68699998 0.0072272392 7.8408422e-39 319 234
0 0.68800002 0.0072377604 8.3908141e-39 320 234
0.0012062934 0.68800002 0.0072377604 9.4975217e-39 321 234
0.0024195998 0.69 0.0072587994 1.0600307e-38 322 234
0.0036346598 0.69099998 0.0072693196 1.0784698e-38 323 234
0.0048462129 0.69099998 0.0072693196 1.161016e-38 324 234
0.0060753003 0.69300002 0.0072903596 9.3056279e-39 325 234
0.0073008798 0.69400001 0.0073008798 4.2485562e-39 326 234
0.0085176928 0.69400001 0.0073008798 6.6456412e-39 327 234
-0.056134716 0.69599998 0.0061015999 1.5490311e-38 274 235
-0.054914396 0.69599998 0.0061015999 1.466055e-38 275 235
-0.053539783 0.69400001 0.0060840664 1.2263832e-38 276 235
-0.052322973 0.69400001 0.0060840664 9.9589427e-39 277 235
-0.051106159 0.69400001 0.0060840664 9.2213805e-39 278 235
-0.049817458 0.69300002 0.0060753003 9.1291848e-39 279 235
-0.048602402 0.69300002 0.0060753003 8.5781761e-39 280 235
-0.047250576 0.69099998 0.0060577663 8.5781761e-39 281 235
-0.045972396 0.69 0.0060489997 8.8526148e-39 282 235
-0.044632856 0.68800002 0.0060314666 9.4979842e-39 283 235
-0.043363437 0.68699998 0.0060226996 9.7760018e-39 284 235
-0.042097531 0.68599999 0.0060139326 9.315025e-39 285 235
-0.040894743 0.68599999 0.0060139326 9.4046955e-39 286 235
-0.03957624 0.68400002 0.0059964 9.5890868e-39 287 235
-0.038320854 0.68300003 0.0059876335 9.8645975e-39 288 235
-0.037068974 0.68199998 0.005978866 9.6805664e-39 289 235
-0.035873197 0.68199998 0.005978866 9.1288317e-39 290 235
-0.034677424 0.68199998 0.005978866 9.313223e-39 291 235
-0.033383466 0.68000001 0.0059613334 9.2203057e-39 292 235
-0.032191198 0.68000001 0.0059613334 8.9437174e-39 293 235
-0.030998932 0.68000001 0.0059613334 9.0341123e-39 294 235
-0.029762832 0.67900002 0.0059525664 9.1266667e-39 295 235
-0.028572321 0.67900002 0.0059525664 9.2188623e-39 296 235
-0.027381808 0.67900002 0.0059525664 9.0341123e-39 297 235
-0.026152719 0.67799997 0.0059437994 9.1266611e-39 298 235
-0.024963958 0.67799997 0.0059437994 1.0233009e-38 299 235
-0.023775198 0.67799997 0.0059437994 1.0601416e-38 300 235
-0.022586439 0.67799997 0.0059437994 8.0202967e-39 301 235
-0.021429239 0.67900002 0.0059525664 6.8260541e-39 302 235
-0.020238725 0.67900002 0.0059525664 6.8260541e-39 303 235
-0.019076265 0.68000001 0.0059613334 6.9171553e-39 304 235
-0.017883999 0.68000001 0.0059613334 6.7327627e-39 305 235
-0.016691733 0.68000001 0.0059613334 7.0082706e-39 306 235
-0.015499466 0.68000001 0.0059613334 6.9160749e-39 307 235
-0.014307199 0.68000001 0.0059613334 6.3654039e-39 308 235
-0.013114933 0.68000001 0.0059613334 6.3654039e-39 309 235
-0.011957732 0.68199998 0.005978866 6.0920162e-39 310 235
-0.010761959 0.68199998 0.005978866 6.0920162e-39 311 235
-0.009566186 0.68199998 0.005978866 6.0012344e-39 312 235
-0.0083704125 0.68199998 0.005978866 6.0012344e-39 313 235
-0.0071851597 0.68300003 0.0059876335 6.1849054e-39 314 235
-0.0059876335 0.68300003 0.0059876335 6.5536823e-39 315 235
-0.0047901068 0.68300003 0.0059876335 7.2883789e-39 316 235
-0.00359784 0.68400002 0.0059964 7.6568013e-39 317 235
-0.0024090798 0.68699998 0.0060226996 8.0227224e-39 318 235
-0.0012045399 0.68699998 0.0060226996 8.2067535e-39 319 235
0 0.68800002 0.0060314666 8.4837398e-39 320 235
0.0012062934 0.68800002 0.0060314666 9.4053359e-39 321 235
0.0024195998 0.69 0.0060489997 9.0315536e-39 322 235
0.0036346598 0.69099998 0.0060577663 9.3084992e-39 323 235
0.0048462129 0.69099998 0.0060577663 1.0323024e-38 324 235
0.0060753003 0.69300002 0.0060753003 8.8478938e-39 325 235
0.0073008798 0.69400001 0.0060840664 5.3444795e-39 326 235
0.0085422397 0.69599998 0.0061015999 7.9259571e-39 327 235
-0.056134716 0.69599998 0.0048812795 1.539704e-38 274 236
-0.054914396 0.69599998 0.0048812795 1.4659475e-38 275 236
-0.053694077 0.69599998 0.0048812795 1.2355309e-38 276 236
-0.052322973 0.69400001 0.0048672534 1.0142614e-38 277 236
-0.051106159 0.69400001 0.0048672534 9.12811e-39 278 236
-0.049889345 0.69400001 0.0048672534 9.12811e-39 279 236
-0.048602402 0.69300002 0.00486024 8.7607709e-39 280 236
-0.047250576 0.69099998 0.0048462129 8.7607709e-39 281 236
-0.045972396 0.69 0.0048391996 9.0362802e-39 282 236
-0.0447626 0.69 0.0048391996 1.0142986e-38 283 236
-0.043426562 0.68800002 0.0048251734 1.1250403e-38 284 236
-0.042158898 0.68699998 0.0048181596 1.1342599e-38 285 236
-0.040894743 0.68599999 0.0048111463 1.1615943e-38 286 236
-0.03957624 0.68400002 0.0047971201 1.1062769e-38 287 236
-0.038320854 0.68300003 0.0047901068 1.0327005e-38 288 236
-0.037123326 0.68300003 0.0047901068 9.6816355e-39 289 236
-0.035873197 0.68199998 0.004783093 7.8406124e-39 290 236
-0.034677424 0.68199998 0.004783093 7.1030474e-39 291 236
-0.03348165 0.68199998 0.004783093 8.2979976e-39 292 236
-0.032285877 0.68199998 0.004783093 8.5745859e-39 293 236
-0.030998932 0.68000001 0.0047690663 8.9415636e-39 294 236
-0.029806666 0.68000001 0.0047690663 9.1263136e-39 295 236
-0.028614398 0.68000001 0.0047690663 8.9437146e-39 296 236
-0.027422134 0.68000001 0.0047690663 8.9437146e-39 297 236
-0.026191294 0.67900002 0.0047620535 9.0366165e-39 298 236
-0.025000781 0.67900002 0.0047620535 1.0142964e-38 299 236
-0.023810266 0.67900002 0.0047620535 1.1062757e-38 300 236
-0.022619752 0.67900002 0.0047620535 8.2043321e-39 301 236
-0.0214608 0.68000001 0.0047690663 7.0086503e-39 302 236
-0.020268533 0.68000001 0.0047690663 7.2848771e-39 303 236
-0.019076265 0.68000001 0.0047690663 7.0093482e-39 304 236
-0.017883999 0.68000001 0.0047690663 6.9171525e-39 305 236
-0.016691733 0.68000001 0.0047690663 7.0086237e-39 306 236
-0.015545053 0.68199998 0.004783093 6.9164281e-39 307 236
-0.01434928 0.68199998 0.004783093 6.3654039e-39 308 236
-0.013153506 0.68199998 0.004783093 6.3654039e-39 309 236
-0.011957732 0.68199998 0.004783093 6.1834985e-39 310 236
-0.010761959 0.68199998 0.004783093 6.1834985e-39 311 236
-0.009566186 0.68199998 0.004783093 6.3678646e-39 312 236
-0.0083826864 0.68300003 0.0047901068 6.2756675e-39 313 236
-0.0071851597 0.68300003 0.0047901068 6.5511768e-39 314 236
-0.0059876335 0.68300003 0.0047901068 6.9203181e-39 315 236
-0.0047971201 0.68400002 0.0047971201 7.5635337e-39 316 236
-0.00360836 0.68599999 0.0048111463 7.7482837e-39 317 236
-0.0024090798 0.68699998 0.0048181596 8.0223721e-39 318 236
-0.0012045399 0.68699998 0.0048181596 8.2986002e-39 319 236
0 0.68800002 0.0048251734 8.6663486e-39 320 236
0.0012062934 0.68800002 0.0048251734 7.9287821e-39 321 236
0.0024195998 0.69 0.0048391996 6.8163627e-39 322 236
0.0036346598 0.69099998 0.0048462129 7.5539278e-39 323 236
0.00486024 0.69300002 0.00486024 8.8497071e-39 324 236
0.0060753003 0.69300002 0.00486024 8.0195877e-39 325 236
0.0073008798 0.69400001 0.0048672534 4.7041477e-39 326 236
0.0085422397 0.69599998 0.0048812795 6.3633089e-39 327 236
-0.054993302 0.69700003 0.00366622 1.4660194e-38 275 237
-0.053694077 0.69599998 0.0036609597 1.2815568e-38 276 237
-0.052473757 0.69599998 0.0036609597 1.0510317e-38 277 237
-0.051253434 0.69599998 0.0036609597 9.5883679e-39 278 237
-0.049889345 0.69400001 0.0036504399 9.4039767e-39 279 237
-0.048602402 0.69300002 0.0036451798 8.7607709e-39 280 237
-0.047387339 0.69300002 0.0036451798 8.7607709e-39 281 237
-0.046039023 0.69099998 0.0036346598 8.8529707e-39 282 237
-0.0447626 0.69 0.0036293997 9.3135887e-39 283 237
-0.043426562 0.68800002 0.0036188802 9.9596672e-39 284 237
-0.042158898 0.68699998 0.0036136196 1.0051863e-38 285 237
-0.040894743 0.68599999 0.00360836 1.0787983e-38 286 237
-0.039691959 0.68599999 0.00360836 1.0787983e-38 287 237
-0.038376961 0.68400002 0.00359784 1.0238406e-38 288 237
-0.037123326 0.68300003 0.0035925799 9.5930371e-39 289 237
-0.035925802 0.68300003 0.0035925799 8.3923457e-39 290 237
-0.034677424 0.68199998 0.00358732 7.562585e-39 291 237
-0.03348165 0.68199998 0.00358732 8.1154043e-39 292 237
-0.032285877 0.68199998 0.00358732 8.2997969e-39 293 237
-0.030998932 0.68000001 0.0035767998 8.5749391e-39 294 237
-0.029806666 0.68000001 0.0035767998 8.8511658e-39 295 237
-0.028614398 0.68000001 0.0035767998 8.6689284e-39 296 237
-0.027422134 0.68000001 0.0035767998 8.3923429e-39 297 237
-0.026229866 0.68000001 0.0035767998 8.7607526e-39 298 237
-0.025037598 0.68000001 0.0035767998 9.8671002e-39 299 237
-0.023845334 0.68000001 0.0035767998 1.1154599e-38 300 237
-0.022653066 0.68000001 0.0035767998 8.2965347e-39 301 237
-0.0214608 0.68000001 0.0035767998 7.0086629e-39 302 237
-0.020268533 0.68000001 0.0035767998 7.28561e-39 303 237
-0.019076265 0.68000001 0.0035767998 6.9175211e-39 304 237
-0.017883999 0.68000001 0.0035767998 6.6412943e-39 305 237
-0.016740825 0.68199998 0.00358732 6.8249555e-39 306 237
-0.015545053 0.68199998 0.00358732 6.7327599e-39 307 237
-0.01434928 0.68199998 0.00358732 6.5483658e-39 308 237
-0.013153506 0.68199998 0.00358732 6.5483658e-39 309 237
-0.011957732 0.68199998 0.00358732 6.5501483e-39 310 237
-0.010761959 0.68199998 0.00358732 6.5501483e-39 311 237
-0.009566186 0.68199998 0.00358732 7.1929771e-39 312 237
-0.0083826864 0.68300003 0.0035925799 6.6398033e-39 313 237
-0.0071851597 0.68300003 0.0035925799 6.8256211e-39 314 237
-0.0059876335 0.68300003 0.0035925799 7.3787949e-39 315 237
-0.0047971201 0.68400002 0.00359784 7.6564538e-39 316 237
-0.00360836 0.68599999 0.00360836 7.4724227e-39 317 237
-0.0024090798 0.68699998 0.0036136196 7.8376249e-39 318 237
-0.0012045399 0.68699998 0.0036136196 8.298603e-39 319 237
0 0.68800002 0.0036188802 8.0224267e-39 320 237
0.0012062934 0.68800002 0.0036188802 7.2848617e-39 321 237
0.0024125867 0.68800002 0.0036188802 7.0943916e-39 322 237
0.0036293997 0.69 0.0036293997 7.4635328e-39 323 237
0.00486024 0.69300002 0.0036451798 7.92632e-39 324 237
0.0060753003 0.69300002 0.0036451798 6.7281356e-39 325 237
-0.054993302 0.69700003 0.0024441467 1.4752027e-38 275 238
-0.053694077 0.69599998 0.0024406398 1.2724091e-38 276 238
-0.052473757 0.69599998 0.0024406398 1.0327005e-38 277 238
-0.051106159 0.69400001 0.0024336267 9.5883679e-39 278 238
-0.049889345 0.69400001 0.0024336267 9.4961723e-39 279 238
-0.048602402 0.69300002 0.00243012 8.8522476e-39 280 238
-0.047387339 0.69300002 0.00243012 8.8522476e-39 281 238
-0.046039023 0.69099998 0.0024231065 8.8529707e-39 282 238
-0.0447626 0.69 0.0024195998 9.037362e-39 283 238
-0.043426562 0.68800002 0.0024125867 9.3135887e-39 284 238
-0.042220265 0.68800002 0.0024125867 8.9451663e-39 285 238
-0.040954359 0.68699998 0.0024090798 9.4064934e-39 286 238
-0.039691959 0.68599999 0.0024055731 1.0236255e-38 287 238
-0.038376961 0.68400002 0.0023985601 1.0512835e-38 288 238
-0.037123326 0.68300003 0.0023950534 1.0144412e-38 289 238
-0.035925802 0.68300003 0.0023950534 8.5763796e-39 290 238
-0.034728274 0.68300003 0.0023950534 7.7469791e-39 291 238
-0.03348165 0.68199998 0.0023915465 8.024289e-39 292 238
-0.032285877 0.68199998 0.0023915465 8.2083202e-39 293 238
-0.031090107 0.68199998 0.0023915465 8.7586073e-39 294 238
-0.029806666 0.68000001 0.0023845332 9.1270296e-39 295 238
-0.028614398 0.68000001 0.0023845332 8.5774558e-39 296 238
-0.027422134 0.68000001 0.0023845332 8.2086733e-39 297 238
-0.026229866 0.68000001 0.0023845332 8.3941309e-39 298 238
-0.025037598 0.68000001 0.0023845332 9.5008386e-39 299 238
-0.023845334 0.68000001 0.0023845332 1.0326639e-38 300 238
-0.022653066 0.68000001 0.0023845332 8.0213897e-39 301 238
-0.021523919 0.68199998 0.0023915465 7.1937745e-39 302 238
-0.020328145 0.68199998 0.0023915465 7.3785245e-39 303 238
-0.019132372 0.68199998 0.0023915465 7.8362334e-39 304 238
-0.017936599 0.68199998 0.0023915465 7.5600066e-39 305 238
-0.016740825 0.68199998 0.0023915465 7.5592751e-39 306 238
-0.015545053 0.68199998 0.0023915465 7.5592751e-39 307 238
-0.01434928 0.68199998 0.0023915465 6.7323941e-39 308 238
-0.013153506 0.68199998 0.0023915465 6.9164253e-39 309 238
-0.011957732 0.68199998 0.0023915465 7.1933667e-39 310 238
-0.010761959 0.68199998 0.0023915465 7.4703123e-39 311 238
-0.0095802136 0.68300003 0.0023950534 7.9287639e-39 312 238
-0.0083826864 0.68300003 0.0023950534 6.914612e-39 313 238
-0.0071851597 0.68300003 0.0023950534 6.274262e-39 314 238
-0.0059964 0.68400002 0.0023985601 7.0118271e-39 315 238
-0.0047971201 0.68400002 0.0023985601 7.3809431e-39 316 238
-0.0036136196 0.68699998 0.0024090798 7.2887475e-39 317 238
-0.0024090798 0.68699998 0.0024090798 7.3773656e-39 318 238
-0.0012045399 0.68699998 0.0024090798 8.022735e-39 319 238
0 0.68800002 0.0024125867 8.4830489e-39 320 238
0.0012062934 0.68800002 0.0024125867 7.6532883e-39 321 238
0.0024125867 0.68800002 0.0024125867 6.6362903e-39 322 238
0.0036293997 0.69 0.0024195998 7.0969083e-39 323 238
0.00486024 0.69300002 0.00243012 6.9121765e-39 324 238
-0.054993302 0.69700003 0.0012220733 1.4567279e-38 275 239
-0.053694077 0.69599998 0.0012203199 1.2355309e-38 276 239
-0.052473757 0.69599998 0.0012203199 9.7738326e-39 277 239
-0.051106159 0.69400001 0.0012168133 8.5763768e-39 278 239
-0.049889345 0.69400001 0.0012168133 8.6685724e-39 279 239
-0.048602402 0.69300002 0.00121506 8.9433671e-39 280 239
-0.047387339 0.69300002 0.00121506 9.1277597e-39 281 239
-0.046039023 0.69099998 0.0012115532 8.8536868e-39 282 239
-0.0447626 0.69 0.0012097999 9.038078e-39 283 239
-0.043426562 0.68800002 0.0012062934 9.2231811e-39 284 239
-0.042220265 0.68800002 0.0012062934 9.1306268e-39 285 239
-0.040954359 0.68699998 0.0012045399 8.6717996e-39 286 239
-0.039691959 0.68599999 0.0012027866 9.7781486e-39 287 239
-0.03848917 0.68599999 0.0012027866 1.1248238e-38 288 239
-0.037177678 0.68400002 0.00119928 1.0695066e-38 289 239
-0.035978399 0.68400002 0.00119928 8.2079516e-39 290 239
-0.034728274 0.68300003 0.0011975267 6.9172128e-39 291 239
-0.033530746 0.68300003 0.0011975267 8.023203e-39 292 239
-0.032285877 0.68199998 0.0011957732 8.5763768e-39 293 239
-0.031090107 0.68199998 0.0011957732 8.851519e-39 294 239
-0.029894331 0.68199998 0.0011957732 8.851519e-39 295 239
-0.02869856 0.68199998 0.0011957732 8.4852602e-39 296 239
-0.027422134 0.68000001 0.0011922666 8.0242834e-39 297 239
-0.026229866 0.68000001 0.0011922666 8.4838154e-39 298 239
-0.025037598 0.68000001 0.0011922666 9.4057717e-39 299 239
-0.023845334 0.68000001 0.0011922666 1.0693267e-38 300 239
-0.022653066 0.68000001 0.0011922666 7.8352034e-39 301 239
-0.021523919 0.68199998 0.0011957732 6.9186351e-39 302 239
-0.020328145 0.68199998 0.0011957732 7.5640045e-39 303 239
-0.019132372 0.68199998 0.0011957732 7.7473e-39 304 239
-0.017936599 0.68199998 0.0011957732 7.6551043e-39 305 239
-0.016740825 0.68199998 0.0011957732 8.1135461e-39 306 239
-0.015545053 0.68199998 0.0011957732 7.744765e-39 307 239
-0.01434928 0.68199998 0.0011957732 6.7349277e-39 308 239
-0.013153506 0.68199998 0.0011957732 6.7349277e-39 309 239
-0.011975267 0.68300003 0.0011975267 7.5632464e-39 310 239
-0.01077774 0.68300003 0.0011975267 7.655442e-39 311 239
-0.0095802136 0.68300003 0.0011975267 7.7461929e-39 312 239
-0.0083826864 0.68300003 0.0011975267 6.0866716e-39 313 239
-0.0071851597 0.68300003 0.0011975267 6.7313095e-39 314 239
-0.0059964 0.68400002 0.00119928 7.5614289e-39 315 239
-0.0048111463 0.68599999 0.0012027866 7.2887671e-39 316 239
-0.0036136196 0.68699998 0.0012045399 7.0121802e-39 317 239
-0.0024090798 0.68699998 0.0012045399 7.2844539e-39 318 239
-0.0012062934 0.68800002 0.0012062934 8.20605e-39 319 239
0 0.68800002 0.0012062934 1.0784701e-38 320 239
0.0012062934 0.68800002 0.0012062934 9.3095712e-39 321 239
0.0024125867 0.68800002 0.0012062934 6.2671546e-39 322 239
0.0036293997 0.69 0.0012097999 6.7281328e-39 323 239
-0.0550722 0.69800001 -0 1.4475082e-38 275 240
-0.053848371 0.69800001 -0 1.2539701e-38 276 240
-0.052549154 0.69700003 -0 9.8660282e-39 277 240
-0.051327083 0.69700003 -0 9.1255947e-39 278 240
-0.050033119 0.69599998 -0 9.4018215e-39 279 240
-0.048672531 0.69400001 -0 8.5753076e-39 280 240
-0.047387339 0.69300002 -0 8.7596989e-39 281 240
-0.046039023 0.69099998 -0 8.6693025e-39 282 240
-0.044827472 0.69099998 -0 9.0380836e-39 283 240
-0.043552797 0.69 -0 9.7741983e-39 284 240
-0.042220265 0.68800002 -0 1.0051144e-38 285 240
-0.040954359 0.68699998 -0 1.0236606e-38 286 240
-0.039691959 0.68599999 -0 1.0605387e-38 287 240
-0.03848917 0.68599999 -0 1.1156037e-38 288 240
-0.037177678 0.68400002 -0 1.0787615e-38 289 240
-0.035978399 0.68400002 -0 9.7723836e-39 290 240
-0.034728274 0.68300003 -0 8.5738405e-39 291 240
-0.033530746 0.68300003 -0 9.1277359e-39 292 240
-0.032333218 0.68300003 -0 9.4965198e-39 293 240
-0.031090107 0.68199998 -0 9.1266611e-39 294 240
-0.029894331 0.68199998 -0 9.3114111e-39 295 240
-0.02869856 0.68199998 -0 8.5763768e-39 296 240
-0.027502786 0.68199998 -0 8.1153987e-39 297 240
-0.026229866 0.68000001 -0 8.1157546e-39 298 240
-0.025037598 0.68000001 -0 9.2217434e-39 299 240
-0.023845334 0.68000001 -0 1.0232642e-38 300 240
-0.022653066 0.68000001 -0 9.1262954e-39 301 240
-0.02155548 0.68300003 -0 8.1139413e-39 302 240
-0.020357953 0.68300003 -0 8.943702e-39 303 240
-0.019132372 0.68199998 -0 9.3103167e-39 304 240
-0.017936599 0.68199998 -0 9.3103167e-39 305 240
-0.016765373 0.68300003 -0 9.4943324e-39 306 240
-0.015567848 0.68300003 -0 9.3103013e-39 307 240
-0.014370319 0.68300003 -0 9.0337074e-39 308 240
-0.013172794 0.68300003 -0 8.8489574e-39 309 240
-0.011975267 0.68300003 -0 9.2173728e-39 310 240
-0.01077774 0.68300003 -0 9.3095684e-39 311 240
-0.0095802136 0.68300003 -0 9.9517008e-39 312 240
-0.0083949603 0.68400002 -0 8.2918207e-39 313 240
-0.0071956799 0.68400002 -0 6.8227919e-39 314 240
-0.0059964 0.68400002 -0 8.7589001e-39 315 240
-0.0048111463 0.68599999 -0 9.3091452e-39 316 240
-0.0036136196 0.68699998 -0 8.4790258e-39 317 240
-0.0024125867 0.68800002 -0 6.917814e-39 318 240
-0.0012062934 0.68800002 -0 8.1163571e-39 319 240
0 0.68800002 -0 1.0784701e-38 320 240
0.0012097999 0.69 -0 9.8623862e-39 321 240
0.0024195998 0.69 -0 6.5426681e-39 322 240
0.0036346598 0.69099998 -0 6.7270608e-39 323 240
-0.055308893 0.70099998 -0.0012290865 1.4107729e-38 275 241
-0.053848371 0.69800001 -0.0012238267 1.2816281e-38 276 241
-0.052624546 0.69800001 -0.0012238267 1.0235162e-38 277 241
-0.051327083 0.69700003 -0.0012220733 8.4827434e-39 278 241
-0.050033119 0.69599998 -0.0012203199 8.2983508e-39 279 241
-0.048672531 0.69400001 -0.0012168133 8.5731524e-39 280 241
-0.047387339 0.69300002 -0.00121506 8.7579038e-39 281 241
-0.04617228 0.69300002 -0.00121506 8.9422923e-39 282 241
-0.044827472 0.69099998 -0.0012115532 9.4032704e-39 283 241
-0.043552797 0.69 -0.0012097999 9.9589483e-39 284 241
-0.042220265 0.68800002 -0.0012062934 1.0511763e-38 285 241
-0.040954359 0.68699998 -0.0012045399 1.1248238e-38 286 241
-0.039749816 0.68699998 -0.0012045399 1.1155684e-38 287 241
-0.03848917 0.68599999 -0.0012027866 1.0972009e-38 288 241
-0.037286382 0.68599999 -0.0012027866 1.0972009e-38 289 241
-0.036083598 0.68599999 -0.0012027866 1.1247514e-38 290 241
-0.034880809 0.68599999 -0.0012027866 1.0878731e-38 291 241
-0.033579841 0.68400002 -0.00119928 1.0325555e-38 292 241
-0.032333218 0.68300003 -0.0011975267 9.7727396e-39 293 241
-0.031135695 0.68300003 -0.0011975267 9.0366193e-39 294 241
-0.029894331 0.68199998 -0.0011957732 8.9444236e-39 295 241
-0.02869856 0.68199998 -0.0011957732 8.6682067e-39 296 241
-0.027502786 0.68199998 -0.0011957732 8.5760111e-39 297 241
-0.026307013 0.68199998 -0.0011957732 8.6682039e-39 298 241
-0.025111238 0.68199998 -0.0011957732 9.4061277e-39 299 241
-0.023915464 0.68199998 -0.0011957732 1.0328071e-38 300 241
-0.022719691 0.68199998 -0.0011957732 1.0051845e-38 301 241
-0.02155548 0.68300003 -0.0011975267 1.0601772e-38 302 241
-0.020357953 0.68300003 -0.0011975267 1.041774e-38 303 241
-0.019132372 0.68199998 -0.0011957732 9.9582e-39 304 241
-0.017936599 0.68199998 -0.0011957732 1.0142593e-38 305 241
-0.016765373 0.68300003 -0.0011975267 1.1060589e-38 306 241
-0.015567848 0.68300003 -0.0011975267 1.1336816e-38 307 241
-0.014370319 0.68300003 -0.0011975267 1.1428648e-38 308 241
-0.013172794 0.68300003 -0.0011975267 1.0783279e-38 309 241
-0.011975267 0.68300003 -0.0011975267 1.0321939e-38 310 241
-0.01077774 0.68300003 -0.0011975267 1.0783276e-38 311 241
-0.0095802136 0.68300003 -0.0011975267 1.1517967e-38 312 241
-0.0083949603 0.68400002 -0.00119928 9.0286851e-39 313 241
-0.0071956799 0.68400002 -0.00119928 8.386187e-39 314 241
-0.0060139326 0.68599999 -0.0012027866 1.0691436e-38 315 241
-0.0048111463 0.68599999 -0.0012027866 1.0873632e-38 316 241
-0.0036136196 0.68699998 -0.0012045399 9.6754488e-39 317 241
-0.0024125867 0.68800002 -0.0012062934 8.1145845e-39 318 241
-0.0012062934 0.68800002 -0.0012062934 8.6677569e-39 319 241
0 0.69 -0.0012097999 1.0508837e-38 320 241
0.0012097999 0.69 -0.0012097999 9.7712724e-39 321 241
0.0024195998 0.69 -0.0012097999 6.7259832e-39 322 241
0.0036451798 0.69300002 -0.00121506 6.9103759e-39 323 241
-0.054079808 0.70099998 -0.0024581731 1.2816281e-38 276 242
-0.052624546 0.69800001 -0.0024476533 1.0419554e-38 277 242
-0.051400717 0.69800001 -0.0024476533 8.6664116e-39 278 242
-0.050105009 0.69700003 -0.0024441467 8.5738559e-39 279 242
-0.048672531 0.69400001 -0.0024336267 8.4823903e-39 280 242
-0.047455717 0.69400001 -0.0024336267 8.7589758e-39 281 242
-0.04617228 0.69300002 -0.00243012 8.7596989e-39 282 242
-0.044827472 0.69099998 -0.0024231065 9.0362858e-39 283 242
-0.043552797 0.69 -0.0024195998 9.0377151e-39 284 242
-0.042220265 0.68800002 -0.0024125867 9.5908889e-39 285 242
-0.041013971 0.68800002 -0.0024125867 1.0419921e-38 286 242
-0.039749816 0.68699998 -0.0024090798 1.0604312e-38 287 242
-0.03848917 0.68599999 -0.0024055731 1.0697217e-38 288 242
-0.037286382 0.68599999 -0.0024055731 1.0789412e-38 289 242
-0.036083598 0.68599999 -0.0024055731 1.1340783e-38 290 242
-0.034880809 0.68599999 -0.0024055731 1.0787968e-38 291 242
-0.033579841 0.68400002 -0.0023985601 1.0234794e-38 292 242
-0.032380559 0.68400002 -0.0023985601 9.6816201e-39 293 242
-0.031135695 0.68300003 -0.0023950534 9.2192127e-39 294 242
-0.029938167 0.68300003 -0.0023950534 9.127017e-39 295 242
-0.028740639 0.68300003 -0.0023950534 8.576374e-39 296 242
-0.027502786 0.68199998 -0.0023915465 8.3923429e-39 297 242
-0.026307013 0.68199998 -0.0023915465 8.5760111e-39 298 242
-0.025111238 0.68199998 -0.0023915465 9.4057717e-39 299 242
-0.023915464 0.68199998 -0.0023915465 1.0052201e-38 300 242
-0.022719691 0.68199998 -0.0023915465 1.0144396e-38 301 242
-0.02155548 0.68300003 -0.0023950534 1.0878712e-38 302 242
-0.020357953 0.68300003 -0.0023950534 1.0786516e-38 303 242
-0.019160427 0.68300003 -0.0023950534 1.0785797e-38 304 242
-0.017962901 0.68300003 -0.0023950534 1.0877993e-38 305 242
-0.016765373 0.68300003 -0.0023950534 1.1061308e-38 306 242
-0.015567848 0.68300003 -0.0023950534 1.1061308e-38 307 242
-0.014370319 0.68300003 -0.0023950534 1.124462e-38 308 242
-0.013172794 0.68300003 -0.0023950534 1.0876198e-38 309 242
-0.011975267 0.68300003 -0.0023950534 1.041414e-38 310 242
-0.01077774 0.68300003 -0.0023950534 1.0967314e-38 311 242
-0.0095942402 0.68400002 -0.0023985601 1.1336102e-38 312 242
-0.0084195063 0.68599999 -0.0024055731 8.8468204e-39 313 242
-0.0072167199 0.68599999 -0.0024055731 8.29472e-39 314 242
-0.0060139326 0.68599999 -0.0024055731 1.0415219e-38 315 242
-0.0048181596 0.68699998 -0.0024090798 1.0874728e-38 316 242
-0.0036188802 0.68800002 -0.0024125867 1.0137163e-38 317 242
-0.0024125867 0.68800002 -0.0024125867 9.7698052e-39 318 242
-0.0012097999 0.69 -0.0024195998 9.862361e-39 319 242
0 0.69 -0.0024195998 1.0324093e-38 320 242
0.0012097999 0.69 -0.0024195998 9.586528e-39 321 242
0.0024231065 0.69099998 -0.0024231065 5.9891426e-39 322 242
