# .PCD v.7 - Point Cloud Data file format
FIELDS x y z rgb imX imY
SIZE 4 4 4 4 4 4
TYPE F F F F F F
COUNT 1 1 1 1 1 1
WIDTH 842
HEIGHT 1
VIEWPOINT 0 0 0 1 0 0 0
POINTS 842
DATA ascii
-0.0060139326 0.68599999 0.02886688 7.3820389e-39 315 216
-0.0048111463 0.68599999 0.02886688 8.0245343e-39 316 216
-0.0036136196 0.68699998 0.028908957 8.3011197e-39 317 216
-0.0024090798 0.68699998 0.028908957 8.4851453e-39 318 216
-0.0012062934 0.68800002 0.028951041 8.4851453e-39 319 216
0 0.69 0.029035198 8.3014673e-39 320 216
0.0012115532 0.69099998 0.029077278 8.1174361e-39 321 216
0.00243012 0.69300002 0.029161438 8.576615e-39 322 216
0.0036451798 0.69300002 0.029161438 8.6688107e-39 323 216
0.0048672534 0.69400001 0.029203519 8.9443059e-39 324 216
0.0061015999 0.69599998 0.029287677 8.8521103e-39 325 216
0.0073219193 0.69599998 0.029287677 9.0354071e-39 326 216
0.0085176928 0.69400001 0.029203519 8.3900377e-39 327 216
0.0097345067 0.69400001 0.029203519 8.8532215e-39 328 216
-0.051621638 0.70099998 0.028268991 9.3160494e-39 278 217
-0.050176892 0.69800001 0.028148014 7.1037144e-39 279 217
-0.048953064 0.69800001 0.028148014 5.3555483e-39 280 217
-0.047660861 0.69700003 0.028107686 5.8165265e-39 281 217
-0.046372157 0.69599998 0.028067358 5.6349813e-39 282 217
-0.045022093 0.69400001 0.027986705 5.7275356e-39 283 217
-0.043742158 0.69300002 0.027946379 5.3587573e-39 284 217
-0.042404365 0.69099998 0.027865725 4.8055835e-39 285 217
-0.041192811 0.69099998 0.027865725 4.7116012e-39 286 217
-0.0399234 0.69 0.027825398 4.1584275e-39 287 217
-0.038545277 0.68699998 0.027704418 3.9751152e-39 288 217
-0.037340738 0.68699998 0.027704418 4.528289e-39 289 217
-0.036083598 0.68599999 0.027664091 4.9863903e-39 290 217
-0.034880809 0.68599999 0.027664091 4.9863903e-39 291 217
-0.033678025 0.68599999 0.027664091 4.7105292e-39 292 217
-0.032475237 0.68599999 0.027664091 4.7105292e-39 293 217
-0.031272452 0.68599999 0.027664091 4.8952764e-39 294 217
-0.029982001 0.68400002 0.027583439 5.2637002e-39 295 217
-0.02878272 0.68400002 0.027583439 5.1740115e-39 296 217
-0.027502786 0.68199998 0.027502786 5.1740115e-39 297 217
-0.026307013 0.68199998 0.027502786 5.1732927e-39 298 217
-0.025111238 0.68199998 0.027502786 5.0807383e-39 299 217
-0.023915464 0.68199998 0.027502786 5.1740059e-39 300 217
-0.022719691 0.68199998 0.027502786 5.1740059e-39 301 217
-0.02155548 0.68300003 0.027543113 4.8034311e-39 302 217
-0.020357953 0.68300003 0.027543113 4.5264855e-39 303 217
-0.019160427 0.68300003 0.027543113 4.7076594e-39 304 217
-0.017962901 0.68300003 0.027543113 4.7076594e-39 305 217
-0.016765373 0.68300003 0.027543113 4.8931282e-39 306 217
-0.015567848 0.68300003 0.027543113 4.9853239e-39 307 217
-0.014370319 0.68300003 0.027543113 5.2615352e-39 308 217
-0.013172794 0.68300003 0.027543113 5.3537308e-39 309 217
-0.011975267 0.68300003 0.027543113 5.9058116e-39 310 217
-0.01077774 0.68300003 0.027543113 6.1823971e-39 311 217
-0.0095942402 0.68400002 0.027583439 6.5522586e-39 312 217
-0.0083949603 0.68400002 0.027583439 7.1054324e-39 313 217
-0.0071956799 0.68400002 0.027583439 7.2894761e-39 314 217
-0.0060139326 0.68599999 0.027664091 7.5657043e-39 315 217
-0.0048111463 0.68599999 0.027664091 8.2074864e-39 316 217
-0.0036136196 0.68699998 0.027704418 8.3915175e-39 317 217
-0.0024090798 0.68699998 0.027704418 8.8510537e-39 318 217
-0.0012062934 0.68800002 0.027744746 8.8510537e-39 319 217
0 0.69 0.027825398 9.0350722e-39 320 217
0.0012115532 0.69099998 0.027865725 9.0350722e-39 321 217
0.00243012 0.69300002 0.027946379 9.4027631e-39 322 217
0.0036504399 0.69400001 0.027986705 9.5871558e-39 323 217
0.0048672534 0.69400001 0.027986705 9.4953091e-39 324 217
0.0061015999 0.69599998 0.028067358 9.3109178e-39 325 217
0.0073219193 0.69599998 0.028067358 9.3105493e-39 326 217
0.0085176928 0.69400001 0.027986705 8.5729871e-39 327 217
0.0097345067 0.69400001 0.027986705 8.6706253e-39 328 217
-0.053001512 0.70300001 0.027117053 1.4199925e-38 277 218
-0.051621638 0.70099998 0.027039904 8.5806381e-39 278 218
-0.050320663 0.69999999 0.027001332 5.4459881e-39 279 218
-0.048953064 0.69800001 0.026924185 4.9867672e-39 280 218
-0.047660861 0.69700003 0.026885614 6.4618959e-39 281 218
-0.046372157 0.69599998 0.026847038 6.5576662e-39 282 218
-0.045022093 0.69400001 0.026769891 6.6498619e-39 283 218
-0.043742158 0.69300002 0.02673132 6.2821541e-39 284 218
-0.042404365 0.69099998 0.026654173 7.0197192e-39 285 218
-0.041192811 0.69099998 0.026654173 7.7526025e-39 286 218
-0.039807681 0.68800002 0.026538454 6.6458948e-39 287 218
-0.038545277 0.68699998 0.026499879 5.5442178e-39 288 218
-0.037340738 0.68699998 0.026499879 5.5442178e-39 289 218
-0.036083598 0.68599999 0.026461305 5.4513061e-39 290 218
-0.034880809 0.68599999 0.026461305 5.174359e-39 291 218
-0.033678025 0.68599999 0.026461305 4.5315106e-39 292 218
-0.032475237 0.68599999 0.026461305 4.5315106e-39 293 218
-0.031272452 0.68599999 0.026461305 4.8070213e-39 294 218
-0.029982001 0.68400002 0.02638416 4.8992169e-39 295 218
-0.02878272 0.68400002 0.02638416 5.0825362e-39 296 218
-0.027543113 0.68300003 0.026345588 5.0825362e-39 297 218
-0.026345588 0.68300003 0.026345588 5.1736556e-39 298 218
-0.02514806 0.68300003 0.026345588 5.08146e-39 299 218
-0.023915464 0.68199998 0.026307013 5.173287e-39 300 218
-0.022719691 0.68199998 0.026307013 5.173287e-39 301 218
-0.02155548 0.68300003 0.026345588 4.5279204e-39 302 218
-0.020357953 0.68300003 0.026345588 3.7903666e-39 303 218
-0.019160427 0.68300003 0.026345588 4.2481092e-39 304 218
-0.0179892 0.68400002 0.02638416 4.7087286e-39 305 218
-0.016789921 0.68400002 0.02638416 4.8934758e-39 306 218
-0.015567848 0.68300003 0.026345588 5.077867e-39 307 218
-0.014370319 0.68300003 0.026345588 5.1707689e-39 308 218
-0.013172794 0.68300003 0.026345588 5.5395514e-39 309 218
-0.011975267 0.68300003 0.026345588 5.9083227e-39 310 218
-0.01077774 0.68300003 0.026345588 6.1849054e-39 311 218
-0.0095942402 0.68400002 0.02638416 7.1039807e-39 312 218
-0.0083949603 0.68400002 0.02638416 7.3809277e-39 313 218
-0.0071956799 0.68400002 0.02638416 7.7486466e-39 314 218
-0.0060139326 0.68599999 0.026461305 7.8408422e-39 315 218
-0.0048111463 0.68599999 0.026461305 8.2993023e-39 316 218
-0.0036136196 0.68699998 0.026499879 8.3914993e-39 317 218
-0.0024125867 0.68800002 0.026538454 9.0343323e-39 318 218
-0.0012062934 0.68800002 0.026538454 9.2187222e-39 319 218
0 0.69 0.026615599 9.4942119e-39 320 218
0.0012115532 0.69099998 0.026654173 9.5867662e-39 321 218
0.00243012 0.69300002 0.02673132 9.7700771e-39 322 218
0.0036504399 0.69400001 0.026769891 9.8622713e-39 323 218
0.0048812795 0.69599998 0.026847038 9.861921e-39 324 218
0.0061015999 0.69599998 0.026847038 9.7697254e-39 325 218
0.00733244 0.69700003 0.026885614 9.2187068e-39 326 218
0.0085422397 0.69599998 0.026847038 8.5733458e-39 327 218
0.0097625591 0.69599998 0.026847038 8.577708e-39 328 218
-0.054311249 0.704 0.02592128 1.5307714e-38 276 219
-0.053001512 0.70300001 0.025884461 1.3832584e-38 277 219
-0.051768921 0.70300001 0.025884461 9.0412478e-39 278 219
-0.050320663 0.69999999 0.025773998 5.0768357e-39 279 219
-0.048953064 0.69800001 0.025700359 6.0009051e-39 280 219
-0.047660861 0.69700003 0.025663542 7.0146969e-39 281 219
-0.046238903 0.69400001 0.025553079 7.1097638e-39 282 219
-0.045022093 0.69400001 0.025553079 7.1097638e-39 283 219
-0.043742158 0.69300002 0.02551626 7.201944e-39 284 219
-0.042404365 0.69099998 0.025442619 8.4004872e-39 285 219
-0.041192811 0.69099998 0.025442619 1.0055658e-38 286 219
-0.039807681 0.68800002 0.02533216 8.7649187e-39 287 219
-0.038601387 0.68800002 0.02533216 7.7550772e-39 288 219
-0.037340738 0.68699998 0.025295338 7.1097176e-39 289 219
-0.036136195 0.68699998 0.025295338 6.5572697e-39 290 219
-0.034880809 0.68599999 0.025258519 6.2810457e-39 291 219
-0.033678025 0.68599999 0.025258519 5.8211508e-39 292 219
-0.032475237 0.68599999 0.025258519 5.8211508e-39 293 219
-0.031272452 0.68599999 0.025258519 5.4523739e-39 294 219
-0.029982001 0.68400002 0.025184879 5.7285978e-39 295 219
-0.02878272 0.68400002 0.025184879 5.9108339e-39 296 219
-0.027543113 0.68300003 0.02514806 5.8186396e-39 297 219
-0.026345588 0.68300003 0.02514806 5.8172103e-39 298 219
-0.02514806 0.68300003 0.02514806 5.3562336e-39 299 219
-0.023950534 0.68300003 0.02514806 5.7246517e-39 300 219
-0.022753006 0.68300003 0.02514806 5.7246517e-39 301 219
-0.02155548 0.68300003 0.02514806 5.2626044e-39 302 219
-0.020387759 0.68400002 0.025184879 4.1562737e-39 303 219
-0.01918848 0.68400002 0.025184879 3.9736789e-39 304 219
-0.0179892 0.68400002 0.025184879 4.5264855e-39 305 219
-0.016789921 0.68400002 0.025184879 4.895624e-39 306 219
-0.01559064 0.68400002 0.025184879 5.2644065e-39 307 219
-0.01439136 0.68400002 0.025184879 5.9997995e-39 308 219
-0.01319208 0.68400002 0.025184879 6.2760235e-39 309 219
-0.0119928 0.68400002 0.025184879 7.0117836e-39 310 219
-0.01079352 0.68400002 0.025184879 7.1965308e-39 311 219
-0.0095942402 0.68400002 0.025184879 8.0230503e-39 312 219
-0.0083949603 0.68400002 0.025184879 8.2996372e-39 313 219
-0.0072167199 0.68599999 0.025258519 8.5747975e-39 314 219
-0.0060139326 0.68599999 0.025258519 8.5747975e-39 315 219
-0.0048181596 0.68699998 0.025295338 8.7584601e-39 316 219
-0.0036136196 0.68699998 0.025295338 8.8510159e-39 317 219
-0.0024125867 0.68800002 0.02533216 9.4938531e-39 318 219
-0.0012062934 0.68800002 0.02533216 9.5860474e-39 319 219
0 0.69 0.025405798 1.0321449e-38 320 219
0.0012115532 0.69099998 0.025442619 1.0321449e-38 321 219
0.00243012 0.69300002 0.02551626 1.0321449e-38 322 219
0.0036504399 0.69400001 0.025553079 1.0413643e-38 323 219
0.0048812795 0.69599998 0.025626717 1.0137419e-38 324 219
0.0061015999 0.69599998 0.025626717 9.9530306e-39 325 219
0.00733244 0.69700003 0.025663542 9.5860474e-39 326 219
0.0085545136 0.69700003 0.025663542 8.7559406e-39 327 219
0.0097906133 0.69800001 0.025700359 8.8503321e-39 328 219
-0.054311249 0.704 0.024686933 1.4754541e-38 276 220
-0.053076904 0.704 0.024686933 1.3187215e-38 277 220
-0.051768921 0.70300001 0.024651866 1.0513889e-38 278 220
-0.050392549 0.70099998 0.024581732 9.4079003e-39 279 220
-0.049093332 0.69999999 0.024546666 8.8532636e-39 280 220
-0.047660861 0.69700003 0.024441468 8.5763165e-39 281 220
-0.046238903 0.69400001 0.024336265 7.2934684e-39 282 220
-0.045022093 0.69400001 0.024336265 7.2934684e-39 283 220
-0.043742158 0.69300002 0.024301201 8.0288531e-39 284 220
-0.042404365 0.69099998 0.024231065 9.2273962e-39 285 220
-0.041192811 0.69099998 0.024231065 9.1384054e-39 286 220
-0.0399234 0.69 0.024195999 8.8614598e-39 287 220
-0.038601387 0.68800002 0.024125867 8.6759587e-39 288 220
-0.037340738 0.68699998 0.024090799 8.3993732e-39 289 220
-0.036136195 0.68699998 0.024090799 7.7554359e-39 290 220
-0.034880809 0.68599999 0.024055731 7.3870177e-39 291 220
-0.033678025 0.68599999 0.024055731 6.0109202e-39 292 220
-0.032475237 0.68599999 0.024055731 5.8265318e-39 293 220
-0.031272452 0.68599999 0.024055731 5.8236619e-39 294 220
-0.030069664 0.68599999 0.024055731 5.5470792e-39 295 220
-0.02878272 0.68400002 0.0239856 5.9119241e-39 296 220
-0.027543113 0.68300003 0.023950534 5.8197284e-39 297 220
-0.026345588 0.68300003 0.023950534 6.0019687e-39 298 220
-0.02514806 0.68300003 0.023950534 5.8175775e-39 299 220
-0.023950534 0.68300003 0.023950534 6.0019533e-39 300 220
-0.022753006 0.68300003 0.023950534 6.0019533e-39 301 220
-0.02158704 0.68400002 0.0239856 6.2781759e-39 302 220
-0.020387759 0.68400002 0.0239856 6.3707288e-39 303 220
-0.01918848 0.68400002 0.0239856 6.4632818e-39 304 220
-0.0179892 0.68400002 0.0239856 6.7402274e-39 305 220
-0.016839013 0.68599999 0.024055731 6.0055392e-39 306 220
-0.015636226 0.68599999 0.024055731 6.0977335e-39 307 220
-0.01439136 0.68400002 0.0239856 6.5565522e-39 308 220
-0.01319208 0.68400002 0.0239856 7.0175233e-39 309 220
-0.0119928 0.68400002 0.0239856 8.3014266e-39 310 220
-0.01079352 0.68400002 0.0239856 8.0252027e-39 311 220
-0.0095942402 0.68400002 0.0239856 8.4836627e-39 312 220
-0.0084195063 0.68599999 0.024055731 8.5758569e-39 313 220
-0.0072167199 0.68599999 0.024055731 9.125435e-39 314 220
-0.0060226996 0.68699998 0.024090799 9.125435e-39 315 220
-0.0048181596 0.68699998 0.024090799 9.1261524e-39 316 220
-0.0036188802 0.68800002 0.024125867 9.3101822e-39 317 220
-0.0024125867 0.68800002 0.024125867 9.6775241e-39 318 220
-0.0012097999 0.69 0.024195999 9.9544656e-39 319 220
0 0.69099998 0.024231065 1.0412574e-38 320 220
0.00121506 0.69300002 0.024301201 1.0597325e-38 321 220
0.00243012 0.69300002 0.024301201 1.041367e-38 322 220
0.0036504399 0.69400001 0.024336265 1.0506224e-38 323 220
0.0048812795 0.69599998 0.0244064 1.0046685e-38 324 220
0.006119133 0.69800001 0.024476532 9.9544894e-39 325 220
0.00733244 0.69700003 0.024441468 9.4956762e-39 326 220
0.0085545136 0.69700003 0.024441468 8.9425025e-39 327 220
0.0097906133 0.69800001 0.024476532 8.8521495e-39 328 220
-0.054465543 0.70599997 0.023519212 1.5305916e-38 276 221
-0.053076904 0.704 0.023452586 1.3369808e-38 277 221
-0.051768921 0.70300001 0.023419274 1.0420627e-38 278 221
-0.050392549 0.70099998 0.023352645 1.014404e-38 279 221
-0.049093332 0.69999999 0.023319334 9.4064528e-39 280 221
-0.047660861 0.69700003 0.023219392 8.7610834e-39 281 221
-0.046238903 0.69400001 0.023119451 7.9359722e-39 282 221
-0.044957221 0.69300002 0.02308614 7.7512222e-39 283 221
-0.043742158 0.69300002 0.02308614 7.2941747e-39 284 221
-0.042404365 0.69099998 0.023019511 8.4927179e-39 285 221
-0.041192811 0.69099998 0.023019511 1.0331911e-38 286 221
-0.0399234 0.69 0.022986198 9.5943445e-39 287 221
-0.038713597 0.69 0.022986198 9.2266073e-39 288 221
-0.037395094 0.68800002 0.022919573 8.9503792e-39 289 221
-0.036136195 0.68699998 0.022886258 8.1238541e-39 290 221
-0.034931656 0.68699998 0.022886258 7.9394656e-39 291 221
-0.033727121 0.68699998 0.022886258 7.1129462e-39 292 221
-0.032475237 0.68599999 0.022852944 6.9285577e-39 293 221
-0.031272452 0.68599999 0.022852944 6.6494639e-39 294 221
-0.030069664 0.68599999 0.022852944 6.6494639e-39 295 221
-0.02878272 0.68400002 0.022786319 6.9235425e-39 296 221
-0.027583439 0.68400002 0.022786319 6.9235425e-39 297 221
-0.02638416 0.68400002 0.022786319 6.831344e-39 298 221
-0.025184879 0.68400002 0.022786319 6.646594e-39 299 221
-0.0239856 0.68400002 0.022786319 6.7398645e-39 300 221
-0.022786319 0.68400002 0.022786319 6.9242529e-39 301 221
-0.021650158 0.68599999 0.022852944 6.9253291e-39 302 221
-0.020447372 0.68599999 0.022852944 6.9253291e-39 303 221
-0.019244585 0.68599999 0.022852944 7.0171646e-39 304 221
-0.018041799 0.68599999 0.022852944 7.0171646e-39 305 221
-0.016839013 0.68599999 0.022852944 7.2926711e-39 306 221
-0.015636226 0.68599999 0.022852944 7.2926711e-39 307 221
-0.01443344 0.68599999 0.022852944 7.8436841e-39 308 221
-0.013230653 0.68599999 0.022852944 7.8436841e-39 309 221
-0.012027865 0.68599999 0.022852944 8.4843802e-39 310 221
-0.010825079 0.68599999 0.022852944 8.5765744e-39 311 221
-0.0096222926 0.68599999 0.022852944 9.3101822e-39 312 221
-0.0084195063 0.68599999 0.022852944 9.3101822e-39 313 221
-0.0072272392 0.68699998 0.022886258 9.3101822e-39 314 221
-0.0060226996 0.68699998 0.022886258 9.3101822e-39 315 221
-0.0048251734 0.68800002 0.022919573 9.4942119e-39 316 221
-0.0036293997 0.69 0.022986198 9.7704358e-39 317 221
-0.0024195998 0.69 0.022986198 1.0047742e-38 318 221
-0.0012115532 0.69099998 0.023019511 9.9551858e-39 319 221
0 0.69099998 0.023019511 1.0046682e-38 320 221
0.00121506 0.69300002 0.02308614 1.0231432e-38 321 221
0.0024336267 0.69400001 0.023119451 1.0232525e-38 322 221
0.0036504399 0.69400001 0.023119451 1.0324721e-38 323 221
0.0048953067 0.69800001 0.023252707 1.0690985e-38 324 221
0.006119133 0.69800001 0.023252707 1.0690985e-38 325 221
0.0073429602 0.69800001 0.023252707 1.0506616e-38 326 221
0.0085667865 0.69800001 0.023252707 1.0321865e-38 327 221
0.0098186666 0.69999999 0.023319334 1.0230786e-38 328 221
-0.053076904 0.704 0.022218239 1.3922266e-38 277 222
-0.051768921 0.70300001 0.02218668 1.023516e-38 278 222
-0.050392549 0.70099998 0.022123558 9.5897902e-39 279 222
-0.049093332 0.69999999 0.022091998 9.6823236e-39 280 222
-0.047660861 0.69700003 0.02199732 9.2209853e-39 281 222
-0.046238903 0.69400001 0.021902639 8.210764e-39 282 222
-0.044957221 0.69300002 0.021871079 8.1185684e-39 283 222
-0.043742158 0.69300002 0.021871079 7.0183109e-39 284 222
-0.042404365 0.69099998 0.021807959 8.124657e-39 285 222
-0.041192811 0.69099998 0.021807959 1.0239728e-38 286 222
-0.0399234 0.69 0.021776399 9.5943585e-39 287 222
-0.038713597 0.69 0.021776399 8.6763328e-39 288 222
-0.037395094 0.68800002 0.021713281 8.3997445e-39 289 222
-0.0361888 0.68800002 0.021713281 7.8483476e-39 290 222
-0.034931656 0.68699998 0.021681719 7.5721236e-39 291 222
-0.033727121 0.68699998 0.021681719 7.0207519e-39 292 222
-0.032522578 0.68699998 0.021681719 6.744528e-39 293 222
-0.031272452 0.68599999 0.021650158 6.8334936e-39 294 222
-0.030069664 0.68599999 0.021650158 6.8334936e-39 295 222
-0.02886688 0.68599999 0.021650158 6.741312e-39 296 222
-0.027583439 0.68400002 0.02158704 6.741312e-39 297 222
-0.02638416 0.68400002 0.02158704 6.8334936e-39 298 222
-0.025184879 0.68400002 0.02158704 6.7412994e-39 299 222
-0.0239856 0.68400002 0.02158704 7.0178821e-39 300 222
-0.022786319 0.68400002 0.02158704 7.0178821e-39 301 222
-0.021650158 0.68599999 0.021650158 6.926764e-39 302 222
-0.020447372 0.68599999 0.021650158 6.8345698e-39 303 222
-0.019244585 0.68599999 0.021650158 7.1093588e-39 304 222
-0.018041799 0.68599999 0.021650158 7.1093588e-39 305 222
-0.016839013 0.68599999 0.021650158 7.4763421e-39 306 222
-0.015636226 0.68599999 0.021650158 7.6607305e-39 307 222
-0.01443344 0.68599999 0.021650158 8.1181144e-39 308 222
-0.013230653 0.68599999 0.021650158 8.0259201e-39 309 222
-0.012027865 0.68599999 0.021650158 8.7595279e-39 310 222
-0.010825079 0.68599999 0.021650158 8.8517221e-39 311 222
-0.0096363192 0.68699998 0.021681719 9.2187054e-39 312 222
-0.0084317802 0.68699998 0.021681719 9.3108996e-39 313 222
-0.0072377604 0.68800002 0.021713281 9.3112584e-39 314 222
-0.0060314666 0.68800002 0.021713281 9.3112584e-39 315 222
-0.0048251734 0.68800002 0.021713281 9.6782584e-39 316 222
-0.0036293997 0.69 0.021776399 1.0415823e-38 317 222
-0.0024195998 0.69 0.021776399 1.0784645e-38 318 222
-0.0012115532 0.69099998 0.021807959 1.0231471e-38 319 222
0 0.69099998 0.021807959 9.678669e-39 320 222
0.00121506 0.69300002 0.021871079 1.0139288e-38 321 222
0.0024336267 0.69400001 0.021902639 1.0233652e-38 322 222
0.0036504399 0.69400001 0.021902639 1.0325847e-38 323 222
0.0048953067 0.69800001 0.02202888 1.0325129e-38 324 222
0.006119133 0.69800001 0.02202888 1.0417683e-38 325 222
0.0073639993 0.69999999 0.022091998 1.0418049e-38 326 222
0.0085913334 0.69999999 0.022091998 1.0141102e-38 327 222
0.0098186666 0.69999999 0.022091998 1.1150957e-38 328 222
0.011045999 0.69999999 0.022091998 1.3087065e-38 329 222
-0.053076904 0.704 0.020983893 1.4292488e-38 277 223
-0.051768921 0.70300001 0.020954086 1.0972372e-38 278 223
-0.050392549 0.70099998 0.020894472 9.2210147e-39 279 223
-0.049093332 0.69999999 0.020864666 9.3164277e-39 280 223
-0.047729239 0.69800001 0.020805053 8.8550909e-39 281 223
-0.046238903 0.69400001 0.020685827 8.0274518e-39 282 223
-0.045022093 0.69400001 0.020685827 7.9348974e-39 283 223
-0.043742158 0.69300002 0.020656019 7.0193829e-39 284 223
-0.042404365 0.69099998 0.020596405 7.2963285e-39 285 223
-0.041192811 0.69099998 0.020596405 8.4012089e-39 286 223
-0.0399234 0.69 0.020566599 7.7558395e-39 287 223
-0.038713597 0.69 0.020566599 8.0316851e-39 288 223
-0.037395094 0.68800002 0.020506985 8.0316851e-39 289 223
-0.0361888 0.68800002 0.020506985 7.8483476e-39 290 223
-0.034931656 0.68699998 0.020477179 7.5721236e-39 291 223
-0.033727121 0.68699998 0.020477179 6.9285577e-39 292 223
-0.032522578 0.68699998 0.020477179 6.744528e-39 293 223
-0.031318039 0.68699998 0.020477179 6.7427343e-39 294 223
-0.030069664 0.68599999 0.020447372 6.7427343e-39 295 223
-0.02886688 0.68599999 0.020447372 6.6512576e-39 296 223
-0.027664091 0.68599999 0.020447372 6.6512576e-39 297 223
-0.026461305 0.68599999 0.020447372 6.7427343e-39 298 223
-0.025258519 0.68599999 0.020447372 6.8349285e-39 299 223
-0.024055731 0.68599999 0.020447372 7.1111525e-39 300 223
-0.022852944 0.68599999 0.020447372 7.1111525e-39 301 223
-0.021650158 0.68599999 0.020447372 7.110435e-39 302 223
-0.020477179 0.68699998 0.020477179 7.110435e-39 303 223
-0.019244585 0.68599999 0.020447372 7.2930298e-39 304 223
-0.018041799 0.68599999 0.020447372 7.3852241e-39 305 223
-0.016839013 0.68599999 0.020447372 7.8436841e-39 306 223
-0.015636226 0.68599999 0.020447372 7.8436841e-39 307 223
-0.01443344 0.68599999 0.020447372 8.1181144e-39 308 223
-0.013230653 0.68599999 0.020447372 8.0259201e-39 309 223
-0.012027865 0.68599999 0.020447372 8.7591692e-39 310 223
-0.010825079 0.68599999 0.020447372 8.8513634e-39 311 223
-0.0096363192 0.68699998 0.020477179 9.0361106e-39 312 223
-0.0084317802 0.68699998 0.020477179 9.0361106e-39 313 223
-0.0072377604 0.68800002 0.020506985 9.5874823e-39 314 223
-0.0060314666 0.68800002 0.020506985 9.7718736e-39 315 223
-0.0048251734 0.68800002 0.020506985 1.0414414e-38 316 223
-0.0036293997 0.69 0.020566599 1.1059783e-38 317 223
-0.0024195998 0.69 0.020566599 1.0693188e-38 318 223
-0.0012115532 0.69099998 0.020596405 9.955623e-39 319 223
0 0.69099998 0.020596405 9.3120515e-39 320 223
0.00121506 0.69300002 0.020656019 9.3120515e-39 321 223
0.0024336267 0.69400001 0.020685827 9.4978875e-39 322 223
0.0036609597 0.69599998 0.020745439 9.4056919e-39 323 223
0.0048953067 0.69800001 0.020805053 9.2223796e-39 324 223
0.0061366665 0.69999999 0.020864666 9.1298252e-39 325 223
0.0073639993 0.69999999 0.020864666 9.1291218e-39 326 223
0.0085913334 0.69999999 0.020864666 9.3138718e-39 327 223
0.0098186666 0.69999999 0.020864666 1.0784701e-38 328 223
0.011045999 0.69999999 0.020864666 1.2905202e-38 329 223
-0.054619838 0.708 0.01986176 1.5306642e-38 276 224
-0.053076904 0.704 0.019749546 1.4569077e-38 277 224
-0.051768921 0.70300001 0.019721493 1.1249682e-38 278 224
-0.050392549 0.70099998 0.019665385 9.2213777e-39 279 224
-0.049093332 0.69999999 0.019637333 9.5919426e-39 280 224
-0.047729239 0.69800001 0.019581227 9.4997456e-39 281 224
-0.046372157 0.69599998 0.019525118 8.2111298e-39 282 224
-0.045022093 0.69400001 0.019469013 7.8423486e-39 283 224
-0.043742158 0.69300002 0.01944096 7.2934558e-39 284 224
-0.042404365 0.69099998 0.019384852 7.2934558e-39 285 224
-0.041192811 0.69099998 0.019384852 6.8360524e-39 286 224
-0.039981257 0.69099998 0.019384852 6.5594641e-39 287 224
-0.038713597 0.69 0.019356798 7.478877e-39 288 224
-0.037395094 0.68800002 0.019300694 7.6632697e-39 289 224
-0.0361888 0.68800002 0.019300694 7.7561534e-39 290 224
-0.034931656 0.68699998 0.019272638 7.4795707e-39 291 224
-0.033727121 0.68699998 0.019272638 7.1122287e-39 292 224
-0.032522578 0.68699998 0.019272638 7.0200345e-39 293 224
-0.031318039 0.68699998 0.019272638 6.6526925e-39 294 224
-0.030069664 0.68599999 0.019244585 6.5604983e-39 295 224
-0.02886688 0.68599999 0.019244585 6.651975e-39 296 224
-0.027664091 0.68599999 0.019244585 6.651975e-39 297 224
-0.026461305 0.68599999 0.019244585 6.8352873e-39 298 224
-0.025258519 0.68599999 0.019244585 6.9274815e-39 299 224
-0.024055731 0.68599999 0.019244585 6.926764e-39 300 224
-0.022852944 0.68599999 0.019244585 6.926764e-39 301 224
-0.021650158 0.68599999 0.019244585 7.2937473e-39 302 224
-0.020477179 0.68699998 0.019272638 7.3859415e-39 303 224
-0.019272638 0.68699998 0.019272638 7.5685363e-39 304 224
-0.018068098 0.68699998 0.019272638 7.4763421e-39 305 224
-0.01686356 0.68699998 0.019272638 7.9358783e-39 306 224
-0.015659019 0.68699998 0.019272638 7.9358783e-39 307 224
-0.01443344 0.68599999 0.019244585 8.3936209e-39 308 224
-0.013230653 0.68599999 0.019244585 8.3936209e-39 309 224
-0.012045399 0.68699998 0.019272638 8.7588104e-39 310 224
-0.010840859 0.68699998 0.019272638 8.9431989e-39 311 224
-0.0096363192 0.68699998 0.019272638 9.4034526e-39 312 224
-0.0084317802 0.68699998 0.019272638 9.5874823e-39 313 224
-0.0072377604 0.68800002 0.019300694 9.6797018e-39 314 224
-0.0060314666 0.68800002 0.019300694 1.0325071e-38 315 224
-0.0048391996 0.69 0.019356798 1.0968336e-38 316 224
-0.0036293997 0.69 0.019356798 1.0783586e-38 317 224
-0.0024195998 0.69 0.019356798 9.7723262e-39 318 224
-0.0012115532 0.69099998 0.019384852 9.2191524e-39 319 224
0 0.69099998 0.019384852 8.943992e-39 320 224
0.00121506 0.69300002 0.01944096 8.8517964e-39 321 224
0.0024336267 0.69400001 0.019469013 8.6699037e-39 322 224
0.0036609597 0.69599998 0.019525118 8.4855124e-39 323 224
0.0048953067 0.69800001 0.019581227 8.1185109e-39 324 224
0.0061366665 0.69999999 0.019637333 7.9337609e-39 325 224
0.0073639993 0.69999999 0.019637333 7.4735339e-39 326 224
0.0085913334 0.69999999 0.019637333 7.7497606e-39 327 224
0.0098186666 0.69999999 0.019637333 9.7737877e-39 328 224
0.011045999 0.69999999 0.019637333 1.244782e-38 329 224
-0.056018997 0.70999998 0.018672999 1.5858014e-38 275 225
-0.054619838 0.708 0.0186204 1.5214447e-38 276 225
-0.053303085 0.70700002 0.018594101 1.429249e-38 277 225
-0.051842559 0.704 0.018515198 1.0790501e-38 278 225
-0.050392549 0.70099998 0.018436298 8.854393e-39 279 225
-0.049093332 0.69999999 0.018409999 9.5937405e-39 280 225
-0.047729239 0.69800001 0.0183574 9.4093492e-39 281 225
-0.046438783 0.69700003 0.018331099 8.67068e-39 282 225
-0.045151837 0.69599998 0.018304799 8.1178649e-39 283 225
-0.043742158 0.69300002 0.018225901 7.383869e-39 284 225
-0.042527102 0.69300002 0.018225901 7.383869e-39 285 225
-0.041312039 0.69300002 0.018225901 7.0182941e-39 286 225
-0.039981257 0.69099998 0.0181733 6.8339028e-39 287 225
-0.038769703 0.69099998 0.0181733 7.5700035e-39 288 225
-0.037503798 0.69 0.018146999 7.8462316e-39 289 225
-0.036293998 0.69 0.018146999 7.6646822e-39 290 225
-0.03498251 0.68800002 0.0180944 7.3877352e-39 291 225
-0.033776212 0.68800002 0.0180944 7.0207519e-39 292 225
-0.032522578 0.68699998 0.018068098 6.744528e-39 293 225
-0.031318039 0.68699998 0.018068098 6.6526925e-39 294 225
-0.030113498 0.68699998 0.018068098 6.6526925e-39 295 225
-0.02886688 0.68599999 0.018041799 6.6526925e-39 296 225
-0.027664091 0.68599999 0.018041799 6.5604983e-39 297 225
-0.026461305 0.68599999 0.018041799 7.1111525e-39 298 225
-0.025258519 0.68599999 0.018041799 7.1111525e-39 299 225
-0.024055731 0.68599999 0.018041799 7.110435e-39 300 225
-0.022852944 0.68599999 0.018041799 7.110435e-39 301 225
-0.021681719 0.68699998 0.018068098 7.3852241e-39 302 225
-0.020477179 0.68699998 0.018068098 7.2930298e-39 303 225
-0.019272638 0.68699998 0.018068098 7.4763421e-39 304 225
-0.018068098 0.68699998 0.018068098 7.5685363e-39 305 225
-0.01686356 0.68699998 0.018068098 7.9351608e-39 306 225
-0.015659019 0.68699998 0.018068098 8.1195493e-39 307 225
-0.014454478 0.68699998 0.018068098 8.4861962e-39 308 225
-0.013249939 0.68699998 0.018068098 8.9471744e-39 309 225
-0.012045399 0.68699998 0.018068098 9.7722715e-39 310 225
-0.010840859 0.68699998 0.018068098 9.6797172e-39 311 225
-0.0096503468 0.68800002 0.0180944 9.7729848e-39 312 225
-0.0084440531 0.68800002 0.0180944 9.8655392e-39 313 225
-0.0072377604 0.68800002 0.0180944 1.0049944e-38 314 225
-0.0060314666 0.68800002 0.0180944 1.0234694e-38 315 225
-0.0048391996 0.69 0.018146999 9.8637805e-39 316 225
-0.0036293997 0.69 0.018146999 9.3106067e-39 317 225
-0.0024231065 0.69099998 0.0181733 8.0245525e-39 318 225
-0.0012115532 0.69099998 0.0181733 8.1167481e-39 319 225
0 0.69300002 0.018225901 8.6684771e-39 320 225
0.0012168133 0.69400001 0.0182522 8.8528684e-39 321 225
0.0024336267 0.69400001 0.0182522 8.4869375e-39 322 225
0.0036609597 0.69599998 0.018304799 8.3025463e-39 323 225
0.0048953067 0.69800001 0.0183574 7.9358993e-39 324 225
0.006119133 0.69800001 0.0183574 7.7511493e-39 325 225
0.0073429602 0.69800001 0.0183574 7.6571811e-39 326 225
0.0085913334 0.69999999 0.018409999 6.2742452e-39 327 225
0.0098186666 0.69999999 0.018409999 7.4753612e-39 328 225
-0.057747785 0.71600002 0.017575413 1.585837e-38 274 226
-0.0563346 0.71399999 0.017526319 1.585837e-38 275 226
-0.054774132 0.70999998 0.017428132 1.5214803e-38 276 226
-0.053378478 0.708 0.017379038 1.4200291e-38 277 226
-0.052137118 0.708 0.017379038 1.078798e-38 278 226
-0.050536323 0.70300001 0.017256306 9.2210147e-39 279 226
-0.049093332 0.69999999 0.017182667 9.9596462e-39 280 226
-0.047729239 0.69800001 0.017133573 9.7752549e-39 281 226
-0.046438783 0.69700003 0.017109027 9.2227678e-39 282 226
-0.045151837 0.69599998 0.017084479 8.5773983e-39 283 226
-0.043805279 0.69400001 0.017035386 7.7504907e-39 284 226
-0.042527102 0.69300002 0.01701084 7.5660981e-39 285 226
-0.041312039 0.69300002 0.01701084 7.1994609e-39 286 226
-0.039981257 0.69099998 0.016961746 7.2916566e-39 287 226
-0.038769703 0.69099998 0.016961746 7.2945082e-39 288 226
-0.03755815 0.69099998 0.016961746 7.6632907e-39 289 226
-0.036293998 0.69 0.0169372 7.8472742e-39 290 226
-0.03498251 0.68800002 0.016888106 7.7550786e-39 291 226
-0.033776212 0.68800002 0.016888106 7.1122287e-39 292 226
-0.032569919 0.68800002 0.016888106 7.0200345e-39 293 226
-0.031318039 0.68699998 0.01686356 6.744528e-39 294 226
-0.030113498 0.68699998 0.01686356 6.744528e-39 295 226
-0.028908957 0.68699998 0.01686356 6.7441692e-39 296 226
-0.027704418 0.68699998 0.01686356 6.651975e-39 297 226
-0.026461305 0.68599999 0.016839013 6.8352873e-39 298 226
-0.025258519 0.68599999 0.016839013 6.8352873e-39 299 226
-0.024055731 0.68599999 0.016839013 7.1097176e-39 300 226
-0.022852944 0.68599999 0.016839013 7.1097176e-39 301 226
-0.021681719 0.68699998 0.01686356 7.2930298e-39 302 226
-0.020477179 0.68699998 0.01686356 7.2930298e-39 303 226
-0.019272638 0.68699998 0.01686356 7.6600131e-39 304 226
-0.018068098 0.68699998 0.01686356 7.6600131e-39 305 226
-0.01686356 0.68699998 0.01686356 8.3025112e-39 306 226
-0.015659019 0.68699998 0.01686356 8.8553263e-39 307 226
-0.014454478 0.68699998 0.01686356 9.5904208e-39 308 226
-0.013249939 0.68699998 0.01686356 1.005104e-38 309 226
-0.012062933 0.68800002 0.016888106 1.0876856e-38 310 226
-0.010856641 0.68800002 0.016888106 1.0784661e-38 311 226
-0.0096503468 0.68800002 0.016888106 1.0601343e-38 312 226
-0.0084686 0.69 0.0169372 1.0324754e-38 313 226
-0.0072587994 0.69 0.0169372 9.6829822e-39 314 226
-0.0060489997 0.69 0.0169372 9.1298084e-39 315 226
-0.0048391996 0.69 0.0169372 8.5762619e-39 316 226
-0.0036346598 0.69099998 0.016961746 7.9308925e-39 317 226
-0.0024231065 0.69099998 0.016961746 7.4717136e-39 318 226
-0.00121506 0.69300002 0.01701084 8.3014729e-39 319 226
0 0.69300002 0.01701084 9.4053205e-39 320 226
0.0012168133 0.69400001 0.017035386 9.4053205e-39 321 226
0.0024336267 0.69400001 0.017035386 9.2216187e-39 322 226
0.0036609597 0.69599998 0.017084479 9.0368687e-39 323 226
0.0048953067 0.69800001 0.017133573 8.3028742e-39 324 226
0.006119133 0.69800001 0.017133573 8.0266474e-39 325 226
0.0073429602 0.69800001 0.017133573 7.3841647e-39 326 226
0.0085913334 0.69999999 0.017182667 4.9870979e-39 327 226
0.0098186666 0.69999999 0.017182667 7.3791859e-39 328 226
-0.057586476 0.71399999 0.016274439 1.5490311e-38 274 227
-0.0563346 0.71399999 0.016274439 1.5582506e-38 275 227
-0.054774132 0.70999998 0.016183265 1.5306998e-38 276 227
-0.053529263 0.70999998 0.016183265 1.4384683e-38 277 227
-0.052284397 0.70999998 0.016183265 1.0787983e-38 278 227
-0.051039528 0.70999998 0.016183265 9.1284632e-39 279 227
-0.049093332 0.69999999 0.015955333 9.9592958e-39 280 227
-0.047865998 0.69999999 0.015955333 9.6827075e-39 281 227
-0.046438783 0.69700003 0.015886955 8.8554468e-39 282 227
-0.045151837 0.69599998 0.015864158 8.302273e-39 283 227
-0.043805279 0.69400001 0.015818574 7.6576043e-39 284 227
-0.042588469 0.69400001 0.015818574 7.5654072e-39 285 227
-0.041312039 0.69300002 0.015795778 7.1072905e-39 286 227
-0.04009698 0.69300002 0.015795778 7.1072905e-39 287 227
-0.038769703 0.69099998 0.015750192 7.6600663e-39 288 227
-0.03755815 0.69099998 0.015750192 7.844459e-39 289 227
-0.036293998 0.69 0.015727401 7.7554443e-39 290 227
-0.035084199 0.69 0.015727401 7.4788588e-39 291 227
-0.033776212 0.68800002 0.015681813 6.7452454e-39 292 227
-0.032569919 0.68800002 0.015681813 6.6526925e-39 293 227
-0.031363625 0.68800002 0.015681813 6.7441692e-39 294 227
-0.030113498 0.68699998 0.015659019 6.651975e-39 295 227
-0.028908957 0.68699998 0.015659019 6.651975e-39 296 227
-0.027704418 0.68699998 0.015659019 6.651975e-39 297 227
-0.026499879 0.68699998 0.015659019 6.8345698e-39 298 227
-0.025295338 0.68699998 0.015659019 6.8345698e-39 299 227
-0.024090799 0.68699998 0.015659019 7.2004769e-39 300 227
-0.022886258 0.68699998 0.015659019 7.2926711e-39 301 227
-0.021681719 0.68699998 0.015659019 7.4763421e-39 302 227
-0.020477179 0.68699998 0.015659019 7.5685363e-39 303 227
-0.019272638 0.68699998 0.015659019 7.6589369e-39 304 227
-0.0180944 0.68800002 0.015681813 8.3043063e-39 305 227
-0.016888106 0.68800002 0.015681813 9.777696e-39 306 227
-0.015681813 0.68800002 0.015681813 1.0423065e-38 307 227
-0.014475521 0.68800002 0.015681813 1.1523337e-38 308 227
-0.013269227 0.68800002 0.015681813 1.1615533e-38 309 227
-0.012062933 0.68800002 0.015681813 1.1523693e-38 310 227
-0.010856641 0.68800002 0.015681813 1.115491e-38 311 227
-0.0096783992 0.69 0.015727401 1.0600995e-38 312 227
-0.0084686 0.69 0.015727401 9.0333094e-39 313 227
-0.0072587994 0.69 0.015727401 7.1951239e-39 314 227
-0.0060489997 0.69 0.015727401 5.7199924e-39 315 227
-0.0048391996 0.69 0.015727401 6.3653618e-39 316 227
-0.0036346598 0.69099998 0.015750192 7.1951239e-39 317 227
-0.0024231065 0.69099998 0.015750192 8.2067801e-39 318 227
-0.00121506 0.69300002 0.015795778 9.3131263e-39 319 227
0 0.69400001 0.015818574 1.0968704e-38 320 227
0.0012203199 0.69599998 0.015864158 1.0691759e-38 321 227
0.0024406398 0.69599998 0.015864158 9.3152759e-39 322 227
0.00366622 0.69700003 0.015886955 8.6699065e-39 323 227
0.0048953067 0.69800001 0.015909746 8.21141e-39 324 227
0.006119133 0.69800001 0.015909746 7.9344644e-39 325 227
0.0073429602 0.69800001 0.015909746 7.4731261e-39 326 227
0.0085913334 0.69999999 0.015955333 6.366424e-39 327 227
0.0098186666 0.69999999 0.015955333 7.9320037e-39 328 227
-0.057586476 0.71399999 0.015022559 1.5490308e-38 274 228
-0.0563346 0.71399999 0.015022559 1.5582862e-38 275 228
-0.055005573 0.713 0.015001519 1.5399191e-38 276 228
-0.053755447 0.713 0.015001519 1.456943e-38 277 228
-0.052358042 0.71100003 0.014959441 1.0696866e-38 278 228
-0.051039528 0.70999998 0.014938398 9.0369864e-39 279 228
-0.049093332 0.69999999 0.014727999 1.0235162e-38 280 228
-0.047865998 0.69999999 0.014727999 1.0142608e-38 281 228
-0.046505414 0.69800001 0.01468592 9.3149802e-39 282 228
-0.045216713 0.69700003 0.01466488 8.5774152e-39 283 228
-0.043931518 0.69599998 0.014643839 7.9334681e-39 284 228
-0.042711195 0.69599998 0.014643839 7.6572399e-39 285 228
-0.041371655 0.69400001 0.01460176 7.1069346e-39 286 228
-0.04009698 0.69300002 0.014580719 7.014739e-39 287 228
-0.03888192 0.69300002 0.014580719 7.1086946e-39 288 228
-0.03755815 0.69099998 0.014538639 7.2008903e-39 289 228
-0.036346599 0.69099998 0.014538639 7.1118742e-39 290 228
-0.035084199 0.69 0.014517599 7.0196785e-39 291 228
-0.0338744 0.69 0.014517599 6.7452454e-39 292 228
-0.032569919 0.68800002 0.014475521 6.6526925e-39 293 228
-0.031363625 0.68800002 0.014475521 6.651975e-39 294 228
-0.030157333 0.68800002 0.014475521 6.651975e-39 295 228
-0.028908957 0.68699998 0.014454478 6.651975e-39 296 228
-0.027704418 0.68699998 0.014454478 6.5594221e-39 297 228
-0.026499879 0.68699998 0.014454478 7.0175233e-39 298 228
-0.025295338 0.68699998 0.014454478 6.9253291e-39 299 228
-0.024090799 0.68699998 0.014454478 7.2001181e-39 300 228
-0.022886258 0.68699998 0.014454478 7.2926711e-39 301 228
-0.021713281 0.68800002 0.014475521 7.4759834e-39 302 228
-0.020506985 0.68800002 0.014475521 7.5681776e-39 303 228
-0.019300694 0.68800002 0.014475521 8.2110541e-39 304 228
-0.0180944 0.68800002 0.014475521 9.3174016e-39 305 228
-0.016888106 0.68800002 0.014475521 1.097267e-38 306 228
-0.015681813 0.68800002 0.014475521 1.1341094e-38 307 228
-0.014475521 0.68800002 0.014475521 1.1799223e-38 308 228
-0.013269227 0.68800002 0.014475521 1.1614832e-38 309 228
-0.012062933 0.68800002 0.014475521 1.1154204e-38 310 228
-0.010856641 0.68800002 0.014475521 9.9560196e-39 311 228
-0.0096783992 0.69 0.014517599 8.3000604e-39 312 228
-0.0084686 0.69 0.014517599 7.1940729e-39 313 228
-0.0072587994 0.69 0.014517599 6.3653646e-39 314 228
-0.0060489997 0.69 0.014517599 5.9043879e-39 315 228
-0.0048391996 0.69 0.014517599 5.9065515e-39 316 228
-0.0036346598 0.69099998 0.014538639 6.4597253e-39 317 228
-0.00243012 0.69300002 0.014580719 8.3011464e-39 318 228
-0.0012168133 0.69400001 0.01460176 9.6840808e-39 319 228
0 0.69599998 0.014643839 1.08758e-38 320 228
0.0012220733 0.69700003 0.01466488 1.08758e-38 321 228
0.0024441467 0.69700003 0.01466488 1.0876137e-38 322 228
0.0036714801 0.69800001 0.01468592 1.0138572e-38 323 228
0.0048953067 0.69800001 0.01468592 8.8535592e-39 324 228
0.0061366665 0.69999999 0.014727999 8.5766122e-39 325 228
0.0073639993 0.69999999 0.014727999 8.2074864e-39 326 228
0.0085913334 0.69999999 0.014727999 8.2074864e-39 327 228
-0.057586476 0.71399999 0.01377068 1.5673979e-38 274 229
-0.0563346 0.71399999 0.01377068 1.5766174e-38 275 229
-0.055005573 0.713 0.013751393 1.5582506e-38 276 229
-0.053755447 0.713 0.013751393 1.4937137e-38 277 229
-0.052358042 0.71100003 0.01371282 1.0789781e-38 278 229
-0.051039528 0.70999998 0.013693533 8.8536741e-39 279 229
-0.049584266 0.70700002 0.013635674 1.0327005e-38 280 229
-0.047865998 0.69999999 0.013500666 1.0327005e-38 281 229
-0.046505414 0.69800001 0.013462093 9.4068283e-39 282 229
-0.045281585 0.69800001 0.013462093 8.5770676e-39 283 229
-0.043994639 0.69700003 0.013442807 7.7498055e-39 284 229
-0.042711195 0.69599998 0.013423519 7.6576099e-39 285 229
-0.041490879 0.69599998 0.013423519 7.1069374e-39 286 229
-0.040154841 0.69400001 0.013384946 7.0147418e-39 287 229
-0.03888192 0.69300002 0.01336566 7.0161431e-39 288 229
-0.03755815 0.69099998 0.013327086 7.0161431e-39 289 229
-0.036346599 0.69099998 0.013327086 6.927127e-39 290 229
-0.035084199 0.69 0.0133078 6.927127e-39 291 229
-0.0338744 0.69 0.0133078 6.6526925e-39 292 229
-0.032664597 0.69 0.0133078 6.5604983e-39 293 229
-0.031363625 0.68800002 0.013269227 6.651975e-39 294 229
-0.030157333 0.68800002 0.013269227 6.651975e-39 295 229
-0.028951041 0.68800002 0.013269227 6.5601395e-39 296 229
-0.027704418 0.68699998 0.013249939 6.3761098e-39 297 229
-0.026499879 0.68699998 0.013249939 6.9253291e-39 298 229
-0.025295338 0.68699998 0.013249939 6.9253291e-39 299 229
-0.024090799 0.68699998 0.013249939 7.2926711e-39 300 229
-0.022886258 0.68699998 0.013249939 7.2926711e-39 301 229
-0.021713281 0.68800002 0.013269227 7.2923124e-39 302 229
-0.020506985 0.68800002 0.013269227 7.2923124e-39 303 229
-0.019300694 0.68800002 0.013269227 9.0408372e-39 304 229
-0.0180944 0.68800002 0.013269227 1.0515967e-38 305 229
-0.016888106 0.68800002 0.013269227 1.1708453e-38 306 229
-0.015681813 0.68800002 0.013269227 1.1339672e-38 307 229
-0.014475521 0.68800002 0.013269227 1.1430435e-38 308 229
-0.013269227 0.68800002 0.013269227 1.087762e-38 309 229
-0.012062933 0.68800002 0.013269227 9.4046227e-39 310 229
-0.010856641 0.68800002 0.013269227 7.4685144e-39 311 229
-0.0096783992 0.69 0.0133078 5.722163e-39 312 229
-0.0084686 0.69 0.0133078 5.722163e-39 313 229
-0.0072587994 0.69 0.0133078 6.1816965e-39 314 229
-0.0060489997 0.69 0.0133078 6.0895008e-39 315 229
-0.0048462129 0.69099998 0.013327086 6.3660947e-39 316 229
-0.0036451798 0.69300002 0.01336566 7.2876909e-39 317 229
-0.0024336267 0.69400001 0.013384946 9.3131431e-39 318 229
-0.0012203199 0.69599998 0.013423519 1.0419849e-38 319 229
0 0.69700003 0.013442807 1.0600307e-38 320 229
0.0012238267 0.69800001 0.013462093 1.0600307e-38 321 229
0.0024476533 0.69800001 0.013462093 1.0691406e-38 322 229
0.0036714801 0.69800001 0.013462093 1.0230786e-38 323 229
0.0049093333 0.69999999 0.013500666 9.678669e-39 324 229
0.0061366665 0.69999999 0.013500666 9.493919e-39 325 229
0.0073639993 0.69999999 0.013500666 8.9450822e-39 326 229
0.0085913334 0.69999999 0.013500666 9.4064205e-39 327 229
-0.057747785 0.71600002 0.012553867 1.5490308e-38 274 230
-0.0563346 0.71399999 0.012518799 1.5490308e-38 275 230
-0.055005573 0.713 0.012501267 1.5490311e-38 276 230
-0.053755447 0.713 0.012501267 1.4937137e-38 277 230
-0.052358042 0.71100003 0.0124662 1.1066725e-38 278 230
-0.051039528 0.70999998 0.012448666 9.3146481e-39 279 230
-0.049654398 0.708 0.0124136 1.0327721e-38 280 230
-0.047865998 0.69999999 0.012273333 1.0327721e-38 281 230
-0.046505414 0.69800001 0.012238266 9.4997456e-39 282 230
-0.045281585 0.69800001 0.012238266 8.5774306e-39 283 230
-0.043994639 0.69700003 0.012220734 8.0253134e-39 284 230
-0.042711195 0.69599998 0.0122032 7.9331177e-39 285 230
-0.041490879 0.69599998 0.0122032 7.3824453e-39 286 230
-0.040154841 0.69400001 0.012168133 7.198054e-39 287 230
-0.03888192 0.69300002 0.012150601 6.740638e-39 288 230
-0.037666857 0.69300002 0.012150601 6.9246691e-39 289 230
-0.036346599 0.69099998 0.012115533 6.6516177e-39 290 230
-0.035135046 0.69099998 0.012115533 6.6516177e-39 291 230
-0.033923492 0.69099998 0.012115533 6.6526925e-39 292 230
-0.032664597 0.69 0.012097999 6.6526925e-39 293 230
-0.031454802 0.69 0.012097999 6.6526925e-39 294 230
-0.030244999 0.69 0.012097999 6.5601395e-39 295 230
-0.028951041 0.68800002 0.012062933 6.5590633e-39 296 230
-0.027744746 0.68800002 0.012062933 6.3746749e-39 297 230
-0.026538454 0.68800002 0.012062933 6.9242529e-39 298 230
-0.02533216 0.68800002 0.012062933 6.9242529e-39 299 230
-0.024125867 0.68800002 0.012062933 7.1090001e-39 300 230
-0.022919573 0.68800002 0.012062933 7.2930298e-39 301 230
-0.021713281 0.68800002 0.012062933 7.3841479e-39 302 230
-0.020506985 0.68800002 0.012062933 7.7529276e-39 303 230
-0.019300694 0.68800002 0.012062933 9.6851472e-39 304 230
-0.0180944 0.68800002 0.012062933 1.088369e-38 305 230
-0.016888106 0.68800002 0.012062933 1.1799942e-38 306 230
-0.015681813 0.68800002 0.012062933 1.143152e-38 307 230
-0.014475521 0.68800002 0.012062933 1.0141128e-38 308 230
-0.013269227 0.68800002 0.012062933 9.126975e-39 309 230
-0.012062933 0.68800002 0.012062933 7.1951449e-39 310 230
-0.010856641 0.68800002 0.012062933 6.27319e-39 311 230
-0.0096783992 0.69 0.012097999 5.8139901e-39 312 230
-0.008480873 0.69099998 0.012115533 5.9061858e-39 313 230
-0.0072693196 0.69099998 0.012115533 5.8139901e-39 314 230
-0.0060577663 0.69099998 0.012115533 5.7217945e-39 315 230
-0.00486024 0.69300002 0.012150601 7.1022234e-39 316 230
-0.0036504399 0.69400001 0.012168133 8.5777136e-39 317 230
-0.0024406398 0.69599998 0.0122032 1.004784e-38 318 230
-0.0012220733 0.69700003 0.012220734 1.0324428e-38 319 230
0 0.69800001 0.012238266 1.0139329e-38 320 230
0.0012238267 0.69800001 0.012238266 9.9549378e-39 321 230
0.0024546667 0.69999999 0.012273333 9.9545693e-39 322 230
0.0036819996 0.69999999 0.012273333 9.8623736e-39 323 230
0.0049093333 0.69999999 0.012273333 9.7705255e-39 324 230
0.0061366665 0.69999999 0.012273333 9.4942974e-39 325 230
0.0073639993 0.69999999 0.012273333 9.3106474e-39 326 230
0.0086649731 0.70599997 0.012378532 9.8638212e-39 327 230
0.0099589331 0.70999998 0.012448666 1.0323392e-38 328 230
0.01121958 0.71100003 0.0124662 1.2074751e-38 329 230
-0.057747785 0.71600002 0.01129848 1.5673979e-38 274 231
-0.056492399 0.71600002 0.01129848 1.5489589e-38 275 231
-0.05508272 0.71399999 0.011266919 1.5489592e-38 276 231
-0.053830836 0.71399999 0.011266919 1.5212645e-38 277 231
-0.052505318 0.713 0.011251139 1.1710657e-38 278 231
-0.051039528 0.70999998 0.011203799 9.7745486e-39 279 231
-0.049654398 0.708 0.01117224 1.0327002e-38 280 231
-0.047934376 0.70099998 0.011061779 1.0327002e-38 281 231
-0.046638668 0.69999999 0.011045999 9.5919426e-39 282 231
-0.045281585 0.69800001 0.01101444 8.7621806e-39 283 231
-0.043994639 0.69700003 0.01099866 8.2097046e-39 284 231
-0.042772565 0.69700003 0.01099866 7.9331177e-39 285 231
-0.041490879 0.69599998 0.010982879 7.5657603e-39 286 231
-0.040154841 0.69400001 0.01095132 7.2895336e-39 287 231
-0.03888192 0.69300002 0.010935539 6.6491584e-39 288 231
-0.037666857 0.69300002 0.010935539 6.6491584e-39 289 231
-0.036346599 0.69099998 0.01090398 6.7430931e-39 290 231
-0.035135046 0.69099998 0.01090398 6.9274829e-39 291 231
-0.033923492 0.69099998 0.01090398 6.4693802e-39 292 231
-0.032664597 0.69 0.010888199 6.4693802e-39 293 231
-0.031454802 0.69 0.010888199 6.3761098e-39 294 231
-0.030244999 0.69 0.010888199 6.2839156e-39 295 231
-0.028951041 0.68800002 0.010856641 6.4657929e-39 296 231
-0.027744746 0.68800002 0.010856641 6.2814044e-39 297 231
-0.026538454 0.68800002 0.010856641 6.648029e-39 298 231
-0.02533216 0.68800002 0.010856641 6.9246116e-39 299 231
-0.024125867 0.68800002 0.010856641 7.0164471e-39 300 231
-0.022919573 0.68800002 0.010856641 7.4774183e-39 301 231
-0.021776399 0.69 0.010888199 8.3043231e-39 302 231
-0.020566599 0.69 0.010888199 8.9496925e-39 303 231
-0.019356798 0.69 0.010888199 1.0144353e-38 304 231
-0.018146999 0.69 0.010888199 1.0789722e-38 305 231
-0.0169372 0.69 0.010888199 1.1616281e-38 306 231
-0.015727401 0.69 0.010888199 1.1155303e-38 307 231
-0.014517599 0.69 0.010888199 8.483402e-39 308 231
-0.0133078 0.69 0.010888199 7.1926632e-39 309 231
-0.012097999 0.69 0.010888199 6.0891477e-39 310 231
-0.010888199 0.69 0.010888199 6.0891477e-39 311 231
-0.0096783992 0.69 0.010888199 6.0902015e-39 312 231
-0.008480873 0.69099998 0.01090398 6.0902015e-39 313 231
-0.0072903596 0.69300002 0.010935539 5.9980058e-39 314 231
-0.0060753003 0.69300002 0.010935539 5.6295877e-39 315 231
-0.0048672534 0.69400001 0.01095132 7.3780886e-39 316 231
-0.0036504399 0.69400001 0.01095132 9.1301643e-39 317 231
-0.0024441467 0.69700003 0.01099866 9.9552881e-39 318 231
-0.0012238267 0.69800001 0.01101444 9.6790614e-39 319 231
0 0.69800001 0.01101444 9.7698277e-39 320 231
0.0012238267 0.69800001 0.01101444 9.7698277e-39 321 231
0.0024546667 0.69999999 0.011045999 1.0045689e-38 322 231
0.0036819996 0.69999999 0.011045999 1.0137884e-38 323 231
0.0049093333 0.69999999 0.011045999 9.7698249e-39 324 231
0.0061454331 0.70099998 0.011061779 8.7560317e-39 325 231
0.0073745195 0.70099998 0.011061779 7.5589528e-39 326 231
0.0086404262 0.704 0.011109119 8.9418873e-39 327 231
0.0098747732 0.704 0.011109119 9.5876364e-39 328 231
0.01121958 0.71100003 0.01121958 1.1155321e-38 329 231
-0.057747785 0.71600002 0.010043093 1.5673623e-38 274 232
-0.056492399 0.71600002 0.010043093 1.5673623e-38 275 232
-0.05508272 0.71399999 0.01001504 1.5489592e-38 276 232
-0.053830836 0.71399999 0.01001504 1.5397396e-38 277 232
-0.052505318 0.713 0.010001013 1.2631174e-38 278 232
-0.051039528 0.70999998 0.0099589331 1.0510314e-38 279 232
-0.049654398 0.708 0.0099308798 9.6823586e-39 280 232
-0.048344657 0.70700002 0.0099168532 9.8667499e-39 281 232
-0.046638668 0.69999999 0.0098186666 9.7745486e-39 282 232
-0.045281585 0.69800001 0.0097906133 9.2217336e-39 283 232
-0.04405776 0.69800001 0.0097906133 8.577418e-39 284 232
-0.042772565 0.69700003 0.0097765867 7.6551015e-39 285 232
-0.041550495 0.69700003 0.0097765867 7.1973478e-39 286 232
-0.040270556 0.69599998 0.0097625591 7.1051521e-39 287 232
-0.038938027 0.69400001 0.0097345067 6.7395814e-39 288 232
-0.037666857 0.69300002 0.0097204801 6.9236125e-39 289 232
-0.036451802 0.69300002 0.0097204801 7.0186248e-39 290 232
-0.035135046 0.69099998 0.0096924258 6.9260704e-39 291 232
-0.033923492 0.69099998 0.0096924258 6.5601395e-39 292 232
-0.032711938 0.69099998 0.0096924258 6.3757511e-39 293 232
-0.031500384 0.69099998 0.0096924258 6.3743161e-39 294 232
-0.030244999 0.69 0.0096783992 6.0980922e-39 295 232
