# .PCD v.7 - Point Cloud Data file format
FIELDS x y z rgb imX imY
SIZE 4 4 4 4 4 4
TYPE F F F F F F
COUNT 1 1 1 1 1 1
WIDTH 838
HEIGHT 1
VIEWPOINT 0 0 0 1 0 0 0
POINTS 838
DATA ascii
0.022123558 0.70099998 0.013519952 8.2103506e-39 338 229
0.023419274 0.70300001 0.013558527 8.3025463e-39 339 229
0.024686933 0.704 0.013577812 9.0379841e-39 340 229
0.025994917 0.70599997 0.013616386 9.0379841e-39 341 229
0.027232772 0.70599997 0.013616386 1.013861e-38 342 229
0.028470624 0.70599997 0.013616386 1.0599588e-38 343 229
-0.039243106 0.722 0.012659066 1.5489589e-38 289 230
-0.037871998 0.72000003 0.012624 1.5673623e-38 290 230
-0.036558751 0.71899998 0.012606465 1.5858014e-38 291 230
-0.035150826 0.71600002 0.012553867 1.3369455e-38 292 230
-0.033800758 0.71399999 0.012518799 1.1710293e-38 293 230
-0.032503292 0.713 0.012501267 1.0144043e-38 294 230
-0.031121666 0.70999998 0.012448666 1.0697217e-38 295 230
-0.02979264 0.708 0.0124136 1.1710996e-38 296 230
-0.028510952 0.70700002 0.012396066 1.1341855e-38 297 230
-0.027232772 0.70599997 0.012378532 1.0697186e-38 298 230
-0.02592128 0.704 0.012343466 1.0420958e-38 299 230
-0.024581732 0.70099998 0.012290866 9.2238243e-39 300 230
-0.023252707 0.69800001 0.012238266 6.2732054e-39 301 230
-0.02202888 0.69800001 0.012238266 4.8927723e-39 302 230
-0.020745439 0.69599998 0.0122032 4.4321529e-39 303 230
-0.019525118 0.69599998 0.0122032 2.9577599e-39 304 230
-0.0182522 0.69400001 0.012168133 2.7733672e-39 305 230
-0.017035386 0.69400001 0.012168133 1.2168666e-39 306 230
-0.015818574 0.69400001 0.012168133 4.6277447e-39 307 230
-0.01460176 0.69400001 0.012168133 1.0056138e-38 308 230
-0.013384946 0.69400001 0.012168133 1.0240529e-38 309 230
-0.012168133 0.69400001 0.012168133 1.1247456e-38 310 230
-0.01095132 0.69400001 0.012168133 9.9567174e-39 311 230
-0.0097345067 0.69400001 0.012168133 8.3025659e-39 312 230
-0.0085054198 0.69300002 0.012150601 6.8274344e-39 313 230
-0.0072903596 0.69300002 0.012150601 7.4713409e-39 314 230
-0.0060753003 0.69300002 0.012150601 7.6557321e-39 315 230
-0.00486024 0.69300002 0.012150601 7.1072064e-39 316 230
-0.0036346598 0.69099998 0.012115533 7.1072064e-39 317 230
-0.0024231065 0.69099998 0.012115533 6.6491052e-39 318 230
-0.0012115532 0.69099998 0.012115533 6.6491052e-39 319 230
0 0.69099998 0.012115533 6.4650754e-39 320 230
0.0012115532 0.69099998 0.012115533 6.4650754e-39 321 230
0.0024231065 0.69099998 0.012115533 6.5569109e-39 322 230
0.0036346598 0.69099998 0.012115533 6.5569109e-39 323 230
0.0048462129 0.69099998 0.012115533 6.7398645e-39 324 230
0.0060753003 0.69300002 0.012150601 6.3714463e-39 325 230
0.0072903596 0.69300002 0.012150601 7.1039779e-39 326 230
0.0085054198 0.69300002 0.012150601 7.0117836e-39 327 230
0.0097204801 0.69300002 0.012150601 7.3773319e-39 328 230
0.01095132 0.69400001 0.012168133 7.4695262e-39 329 230
0.012168133 0.69400001 0.012168133 7.2862293e-39 330 230
0.013423519 0.69599998 0.0122032 8.0237944e-39 331 230
0.014643839 0.69599998 0.0122032 9.8637931e-39 332 230
0.015886955 0.69700003 0.012220734 1.0417327e-38 333 230
0.017133573 0.69800001 0.012238266 1.023223e-38 334 230
0.0183574 0.69800001 0.012238266 9.5868601e-39 335 230
0.019637333 0.69999999 0.012273333 8.6674009e-39 336 230
0.020894472 0.70099998 0.012290866 8.944348e-39 337 230
0.02218668 0.70300001 0.012325933 9.5875622e-39 338 230
0.023452586 0.704 0.012343466 9.9563447e-39 339 230
0.024686933 0.704 0.012343466 9.5883077e-39 340 230
0.025994917 0.70599997 0.012378532 9.3117208e-39 341 230
0.027232772 0.70599997 0.012378532 9.7691214e-39 342 230
0.028470624 0.70599997 0.012378532 9.861317e-39 343 230
-0.039243106 0.722 0.01139316 1.5489589e-38 289 231
-0.037871998 0.72000003 0.011361601 1.5673979e-38 290 231
-0.036558751 0.71899998 0.01134582 1.5766174e-38 291 231
-0.035150826 0.71600002 0.01129848 1.3461651e-38 292 231
-0.033800758 0.71399999 0.011266919 1.1710293e-38 293 231
-0.032503292 0.713 0.011251139 9.1309799e-39 294 231
-0.031121666 0.70999998 0.011203799 1.0606469e-38 295 231
-0.02979264 0.708 0.01117224 1.226311e-38 296 231
-0.028510952 0.70700002 0.011156459 1.2355306e-38 297 231
-0.027232772 0.70599997 0.011140679 1.207942e-38 298 231
-0.02592128 0.704 0.011109119 1.1526246e-38 299 231
-0.024686933 0.704 0.011109119 1.0696469e-38 300 231
-0.023319334 0.69999999 0.011045999 8.9447529e-39 301 231
-0.022091998 0.69999999 0.011045999 8.1178439e-39 302 231
-0.020775247 0.69700003 0.01099866 7.1036906e-39 303 231
-0.019525118 0.69599998 0.010982879 5.9047789e-39 304 231
-0.018304799 0.69599998 0.010982879 4.61404e-39 305 231
-0.017084479 0.69599998 0.010982879 1.1217618e-39 306 231
-0.015818574 0.69400001 0.01095132 2.5968919e-39 307 231
-0.01460176 0.69400001 0.01095132 8.4905949e-39 308 231
-0.013384946 0.69400001 0.01095132 9.965725e-39 309 231
-0.012168133 0.69400001 0.01095132 1.2077252e-38 310 231
-0.01095132 0.69400001 0.01095132 1.0325895e-38 311 231
-0.0097345067 0.69400001 0.01095132 7.8401864e-39 312 231
-0.0085176928 0.69400001 0.01095132 7.010067e-39 313 231
-0.0072903596 0.69300002 0.010935539 7.6539371e-39 314 231
-0.0060753003 0.69300002 0.010935539 8.0227196e-39 315 231
-0.00486024 0.69300002 0.010935539 7.4756246e-39 316 231
-0.0036451798 0.69300002 0.010935539 7.2915949e-39 317 231
-0.00243012 0.69300002 0.010935539 6.7412994e-39 318 231
-0.00121506 0.69300002 0.010935539 6.7412994e-39 319 231
0 0.69300002 0.010935539 6.4650754e-39 320 231
0.00121506 0.69300002 0.010935539 6.4650754e-39 321 231
0.00243012 0.69300002 0.010935539 6.464358e-39 322 231
0.0036451798 0.69300002 0.010935539 6.464358e-39 323 231
0.00486024 0.69300002 0.010935539 6.6469528e-39 324 231
0.0060753003 0.69300002 0.010935539 6.5547585e-39 325 231
0.0072903596 0.69300002 0.010935539 7.0128598e-39 326 231
0.0085054198 0.69300002 0.010935539 7.0128598e-39 327 231
0.0097345067 0.69400001 0.01095132 7.1950959e-39 328 231
0.01095132 0.69400001 0.01095132 7.3794843e-39 329 231
0.012168133 0.69400001 0.01095132 7.9305239e-39 330 231
0.013423519 0.69599998 0.010982879 8.8521201e-39 331 231
0.01466488 0.69700003 0.01099866 1.0691411e-38 332 231
0.015909746 0.69800001 0.01101444 1.0691411e-38 333 231
0.017133573 0.69800001 0.01101444 1.0322994e-38 334 231
0.018409999 0.69999999 0.011045999 9.9545721e-39 335 231
0.019637333 0.69999999 0.011045999 9.6797802e-39 336 231
0.020894472 0.70099998 0.011061779 9.7719759e-39 337 231
0.02218668 0.70300001 0.01109334 9.0362255e-39 338 231
0.023452586 0.704 0.011109119 9.3128124e-39 339 231
0.024757065 0.70599997 0.011140679 1.0230828e-38 340 231
0.025994917 0.70599997 0.011140679 9.0322851e-39 341 231
0.027232772 0.70599997 0.011140679 8.4801987e-39 342 231
0.028470624 0.70599997 0.011140679 7.5586025e-39 343 231
-0.0379772 0.722 0.010127253 1.5398112e-38 290 232
-0.036558751 0.71899998 0.010085173 1.5582862e-38 291 232
-0.035150826 0.71600002 0.010043093 1.3554568e-38 292 232
-0.033800758 0.71399999 0.01001504 1.1250037e-38 293 232
-0.032548878 0.71399999 0.01001504 6.9222477e-39 294 232
-0.031253166 0.713 0.010001013 8.8583559e-39 295 232
-0.02979264 0.708 0.0099308798 1.1159287e-38 296 232
-0.028510952 0.70700002 0.0099168532 1.1804656e-38 297 232
-0.027232772 0.70599997 0.0099028256 1.2448931e-38 298 232
-0.025994917 0.70599997 0.0099028256 1.2541127e-38 299 232
-0.024686933 0.704 0.0098747732 1.1801391e-38 300 232
-0.023352645 0.70099998 0.0098326923 9.6808915e-39 301 232
-0.022091998 0.69999999 0.0098186666 1.0051466e-38 302 232
-0.020775247 0.69700003 0.0097765867 1.0789031e-38 303 232
-0.019553173 0.69700003 0.0097765867 1.0513159e-38 304 232
-0.018304799 0.69599998 0.0097625591 9.8677896e-39 305 232
-0.017084479 0.69599998 0.0097625591 8.3948064e-39 306 232
-0.015818574 0.69400001 0.0097345067 8.1178593e-39 307 232
-0.01460176 0.69400001 0.0097345067 9.0398226e-39 308 232
-0.013384946 0.69400001 0.0097345067 1.0514593e-38 309 232
-0.012168133 0.69400001 0.0097345067 1.1710996e-38 310 232
-0.01095132 0.69400001 0.0097345067 1.0328062e-38 311 232
-0.0097345067 0.69400001 0.0097345067 8.8543608e-39 312 232
-0.0085176928 0.69400001 0.0097345067 9.2227846e-39 313 232
-0.0073008798 0.69400001 0.0097345067 1.0231471e-38 314 232
-0.0060840664 0.69400001 0.0097345067 9.4017094e-39 315 232
-0.00486024 0.69300002 0.0097204801 7.4774183e-39 316 232
-0.0036451798 0.69300002 0.0097204801 7.3852241e-39 317 232
-0.00243012 0.69300002 0.0097204801 6.7420169e-39 318 232
-0.00121506 0.69300002 0.0097204801 6.5576284e-39 319 232
0 0.69300002 0.0097204801 6.3739574e-39 320 232
0.00121506 0.69300002 0.0097204801 6.2817632e-39 321 232
0.00243012 0.69300002 0.0097204801 6.5569109e-39 322 232
0.0036451798 0.69300002 0.0097204801 6.464358e-39 323 232
0.00486024 0.69300002 0.0097204801 6.739147e-39 324 232
0.0060753003 0.69300002 0.0097204801 6.6469528e-39 325 232
0.0072903596 0.69300002 0.0097204801 6.7384295e-39 326 232
0.0085176928 0.69400001 0.0097345067 6.8309825e-39 327 232
0.0097345067 0.69400001 0.0097345067 7.4731359e-39 328 232
0.01095132 0.69400001 0.0097345067 7.8419184e-39 329 232
0.0122032 0.69599998 0.0097625591 9.4964413e-39 330 232
0.013423519 0.69599998 0.0097625591 1.0234008e-38 331 232
0.01466488 0.69700003 0.0097765867 1.0691784e-38 332 232
0.015909746 0.69800001 0.0097906133 1.0322641e-38 333 232
0.017133573 0.69800001 0.0097906133 1.0229732e-38 334 232
0.018409999 0.69999999 0.0098186666 1.0414124e-38 335 232
0.019637333 0.69999999 0.0098186666 9.9553147e-39 336 232
0.020954086 0.70300001 0.0098607466 8.0192065e-39 337 232
0.02218668 0.70300001 0.0098607466 3.7904549e-39 338 232
0.023452586 0.704 0.0098747732 5.5421705e-39 339 232
0.024757065 0.70599997 0.0099028256 9.7680648e-39 340 232
0.025994917 0.70599997 0.0099028256 9.0304998e-39 341 232
0.027271347 0.70700002 0.0099168532 6.0827634e-39 342 232
0.028510952 0.70700002 0.0099168532 3.5012857e-39 343 232
-0.036558751 0.71899998 0.0088245263 1.5857654e-38 291 233
-0.035150826 0.71600002 0.0087877065 1.3554568e-38 292 233
-0.033800758 0.71399999 0.0087631596 1.1342233e-38 293 233
-0.032548878 0.71399999 0.0087631596 5.7229884e-39 294 233
-0.031253166 0.713 0.0087508867 5.9992152e-39 295 233
-0.029876797 0.70999998 0.0087140659 9.0384311e-39 296 233
-0.02855128 0.708 0.008689519 1.0606117e-38 297 233
-0.027271347 0.70700002 0.008677247 1.2446779e-38 298 233
-0.025994917 0.70599997 0.0086649731 1.2723367e-38 299 233
-0.024686933 0.704 0.0086404262 1.1706693e-38 300 233
-0.023352645 0.70099998 0.0086036054 7.9266732e-39 301 233
-0.022123558 0.70099998 0.0086036054 7.2838261e-39 302 233
-0.020805053 0.69800001 0.0085667865 9.404327e-39 303 233
-0.019581227 0.69800001 0.0085667865 1.0422075e-38 304 233
-0.018331099 0.69700003 0.0085545136 1.1620259e-38 305 233
-0.017109027 0.69700003 0.0085545136 1.1526246e-38 306 233
-0.015886955 0.69700003 0.0085545136 1.0788681e-38 307 233
-0.01466488 0.69700003 0.0085545136 1.0420975e-38 308 233
-0.013423519 0.69599998 0.0085422397 1.0605725e-38 309 233
-0.0122032 0.69599998 0.0085422397 1.1158545e-38 310 233
-0.010982879 0.69599998 0.0085422397 1.0605371e-38 311 233
-0.0097625591 0.69599998 0.0085422397 1.0143312e-38 312 233
-0.0085176928 0.69400001 0.0085176928 1.0880877e-38 313 233
-0.0073008798 0.69400001 0.0085176928 1.1707339e-38 314 233
-0.0060840664 0.69400001 0.0085176928 1.0324404e-38 315 233
-0.0048672534 0.69400001 0.0085176928 9.4063351e-39 316 233
-0.0036504399 0.69400001 0.0085176928 8.9453569e-39 317 233
-0.00243012 0.69300002 0.0085054198 7.8429666e-39 318 233
-0.00121506 0.69300002 0.0085054198 7.3823542e-39 319 233
0 0.69300002 0.0085054198 6.7412994e-39 320 233
0.00121506 0.69300002 0.0085054198 6.7412994e-39 321 233
0.00243012 0.69300002 0.0085054198 6.8324174e-39 322 233
0.0036451798 0.69300002 0.0085054198 6.8324174e-39 323 233
0.00486024 0.69300002 0.0085054198 7.0146535e-39 324 233
0.0060840664 0.69400001 0.0085176928 7.1994007e-39 325 233
0.0073008798 0.69400001 0.0085176928 8.209259e-39 326 233
0.0085176928 0.69400001 0.0085176928 8.4858459e-39 327 233
0.0097345067 0.69400001 0.0085176928 9.1280134e-39 328 233
0.01095132 0.69400001 0.0085176928 9.4964357e-39 329 233
0.0122032 0.69599998 0.0085422397 9.3120711e-39 330 233
0.013442807 0.69700003 0.0085545136 9.1276784e-39 331 233
0.01466488 0.69700003 0.0085545136 8.3897841e-39 332 233
0.015909746 0.69800001 0.0085667865 7.6522177e-39 333 233
0.017133573 0.69800001 0.0085667865 8.9426034e-39 334 233
0.018436298 0.70099998 0.0086036054 9.5879728e-39 335 233
0.019665385 0.70099998 0.0086036054 9.8609793e-39 336 233
0.020954086 0.70300001 0.0086281532 7.2798604e-39 337 233
0.022218239 0.704 0.0086404262 1.484153e-39 338 233
0.023452586 0.704 0.0086404262 4.1578263e-39 339 233
0.024757065 0.70599997 0.0086649731 8.7560863e-39 340 233
0.025994917 0.70599997 0.0086649731 7.1887606e-39 341 233
0.027271347 0.70700002 0.008677247 4.8842202e-39 342 233
0.028510952 0.70700002 0.008677247 2.8559163e-39 343 233
-0.035150826 0.71600002 0.00753232 1.3829713e-38 292 234
-0.033800758 0.71399999 0.0075112795 1.1985802e-38 293 234
-0.032548878 0.71399999 0.0075112795 5.812303e-39 294 234
-0.031253166 0.713 0.0075007593 3.3233811e-39 295 234
-0.029876797 0.70999998 0.0074691991 4.516179e-39 296 234
-0.02855128 0.708 0.0074481601 7.0976566e-39 297 234
-0.027271347 0.70700002 0.0074376399 7.5622319e-39 298 234
-0.02603174 0.70700002 0.0074376399 8.1154043e-39 299 234
-0.024757065 0.70599997 0.0074271196 6.9143415e-39 300 234
-0.023419274 0.70300001 0.0073955595 2.3967557e-39 301 234
-0.02218668 0.70300001 0.0073955595 1.7542757e-39 302 234
-0.020864666 0.69999999 0.0073639993 2.5840364e-39 303 234
-0.019581227 0.69800001 0.0073429602 5.3599694e-39 304 234
-0.0183574 0.69800001 0.0073429602 8.9552389e-39 305 234
-0.017133573 0.69800001 0.0073429602 1.1157836e-38 306 234
-0.015886955 0.69700003 0.00733244 1.1342586e-38 307 234
-0.01466488 0.69700003 0.00733244 1.1708489e-38 308 234
-0.013442807 0.69700003 0.00733244 9.9571308e-39 309 234
-0.012220734 0.69700003 0.00733244 7.7509139e-39 310 234
-0.010982879 0.69599998 0.0073219193 9.5948251e-39 311 234
-0.0097625591 0.69599998 0.0073219193 1.152553e-38 312 234
-0.0085176928 0.69400001 0.0073008798 1.1248942e-38 313 234
-0.0073008798 0.69400001 0.0073008798 1.1707378e-38 314 234
-0.0060840664 0.69400001 0.0073008798 1.1615182e-38 315 234
-0.0048672534 0.69400001 0.0073008798 1.1615867e-38 316 234
-0.0036504399 0.69400001 0.0073008798 1.0786105e-38 317 234
-0.0024336267 0.69400001 0.0073008798 9.2208872e-39 318 234
-0.0012168133 0.69400001 0.0073008798 8.2992896e-39 319 234
0 0.69400001 0.0073008798 6.7423756e-39 320 234
0.0012168133 0.69400001 0.0073008798 6.5583459e-39 321 234
0.0024336267 0.69400001 0.0073008798 7.0168101e-39 322 234
0.0036504399 0.69400001 0.0073008798 6.9242557e-39 323 234
0.0048672534 0.69400001 0.0073008798 7.1997958e-39 324 234
0.0060840664 0.69400001 0.0073008798 8.306142e-39 325 234
0.0073008798 0.69400001 0.0073008798 1.0416977e-38 326 234
0.0085176928 0.69400001 0.0073008798 1.1062346e-38 327 234
0.0097625591 0.69599998 0.0073219193 1.1059846e-38 328 234
0.010982879 0.69599998 0.0073219193 1.0229727e-38 329 234
0.0122032 0.69599998 0.0073219193 5.8079323e-39 330 234
0.013442807 0.69700003 0.00733244 2.6732809e-39 331 234
0.01468592 0.69800001 0.0073429602 1.1149768e-39 332 234
0.015955333 0.69999999 0.0073639993 2.4982699e-39 333 234
0.017182667 0.69999999 0.0073639993 7.5629353e-39 334 234
0.018436298 0.70099998 0.0073745195 9.0380654e-39 335 234
0.019665385 0.70099998 0.0073745195 9.8606318e-39 336 234
0.020954086 0.70300001 0.0073955595 7.3713498e-39 337 234
0.022218239 0.704 0.0074060797 3.6896623e-39 338 234
0.023452586 0.704 0.0074060797 4.9804011e-39 339 234
0.024757065 0.70599997 0.0074271196 6.2714931e-39 340 234
0.02603174 0.70700002 0.0074376399 5.533928e-39 341 234
0.027271347 0.70700002 0.0074376399 5.6178378e-39 342 234
0.02855128 0.708 0.0074481601 4.604046e-39 343 234
-0.035150826 0.71600002 0.0062769335 1.4198853e-38 292 235
-0.033800758 0.71399999 0.0062593995 1.2170549e-38 293 235
-0.032548878 0.71399999 0.0062593995 6.6381008e-39 294 235
-0.031165501 0.71100003 0.0062330998 4.1488202e-39 295 235
-0.029876797 0.70999998 0.0062243328 4.1509922e-39 296 235
-0.02855128 0.708 0.0062067998 4.7038072e-39 297 235
-0.027271347 0.70700002 0.0061980332 4.98112e-39 298 235
-0.025994917 0.70599997 0.0061892662 5.5342938e-39 299 235
-0.024686933 0.704 0.0061717331 5.531054e-39 300 235
-0.023419274 0.70300001 0.0061629666 4.0559239e-39 301 235
-0.02218668 0.70300001 0.0061629666 4.2428361e-39 302 235
-0.020864666 0.69999999 0.0061366665 3.5052696e-39 303 235
-0.019637333 0.69999999 0.0061366665 4.4351335e-39 304 235
-0.0183574 0.69800001 0.006119133 8.3995455e-39 305 235
-0.017133573 0.69800001 0.006119133 1.1157486e-38 306 235
-0.015909746 0.69800001 0.006119133 1.1434432e-38 307 235
-0.01468592 0.69800001 0.006119133 1.1617022e-38 308 235
-0.013442807 0.69700003 0.0061103669 9.3121314e-39 309 235
-0.012220734 0.69700003 0.0061103669 6.7356858e-39 310 235
-0.01099866 0.69700003 0.0061103669 9.594109e-39 311 235
-0.0097765867 0.69700003 0.0061103669 1.1985788e-38 312 235
-0.0085422397 0.69599998 0.0061015999 1.1616647e-38 313 235
-0.0073008798 0.69400001 0.0060840664 1.1801028e-38 314 235
-0.0060840664 0.69400001 0.0060840664 1.1801028e-38 315 235
-0.0048672534 0.69400001 0.0060840664 1.161698e-38 316 235
-0.0036504399 0.69400001 0.0060840664 1.1063808e-38 317 235
-0.0024336267 0.69400001 0.0060840664 1.0693541e-38 318 235
-0.0012168133 0.69400001 0.0060840664 1.0048172e-38 319 235
0 0.69400001 0.0060840664 9.4989287e-39 320 235
0.0012168133 0.69400001 0.0060840664 9.4063729e-39 321 235
0.0024336267 0.69400001 0.0060840664 9.589339e-39 322 235
0.0036504399 0.69400001 0.0060840664 9.589339e-39 323 235
0.0048672534 0.69400001 0.0060840664 9.4053359e-39 324 235
0.0060840664 0.69400001 0.0060840664 1.0050705e-38 325 235
0.0073008798 0.69400001 0.0060840664 1.0877617e-38 326 235
0.0085422397 0.69599998 0.0061015999 1.1062008e-38 327 235
0.0097625591 0.69599998 0.0061015999 1.0876545e-38 328 235
0.01099866 0.69700003 0.0061103669 1.0046783e-38 329 235
0.012220734 0.69700003 0.0061103669 8.1081581e-39 330 235
0.013462093 0.69800001 0.006119133 5.5266805e-39 331 235
0.014727999 0.69999999 0.0061366665 4.5165139e-39 332 235
0.015955333 0.69999999 0.0061366665 4.9774906e-39 333 235
0.017182667 0.69999999 0.0061366665 7.4675125e-39 334 235
0.018488899 0.70300001 0.0061629666 8.1128819e-39 335 235
0.019721493 0.70300001 0.0061629666 7.6508276e-39 336 235
0.020954086 0.70300001 0.0061629666 6.3600888e-39 337 235
0.022218239 0.704 0.0061717331 4.2417627e-39 338 235
0.023452586 0.704 0.0061717331 4.8871321e-39 339 235
0.024757065 0.70599997 0.0061892662 5.4413779e-39 340 235
0.02603174 0.70700002 0.0061980332 5.3491822e-39 341 235
0.027271347 0.70700002 0.0061980332 4.9775074e-39 342 235
0.02855128 0.708 0.0062067998 4.0559099e-39 343 235
-0.035150826 0.71600002 0.0050215465 1.484314e-38 292 236
-0.033800758 0.71399999 0.0050075199 1.2999228e-38 293 236
-0.032548878 0.71399999 0.0050075199 7.3742239e-39 294 236
-0.031165501 0.71100003 0.0049864799 4.8849419e-39 295 236
-0.029876797 0.70999998 0.0049794666 6.0820599e-39 296 236
-0.02855128 0.708 0.0049654399 5.5288861e-39 297 236
-0.027271347 0.70700002 0.0049584266 4.6108927e-39 298 236
-0.025994917 0.70599997 0.0049514128 5.0718709e-39 299 236
-0.024686933 0.704 0.0049373866 5.5296078e-39 300 236
-0.023419274 0.70300001 0.0049303733 5.4374122e-39 301 236
-0.02218668 0.70300001 0.0049303733 4.9825549e-39 302 236
-0.020894472 0.70099998 0.0049163462 4.9825549e-39 303 236
-0.019637333 0.69999999 0.0049093333 5.3531297e-39 304 236
-0.018409999 0.69999999 0.0049093333 7.8424117e-39 305 236
-0.017182667 0.69999999 0.0049093333 9.6834376e-39 306 236
-0.015909746 0.69800001 0.0048953067 1.005186e-38 307 236
-0.01468592 0.69800001 0.0048953067 1.0972372e-38 308 236
-0.013462093 0.69800001 0.0048953067 9.6816327e-39 309 236
-0.012220734 0.69700003 0.0048882933 7.8413159e-39 310 236
-0.01099866 0.69700003 0.0048882933 9.8696197e-39 311 236
-0.0097765867 0.69700003 0.0048882933 1.216875e-38 312 236
-0.0085422397 0.69599998 0.0048812795 1.1984e-38 313 236
-0.0073219193 0.69599998 0.0048812795 1.1801391e-38 314 236
-0.0061015999 0.69599998 0.0048812795 1.1617e-38 315 236
-0.0048672534 0.69400001 0.0048672534 1.1340766e-38 316 236
-0.0036504399 0.69400001 0.0048672534 1.1340766e-38 317 236
-0.0024336267 0.69400001 0.0048672534 1.1615185e-38 318 236
-0.0012168133 0.69400001 0.0048672534 1.1430435e-38 319 236
0 0.69400001 0.0048672534 1.1247476e-38 320 236
0.0012168133 0.69400001 0.0048672534 1.1247476e-38 321 236
0.0024336267 0.69400001 0.0048672534 1.1522265e-38 322 236
0.0036504399 0.69400001 0.0048672534 1.1522265e-38 323 236
0.0048672534 0.69400001 0.0048672534 1.0878696e-38 324 236
0.0061015999 0.69599998 0.0048812795 1.0878696e-38 325 236
0.0073219193 0.69599998 0.0048812795 1.087762e-38 326 236
0.0085422397 0.69599998 0.0048812795 1.0785066e-38 327 236
0.0097765867 0.69700003 0.0048882933 1.0967309e-38 328 236
0.01099866 0.69700003 0.0048882933 1.0783276e-38 329 236
0.012220734 0.69700003 0.0048882933 9.768055e-39 330 236
0.013462093 0.69800001 0.0048953067 7.9241424e-39 331 236
0.014727999 0.69999999 0.0049093333 6.176031e-39 332 236
0.015955333 0.69999999 0.0049093333 6.2682266e-39 333 236
0.017207211 0.70099998 0.0049163462 6.3615237e-39 334 236
0.018488899 0.70300001 0.0049303733 5.5314043e-39 335 236
0.019721493 0.70300001 0.0049303733 4.9778858e-39 336 236
0.020954086 0.70300001 0.0049303733 5.2541125e-39 337 236
0.022218239 0.704 0.0049373866 4.8860559e-39 338 236
0.023452586 0.704 0.0049373866 4.9782515e-39 339 236
0.024757065 0.70599997 0.0049514128 5.2559118e-39 340 236
0.02603174 0.70700002 0.0049584266 5.1637162e-39 341 236
0.027309919 0.708 0.0049654399 5.0700562e-39 342 236
0.028631933 0.70999998 0.0049794666 4.609078e-39 343 236
-0.03389544 0.71600002 0.00376616 1.3737152e-38 293 237
-0.032548878 0.71399999 0.0037556398 8.0195877e-39 294 237
-0.031253166 0.713 0.0037503797 5.0696876e-39 295 237
-0.029918881 0.71100003 0.0037398601 6.4497536e-39 296 237
-0.028631933 0.70999998 0.0037345996 6.357558e-39 297 237
-0.027309919 0.708 0.00372408 5.4374094e-39 298 237
-0.02603174 0.70700002 0.0037188199 5.7143564e-39 299 237
-0.024757065 0.70599997 0.0037135598 6.0820599e-39 300 237
-0.023419274 0.70300001 0.0036977797 5.8054716e-39 301 237
-0.02218668 0.70300001 0.0036977797 4.059521e-39 302 237
-0.020954086 0.70300001 0.0036977797 3.7829327e-39 303 237
-0.019665385 0.70099998 0.0036872597 4.9832738e-39 304 237
-0.018436298 0.70099998 0.0036872597 7.0115776e-39 305 237
-0.017182667 0.69999999 0.0036819996 6.7249112e-39 306 237
-0.015955333 0.69999999 0.0036819996 6.8171068e-39 307 237
-0.01468592 0.69800001 0.0036714801 7.4696663e-39 308 237
-0.013462093 0.69800001 0.0036714801 7.6536974e-39 309 237
-0.012238266 0.69800001 0.0036714801 7.37567e-39 310 237
-0.01101444 0.69800001 0.0036714801 7.9288424e-39 311 237
-0.0097906133 0.69800001 0.0036714801 8.941551e-39 312 237
-0.0085545136 0.69700003 0.00366622 8.7571583e-39 313 237
-0.00733244 0.69700003 0.00366622 8.1186104e-39 314 237
-0.0061103669 0.69700003 0.00366622 9.1324022e-39 315 237
-0.0048812795 0.69599998 0.0036609597 1.0787962e-38 316 237
-0.0036609597 0.69599998 0.0036609597 1.1341136e-38 317 237
-0.0024336267 0.69400001 0.0036504399 1.1340772e-38 318 237
-0.0012168133 0.69400001 0.0036504399 1.1156022e-38 319 237
0 0.69400001 0.0036504399 1.1155659e-38 320 237
0.0012168133 0.69400001 0.0036504399 1.1155659e-38 321 237
0.0024406398 0.69599998 0.0036609597 1.1338968e-38 322 237
0.0036609597 0.69599998 0.0036609597 1.1338968e-38 323 237
0.0048812795 0.69599998 0.0036609597 1.1154573e-38 324 237
0.0061015999 0.69599998 0.0036609597 1.1062377e-38 325 237
0.0073219193 0.69599998 0.0036609597 1.1152056e-38 326 237
0.0085545136 0.69700003 0.00366622 1.1152056e-38 327 237
0.0097765867 0.69700003 0.00366622 1.1059863e-38 328 237
0.01099866 0.69700003 0.00366622 1.1152059e-38 329 237
0.012220734 0.69700003 0.00366622 1.0137556e-38 330 237
0.013462093 0.69800001 0.0036714801 8.2014482e-39 331 237
0.014727999 0.69999999 0.0036819996 6.0813172e-39 332 237
0.015955333 0.69999999 0.0036819996 6.7266866e-39 333 237
0.017207211 0.70099998 0.0036872597 6.360795e-39 334 237
0.018488899 0.70300001 0.0036977797 5.8076212e-39 335 237
0.019749546 0.704 0.0037030398 5.4367059e-39 336 237
0.020983893 0.704 0.0037030398 5.2526748e-39 337 237
0.022218239 0.704 0.0037030398 4.7023877e-39 338 237
0.023519212 0.70599997 0.0037135598 4.6101921e-39 339 237
0.024792133 0.70700002 0.0037188199 4.7956553e-39 340 237
0.02603174 0.70700002 0.0037188199 4.5194286e-39 341 237
0.027309919 0.708 0.00372408 4.4275566e-39 342 237
0.028631933 0.70999998 0.0037345996 5.2573187e-39 343 237
0.030003037 0.713 0.0037503797 1.0691446e-38 344 237
0.031253166 0.713 0.0037503797 1.4103045e-38 345 237
-0.03389544 0.71600002 0.0025107733 1.4197771e-38 293 238
-0.032548878 0.71399999 0.0025037599 9.8631317e-39 294 238
-0.031253166 0.713 0.0025002533 6.5440891e-39 295 238
-0.030003037 0.713 0.0025002533 7.4638831e-39 296 238
-0.028631933 0.70999998 0.0024897333 6.6341225e-39 297 238
-0.027309919 0.708 0.00248272 4.794893e-39 298 238
-0.02603174 0.70700002 0.0024792133 5.9012392e-39 299 238
-0.024757065 0.70599997 0.0024757064 6.7277825e-39 300 238
-0.023452586 0.704 0.0024686933 5.2526524e-39 301 238
-0.022218239 0.704 0.0024686933 2.8584751e-39 302 238
-0.020983893 0.704 0.0024686933 2.9506721e-39 303 238
-0.019721493 0.70300001 0.0024651866 5.2584327e-39 304 238
-0.018488899 0.70300001 0.0024651866 7.5633235e-39 305 238
-0.017207211 0.70099998 0.0024581731 5.7147193e-39 306 238
-0.015955333 0.69999999 0.0024546667 4.6087305e-39 307 238
-0.014727999 0.69999999 0.0024546667 4.9785892e-39 308 238
-0.013500666 0.69999999 0.0024546667 4.9785892e-39 309 238
-0.012238266 0.69800001 0.0024476533 4.9771515e-39 310 238
-0.01101444 0.69800001 0.0024476533 4.6087277e-39 311 238
-0.0097906133 0.69800001 0.0024476533 4.3339387e-39 312 238
-0.0085667865 0.69800001 0.0024476533 4.610527e-39 313 238
-0.00733244 0.69700003 0.0024441467 3.2347756e-39 314 238
-0.0061103669 0.69700003 0.0024441467 6.1850357e-39 315 238
-0.0048812795 0.69599998 0.0024406398 9.8663785e-39 316 238
-0.0036609597 0.69599998 0.0024406398 1.1157117e-38 317 238
-0.0024406398 0.69599998 0.0024406398 1.1524084e-38 318 238
-0.0012203199 0.69599998 0.0024406398 1.1339334e-38 319 238
0 0.69599998 0.0024406398 1.1431164e-38 320 238
0.0012203199 0.69599998 0.0024406398 1.1338968e-38 321 238
0.0024406398 0.69599998 0.0024406398 1.1339324e-38 322 238
0.00366622 0.69700003 0.0024441467 1.124677e-38 323 238
0.0048882933 0.69700003 0.0024441467 1.1246052e-38 324 238
0.006119133 0.69800001 0.0024476533 1.1061661e-38 325 238
0.0073429602 0.69800001 0.0024476533 1.1427567e-38 326 238
0.0085667865 0.69800001 0.0024476533 1.1335371e-38 327 238
0.0097906133 0.69800001 0.0024476533 1.105986e-38 328 238
0.01101444 0.69800001 0.0024476533 1.1152056e-38 329 238
0.012238266 0.69800001 0.0024476533 1.0046433e-38 330 238
0.013500666 0.69999999 0.0024546667 8.2025216e-39 331 238
0.014727999 0.69999999 0.0024546667 5.8979994e-39 332 238
0.015978126 0.70099998 0.0024581731 6.5433688e-39 333 238
0.017207211 0.70099998 0.0024581731 6.0852843e-39 334 238
0.018515198 0.704 0.0024686933 5.6243062e-39 335 238
0.019749546 0.704 0.0024686933 5.2544657e-39 336 238
0.020983893 0.704 0.0024686933 5.0704345e-39 337 238
0.022281358 0.70599997 0.0024757064 4.4268742e-39 338 238
0.023552528 0.70700002 0.0024792133 4.5194286e-39 339 238
0.024792133 0.70700002 0.0024792133 5.4388583e-39 340 238
0.026068559 0.708 0.00248272 4.8856845e-39 341 238
0.027387066 0.70999998 0.0024897333 5.5306616e-39 342 238
0.028672259 0.71100003 0.0024932399 7.3745742e-39 343 238
0.029918881 0.71100003 0.0024932399 1.1153859e-38 344 238
0.031253166 0.713 0.0025002533 1.3642783e-38 345 238
-0.03389544 0.71600002 0.0012553866 1.3737871e-38 293 239
-0.032548878 0.71399999 0.00125188 1.2168384e-38 294 239
-0.031253166 0.713 0.0012501266 9.9553302e-39 295 239
-0.030003037 0.713 0.0012501266 9.0308501e-39 296 239
-0.028631933 0.70999998 0.0012448666 7.2794919e-39 297 239
-0.027309919 0.708 0.00124136 5.3480654e-39 298 239
-0.026068559 0.708 0.00124136 6.8231969e-39 299 239
-0.024757065 0.70599997 0.0012378532 6.91721e-39 300 239
-0.023452586 0.704 0.0012343467 4.7967091e-39 301 239
-0.022218239 0.704 0.0012343467 4.6073082e-39 302 239
-0.020983893 0.704 0.0012343467 4.4225582e-39 303 239
-0.019721493 0.70300001 0.0012325933 6.4540893e-39 304 239
-0.018488899 0.70300001 0.0012325933 8.3901961e-39 305 239
-0.017207211 0.70099998 0.0012290865 6.9154107e-39 306 239
-0.015955333 0.69999999 0.0012273333 4.9793025e-39 307 239
-0.014727999 0.69999999 0.0012273333 3.7782482e-39 308 239
-0.013500666 0.69999999 0.0012273333 3.6856938e-39 309 239
-0.012238266 0.69800001 0.0012238267 4.4211121e-39 310 239
-0.01101444 0.69800001 0.0012238267 3.7757427e-39 311 239
-0.0097906133 0.69800001 0.0012238267 2.6773082e-39 312 239
-0.0085667865 0.69800001 0.0012238267 4.8900034e-39 313 239
-0.0073429602 0.69800001 0.0012238267 5.0715037e-39 314 239
-0.0061103669 0.69700003 0.0012220733 5.6246775e-39 315 239
-0.0048882933 0.69700003 0.0012220733 9.2224469e-39 316 239
-0.00366622 0.69700003 0.0012220733 1.106672e-38 317 239
-0.0024406398 0.69599998 0.0012203199 1.1524084e-38 318 239
-0.0012203199 0.69599998 0.0012203199 1.1431888e-38 319 239
0 0.69599998 0.0012203199 1.133969e-38 320 239
0.0012203199 0.69599998 0.0012203199 1.1155659e-38 321 239
0.0024441467 0.69700003 0.0012220733 1.1338968e-38 322 239
0.00366622 0.69700003 0.0012220733 1.1246772e-38 323 239
0.0048953067 0.69800001 0.0012238267 1.1337172e-38 324 239
0.006119133 0.69800001 0.0012238267 1.1244976e-38 325 239
0.0073429602 0.69800001 0.0012238267 1.1244257e-38 326 239
0.0085667865 0.69800001 0.0012238267 1.1244257e-38 327 239
0.0097906133 0.69800001 0.0012238267 1.0876192e-38 328 239
0.01101444 0.69800001 0.0012238267 1.0876192e-38 329 239
0.012273333 0.69999999 0.0012273333 1.0046433e-38 330 239
0.013500666 0.69999999 0.0012273333 8.2025216e-39 331 239
0.014727999 0.69999999 0.0012273333 5.9884027e-39 332 239
0.015978126 0.70099998 0.0012290865 6.172794e-39 333 239
0.017207211 0.70099998 0.0012290865 5.8976659e-39 334 239
0.018515198 0.704 0.0012343467 5.8976659e-39 335 239
0.019749546 0.704 0.0012343467 4.9786047e-39 336 239
0.021043506 0.70599997 0.0012378532 4.6098235e-39 337 239
0.022281358 0.70599997 0.0012378532 4.4250805e-39 338 239
0.023552528 0.70700002 0.0012396066 4.9778956e-39 339 239
0.024827199 0.708 0.00124136 7.2788038e-39 340 239
0.026068559 0.708 0.00124136 8.0163689e-39 341 239
0.027387066 0.70999998 0.0012448666 8.8471707e-39 342 239
0.028672259 0.71100003 0.00124662 9.4003445e-39 343 239
0.029918881 0.71100003 0.00124662 1.1153854e-38 344 239
0.031253166 0.713 0.0012501266 1.3274713e-38 345 239
-0.03389544 0.71600002 -0 1.3369092e-38 293 240
-0.032640055 0.71600002 -0 1.2814837e-38 294 240
-0.031253166 0.713 -0 1.2169467e-38 295 240
-0.029918881 0.71100003 -0 1.0968037e-38 296 240
-0.028631933 0.70999998 -0 7.9255802e-39 297 240
-0.027309919 0.708 -0 4.8892424e-39 298 240
-0.02603174 0.70700002 -0 6.5484051e-39 299 240
-0.024757065 0.70599997 -0 8.0170695e-39 300 240
-0.023452586 0.704 -0 6.8185278e-39 301 240
-0.022218239 0.704 -0 6.5405199e-39 302 240
-0.020983893 0.704 -0 6.0795418e-39 303 240
-0.019749546 0.704 -0 5.6257705e-39 304 240
-0.018515198 0.704 -0 7.9306599e-39 305 240
-0.017256306 0.70300001 -0 6.54448e-39 306 240
-0.015978126 0.70099998 -0 5.1615456e-39 307 240
-0.014727999 0.69999999 -0 4.8817217e-39 308 240
-0.013500666 0.69999999 -0 4.8817217e-39 309 240
-0.012273333 0.69999999 -0 4.0548533e-39 310 240
-0.011045999 0.69999999 -0 3.7779077e-39 311 240
-0.0097906133 0.69800001 -0 3.2301275e-39 312 240
-0.0085667865 0.69800001 -0 5.8116051e-39 313 240
-0.0073429602 0.69800001 -0 5.9023378e-39 314 240
-0.006119133 0.69800001 -0 5.2569684e-39 315 240
-0.0048953067 0.69800001 -0 9.219563e-39 316 240
-0.00366622 0.69700003 -0 1.1801041e-38 317 240
-0.0024441467 0.69700003 -0 1.1707396e-38 318 240
-0.0012220733 0.69700003 -0 1.1523365e-38 319 240
0 0.69700003 -0 1.1614835e-38 320 240
0.0012220733 0.69700003 -0 1.1614835e-38 321 240
0.0024441467 0.69700003 -0 1.1338968e-38 322 240
0.0036714801 0.69800001 -0 1.1246772e-38 323 240
0.0048953067 0.69800001 -0 1.1429364e-38 324 240
0.006119133 0.69800001 -0 1.1244973e-38 325 240
0.0073429602 0.69800001 -0 1.1336806e-38 326 240
0.0085667865 0.69800001 -0 1.105986e-38 327 240
0.0097906133 0.69800001 -0 1.096766e-38 328 240
0.011045999 0.69999999 -0 1.0783629e-38 329 240
0.012273333 0.69999999 -0 9.9535183e-39 330 240
0.013500666 0.69999999 -0 8.2018013e-39 331 240
0.014727999 0.69999999 -0 5.4348758e-39 332 240
0.015978126 0.70099998 -0 5.895854e-39 333 240
0.017207211 0.70099998 -0 5.1608267e-39 334 240
0.018515198 0.704 -0 5.4374122e-39 335 240
0.019749546 0.704 -0 5.1630001e-39 336 240
0.021043506 0.70599997 -0 5.1630001e-39 337 240
0.022281358 0.70599997 -0 4.978599e-39 338 240
0.023585839 0.708 -0 6.9147073e-39 339 240
0.024827199 0.708 -0 9.3081615e-39 340 240
0.026068559 0.708 -0 9.6773041e-39 341 240
0.027387066 0.70999998 -0 1.0229732e-38 342 240
0.028672259 0.71100003 -0 9.4918087e-39 343 240
0.029918881 0.71100003 -0 1.0879062e-38 344 240
0.031253166 0.713 -0 1.3092117e-38 345 240
-0.03389544 0.71600002 -0.0012553866 1.3276894e-38 293 241
-0.032640055 0.71600002 -0.0012553866 1.2170912e-38 294 241
-0.031253166 0.713 -0.0012501266 1.2355662e-38 295 241
-0.029918881 0.71100003 -0.00124662 1.1801028e-38 296 241
-0.028631933 0.70999998 -0.0012448666 8.1128427e-39 297 241
-0.027309919 0.708 -0.00124136 5.7179087e-39 298 241
-0.02603174 0.70700002 -0.0012396066 7.0086475e-39 299 241
-0.024757065 0.70599997 -0.0012378532 7.1901871e-39 300 241
-0.023452586 0.704 -0.0012343467 6.0834794e-39 301 241
-0.022218239 0.704 -0.0012343467 5.808717e-39 302 241
-0.020983893 0.704 -0.0012343467 5.71652e-39 303 241
-0.019805651 0.70599997 -0.0012378532 4.5194258e-39 304 241
-0.018515198 0.704 -0.0012343467 4.4272301e-39 305 241
-0.017256306 0.70300001 -0.0012325933 6.0813439e-39 306 241
-0.015978126 0.70099998 -0.0012290865 5.8965939e-39 307 241
-0.014727999 0.69999999 -0.0012273333 4.7913211e-39 308 241
-0.013500666 0.69999999 -0.0012273333 4.6069299e-39 309 241
-0.012273333 0.69999999 -0.0012273333 4.1474006e-39 310 241
-0.011045999 0.69999999 -0.0012273333 3.963008e-39 311 241
-0.0097906133 0.69800001 -0.0012238267 3.319435e-39 312 241
-0.0085667865 0.69800001 -0.0012238267 7.0072588e-39 313 241
-0.0073429602 0.69800001 -0.0012238267 6.361874e-39 314 241
-0.006119133 0.69800001 -0.0012238267 5.9005357e-39 315 241
-0.0048953067 0.69800001 -0.0012238267 9.403957e-39 316 241
-0.0036714801 0.69800001 -0.0012238267 1.1708489e-38 317 241
-0.0024441467 0.69700003 -0.0012220733 1.1523728e-38 318 241
-0.0012220733 0.69700003 -0.0012220733 1.1339337e-38 319 241
0 0.69700003 -0.0012220733 1.1338615e-38 320 241
0.0012220733 0.69700003 -0.0012220733 1.1338615e-38 321 241
0.0024441467 0.69700003 -0.0012220733 1.1521567e-38 322 241
0.0036714801 0.69800001 -0.0012238267 1.1429013e-38 323 241
0.0048953067 0.69800001 -0.0012238267 1.1337172e-38 324 241
0.006119133 0.69800001 -0.0012238267 1.1337172e-38 325 241
0.0073429602 0.69800001 -0.0012238267 1.1060942e-38 326 241
0.0085667865 0.69800001 -0.0012238267 1.0968746e-38 327 241
0.0097906133 0.69800001 -0.0012238267 1.0967309e-38 328 241
0.011045999 0.69999999 -0.0012273333 1.1059863e-38 329 241
0.012273333 0.69999999 -0.0012273333 1.004643e-38 330 241
0.013500666 0.69999999 -0.0012273333 8.0181261e-39 331 241
0.014727999 0.69999999 -0.0012273333 4.5139957e-39 332 241
0.015978126 0.70099998 -0.0012290865 4.1448531e-39 333 241
0.017256306 0.70300001 -0.0012325933 4.6058607e-39 334 241
0.018515198 0.704 -0.0012343467 5.0664787e-39 335 241
0.019749546 0.704 -0.0012343467 5.2541097e-39 336 241
0.021043506 0.70599997 -0.0012378532 7.190218e-39 337 241
0.022312919 0.70700002 -0.0012396066 8.9415538e-39 338 241
0.023585839 0.708 -0.00124136 9.7713144e-39 339 241
0.024827199 0.708 -0.00124136 1.0781844e-38 340 241
0.026068559 0.708 -0.00124136 1.0689648e-38 341 241
0.027387066 0.70999998 -0.0012448666 9.676923e-39 342 241
0.028672259 0.71100003 -0.00124662 8.5709342e-39 343 241
0.030003037 0.713 -0.0012501266 1.0602122e-38 344 241
-0.033942781 0.71700001 -0.0025142799 1.3643878e-38 293 242
-0.032640055 0.71600002 -0.0025107733 1.1250756e-38 294 242
-0.031253166 0.713 -0.0025002533 1.0789778e-38 295 242
-0.030003037 0.713 -0.0025002533 1.0512451e-38 296 242
-0.028631933 0.70999998 -0.0024897333 8.9451243e-39 297 242
-0.027309919 0.708 -0.00248272 8.8489602e-39 298 242
-0.026068559 0.708 -0.00248272 9.2181014e-39 299 242
-0.024792133 0.70700002 -0.0024792133 8.0202911e-39 300 242
-0.023519212 0.70599997 -0.0024757064 6.7295523e-39 301 242
-0.022218239 0.704 -0.0024686933 7.7430078e-39 302 242
-0.020983893 0.704 -0.0024686933 8.1117889e-39 303 242
-0.019805651 0.70599997 -0.0024757064 6.6352365e-39 304 242
-0.018515198 0.704 -0.0024686933 5.2519433e-39 305 242
-0.017256306 0.70300001 -0.0024651866 5.7143508e-39 306 242
-0.015978126 0.70099998 -0.0024581731 5.4377625e-39 307 242
-0.014749039 0.70099998 -0.0024581731 4.331066e-39 308 242
-0.013519952 0.70099998 -0.0024581731 4.0544777e-39 309 242
-0.012273333 0.69999999 -0.0024546667 4.1459671e-39 310 242
-0.011045999 0.69999999 -0.0024546667 3.5927933e-39 311 242
-0.0097906133 0.69800001 -0.0024476533 2.6740684e-39 312 242
-0.0085667865 0.69800001 -0.0024476533 6.9147073e-39 313 242
-0.0073429602 0.69800001 -0.0024476533 6.4529906e-39 314 242
-0.006119133 0.69800001 -0.0024476533 5.4388387e-39 315 242
-0.0048953067 0.69800001 -0.0024476533 9.0348186e-39 316 242
-0.0036714801 0.69800001 -0.0024476533 1.1708492e-38 317 242
-0.0024476533 0.69800001 -0.0024476533 1.1706324e-38 318 242
-0.0012238267 0.69800001 -0.0024476533 1.1614128e-38 319 242
0 0.69800001 -0.0024476533 1.1521211e-38 320 242
0.0012238267 0.69800001 -0.0024476533 1.1521211e-38 321 242
0.0024476533 0.69800001 -0.0024476533 1.1521567e-38 322 242
0.0036714801 0.69800001 -0.0024476533 1.1521567e-38 323 242
0.0048953067 0.69800001 -0.0024476533 1.1612681e-38 324 242
0.0061366665 0.69999999 -0.0024546667 1.1428648e-38 325 242
0.0073639993 0.69999999 -0.0024546667 1.1244976e-38 326 242
0.0085913334 0.69999999 -0.0024546667 1.096839e-38 327 242
0.0098186666 0.69999999 -0.0024546667 1.105986e-38 328 242
0.011045999 0.69999999 -0.0024546667 1.0967663e-38 329 242
0.012273333 0.69999999 -0.0024546667 1.0321572e-38 330 242
0.013519952 0.70099998 -0.0024581731 8.7542464e-39 331 242
0.014749039 0.70099998 -0.0024581731 7.0029008e-39 332 242
0.015978126 0.70099998 -0.0024581731 6.3575314e-39 333 242
0.017256306 0.70300001 -0.0024651866 6.7263363e-39 334 242
0.018515198 0.704 -0.0024686933 7.3717057e-39 335 242
0.019749546 0.704 -0.0024686933 8.3869437e-39 336 242
0.021073313 0.70700002 -0.0024792133 9.2170645e-39 337 242
0.022312919 0.70700002 -0.0024792133 1.0138279e-38 338 242
0.023585839 0.708 -0.00248272 9.9535281e-39 339 242
0.024827199 0.708 -0.00248272 9.4925401e-39 340 242
0.026142199 0.70999998 -0.0024897333 9.4003445e-39 341 242
0.027387066 0.70999998 -0.0024897333 8.7549723e-39 342 242
0.028672259 0.71100003 -0.0024932399 7.833016e-39 343 242
0.030045118 0.71399999 -0.0025037599 1.0417738e-38 344 242
-0.036762137 0.72299999 -0.0038029798 1.6038077e-38 291 243
-0.035445385 0.722 -0.0037977197 1.57615e-38 292 243
-0.033942781 0.71700001 -0.0037714199 1.4839903e-38 293 243
-0.032685637 0.71700001 -0.0037714199 1.1064567e-38 294 243
-0.031296998 0.71399999 -0.0037556398 9.5894371e-39 295 243
-0.030003037 0.713 -0.0037503797 8.9472921e-39 296 243
-0.028631933 0.70999998 -0.0037345996 8.8550965e-39 297 243
-0.027309919 0.708 -0.00372408 1.0601055e-38 298 243
-0.026068559 0.708 -0.00372408 1.1153871e-38 299 243
-0.024792133 0.70700002 -0.0037188199 8.3923219e-39 300 243
-0.023552528 0.70700002 -0.0037188199 7.1937801e-39 301 243
-0.022281358 0.70599997 -0.0037135598 9.3150012e-39 302 243
-0.021043506 0.70599997 -0.0037135598 1.0236959e-38 303 243
-0.019805651 0.70599997 -0.0037135598 1.0138292e-38 304 243
-0.018567799 0.70599997 -0.0037135598 8.8475533e-39 305 243
-0.017256306 0.70300001 -0.0036977797 7.0976384e-39 306 243
-0.016023712 0.70300001 -0.0036977797 5.8990952e-39 307 243
-0.014749039 0.70099998 -0.0036872597 4.9764326e-39 308 243
-0.013519952 0.70099998 -0.0036872597 4.5158132e-39 309 243
-0.012290866 0.70099998 -0.0036872597 4.3314318e-39 310 243
-0.011045999 0.69999999 -0.0036819996 3.4098342e-39 311 243
-0.0098186666 0.69999999 -0.0036819996 2.1219793e-39 312 243
-0.0085913334 0.69999999 -0.0036819996 5.9941957e-39 313 243
-0.0073639993 0.69999999 -0.0036819996 7.1887606e-39 314 243
-0.0061366665 0.69999999 -0.0036819996 5.5292393e-39 315 243
-0.0049093333 0.69999999 -0.0036819996 7.9298962e-39 316 243
-0.0036819996 0.69999999 -0.0036819996 1.0880158e-38 317 243
-0.0024476533 0.69800001 -0.0036714801 1.1521933e-38 318 243
-0.0012238267 0.69800001 -0.0036714801 1.1429737e-38 319 243
0 0.69800001 -0.0036714801 1.1429737e-38 320 243
0.0012238267 0.69800001 -0.0036714801 1.1429737e-38 321 243
0.0024476533 0.69800001 -0.0036714801 1.1429015e-38 322 243
0.0036714801 0.69800001 -0.0036714801 1.1429015e-38 323 243
0.0048953067 0.69800001 -0.0036714801 1.1337172e-38 324 243
0.0061366665 0.69999999 -0.0036819996 1.1244976e-38 325 243
0.0073639993 0.69999999 -0.0036819996 1.1244257e-38 326 243
0.0085913334 0.69999999 -0.0036819996 1.1151703e-38 327 243
0.0098186666 0.69999999 -0.0036819996 1.1059863e-38 328 243
0.011045999 0.69999999 -0.0036819996 1.0783276e-38 329 243
0.012290866 0.70099998 -0.0036872597 1.0413775e-38 330 243
0.013519952 0.70099998 -0.0036872597 9.7684054e-39 331 243
0.014791119 0.70300001 -0.0036977797 9.1233989e-39 332 243
0.016023712 0.70300001 -0.0036977797 9.7687683e-39 333 243
0.017280852 0.704 -0.0037030398 1.0046077e-38 334 243
0.018515198 0.704 -0.0037030398 1.0323024e-38 335 243
0.019805651 0.70599997 -0.0037135598 1.0322668e-38 336 243
0.021073313 0.70700002 -0.0037188199 1.0322668e-38 337 243
0.022312919 0.70700002 -0.0037188199 1.004608e-38 338 243
0.023585839 0.708 -0.00372408 9.3085146e-39 339 243
0.024897331 0.70999998 -0.0037345996 8.8464645e-39 340 243
0.026142199 0.70999998 -0.0037345996 8.2010951e-39 341 243
0.027425639 0.71100003 -0.0037398601 7.3731365e-39 342 243
0.028672259 0.71100003 -0.0037398601 7.0961894e-39 343 243
-0.036762137 0.72299999 -0.0050706398 1.5844685e-38 291 244
-0.035445385 0.722 -0.0050636264 1.5476271e-38 292 244
-0.03403746 0.71899998 -0.0050425865 1.5384075e-38 293 244
-0.032685637 0.71700001 -0.0050285598 1.2258792e-38 294 244
-0.031296998 0.71399999 -0.0050075199 1.0783662e-38 295 244
-0.030045118 0.71399999 -0.0050075199 9.3150012e-39 296 244
-0.028672259 0.71100003 -0.0049864799 9.0384157e-39 297 244
-0.027309919 0.708 -0.0049654399 9.7745374e-39 298 244
-0.026068559 0.708 -0.0049654399 1.0512104e-38 299 244
-0.024827199 0.708 -0.0049654399 8.8533042e-39 300 244
-0.023552528 0.70700002 -0.0049584266 6.8250003e-39 301 244
-0.022312919 0.70700002 -0.0049584266 8.4866797e-39 302 244
-0.021073313 0.70700002 -0.0049584266 9.8699729e-39 303 244
-0.019833706 0.70700002 -0.0049584266 1.1247517e-38 304 244
-0.018567799 0.70599997 -0.0049514128 1.1247517e-38 305 244
-0.017329946 0.70599997 -0.0049514128 1.0878375e-38 306 244
-0.016023712 0.70300001 -0.0049303733 1.0048973e-38 307 244
-0.014791119 0.70300001 -0.0049303733 1.0047897e-38 308 244
-0.013519952 0.70099998 -0.0049163462 9.4947234e-39 309 244
-0.012273333 0.69999999 -0.0049093333 9.124866e-39 310 244
-0.011045999 0.69999999 -0.0049093333 8.4794966e-39 311 244
-0.0098186666 0.69999999 -0.0049093333 7.1005251e-39 312 244
-0.0085913334 0.69999999 -0.0049093333 8.4834595e-39 313 244
-0.0073639993 0.69999999 -0.0049093333 9.217412e-39 314 244
-0.0061366665 0.69999999 -0.0049093333 8.1114232e-39 315 244
-0.0049093333 0.69999999 -0.0049093333 8.5770648e-39 316 244
-0.0036819996 0.69999999 -0.0049093333 1.032878e-38 317 244
-0.0024476533 0.69800001 -0.0048953067 1.115495e-38 318 244
-0.0012238267 0.69800001 -0.0048953067 1.115495e-38 319 244
0 0.69800001 -0.0048953067 1.152193e-38 320 244
0.0012238267 0.69800001 -0.0048953067 1.1429734e-38 321 244
0.0024476533 0.69800001 -0.0048953067 1.1429732e-38 322 244
0.0036714801 0.69800001 -0.0048953067 1.12457e-38 323 244
0.0048953067 0.69800001 -0.0048953067 1.1337172e-38 324 244
0.0061366665 0.69999999 -0.0049093333 1.1244976e-38 325 244
0.0073639993 0.69999999 -0.0049093333 1.1244254e-38 326 244
0.0085913334 0.69999999 -0.0049093333 1.1152059e-38 327 244
0.0098186666 0.69999999 -0.0049093333 1.1059144e-38 328 244
0.011061779 0.70099998 -0.0049163462 1.0966947e-38 329 244
0.012290866 0.70099998 -0.0049163462 1.0598885e-38 330 244
0.013558527 0.70300001 -0.0049303733 1.0137907e-38 331 244
0.014812159 0.704 -0.0049373866 9.4914583e-39 332 244
0.016046507 0.704 -0.0049373866 9.860601e-39 333 244
0.017280852 0.704 -0.0049373866 1.0138627e-38 334 244
0.018567799 0.70599997 -0.0049514128 1.0323377e-38 335 244
0.019805651 0.70599997 -0.0049514128 9.9538812e-39 336 244
0.021073313 0.70700002 -0.0049584266 9.3085118e-39 337 244
0.022312919 0.70700002 -0.0049584266 8.1132154e-39 338 244
0.023652466 0.70999998 -0.0049794666 7.6522373e-39 339 244
0.024932399 0.71100003 -0.0049864799 8.1114232e-39 340 244
0.026179021 0.71100003 -0.0049864799 7.7422805e-39 341 244
0.027502786 0.713 -0.0050005065 7.1901899e-39 342 244
0.028752912 0.713 -0.0050005065 6.4526249e-39 343 244
-0.035592668 0.72500002 -0.0063558333 1.4175099e-38 292 245
-0.03403746 0.71899998 -0.0063032326 1.5558034e-38 293 245
-0.032685637 0.71700001 -0.0062857 1.2809447e-38 294 245
-0.031296998 0.71399999 -0.0062593995 1.1795655e-38 295 245
-0.030045118 0.71399999 -0.0062593995 9.4997596e-39 296 245
-0.028672259 0.71100003 -0.0062330998 8.8543902e-39 297 245
-0.027387066 0.70999998 -0.0062243328 8.9465886e-39 298 245
-0.026142199 0.70999998 -0.0062243328 9.5919581e-39 299 245
-0.024827199 0.708 -0.0062067998 8.853307e-39 300 245
-0.023585839 0.708 -0.0062067998 6.4558619e-39 301 245
-0.022344479 0.708 -0.0062067998 7.5650863e-39 302 245
-0.021103119 0.708 -0.0062067998 8.7632708e-39 303 245
-0.019833706 0.70700002 -0.0061980332 9.3153782e-39 304 245
-0.018567799 0.70599997 -0.0061892662 9.9607476e-39 305 245
-0.017329946 0.70599997 -0.0061892662 1.1340798e-38 306 245
-0.016023712 0.70300001 -0.0061629666 1.2170918e-38 307 245
-0.014791119 0.70300001 -0.0061629666 1.2353861e-38 308 245
-0.013519952 0.70099998 -0.0061454331 1.2261666e-38 309 245
-0.012273333 0.69999999 -0.0061366665 1.2076551e-38 310 245
-0.011045999 0.69999999 -0.0061366665 1.1708129e-38 311 245
-0.0098186666 0.69999999 -0.0061366665 1.1065276e-38 312 245
-0.0085913334 0.69999999 -0.0061366665 1.0972722e-38 313 245
-0.0073639993 0.69999999 -0.0061366665 1.0970561e-38 314 245
-0.0061366665 0.69999999 -0.0061366665 1.0417387e-38 315 245
-0.0049093333 0.69999999 -0.0061366665 9.9596462e-39 316 245
-0.0036819996 0.69999999 -0.0061366665 1.0420624e-38 317 245
-0.0024546667 0.69999999 -0.0061366665 1.0695419e-38 318 245
-0.0012273333 0.69999999 -0.0061366665 1.0510668e-38 319 245
0 0.69999999 -0.0061366665 1.1245706e-38 320 245
0.0012273333 0.69999999 -0.0061366665 1.1429737e-38 321 245
0.0024546667 0.69999999 -0.0061366665 1.115458e-38 322 245
0.0036819996 0.69999999 -0.0061366665 1.1062024e-38 323 245
0.0049093333 0.69999999 -0.0061366665 1.1244976e-38 324 245
0.0061366665 0.69999999 -0.0061366665 1.096839e-38 325 245
0.0073639993 0.69999999 -0.0061366665 1.096839e-38 326 245
0.0085913334 0.69999999 -0.0061366665 1.0783999e-38 327 245
0.0098326923 0.70099998 -0.0061454331 1.0783276e-38 328 245
