# .PCD v.7 - Point Cloud Data file format
FIELDS x y z rgb imX imY
SIZE 4 4 4 4 4 4
TYPE F F F F F F
COUNT 1 1 1 1 1 1
WIDTH 853
HEIGHT 1
VIEWPOINT 0 0 0 1 0 0 0
POINTS 853
DATA ascii
0.011186266 0.63800001 0.078303866 1.457486e-38 330 170
0.012343466 0.63999999 0.078549333 1.4298272e-38 331 170
0.013465599 0.63999999 0.078549333 1.4112438e-38 332 170
0.014610525 0.64099997 0.078672059 1.3835849e-38 333 170
0.01575896 0.64200002 0.0787948 1.4018071e-38 334 170
0.016910899 0.64300001 0.078917533 1.3925876e-38 335 170
0.018038293 0.64300001 0.078917533 1.383403e-38 336 170
0.019284913 0.64700001 0.079408467 1.3465607e-38 337 170
-0.0091453865 0.65200001 0.078878954 1.3829007e-38 312 171
-0.0079776663 0.64999998 0.078636996 1.1155334e-38 313 171
-0.0068274797 0.64899999 0.078516014 1.0528705e-38 314 171
-0.0056895665 0.64899999 0.078516014 1.4953737e-38 315 171
-0.00454464 0.648 0.078395039 1.6793697e-38 316 171
-0.0034032199 0.64700001 0.078274064 1.6885892e-38 317 171
-0.0022653067 0.64600003 0.078153081 1.6241607e-38 318 171
-0.0011326533 0.64600003 0.078153081 1.6057216e-38 319 171
0 0.64399999 0.077911116 1.6240161e-38 320 171
0.0011273933 0.64300001 0.077790141 1.5779184e-38 321 171
0.00225128 0.64200002 0.077669159 1.5686268e-38 322 171
0.00337692 0.64200002 0.077669159 1.5409323e-38 323 171
0.0044955462 0.64099997 0.077548169 1.5133812e-38 324 171
0.0056194332 0.64099997 0.077548169 1.4949419e-38 325 171
0.0067433193 0.64099997 0.077548169 1.5040173e-38 326 171
0.0078672068 0.64099997 0.077548169 1.4763587e-38 327 171
0.0089770658 0.63999999 0.077427194 1.4486628e-38 328 171
0.0100992 0.63999999 0.077427194 1.4117844e-38 329 171
0.011221332 0.63999999 0.077427194 1.4574858e-38 330 171
0.012362752 0.64099997 0.077548169 1.4390466e-38 331 171
0.01350768 0.64200002 0.077669159 1.4663809e-38 332 171
0.01463332 0.64200002 0.077669159 1.4202831e-38 333 171
0.015783506 0.64300001 0.077790141 1.4294654e-38 334 171
0.0169372 0.64399999 0.077911116 1.4018427e-38 335 171
0.018066347 0.64399999 0.077911116 1.3741833e-38 336 171
0.019284913 0.64700001 0.078274064 1.3373411e-38 337 171
0.02041932 0.64700001 0.078274064 1.3647121e-38 338 171
-0.0091453865 0.65200001 0.077735789 1.539271e-38 312 172
-0.0079776663 0.64999998 0.077497326 1.2719037e-38 313 172
-0.0068379994 0.64999998 0.077497326 9.5998922e-39 314 172
-0.0056895665 0.64899999 0.077378102 1.4024924e-38 315 172
-0.0045516533 0.64899999 0.077378102 1.5688084e-38 316 172
-0.0034032199 0.64700001 0.077139653 1.6794056e-38 317 172
-0.0022688133 0.64700001 0.077139653 1.6884816e-38 318 172
-0.0011326533 0.64600003 0.077020429 1.6792621e-38 319 172
0 0.64399999 0.076781973 1.6424556e-38 320 172
0.0011291467 0.64399999 0.076781973 1.6239805e-38 321 172
0.0022547867 0.64300001 0.076662742 1.5963931e-38 322 172
0.0033821799 0.64300001 0.076662742 1.5686986e-38 323 172
0.0045095733 0.64300001 0.076662742 1.5501871e-38 324 172
0.0056369668 0.64300001 0.076662742 1.5133449e-38 325 172
0.00675384 0.64200002 0.076543517 1.4949051e-38 326 172
0.0078794798 0.64200002 0.076543517 1.4764659e-38 327 172
0.00900512 0.64200002 0.076543517 1.4855043e-38 328 172
0.01013076 0.64200002 0.076543517 1.4394066e-38 329 172
0.011273934 0.64300001 0.076662742 1.494292e-38 330 172
0.012401327 0.64300001 0.076662742 1.4850724e-38 331 172
0.01352872 0.64300001 0.076662742 1.4481216e-38 332 172
0.014678906 0.64399999 0.076781973 1.438902e-38 333 172
0.015808053 0.64399999 0.076781973 1.4111342e-38 334 172
0.016989801 0.64600003 0.077020429 1.3742561e-38 335 172
0.018122453 0.64600003 0.077020429 1.3741112e-38 336 172
0.019284913 0.64700001 0.077139653 1.3372329e-38 337 172
0.02041932 0.64700001 0.077139653 1.3278339e-38 338 172
-0.0068379994 0.64999998 0.076357663 1.3182924e-38 314 173
-0.0056895665 0.64899999 0.076240189 1.0693643e-38 315 173
-0.0045516533 0.64899999 0.076240189 1.0255375e-38 316 173
-0.00340848 0.648 0.076122716 1.348222e-38 317 173
-0.0022688133 0.64700001 0.07600525 1.6424562e-38 318 173
-0.0011344067 0.64700001 0.07600525 1.7069921e-38 319 173
0 0.64600003 0.075887777 1.6884457e-38 320 173
0.0011326533 0.64600003 0.075887777 1.6607513e-38 321 173
0.0022582933 0.64399999 0.075652823 1.5964297e-38 322 173
0.0033874398 0.64399999 0.075652823 1.5779906e-38 323 173
0.0045165867 0.64399999 0.075652823 1.5962131e-38 324 173
0.0056457333 0.64399999 0.075652823 1.5777738e-38 325 173
0.0067748795 0.64399999 0.075652823 1.5684818e-38 326 173
0.0079040267 0.64399999 0.075652823 1.5684818e-38 327 173
0.0090331733 0.64399999 0.075652823 1.5682653e-38 328 173
0.01016232 0.64399999 0.075652823 1.5037283e-38 329 173
0.011291467 0.64399999 0.075652823 1.5127315e-38 330 173
0.012420613 0.64399999 0.075652823 1.5035118e-38 331 173
0.013549759 0.64399999 0.075652823 1.4573414e-38 332 173
0.014678906 0.64399999 0.075652823 1.4112438e-38 333 173
0.015857147 0.64600003 0.075887777 1.401879e-38 334 173
0.016989801 0.64600003 0.075887777 1.3742563e-38 335 173
0.018122453 0.64600003 0.075887777 1.3556723e-38 336 173
0.019284913 0.64700001 0.07600525 1.2173789e-38 337 173
0.02041932 0.64700001 0.07600525 1.1438022e-38 338 173
-0.0056895665 0.64899999 0.075102277 1.1056639e-38 315 174
-0.0045516533 0.64899999 0.075102277 7.5784225e-39 316 174
-0.00340848 0.648 0.074986562 1.1542835e-38 317 174
-0.0022688133 0.64700001 0.07487084 1.4855082e-38 318 174
-0.0011344067 0.64700001 0.07487084 1.6514244e-38 319 174
0 0.64600003 0.074755117 1.6975216e-38 320 174
0.0011326533 0.64600003 0.074755117 1.6975216e-38 321 174
0.0022653067 0.64600003 0.074755117 1.6331287e-38 322 174
0.00339796 0.64600003 0.074755117 1.6146537e-38 323 174
0.0045165867 0.64399999 0.074523672 1.5779181e-38 324 174
0.0056457333 0.64399999 0.074523672 1.5594789e-38 325 174
0.0067748795 0.64399999 0.074523672 1.559442e-38 326 174
0.0079040267 0.64399999 0.074523672 1.5317833e-38 327 174
0.0090331733 0.64399999 0.074523672 1.5683374e-38 328 174
0.01016232 0.64399999 0.074523672 1.5130201e-38 329 174
0.011326533 0.64600003 0.074755117 1.4852892e-38 330 174
0.012459187 0.64600003 0.074755117 1.448411e-38 331 174
0.01359184 0.64600003 0.074755117 1.4481219e-38 332 174
0.014724494 0.64600003 0.074755117 1.4020242e-38 333 174
0.015857147 0.64600003 0.074755117 1.383368e-38 334 174
0.016989801 0.64600003 0.074755117 1.3280506e-38 335 174
0.018122453 0.64600003 0.074755117 1.2174868e-38 336 174
0.019284913 0.64700001 0.07487084 1.1990118e-38 337 174
-0.0022688133 0.64700001 0.073736429 1.1167235e-38 318 175
-0.0011344067 0.64700001 0.073736429 1.3103343e-38 319 175
0 0.64700001 0.073736429 1.4761804e-38 320 175
0.0011344067 0.64700001 0.073736429 1.5591566e-38 321 175
0.0022653067 0.64600003 0.073622465 1.6146174e-38 322 175
0.00339796 0.64600003 0.073622465 1.6422401e-38 323 175
0.0045306133 0.64600003 0.073622465 1.6330553e-38 324 175
0.0056632664 0.64600003 0.073622465 1.6054326e-38 325 175
0.00679592 0.64600003 0.073622465 1.6145792e-38 326 175
0.0079285735 0.64600003 0.073622465 1.5685174e-38 327 175
0.0090612266 0.64600003 0.073622465 1.577557e-38 328 175
0.01019388 0.64600003 0.073622465 1.5314593e-38 329 175
0.011326533 0.64600003 0.073622465 1.5127315e-38 330 175
0.012459187 0.64600003 0.073622465 1.4665977e-38 331 175
0.01359184 0.64600003 0.073622465 1.4663444e-38 332 175
0.014724494 0.64600003 0.073622465 1.3925879e-38 333 175
0.015857147 0.64600003 0.073622465 1.2726609e-38 334 175
0.016989801 0.64600003 0.073622465 1.1528066e-38 335 175
0.018122453 0.64600003 0.073622465 1.0240197e-38 336 175
-0.00113616 0.648 0.072714239 1.2450023e-38 319 176
0 0.64700001 0.072602026 1.2544051e-38 320 176
0.0011344067 0.64700001 0.072602026 1.3281618e-38 321 176
0.0022688133 0.64700001 0.072602026 1.3653645e-38 322 176
0.0034032199 0.64700001 0.072602026 1.4575603e-38 323 176
0.0045376266 0.64700001 0.072602026 1.4945456e-38 324 176
0.0056720334 0.64700001 0.072602026 1.5037652e-38 325 176
0.0068064397 0.64700001 0.072602026 1.5037283e-38 326 176
0.0079408465 0.64700001 0.072602026 1.4760696e-38 327 176
0.0090752533 0.64700001 0.072602026 1.4850368e-38 328 176
0.01019388 0.64600003 0.072489813 1.4665977e-38 329 176
0.011326533 0.64600003 0.072489813 1.4294304e-38 330 176
0.012459187 0.64600003 0.072489813 1.3187958e-38 331 176
0.01359184 0.64600003 0.072489813 1.2818086e-38 332 176
0.014747286 0.64700001 0.072602026 1.2264912e-38 333 176
0.015881693 0.64700001 0.072602026 1.1250756e-38 334 176
0 0.648 0.071578078 1.0973821e-38 320 177
0.00113616 0.648 0.071578078 1.0697232e-38 321 177
0.00227232 0.648 0.071578078 1.0331341e-38 322 177
0.00340848 0.648 0.071578078 1.1161101e-38 323 177
0.00454464 0.648 0.071578078 1.1808638e-38 324 177
0.0056807999 0.648 0.071578078 1.2361812e-38 325 177
0.0068169599 0.648 0.071578078 1.2453286e-38 326 177
0.0079408465 0.64700001 0.071467623 1.2453286e-38 327 177
0.0090752533 0.64700001 0.071467623 1.2544386e-38 328 177
0.01020966 0.64700001 0.071467623 1.2267799e-38 329 177
0.011344067 0.64700001 0.071467623 1.1987971e-38 330 177
0.012478473 0.64700001 0.071467623 1.0697232e-38 331 177
0.013612879 0.64700001 0.071467623 1.0328817e-38 332 177
0.014747286 0.64700001 0.071467623 1.0421371e-38 333 177
0.010225439 0.648 0.070441917 1.272518e-38 329 178
0.011344067 0.64700001 0.070333213 1.2632975e-38 330 178
0.012478473 0.64700001 0.070333213 1.2632975e-38 331 178
-0.00372408 0.708 0.021103119 1.1987615e-38 317 223
-0.00248272 0.708 0.021103119 1.1619546e-38 318 223
-0.021848286 0.73299998 0.020563092 9.7906117e-39 303 224
-0.020591147 0.73400003 0.020591147 1.1078509e-38 304 224
-0.012448666 0.70999998 0.019917866 1.9545884e-38 310 224
-0.011203799 0.70999998 0.019917866 2.1021e-38 311 224
-0.0099729598 0.71100003 0.01994592 1.9642749e-38 312 224
-0.0087263398 0.71100003 0.01994592 1.5125163e-38 313 224
-0.0049864799 0.71100003 0.01994592 1.2448581e-38 316 224
-0.00372408 0.708 0.01986176 1.2079798e-38 317 224
-0.00248272 0.708 0.01986176 1.1802136e-38 318 224
-0.0012448666 0.70999998 0.019917866 1.1156767e-38 319 224
0 0.70999998 0.019917866 1.0789432e-38 320 224
-0.02307036 0.73100001 0.019225299 1.0895508e-38 302 225
-0.021699252 0.72799999 0.0191464 1.0342334e-38 303 225
-0.020422826 0.72799999 0.0191464 9.883892e-39 304 225
-0.0189886 0.722 0.0189886 1.0160839e-38 305 225
-0.017722692 0.722 0.0189886 1.153736e-38 306 225
-0.01613768 0.708 0.0186204 1.153736e-38 307 225
-0.01487528 0.70700002 0.018594101 1.1990121e-38 308 225
-0.013635674 0.70700002 0.018594101 1.1897925e-38 309 225
-0.012448666 0.70999998 0.018672999 1.1623177e-38 310 225
-0.011203799 0.70999998 0.018672999 1.2360742e-38 311 225
-0.0099729598 0.71100003 0.0186993 1.3185102e-38 312 225
-0.0087263398 0.71100003 0.0186993 1.1710332e-38 313 225
-0.0074797203 0.71100003 0.0186993 1.1434794e-38 314 225
-0.0049864799 0.71100003 0.0186993 1.2355306e-38 316 225
-0.00372408 0.708 0.0186204 1.2355306e-38 317 225
-0.00248272 0.708 0.0186204 1.2446425e-38 318 225
-0.0012448666 0.70999998 0.018672999 1.1893252e-38 319 225
0 0.70999998 0.018672999 1.0879823e-38 320 225
0.0012448666 0.70999998 0.018672999 1.1064573e-38 321 225
-0.024252106 0.72799999 0.017869972 1.1997966e-38 301 226
-0.022944121 0.727 0.017845426 1.0897305e-38 302 226
-0.021669446 0.727 0.017845426 1.0344133e-38 303 226
-0.020338668 0.72500002 0.017796334 9.9767756e-39 304 226
-0.0189886 0.722 0.017722692 9.7923844e-39 305 226
-0.017722692 0.722 0.017722692 1.0434224e-38 306 226
-0.01613768 0.708 0.017379038 1.0894843e-38 307 226
-0.014854239 0.70599997 0.017329946 1.1994413e-38 308 226
-0.013616386 0.70599997 0.017329946 1.1072458e-38 309 226
-0.0124662 0.71100003 0.01745268 9.5948251e-39 310 226
-0.01121958 0.71100003 0.01745268 9.0416527e-39 311 226
-0.0099729598 0.71100003 0.01745268 1.0143693e-38 312 226
-0.0087263398 0.71100003 0.01745268 1.0973093e-38 313 226
-0.0074797203 0.71100003 0.01745268 1.1803211e-38 314 226
-0.0062593995 0.71399999 0.017526319 1.2263829e-38 315 226
-0.0049864799 0.71100003 0.01745268 1.2356382e-38 316 226
-0.00372408 0.708 0.017379038 1.2448578e-38 317 226
-0.0024757064 0.70599997 0.017329946 1.2356379e-38 318 226
-0.0012378532 0.70599997 0.017329946 1.1987956e-38 319 226
0 0.708 0.017379038 1.1618097e-38 320 226
0.0012448666 0.70999998 0.017428132 1.1341151e-38 321 226
-0.024252106 0.72799999 0.016593546 1.1538446e-38 301 227
-0.022944121 0.727 0.016570752 1.1356858e-38 302 227
-0.021669446 0.727 0.016570752 1.0527098e-38 303 227
-0.020338668 0.72500002 0.016525166 9.8852835e-39 304 227
-0.019014901 0.72299999 0.01647958 9.7930878e-39 305 227
-0.017747238 0.72299999 0.01647958 1.0158671e-38 306 227
-0.0164112 0.72000003 0.0164112 1.0434898e-38 307 227
-0.014854239 0.70599997 0.016092092 1.0709384e-38 308 227
-0.013616386 0.70599997 0.016092092 1.1077808e-38 309 227
-0.012518799 0.71399999 0.016274439 1.2084439e-38 310 227
-0.01121958 0.71100003 0.01620606 1.1992244e-38 311 227
-0.0099729598 0.71100003 0.01620606 1.2265613e-38 312 227
-0.0087263398 0.71100003 0.01620606 1.2265613e-38 313 227
-0.0074797203 0.71100003 0.01620606 1.2173067e-38 314 227
-0.0062506334 0.713 0.016251646 1.2357458e-38 315 227
-0.0049864799 0.71100003 0.01620606 1.2358183e-38 316 227
-0.00372408 0.708 0.01613768 1.2450379e-38 317 227
-0.0024757064 0.70599997 0.016092092 1.2542218e-38 318 227
-0.0012378532 0.70599997 0.016092092 1.2265631e-38 319 227
0 0.708 0.01613768 1.2723372e-38 320 227
0.0012448666 0.70999998 0.016183265 1.2446425e-38 321 227
-0.024252106 0.72799999 0.01531712 1.199656e-38 301 228
-0.022944121 0.727 0.015296079 1.1907517e-38 302 228
-0.021669446 0.727 0.015296079 1.1169593e-38 303 228
-0.020394772 0.727 0.015296079 1.0161144e-38 304 228
-0.019120099 0.727 0.015296079 9.9767532e-39 305 228
-0.017796334 0.72500002 0.015254001 9.8849303e-39 306 228
-0.0164112 0.72000003 0.0151488 9.8849303e-39 307 228
-0.0151488 0.72000003 0.0151488 1.0066488e-38 308 228
-0.013809253 0.71600002 0.01506464 1.0435631e-38 309 228
-0.012518799 0.71399999 0.015022559 1.080195e-38 310 228
-0.011251139 0.713 0.015001519 1.0709394e-38 311 228
-0.010001013 0.713 0.015001519 1.1441594e-38 312 228
-0.0087508867 0.713 0.015001519 1.1533789e-38 313 228
-0.0075007593 0.713 0.015001519 1.1991546e-38 314 228
-0.0062506334 0.713 0.015001519 1.2175937e-38 315 228
-0.0050075199 0.71399999 0.015022559 1.2451092e-38 316 228
-0.0037345996 0.70999998 0.014938398 1.2543648e-38 317 228
-0.0024897333 0.70999998 0.014938398 1.2818802e-38 318 228
-0.0012448666 0.70999998 0.014938398 1.2910998e-38 319 228
0 0.71100003 0.014959441 1.3000675e-38 320 228
0.00124662 0.71100003 0.014959441 1.2724089e-38 321 228
0.0050005065 0.713 0.015001519 1.0789412e-38 324 228
0.0062506334 0.713 0.015001519 1.0973444e-38 325 228
0.028158534 0.73000002 0.0153592 9.9703086e-39 342 228
0.029438468 0.73000002 0.0153592 1.0431285e-38 343 228
0.03076048 0.73100001 0.01538024 1.1071656e-38 344 228
0.032042164 0.73100001 0.01538024 1.1071656e-38 345 228
-0.024252106 0.72799999 0.014040692 1.2087313e-38 301 229
-0.022975679 0.72799999 0.014040692 1.1447256e-38 302 229
-0.021699252 0.72799999 0.014040692 1.0894082e-38 303 229
-0.020422826 0.72799999 0.014040692 9.9778294e-39 304 229
-0.0191464 0.72799999 0.014040692 9.9778294e-39 305 229
-0.017845426 0.727 0.014021406 9.9771288e-39 306 229
-0.01647958 0.72299999 0.01394426 1.0069324e-38 307 229
-0.015211919 0.72299999 0.01394426 9.7927529e-39 308 229
-0.01394426 0.72299999 0.01394426 9.5161674e-39 309 229
-0.0125714 0.71700001 0.013828539 9.2413966e-39 310 229
-0.01129848 0.71600002 0.013809253 9.2413966e-39 311 229
-0.010043093 0.71600002 0.013809253 1.0524622e-38 312 229
-0.0087631596 0.71399999 0.01377068 1.098524e-38 313 229
-0.0075112795 0.71399999 0.01377068 1.1533423e-38 314 229
-0.0062593995 0.71399999 0.01377068 1.180965e-38 315 229
-0.0050075199 0.71399999 0.01377068 1.21763e-38 316 229
-0.0037345996 0.70999998 0.013693533 1.21763e-38 317 229
-0.0024897333 0.70999998 0.013693533 1.2267426e-38 318 229
-0.0012448666 0.70999998 0.013693533 1.2267426e-38 319 229
0 0.71100003 0.01371282 1.2542571e-38 320 229
0.00124662 0.71100003 0.01371282 1.235818e-38 321 229
0.0024932399 0.71100003 0.01371282 1.2999228e-38 322 229
0.0037503797 0.713 0.013751393 1.2630804e-38 323 229
0.0050005065 0.713 0.013751393 1.2080151e-38 324 229
0.0062506334 0.713 0.013751393 1.2080151e-38 325 229
0.0075112795 0.71399999 0.01377068 1.2081237e-38 326 229
0.0087877065 0.71600002 0.013809253 1.2265629e-38 327 229
0.010043093 0.71600002 0.013809253 1.2633691e-38 328 229
0.025353199 0.72299999 0.01394426 9.2366925e-39 340 229
0.026620859 0.72299999 0.01394426 9.1444968e-39 341 229
0.02788852 0.72299999 0.01394426 1.0429497e-38 342 229
0.029357811 0.72799999 0.014040692 1.0705724e-38 343 229
0.03076048 0.73100001 0.014098554 1.1070939e-38 344 229
0.032042164 0.73100001 0.014098554 1.1254971e-38 345 229
0.033323854 0.73100001 0.014098554 1.4199514e-38 346 229
-0.025528532 0.72799999 0.012764266 1.2638692e-38 300 230
-0.024252106 0.72799999 0.012764266 1.1993323e-38 301 230
-0.022975679 0.72799999 0.012764266 1.0896599e-38 302 230
-0.021699252 0.72799999 0.012764266 1.025159e-38 303 230
-0.020478934 0.73000002 0.012799333 9.9778322e-39 304 230
-0.0191464 0.72799999 0.012764266 1.0070028e-38 305 230
-0.017869972 0.72799999 0.012764266 1.025336e-38 306 230
-0.016570752 0.727 0.012746733 1.0437751e-38 307 230
-0.015254001 0.72500002 0.012711667 9.885652e-39 308 230
-0.01394426 0.72299999 0.012676599 9.5168709e-39 309 230
-0.012659066 0.722 0.012659066 9.3331845e-39 310 230
-0.01131426 0.71700001 0.0125714 9.3331845e-39 311 230
-0.01005712 0.71700001 0.0125714 9.6994825e-39 312 230
-0.0087877065 0.71600002 0.012553867 9.7916781e-39 313 230
-0.00753232 0.71600002 0.012553867 9.6988267e-39 314 230
-0.0062769335 0.71600002 0.012553867 1.0159445e-38 315 230
-0.0050215465 0.71600002 0.012553867 1.1166802e-38 316 230
-0.00376616 0.71600002 0.012553867 1.1166802e-38 317 230
-0.0025107733 0.71600002 0.012553867 1.1349771e-38 318 230
-0.0012448666 0.70999998 0.012448666 1.1441966e-38 319 230
0 0.70999998 0.012448666 1.3186849e-38 320 230
0.0012448666 0.70999998 0.012448666 1.3186849e-38 321 230
0.0024897333 0.70999998 0.012448666 1.3186849e-38 322 230
0.0037398601 0.71100003 0.0124662 1.3279045e-38 323 230
0.0050005065 0.713 0.012501267 1.2818434e-38 324 230
0.0062593995 0.71399999 0.012518799 1.2634041e-38 325 230
0.0075112795 0.71399999 0.012518799 1.2726957e-38 326 230
0.0087877065 0.71600002 0.012553867 1.2819153e-38 327 230
0.010043093 0.71600002 0.012553867 1.2636196e-38 328 230
0.01129848 0.71600002 0.012553867 1.2543642e-38 329 230
0.0125714 0.71700001 0.0125714 1.2361049e-38 330 230
0.024152167 0.72500002 0.012711667 9.8788179e-39 339 230
0.025353199 0.72299999 0.012676599 9.9699415e-39 340 230
0.026620859 0.72299999 0.012676599 1.024617e-38 341 230
0.02788852 0.72299999 0.012676599 1.0797574e-38 342 230
0.029357811 0.72799999 0.012764266 1.0612822e-38 343 230
0.03076048 0.73100001 0.012816866 1.0978393e-38 344 230
0.032042164 0.73100001 0.012816866 1.1439012e-38 345 230
0.03815604 0.83700001 0.014675399 1.493565e-38 346 230
0.039623581 0.83700001 0.014675399 1.6779923e-38 347 230
-0.025879199 0.73799998 0.011645639 1.3468095e-38 300 231
-0.024418673 0.73299998 0.011566739 1.1808934e-38 301 231
-0.023038799 0.73000002 0.011519399 1.0987353e-38 302 231
-0.021758866 0.73000002 0.011519399 1.0618572e-38 303 231
-0.020478934 0.73000002 0.011519399 9.977835e-39 304 231
-0.019199001 0.73000002 0.011519399 9.977835e-39 305 231
-0.017869972 0.72799999 0.01148784 1.007006e-38 306 231
-0.016570752 0.727 0.01147206 1.0162256e-38 307 231
-0.015296079 0.727 0.01147206 9.7019838e-39 308 231
-0.01394426 0.72299999 0.01140894 9.4253969e-39 309 231
-0.012676599 0.72299999 0.01140894 9.3328131e-39 310 231
-0.01139316 0.722 0.01139316 9.2406175e-39 311 231
-0.010099201 0.72000003 0.011361601 9.2416895e-39 312 231
-0.0087999795 0.71700001 0.01131426 8.965104e-39 313 231
-0.0075428397 0.71700001 0.01131426 8.5966956e-39 314 231
-0.0062857 0.71700001 0.01131426 9.0576738e-39 315 231
-0.0050285598 0.71700001 0.01131426 9.7909649e-39 316 231
-0.00376616 0.71600002 0.01129848 1.0067192e-38 317 231
-0.0025107733 0.71600002 0.01129848 1.0249124e-38 318 231
-0.0012448666 0.70999998 0.011203799 1.0617905e-38 319 231
0 0.70999998 0.011203799 1.1718534e-38 320 231
0.0012448666 0.70999998 0.011203799 1.2456099e-38 321 231
0.0024897333 0.70999998 0.011203799 1.3006054e-38 322 231
0.0037398601 0.71100003 0.01121958 1.3006054e-38 323 231
0.0050005065 0.713 0.011251139 1.2821304e-38 324 231
0.0062593995 0.71399999 0.011266919 1.2636912e-38 325 231
0.0075112795 0.71399999 0.011266919 1.2178087e-38 326 231
0.0087877065 0.71600002 0.01129848 1.1901498e-38 327 231
0.010043093 0.71600002 0.01129848 1.1901483e-38 328 231
0.01129848 0.71600002 0.01129848 1.1808929e-38 329 231
0.0125714 0.71700001 0.01131426 1.1627039e-38 330 231
0.013828539 0.71700001 0.01131426 1.1811789e-38 331 231
0.015085679 0.71700001 0.01131426 1.1260034e-38 332 231
0.0189886 0.722 0.01139316 1.0062915e-38 335 231
0.020254506 0.722 0.01139316 1.0063254e-38 336 231
0.021550218 0.72299999 0.01140894 9.7863083e-39 337 231
0.022880999 0.72500002 0.0114405 9.8774068e-39 338 231
0.024152167 0.72500002 0.0114405 9.6011786e-39 339 231
0.025423333 0.72500002 0.0114405 9.8766893e-39 340 231
0.026768139 0.727 0.01147206 1.0429863e-38 341 231
0.028042812 0.727 0.01147206 1.097981e-38 342 231
0.029438468 0.73000002 0.011519399 1.0611387e-38 343 231
0.030844638 0.73299998 0.011566739 1.1254624e-38 344 231
0.032129832 0.73299998 0.011566739 1.1992189e-38 345 231
0.03815604 0.83700001 0.013207859 1.5672143e-38 346 231
0.039623581 0.83700001 0.013207859 1.7516056e-38 347 231
-0.025879199 0.73799998 0.010351679 1.4111324e-38 300 232
-0.024518613 0.736 0.010323626 1.2451801e-38 301 232
-0.023165042 0.73400003 0.010295574 1.1169964e-38 302 232
-0.021848286 0.73299998 0.010281546 1.0708988e-38 303 232
-0.020506985 0.73100001 0.010253493 9.6101385e-39 304 232
-0.019199001 0.73000002 0.010239467 9.5179429e-39 305 232
-0.017919067 0.73000002 0.010239467 9.7934564e-39 306 232
-0.016593546 0.72799999 0.010211413 9.6094252e-39 307 232
-0.01531712 0.72799999 0.010211413 9.1495163e-39 308 232
-0.013982833 0.72500002 0.010169334 9.1495163e-39 309 232
-0.012676599 0.72299999 0.01014128 9.2413181e-39 310 232
-0.01140894 0.72299999 0.01014128 9.0569255e-39 311 232
-0.010127253 0.722 0.010127253 9.0579933e-39 312 232
-0.0088613462 0.722 0.010127253 8.8732461e-39 313 232
-0.0075954394 0.722 0.010127253 8.8732461e-39 314 232
-0.0063032326 0.71899998 0.010085173 8.965799e-39 315 232
-0.0050425865 0.71899998 0.010085173 9.4235612e-39 316 232
-0.0037714199 0.71700001 0.01005712 9.7001467e-39 317 232
-0.0025142799 0.71700001 0.01005712 9.0566298e-39 318 232
-0.0012553866 0.71600002 0.010043093 9.0566298e-39 319 232
0 0.713 0.010001013 8.2287259e-39 320 232
0.00124662 0.71100003 0.0099729598 8.8740953e-39 321 232
0.0024932399 0.71100003 0.0099729598 1.0434982e-38 322 232
0.0037503797 0.713 0.010001013 1.0434982e-38 323 232
0.0050075199 0.71399999 0.01001504 1.1167878e-38 324 232
0.0062769335 0.71600002 0.010043093 1.0983487e-38 325 232
0.00753232 0.71600002 0.010043093 1.024987e-38 326 232
0.0087877065 0.71600002 0.010043093 9.8807292e-39 327 232
0.010043093 0.71600002 0.010043093 1.135045e-38 328 232
0.01129848 0.71600002 0.010043093 1.1166419e-38 329 232
0.0125714 0.71700001 0.01005712 1.0432073e-38 330 232
0.013828539 0.71700001 0.01005712 1.0339876e-38 331 232
0.015085679 0.71700001 0.01005712 9.7884761e-39 332 232
0.016456785 0.722 0.010127253 9.9728674e-39 333 232
0.017722692 0.722 0.010127253 1.0430959e-38 334 232
0.0189886 0.722 0.010127253 1.0430959e-38 335 232
0.020254506 0.722 0.010127253 1.0429866e-38 336 232
0.021550218 0.72299999 0.01014128 1.0061085e-38 337 232
0.022880999 0.72500002 0.010169334 9.9681562e-39 338 232
0.024252106 0.72799999 0.010211413 9.6919295e-39 339 232
0.025528532 0.72799999 0.010211413 9.7844909e-39 340 232
0.026804959 0.72799999 0.010211413 1.0061438e-38 341 232
0.028158534 0.73000002 0.010239467 1.0977311e-38 342 232
0.029478792 0.73100001 0.010253493 1.1161702e-38 343 232
0.030886721 0.73400003 0.010295574 1.2725826e-38 344 232
-0.025879199 0.73799998 0.0090577193 1.5031856e-38 300 233
-0.024585238 0.73799998 0.0090577193 1.3741117e-38 301 233
-0.023291279 0.73799998 0.0090577193 1.1996155e-38 302 233
-0.021878093 0.73400003 0.0090086265 1.1350785e-38 303 233
-0.020563092 0.73299998 0.0089963535 9.4264759e-39 304 233
-0.019225299 0.73100001 0.0089718066 9.3342803e-39 305 233
-0.017919067 0.73000002 0.0089595336 9.1516449e-39 306 233
-0.016593546 0.72799999 0.0089349858 8.6906681e-39 307 233
-0.01531712 0.72799999 0.0089349858 9.059431e-39 308 233
-0.013982833 0.72500002 0.0088981669 9.059431e-39 309 233
-0.012711667 0.72500002 0.0088981669 9.6082888e-39 310 233
-0.01140894 0.72299999 0.0088736191 9.5160946e-39 311 233
-0.010127253 0.722 0.0088613462 9.333141e-39 312 233
-0.0088613462 0.722 0.0088613462 9.2409468e-39 313 233
-0.0075954394 0.722 0.0088613462 8.965799e-39 314 233
-0.0063120001 0.72000003 0.0088367993 8.965799e-39 315 233
-0.0050496003 0.72000003 0.0088367993 9.0576345e-39 316 233
-0.0037872 0.72000003 0.0088367993 8.9654403e-39 317 233
-0.0025248001 0.72000003 0.0088367993 8.9643641e-39 318 233
-0.0012606466 0.71899998 0.0088245263 8.8721699e-39 319 233
0 0.71600002 0.0087877065 8.5037713e-39 320 233
0.0012553866 0.71600002 0.0087877065 9.333532e-39 321 233
0.0025107733 0.71600002 0.0087877065 1.0618928e-38 322 233
0.00376616 0.71600002 0.0087877065 1.0618928e-38 323 233
0.0050285598 0.71700001 0.0087999795 1.0524969e-38 324 233
0.0062857 0.71700001 0.0087999795 1.0617524e-38 325 233
0.0075428397 0.71700001 0.0087999795 1.0342025e-38 326 233
0.0087999795 0.71700001 0.0087999795 1.0065078e-38 327 233
0.010085173 0.71899998 0.0088245263 1.0617536e-38 328 233
0.01134582 0.71899998 0.0088245263 1.0617536e-38 329 233
0.012606465 0.71899998 0.0088245263 1.0799764e-38 330 233
0.0138864 0.72000003 0.0088367993 1.0707568e-38 331 233
0.0151488 0.72000003 0.0088367993 1.098198e-38 332 233
0.016456785 0.722 0.0088613462 1.1074176e-38 333 233
0.017722692 0.722 0.0088613462 1.208616e-38 334 233
0.0189886 0.722 0.0088613462 1.1440791e-38 335 233
0.020282559 0.72299999 0.0088736191 1.079504e-38 336 233
0.021550218 0.72299999 0.0088736191 1.0425897e-38 337 233
0.022975679 0.72799999 0.0089349858 1.0701746e-38 338 233
0.024252106 0.72799999 0.0089349858 1.0793941e-38 339 233
0.025598666 0.73000002 0.0089595336 1.0702135e-38 340 233
0.026878599 0.73000002 0.0089595336 1.0517743e-38 341 233
0.028197108 0.73100001 0.0089718066 1.0977334e-38 342 233
0.029680425 0.736 0.0090331733 1.2083681e-38 343 233
0.030970879 0.736 0.0090331733 1.3370143e-38 344 233
0.039528899 0.83499998 0.010248233 1.8344763e-38 347 233
-0.025879199 0.73799998 0.0077637597 1.4295034e-38 300 234
-0.024585238 0.73799998 0.0077637597 1.4571261e-38 301 234
-0.023291279 0.73799998 0.0077637597 1.2823076e-38 302 234
-0.021878093 0.73400003 0.0077216802 1.1532337e-38 303 234
-0.020591147 0.73400003 0.0077216802 9.6094407e-39 304 234
-0.019277899 0.73299998 0.0077111595 9.4246907e-39 305 234
-0.017943613 0.73100001 0.00769012 9.150926e-39 306 234
-0.016639132 0.73000002 0.0076795998 9.150926e-39 307 234
-0.0153592 0.73000002 0.0076795998 9.334576e-39 308 234
-0.014021406 0.727 0.0076480396 9.2423817e-39 309 234
-0.012746733 0.727 0.0076480396 9.4260527e-39 310 234
-0.0114405 0.72500002 0.0076270006 9.4260527e-39 311 234
-0.01014128 0.72299999 0.0076059597 9.3338585e-39 312 234
-0.0088736191 0.72299999 0.0076059597 9.1498288e-39 313 234
-0.0075954394 0.722 0.0075954394 9.2409468e-39 314 234
-0.0063295332 0.722 0.0075954394 9.2409468e-39 315 234
-0.0050706398 0.72299999 0.0076059597 9.2409468e-39 316 234
-0.0038029798 0.72299999 0.0076059597 9.2409468e-39 317 234
-0.0025318132 0.722 0.0075954394 9.2398706e-39 318 234
-0.0012624001 0.72000003 0.0075743999 9.5168162e-39 319 234
0 0.72000003 0.0075743999 9.7909354e-39 320 234
0.0012624001 0.72000003 0.0075743999 1.05285e-38 321 234
0.0025212932 0.71899998 0.0075638802 1.1169596e-38 322 234
0.0037819401 0.71899998 0.0075638802 1.10774e-38 323 234
0.0050425865 0.71899998 0.0075638802 1.0800467e-38 324 234
0.0063032326 0.71899998 0.0075638802 1.070827e-38 325 234
0.0075743999 0.72000003 0.0075743999 1.0340927e-38 326 234
0.0088367993 0.72000003 0.0075743999 1.0433122e-38 327 234
0.010127253 0.722 0.0075954394 1.0891933e-38 328 234
0.01139316 0.722 0.0075954394 1.0891933e-38 329 234
0.012659066 0.722 0.0075954394 1.1075583e-38 330 234
0.013924973 0.722 0.0075954394 1.0983387e-38 331 234
0.015190879 0.722 0.0075954394 1.1165612e-38 332 234
0.01647958 0.72299999 0.0076059597 1.1257808e-38 333 234
0.017747238 0.72299999 0.0076059597 1.2359119e-38 334 234
0.019014901 0.72299999 0.0076059597 1.1805945e-38 335 234
0.020338668 0.72500002 0.0076270006 1.097655e-38 336 234
0.021669446 0.727 0.0076480396 1.1253139e-38 337 234
0.022975679 0.72799999 0.0076585598 1.1346101e-38 338 234
0.024318734 0.73000002 0.0076795998 1.1899273e-38 339 234
0.025598666 0.73000002 0.0076795998 1.2175193e-38 340 234
0.026878599 0.73000002 0.0076795998 1.2175193e-38 341 234
0.028505694 0.73900002 0.0077742799 1.2268486e-38 342 234
0.029761078 0.73799998 0.0077637597 1.2729105e-38 343 234
0.031055039 0.73799998 0.0077637597 1.4014092e-38 344 234
0.032480497 0.741 0.0077953199 1.38297e-38 345 234
-0.024585238 0.73799998 0.0064697997 1.4297567e-38 301 235
-0.023291279 0.73799998 0.0064697997 1.355959e-38 302 235
-0.021878093 0.73400003 0.006434733 1.1715679e-38 303 235
-0.020591147 0.73400003 0.006434733 9.6987818e-39 304 235
-0.019304199 0.73400003 0.006434733 1.0067924e-38 305 235
-0.018017253 0.73400003 0.006434733 1.1171335e-38 306 235
-0.016661927 0.73100001 0.006408433 1.0986942e-38 307 235
-0.0153592 0.73000002 0.0063996664 1.0803602e-38 308 235
-0.014079267 0.73000002 0.0063996664 1.0527374e-38 309 235
-0.012764266 0.72799999 0.0063821329 1.0436243e-38 310 235
-0.01147206 0.727 0.0063733663 1.0251855e-38 311 235
-0.010169334 0.72500002 0.0063558333 9.7012005e-39 312 235
-0.0088981669 0.72500002 0.0063558333 9.516812e-39 313 235
-0.0076059597 0.72299999 0.0063382997 9.333141e-39 314 235
-0.0063382997 0.72299999 0.0063382997 9.333141e-39 315 235
-0.0050706398 0.72299999 0.0063382997 9.6079301e-39 316 235
-0.0038029798 0.72299999 0.0063382997 9.6079301e-39 317 235
-0.0025318132 0.722 0.0063295332 1.0525944e-38 318 235
-0.0012659066 0.722 0.0063295332 1.126351e-38 319 235
0 0.72000003 0.0063120001 1.2088643e-38 320 235
0.0012624001 0.72000003 0.0063120001 1.2180839e-38 321 235
0.0025248001 0.72000003 0.0063120001 1.2088312e-38 322 235
0.0037872 0.72000003 0.0063120001 1.171953e-38 323 235
0.0050496003 0.72000003 0.0063120001 1.1442587e-38 324 235
0.0063120001 0.72000003 0.0063120001 1.135039e-38 325 235
0.0075743999 0.72000003 0.0063120001 1.1535139e-38 326 235
0.0088613462 0.722 0.0063295332 1.1535139e-38 327 235
0.010127253 0.722 0.0063295332 1.1810278e-38 328 235
0.01140894 0.72299999 0.0063382997 1.1718081e-38 329 235
0.012676599 0.72299999 0.0063382997 1.1901381e-38 330 235
0.01394426 0.72299999 0.0063382997 1.1901381e-38 331 235
0.015211919 0.72299999 0.0063382997 1.2359122e-38 332 235
0.016525166 0.72500002 0.0063558333 1.2451317e-38 333 235
0.017796334 0.72500002 0.0063558333 1.226622e-38 334 235
0.0190675 0.72500002 0.0063558333 1.1989273e-38 335 235
0.020338668 0.72500002 0.0063558333 1.1805259e-38 336 235
0.021669446 0.727 0.0063733663 1.198965e-38 337 235
0.022975679 0.72799999 0.0063821329 1.1715269e-38 338 235
0.024318734 0.73000002 0.0063996664 1.208405e-38 339 235
0.025598666 0.73000002 0.0063996664 1.1900426e-38 340 235
0.026878599 0.73000002 0.0063996664 1.1900426e-38 341 235
0.028505694 0.73900002 0.0064785667 1.2543294e-38 342 235
0.029801406 0.73900002 0.0064785667 1.2727686e-38 343 235
0.03109712 0.73900002 0.0064785667 1.3093947e-38 344 235
0.032480497 0.741 0.0064960998 1.3093947e-38 345 235
0.033779722 0.741 0.0064960998 1.6778528e-38 346 235
-0.021937706 0.736 0.005161813 1.2635505e-38 303 236
-0.020647252 0.736 0.005161813 1.0616833e-38 304 236
-0.019304199 0.73400003 0.0051477868 1.1170006e-38 305 236
-0.018017253 0.73400003 0.0051477868 1.2550363e-38 306 236
-0.016707512 0.73299998 0.005140773 1.218158e-38 307 236
-0.01538024 0.73100001 0.0051267464 1.1630517e-38 308 236
-0.014098554 0.73100001 0.0051267464 1.1261734e-38 309 236
-0.012799333 0.73000002 0.0051197335 1.0436602e-38 310 236
-0.01148784 0.72799999 0.0051057064 1.0068184e-38 311 236
-0.010197386 0.727 0.0050986931 9.6090063e-39 312 236
-0.0089227129 0.727 0.0050986931 9.3327823e-39 313 236
-0.0076270006 0.72500002 0.0050846669 9.1483938e-39 314 236
-0.0063558333 0.72500002 0.0050846669 9.2405881e-39 315 236
-0.0050846669 0.72500002 0.0050846669 9.5150338e-39 316 236
-0.0038029798 0.72299999 0.0050706398 9.6072294e-39 317 236
-0.0025353199 0.72299999 0.0050706398 1.0986612e-38 318 236
-0.0012676599 0.72299999 0.0050706398 1.1816372e-38 319 236
0 0.722 0.0050636264 1.2916256e-38 320 236
0.0012659066 0.722 0.0050636264 1.2731864e-38 321 236
0.0025248001 0.72000003 0.0050496003 1.2271592e-38 322 236
0.0037872 0.72000003 0.0050496003 1.2086842e-38 323 236
0.0050636264 0.722 0.0050636264 1.1442195e-38 324 236
0.0063295332 0.722 0.0050636264 1.1442195e-38 325 236
0.0075954394 0.722 0.0050636264 1.1901773e-38 326 236
0.0088613462 0.722 0.0050636264 1.2454947e-38 327 236
0.01014128 0.72299999 0.0050706398 1.2269129e-38 328 236
0.01140894 0.72299999 0.0050706398 1.1992542e-38 329 236
0.012676599 0.72299999 0.0050706398 1.2086182e-38 330 236
0.01394426 0.72299999 0.0050706398 1.2454965e-38 331 236
0.015211919 0.72299999 0.0050706398 1.2729063e-38 332 236
0.016570752 0.727 0.0050986931 1.2545032e-38 333 236
0.017845426 0.727 0.0050986931 1.1900735e-38 334 236
0.019120099 0.727 0.0050986931 1.1808539e-38 335 236
0.020394772 0.727 0.0050986931 1.1716341e-38 336 236
0.021669446 0.727 0.0050986931 1.1532309e-38 337 236
0.022975679 0.72799999 0.0051057064 1.1348634e-38 338 236
0.024318734 0.73000002 0.0051197335 1.0979852e-38 339 236
0.025598666 0.73000002 0.0051197335 1.0796574e-38 340 236
0.027209979 0.73900002 0.0051828534 1.1073161e-38 341 236
0.028505694 0.73900002 0.0051828534 1.162206e-38 342 236
0.029882059 0.741 0.0051968796 1.162206e-38 343 236
0.03118128 0.741 0.0051968796 1.1805728e-38 344 236
0.032480497 0.741 0.0051968796 1.2451097e-38 345 236
0.033916477 0.74400002 0.0052179201 1.6778528e-38 346 236
0.035220962 0.74400002 0.0052179201 1.8161464e-38 347 236
-0.023417519 0.74199998 0.0039029196 1.4020608e-38 302 237
-0.020815572 0.74199998 0.0039029196 1.227207e-38 304 237
-0.019356798 0.736 0.0038713599 1.2088039e-38 305 237
-0.018066347 0.736 0.0038713599 1.199793e-38 306 237
-0.016730307 0.73400003 0.0038608401 1.1629149e-38 307 237
-0.015422319 0.73299998 0.0038555798 1.0343388e-38 308 237
-0.014137126 0.73299998 0.0038555798 1.0158996e-38 309 237
-0.012816866 0.73100001 0.00384506 9.9763679e-39 310 237
-0.011519399 0.73000002 0.0038397999 9.6072266e-39 311 237
-0.010211413 0.72799999 0.0038292799 8.6903304e-39 312 237
-0.0089349858 0.72799999 0.0038292799 9.5200911e-39 313 237
-0.0076480396 0.727 0.0038240198 1.0620365e-38 314 237
-0.0063733663 0.727 0.0038240198 1.0804757e-38 315 237
-0.0050846669 0.72500002 0.0038135003 1.0896266e-38 316 237
-0.0038135003 0.72500002 0.0038135003 1.098882e-38 317 237
-0.0025423334 0.72500002 0.0038135003 1.1723165e-38 318 237
-0.0012711667 0.72500002 0.0038135003 1.181536e-38 319 237
0 0.72299999 0.0038029798 1.2180158e-38 320 237
0.0012676599 0.72299999 0.0038029798 1.2180158e-38 321 237
0.0025318132 0.722 0.0037977197 1.1995747e-38 322 237
0.0037977197 0.722 0.0037977197 1.2087942e-38 323 237
0.0050636264 0.722 0.0037977197 1.1995406e-38 324 237
0.0063295332 0.722 0.0037977197 1.2180158e-38 325 237
0.0076059597 0.72299999 0.0038029798 1.2180549e-38 326 237
0.0088736191 0.72299999 0.0038029798 1.2641168e-38 327 237
0.01014128 0.72299999 0.0038029798 1.2178398e-38 328 237
0.0114405 0.72500002 0.0038135003 1.1440833e-38 329 237
0.012711667 0.72500002 0.0038135003 1.1260404e-38 330 237
0.013982833 0.72500002 0.0038135003 1.1444796e-38 331 237
0.015296079 0.727 0.0038240198 1.1626685e-38 332 237
0.016570752 0.727 0.0038240198 1.1442294e-38 333 237
0.017845426 0.727 0.0038240198 1.0615032e-38 334 237
0.019120099 0.727 0.0038240198 1.0615032e-38 335 237
0.020394772 0.727 0.0038240198 1.0155482e-38 336 237
0.021699252 0.72799999 0.0038292799 9.8788963e-39 337 237
0.023038799 0.73000002 0.0038397999 1.0154763e-38 338 237
0.024618553 0.73900002 0.00388714 1.0154763e-38 339 237
0.025984399 0.741 0.0038976599 1.0796572e-38 340 237
0.027283618 0.741 0.0038976599 1.0889126e-38 341 237
0.028582839 0.741 0.0038976599 1.1067807e-38 342 237
0.029922385 0.74199998 0.0039029196 1.0422438e-38 343 237
0.031223357 0.74199998 0.0039029196 1.0700827e-38 344 237
0.032524332 0.74199998 0.0039029196 1.189937e-38 345 237
0.033916477 0.74400002 0.0039134403 1.677781e-38 346 237
-0.020927785 0.74599999 0.0026159731 1.2916386e-38 304 238
-0.019567199 0.74400002 0.00260896 1.2732355e-38 305 238
-0.018189078 0.741 0.0025984398 1.098558e-38 306 238
-0.016775893 0.736 0.0025809065 1.0248015e-38 307 238
-0.01544336 0.73400003 0.0025738934 9.3328313e-39 308 238
-0.014156413 0.73400003 0.0025738934 9.425027e-39 309 238
-0.012851933 0.73299998 0.0025703865 9.6094224e-39 310 238
-0.011566739 0.73299998 0.0025703865 9.4250312e-39 311 238
-0.010253493 0.73100001 0.0025633732 8.9662769e-39 312 238
-0.0089595336 0.73000002 0.0025598668 1.0810189e-38 313 238
-0.0076585598 0.72799999 0.0025528532 1.2645181e-38 314 238
-0.0063821329 0.72799999 0.0025528532 1.2921408e-38 315 238
-0.0051057064 0.72799999 0.0025528532 1.310473e-38 316 238
-0.0038240198 0.727 0.0025493465 1.310473e-38 317 238
-0.0025493465 0.727 0.0025493465 1.3195831e-38 318 238
-0.0012746733 0.727 0.0025493465 1.2827048e-38 319 238
0 0.727 0.0025493465 1.1812855e-38 320 238
0.0012711667 0.72500002 0.0025423334 1.1812855e-38 321 238
0.0025423334 0.72500002 0.0025423334 1.1721012e-38 322 238
0.0038029798 0.72299999 0.0025353199 1.2458578e-38 323 238
0.0050706398 0.72299999 0.0025353199 1.2733762e-38 324 238
0.0063382997 0.72299999 0.0025353199 1.2917793e-38 325 238
0.0076270006 0.72500002 0.0025423334 1.2274228e-38 326 238
0.0088981669 0.72500002 0.0025423334 1.2089477e-38 327 238
0.010169334 0.72500002 0.0025423334 1.1536997e-38 328 238
0.01147206 0.727 0.0025493465 1.0983823e-38 329 238
0.012746733 0.727 0.0025493465 1.1259681e-38 330 238
0.014021406 0.727 0.0025493465 1.1259681e-38 331 238
0.01531712 0.72799999 0.0025528532 1.0616084e-38 332 238
0.016593546 0.72799999 0.0025528532 9.970715e-39 333 238
0.017869972 0.72799999 0.0025528532 9.5118514e-39 334 238
0.0191464 0.72799999 0.0025528532 9.6040471e-39 335 238
0.020422826 0.72799999 0.0025528532 9.3285364e-39 336 238
0.021758866 0.73000002 0.0025598668 9.3285364e-39 337 238
0.023385961 0.741 0.0025984398 9.6955771e-39 338 238
0.024685178 0.741 0.0025984398 1.0433142e-38 339 238
0.025984399 0.741 0.0025984398 1.116323e-38 340 238
0.027320439 0.74199998 0.0026019465 1.0241275e-38 341 238
0.028621411 0.74199998 0.0026019465 9.9632769e-39 342 238
0.029922385 0.74199998 0.0026019465 9.5026589e-39 343 238
0.031307522 0.74400002 0.00260896 1.1432997e-38 344 238
0.032612 0.74400002 0.00260896 1.2539704e-38 345 238
0.033916477 0.74400002 0.00260896 1.6961478e-38 346 238
-0.022414612 0.75199997 0.0013185065 1.3377409e-38 303 239
-0.021011947 0.74900001 0.0013132467 1.3656124e-38 304 239
-0.019646099 0.74699998 0.0013097399 1.3287343e-38 305 239
-0.018189078 0.741 0.0012992199 9.8810683e-39 306 239
-0.016821479 0.73799998 0.0012939599 9.788514e-39 307 239
-0.015485439 0.736 0.0012904532 1.0899518e-38 308 239
-0.014194986 0.736 0.0012904532 1.1544887e-38 309 239
-0.012869466 0.73400003 0.0012869467 1.2737349e-38 310 239
-0.011582521 0.73400003 0.0012869467 1.310649e-38 311 239
-0.010281546 0.73299998 0.0012851933 1.2922491e-38 312 239
-0.0089718066 0.73100001 0.0012816866 1.3383109e-38 313 239
-0.0076795998 0.73000002 0.0012799334 1.3749398e-38 314 239
-0.0063996664 0.73000002 0.0012799334 1.4025983e-38 315 239
-0.0051057064 0.72799999 0.0012764266 1.4206774e-38 316 239
-0.0038292799 0.72799999 0.0012764266 1.3745798e-38 317 239
-0.0025528532 0.72799999 0.0012764266 1.3195831e-38 318 239
-0.0012764266 0.72799999 0.0012764266 1.2366071e-38 319 239
0 0.727 0.0012746733 1.1079243e-38 320 239
0.0012746733 0.727 0.0012746733 1.0802297e-38 321 239
0.0025493465 0.727 0.0012746733 1.0802283e-38 322 239
0.0038135003 0.72500002 0.0012711667 1.1078512e-38 323 239
0.0050846669 0.72500002 0.0012711667 1.1169288e-38 324 239
0.0063558333 0.72500002 0.0012711667 1.0523918e-38 325 239
0.0076270006 0.72500002 0.0012711667 9.6977701e-39 326 239
0.0089227129 0.727 0.0012746733 1.0066192e-38 327 239
0.010211413 0.72799999 0.0012764266 1.1260792e-38 328 239
0.01148784 0.72799999 0.0012764266 1.1445544e-38 329 239
0.012764266 0.72799999 0.0012764266 1.217879e-38 330 239
0.014079267 0.73000002 0.0012799334 1.1902202e-38 331 239
0.0153592 0.73000002 0.0012799334 1.0156558e-38 332 239
0.016639132 0.73000002 0.0012799334 9.5111886e-39 333 239
0.017919067 0.73000002 0.0012799334 9.3278329e-39 334 239
0.019199001 0.73000002 0.0012799334 9.696614e-39 335 239
0.020478934 0.73000002 0.0012799334 9.6962763e-39 336 239
0.021788673 0.73100001 0.0012816866 1.0065419e-38 337 239
0.023385961 0.741 0.0012992199 1.0981322e-38 338 239
0.024685178 0.741 0.0012992199 1.1349744e-38 339 239
0.026019465 0.74199998 0.0013009732 1.1159654e-38 340 239
0.027320439 0.74199998 0.0013009732 8.6703717e-39 341 239
0.028621411 0.74199998 0.0013009732 7.389711e-39 342 239
0.030003037 0.74400002 0.00130448 9.0492338e-39 343 239
0.031391677 0.74599999 0.0013079866 1.2444985e-38 344 239
0.032743499 0.74699998 0.0013097399 1.3274744e-38 345 239
0.034053236 0.74699998 0.0013097399 1.751393e-38 346 239
-0.023733119 0.75199997 -0 1.3929506e-38 302 240
-0.022414612 0.75199997 -0 1.365328e-38 303 240
-0.021096105 0.75199997 -0 1.4300422e-38 304 240
-0.0196987 0.74900001 -0 1.4208226e-38 305 240
-0.018336359 0.74699998 -0 1.1075332e-38 306 240
-0.016889861 0.741 -0 1.0798385e-38 307 240
-0.015527519 0.73799998 -0 1.282921e-38 308 240
-0.014233559 0.73799998 -0 1.3198352e-38 309 240
-0.012904533 0.736 -0 1.3379905e-38 310 240
-0.01161408 0.736 -0 1.4025274e-38 311 240
-0.010295574 0.73400003 -0 1.4578095e-38 312 240
-0.0089963535 0.73299998 -0 1.4394064e-38 313 240
-0.00769012 0.73100001 -0 1.4760324e-38 314 240
-0.006408433 0.73100001 -0 1.4207151e-38 315 240
-0.0051197335 0.73000002 -0 1.2644122e-38 316 240
-0.0038397999 0.73000002 -0 1.1722166e-38 317 240
-0.0025528532 0.72799999 -0 1.0895957e-38 318 240
-0.0012764266 0.72799999 -0 1.0435338e-38 319 240
0 0.72799999 -0 9.8842745e-39 320 240
0.0012764266 0.72799999 -0 9.6995231e-39 321 240
0.0025528532 0.72799999 -0 9.701286e-39 322 240
0.0038240198 0.727 -0 9.516536e-39 323 240
0.0050986931 0.727 -0 9.1462933e-39 324 240
0.0063733663 0.727 -0 8.7775094e-39 325 240
0.0076585598 0.72799999 -0 9.1456207e-39 326 240
0.0089595336 0.73000002 -0 1.0621111e-38 327 240
0.010239467 0.73000002 -0 1.1537752e-38 328 240
0.011519399 0.73000002 -0 1.2090926e-38 329 240
0.012799333 0.73000002 -0 1.2546159e-38 330 240
0.014098554 0.73100001 -0 1.1993344e-38 331 240
0.01538024 0.73100001 -0 1.1074586e-38 332 240
0.016661927 0.73100001 -0 1.061361e-38 333 240
0.017943613 0.73100001 -0 9.8792495e-39 334 240
0.019225299 0.73100001 -0 9.6026612e-39 335 240
0.020506985 0.73100001 -0 9.1420782e-39 336 240
0.022116546 0.74199998 -0 9.7874476e-39 337 240
0.023417519 0.74199998 -0 1.1072129e-38 338 240
0.024718491 0.74199998 -0 9.9657824e-39 339 240
0.026019465 0.74199998 -0 9.5930665e-39 340 240
0.027320439 0.74199998 -0 8.1182951e-39 341 240
0.028621411 0.74199998 -0 9.5926993e-39 342 240
0.030124018 0.74699998 -0 1.1621005e-38 343 240
0.031433757 0.74699998 -0 1.2630098e-38 344 240
0.032743499 0.74699998 -0 1.3091076e-38 345 240
-0.023733119 0.75199997 -0.0013185065 1.3653999e-38 302 241
-0.022414612 0.75199997 -0.0013185065 1.3561803e-38 303 241
-0.021096105 0.75199997 -0.0013185065 1.3748347e-38 304 241
-0.019724999 0.75 -0.001315 1.4208965e-38 305 241
-0.018336359 0.74699998 -0.0013097399 1.3470661e-38 306 241
-0.016958239 0.74400002 -0.00130448 1.3101879e-38 307 241
-0.01559064 0.741 -0.0012992199 1.3286993e-38 308 241
-0.01429142 0.741 -0.0012992199 1.2364676e-38 309 241
-0.012939599 0.73799998 -0.0012939599 9.6035019e-39 310 241
-0.011645639 0.73799998 -0.0012939599 9.5113063e-39 311 241
-0.010323626 0.736 -0.0012904532 1.0524386e-38 312 241
-0.0090331733 0.736 -0.0012904532 1.255269e-38 313 241
-0.0077111595 0.73299998 -0.0012851933 1.4203557e-38 314 241
-0.006408433 0.73100001 -0.0012816866 1.2820623e-38 315 241
-0.0051267464 0.73100001 -0.0012816866 8.5039311e-39 316 241
-0.0038397999 0.73000002 -0.0012799334 7.9507573e-39 317 241
-0.0025598668 0.73000002 -0.0012799334 8.4127668e-39 318 241
-0.0012799334 0.73000002 -0.0012799334 8.044343e-39 319 241
0 0.73000002 -0.0012799334 7.8591852e-39 320 241
0.0012799334 0.73000002 -0.0012799334 8.3201634e-39 321 241
0.0025598668 0.73000002 -0.0012799334 9.3296112e-39 322 241
0.0038397999 0.73000002 -0.0012799334 9.3296112e-39 323 241
0.0051197335 0.73000002 -0.0012799334 9.1463297e-39 324 241
0.0063996664 0.73000002 -0.0012799334 1.0160483e-38 325 241
0.0076795998 0.73000002 -0.0012799334 1.1353344e-38 326 241
0.0089718066 0.73100001 -0.0012816866 1.209091e-38 327 241
0.010253493 0.73100001 -0.0012816866 1.2088779e-38 328 241
0.01153518 0.73100001 -0.0012816866 1.1904389e-38 329 241
0.012816866 0.73100001 -0.0012816866 1.1994787e-38 330 241
0.014137126 0.73299998 -0.0012851933 1.1902591e-38 331 241
0.015422319 0.73299998 -0.0012851933 1.1993341e-38 332 241
0.016707512 0.73299998 -0.0012851933 1.1901145e-38 333 241
0.017992707 0.73299998 -0.0012851933 9.2307159e-39 334 241
0.019304199 0.73400003 -0.0012869467 8.6775421e-39 335 241
0.020591147 0.73400003 -0.0012869467 6.5606608e-39 336 241
0.022116546 0.74199998 -0.0013009732 7.1134759e-39 337 241
0.023417519 0.74199998 -0.0013009732 9.8710813e-39 338 241
0.024718491 0.74199998 -0.0013009732 8.9494851e-39 339 241
0.026019465 0.74199998 -0.0013009732 7.5683626e-39 340 241
0.027394081 0.74400002 -0.00130448 8.3981232e-39 341 241
0.02869856 0.74400002 -0.00130448 1.1341179e-38 342 241
0.030003037 0.74400002 -0.00130448 1.2631918e-38 343 241
-0.023733119 0.75199997 -0.0026370131 1.3470333e-38 302 242
-0.022414612 0.75199997 -0.0026370131 1.3285583e-38 303 242
-0.021096105 0.75199997 -0.0026370131 1.374764e-38 304 242
-0.019724999 0.75 -0.00263 1.4300814e-38 305 242
-0.018385453 0.74900001 -0.0026264933 1.4023857e-38 306 242
-0.017026618 0.74699998 -0.0026194798 1.3839107e-38 307 242
-0.015653761 0.74400002 -0.00260896 1.4299362e-38 308 242
-0.01434928 0.74400002 -0.00260896 1.3377406e-38 309 242
-0.0129922 0.741 -0.0025984398 9.9683412e-39 310 242
-0.01166142 0.73900002 -0.0025914267 7.6630917e-39 311 242
-0.010351679 0.73799998 -0.0025879198 6.5661035e-39 312 242
-0.0090577193 0.73799998 -0.0025879198 1.043832e-38 313 242
-0.0077427197 0.736 -0.0025809065 1.4206074e-38 314 242
-0.0064522666 0.736 -0.0025809065 1.3284119e-38 315 242
-0.005140773 0.73299998 -0.0025703865 1.098278e-38 316 242
-0.00384506 0.73100001 -0.0025633732 1.0245214e-38 317 242
-0.0025633732 0.73100001 -0.0025633732 1.0066546e-38 318 242
-0.0012799334 0.73000002 -0.0025598668 9.6981232e-39 319 242
0 0.73000002 -0.0025598668 1.0708635e-38 320 242
0.0012816866 0.73100001 -0.0025633732 1.0340211e-38 321 242
0.0025633732 0.73100001 -0.0025633732 1.0065027e-38 322 242
0.00384506 0.73100001 -0.0025633732 9.8802766e-39 323 242
0.0051267464 0.73100001 -0.0025633732 9.6973721e-39 324 242
0.0064259665 0.73299998 -0.0025703865 1.1080307e-38 325 242
