# .PCD v.7 - Point Cloud Data file format
FIELDS x y z rgb imX imY
SIZE 4 4 4 4 4 4
TYPE F F F F F F
COUNT 1 1 1 1 1 1
WIDTH 835
HEIGHT 1
VIEWPOINT 0 0 0 1 0 0 0
POINTS 835
DATA ascii
-0.031121666 0.70999998 -0.0049794666 9.5912392e-39 295 244
-0.02979264 0.708 -0.0049654399 1.0231567e-38 296 244
-0.028510952 0.70700002 -0.0049584266 9.7705872e-39 297 244
-0.027232772 0.70599997 -0.0049514128 9.2238958e-39 298 244
-0.025994917 0.70599997 -0.0049514128 1.0422438e-38 299 244
-0.024686933 0.704 -0.0049373866 1.1615943e-38 300 244
-0.023452586 0.704 -0.0049373866 1.1155324e-38 301 244
-0.022218239 0.704 -0.0049373866 1.124787e-38 302 244
-0.020983893 0.704 -0.0049373866 1.1340065e-38 303 244
-0.019805651 0.70599997 -0.0049514128 1.1336816e-38 304 244
-0.018567799 0.70599997 -0.0049514128 9.4007074e-39 305 244
-0.017329946 0.70599997 -0.0049514128 8.9368398e-39 306 244
-0.016046507 0.704 -0.0049373866 9.5822092e-39 307 244
-0.014812159 0.704 -0.0049373866 8.9436739e-39 308 244
-0.013558527 0.70300001 -0.0049303733 7.8376851e-39 309 244
-0.012325933 0.70300001 -0.0049303733 7.6500667e-39 310 244
-0.011061779 0.70099998 -0.0049163462 7.557871e-39 311 244
-0.0098326923 0.70099998 -0.0049163462 7.7419148e-39 312 244
-0.0086036054 0.70099998 -0.0049163462 1.0968762e-38 313 244
-0.0073955595 0.70300001 -0.0049303733 1.170416e-38 314 244
-0.0061629666 0.70300001 -0.0049303733 1.0874398e-38 315 244
-0.0049303733 0.70300001 -0.0049303733 1.0506336e-38 316 244
-0.0037030398 0.704 -0.0049373866 1.0506336e-38 317 244
-0.0024686933 0.704 -0.0049373866 1.0414866e-38 318 244
-0.0012343467 0.704 -0.0049373866 1.0598897e-38 319 244
0 0.704 -0.0049373866 1.069073e-38 320 244
0.0012343467 0.704 -0.0049373866 1.0321589e-38 321 244
0.0024686933 0.704 -0.0049373866 1.0506336e-38 322 244
0.0037135598 0.70599997 -0.0049514128 1.0598532e-38 323 244
0.0049514128 0.70599997 -0.0049514128 1.0691083e-38 324 244
0.0061892662 0.70599997 -0.0049514128 1.0506333e-38 325 244
0.0074271196 0.70599997 -0.0049514128 1.004643e-38 326 244
0.008677247 0.70700002 -0.0049584266 9.6780076e-39 327 244
0.0099308798 0.708 -0.0049654399 9.2138008e-39 328 244
0.011203799 0.70999998 -0.0049794666 8.2918459e-39 329 244
0.012448666 0.70999998 -0.0049794666 7.0954734e-39 330 244
0.01371282 0.71100003 -0.0049864799 7.0032777e-39 331 244
0.015001519 0.713 -0.0050005065 6.915045e-39 332 244
0.016274439 0.71399999 -0.0050075199 7.8366412e-39 333 244
0.017575413 0.71600002 -0.0050215465 8.9393832e-39 334 244
0.018857099 0.71700001 -0.0050285598 8.9393832e-39 335 244
0.020114239 0.71700001 -0.0050285598 8.0192219e-39 336 244
0.021371379 0.71700001 -0.0050285598 1.1153873e-38 337 244
-0.047357533 0.73000002 -0.0063996664 1.5672904e-38 283 245
-0.045951359 0.72799999 -0.0063821329 1.5856216e-38 284 245
-0.044490833 0.72500002 -0.0063558333 1.5856216e-38 285 245
-0.043040827 0.722 -0.0063295332 1.4660923e-38 286 245
-0.041774917 0.722 -0.0063295332 1.0696511e-38 287 245
-0.040396802 0.72000003 -0.0063120001 9.1335163e-39 288 245
-0.038971342 0.71700001 -0.0062857 9.2257119e-39 289 245
-0.037714198 0.71700001 -0.0062857 7.5651143e-39 290 245
-0.036406212 0.71600002 -0.0062769335 5.2605837e-39 291 245
-0.035052639 0.71399999 -0.0062593995 5.6264922e-39 292 245
-0.033753417 0.713 -0.0062506334 5.9952761e-39 293 245
-0.032412119 0.71100003 -0.0062330998 7.3800014e-39 294 245
-0.031121666 0.70999998 -0.0062243328 7.1037747e-39 295 245
-0.02979264 0.708 -0.0062067998 7.0083308e-39 296 245
-0.02855128 0.708 -0.0062067998 6.5473541e-39 297 245
-0.027271347 0.70700002 -0.0061980332 6.7367858e-39 298 245
-0.025994917 0.70599997 -0.0061892662 8.9494823e-39 299 245
-0.024757065 0.70599997 -0.0061892662 1.1709942e-38 300 245
-0.023452586 0.704 -0.0061717331 1.1617388e-38 301 245
-0.022218239 0.704 -0.0061717331 1.1801762e-38 302 245
-0.020983893 0.704 -0.0061717331 1.1986155e-38 303 245
-0.019805651 0.70599997 -0.0061892662 1.1522283e-38 304 245
-0.018567799 0.70599997 -0.0061892662 9.8631205e-39 305 245
-0.017329946 0.70599997 -0.0061892662 9.1233821e-39 306 245
-0.016092092 0.70599997 -0.0061892662 1.0782903e-38 307 245
-0.014812159 0.704 -0.0061717331 1.1523712e-38 308 245
-0.013558527 0.70300001 -0.0061629666 1.0232974e-38 309 245
-0.012325933 0.70300001 -0.0061629666 8.2057446e-39 310 245
-0.011061779 0.70099998 -0.0061454331 7.6525708e-39 311 245
-0.0098326923 0.70099998 -0.0061454331 8.6652976e-39 312 245
-0.0086036054 0.70099998 -0.0061454331 1.050921e-38 313 245
-0.0074060797 0.704 -0.0061717331 1.0877642e-38 314 245
-0.0061717331 0.704 -0.0061717331 1.0877642e-38 315 245
-0.0049373866 0.704 -0.0061717331 1.1244257e-38 316 245
-0.0037030398 0.704 -0.0061717331 1.1151703e-38 317 245
-0.0024686933 0.704 -0.0061717331 1.1059507e-38 318 245
-0.0012343467 0.704 -0.0061717331 1.1244257e-38 319 245
0 0.704 -0.0061717331 1.0690727e-38 320 245
0.0012343467 0.704 -0.0061717331 1.0045358e-38 321 245
0.0024757064 0.70599997 -0.0061892662 9.8609667e-39 322 245
0.0037135598 0.70599997 -0.0061892662 9.9531624e-39 323 245
0.0049514128 0.70599997 -0.0061892662 1.0046433e-38 324 245
0.0061892662 0.70599997 -0.0061892662 1.013863e-38 325 245
0.0074376399 0.70700002 -0.0061980332 9.7702158e-39 326 245
0.008677247 0.70700002 -0.0061980332 8.479477e-39 327 245
0.0099308798 0.708 -0.0062067998 8.0163535e-39 328 245
0.011203799 0.70999998 -0.0062243328 7.1865928e-39 329 245
0.0124662 0.71100003 -0.0062330998 6.1742556e-39 330 245
0.013751393 0.713 -0.0062506334 5.9898643e-39 331 245
0.015022559 0.71399999 -0.0062593995 5.9934642e-39 332 245
0.016320027 0.71600002 -0.0062769335 6.9150604e-39 333 245
0.017599959 0.71700001 -0.0062857 7.9288396e-39 334 245
0.018857099 0.71700001 -0.0062857 7.836644e-39 335 245
0.020114239 0.71700001 -0.0062857 7.375656e-39 336 245
0.021371379 0.71700001 -0.0062857 1.0417753e-38 337 245
-0.047357533 0.73000002 -0.0076795998 1.603808e-38 283 246
-0.045951359 0.72799999 -0.0076585598 1.6221389e-38 284 246
-0.044613566 0.727 -0.0076480396 1.6036998e-38 285 246
-0.043100435 0.72299999 -0.0076059597 1.5117579e-38 286 246
-0.041774917 0.722 -0.0075954394 1.1245721e-38 287 246
-0.040509012 0.722 -0.0075954394 9.1335163e-39 288 246
-0.039080046 0.71899998 -0.0075638802 9.3179075e-39 289 246
-0.037714198 0.71700001 -0.0075428397 8.397033e-39 290 246
-0.036406212 0.71600002 -0.00753232 7.8438592e-39 291 246
-0.035052639 0.71399999 -0.0075112795 7.7516608e-39 292 246
-0.033800758 0.71399999 -0.0075112795 7.4747152e-39 293 246
-0.032503292 0.713 -0.0075007593 6.4609248e-39 294 246
-0.031165501 0.71100003 -0.0074797203 5.9077524e-39 295 246
-0.029876797 0.70999998 -0.0074691991 6.5466478e-39 296 246
-0.02855128 0.708 -0.0074481601 6.6392022e-39 297 246
-0.027271347 0.70700002 -0.0074376399 7.1019754e-39 298 246
-0.02603174 0.70700002 -0.0074376399 7.7473448e-39 299 246
-0.024757065 0.70599997 -0.0074271196 8.5781761e-39 300 246
-0.023519212 0.70599997 -0.0074271196 9.2235455e-39 301 246
-0.022281358 0.70599997 -0.0074271196 9.6823516e-39 302 246
-0.021043506 0.70599997 -0.0074271196 9.4983205e-39 303 246
-0.019805651 0.70599997 -0.0074271196 9.6808943e-39 304 246
-0.018567799 0.70599997 -0.0074271196 9.0355249e-39 305 246
-0.017329946 0.70599997 -0.0074271196 9.1273519e-39 306 246
-0.016092092 0.70599997 -0.0074271196 1.0233698e-38 307 246
-0.014812159 0.704 -0.0074060797 1.0971627e-38 308 246
-0.013577812 0.704 -0.0074060797 1.0879432e-38 309 246
-0.012325933 0.70300001 -0.0073955595 1.0141131e-38 310 246
-0.011061779 0.70099998 -0.0073745195 7.5596535e-39 311 246
-0.0098326923 0.70099998 -0.0073745195 6.8267758e-39 312 246
-0.0086036054 0.70099998 -0.0073745195 8.2097102e-39 313 246
-0.0074060797 0.704 -0.0074060797 8.0242596e-39 314 246
-0.0061717331 0.704 -0.0074060797 7.0104678e-39 315 246
-0.0049373866 0.704 -0.0074060797 7.9245054e-39 316 246
-0.0037030398 0.704 -0.0074060797 8.201451e-39 317 246
-0.0024757064 0.70599997 -0.0074271196 8.3890806e-39 318 246
-0.0012378532 0.70599997 -0.0074271196 8.1124924e-39 319 246
0 0.70599997 -0.0074271196 8.1067386e-39 320 246
0.0012378532 0.70599997 -0.0074271196 7.737596e-39 321 246
0.0024757064 0.70599997 -0.0074271196 6.9132303e-39 322 246
0.0037135598 0.70599997 -0.0074271196 6.8210347e-39 323 246
0.0049514128 0.70599997 -0.0074271196 7.0061448e-39 324 246
0.0061980332 0.70700002 -0.0074376399 8.1124924e-39 325 246
0.0074376399 0.70700002 -0.0074376399 8.3894464e-39 326 246
0.008689519 0.708 -0.0074481601 7.1912619e-39 327 246
0.0099589331 0.70999998 -0.0074691991 7.2784353e-39 328 246
0.01121958 0.71100003 -0.0074797203 6.5408703e-39 329 246
0.0124662 0.71100003 -0.0074797203 5.8973155e-39 330 246
0.013751393 0.713 -0.0075007593 5.8051199e-39 331 246
0.015022559 0.71399999 -0.0075112795 6.0817068e-39 332 246
0.016320027 0.71600002 -0.00753232 7.1880544e-39 333 246
0.017599959 0.71700001 -0.0075428397 7.650815e-39 334 246
0.018857099 0.71700001 -0.0075428397 8.111433e-39 335 246
0.020170346 0.71899998 -0.0075638802 6.9143163e-39 336 246
0.021371379 0.71700001 -0.0075428397 1.0049326e-38 337 246
0.02262852 0.71700001 -0.0075428397 1.5206871e-38 338 246
-0.0499174 0.73000002 -0.0089595336 1.6313942e-38 281 247
-0.047357533 0.73000002 -0.0089595336 1.6496887e-38 283 247
-0.045951359 0.72799999 -0.0089349858 1.6405045e-38 284 247
-0.044613566 0.727 -0.0089227129 1.6220295e-38 285 247
-0.043219667 0.72500002 -0.0088981669 1.5483474e-38 286 247
-0.041832779 0.72299999 -0.0088736191 1.1703454e-38 287 247
-0.040509012 0.722 -0.0088613462 8.765454e-39 288 247
-0.039134402 0.72000003 -0.0088367993 9.0423996e-39 289 247
-0.037714198 0.71700001 -0.0087999795 8.9498481e-39 290 247
-0.036406212 0.71600002 -0.0087877065 8.5814257e-39 291 247
-0.035052639 0.71399999 -0.0087631596 8.9502012e-39 292 247
-0.033800758 0.71399999 -0.0087631596 9.1345925e-39 293 247
-0.032503292 0.713 -0.0087508867 7.9360535e-39 294 247
-0.031165501 0.71100003 -0.0087263398 6.9219001e-39 295 247
-0.029876797 0.70999998 -0.0087140659 6.3683732e-39 296 247
-0.02855128 0.708 -0.008689519 6.3683732e-39 297 247
-0.027309919 0.708 -0.008689519 7.4718341e-39 298 247
-0.02603174 0.70700002 -0.008677247 6.8264647e-39 299 247
-0.024792133 0.70700002 -0.008677247 5.9988522e-39 300 247
-0.023519212 0.70599997 -0.0086649731 7.3817867e-39 301 247
-0.022281358 0.70599997 -0.0086649731 8.5760083e-39 302 247
-0.021043506 0.70599997 -0.0086649731 8.8529539e-39 303 247
-0.019833706 0.70700002 -0.008677247 8.8536545e-39 304 247
-0.018567799 0.70599997 -0.0086649731 8.3923162e-39 305 247
-0.017329946 0.70599997 -0.0086649731 8.1160867e-39 306 247
-0.016092092 0.70599997 -0.0086649731 9.2224342e-39 307 247
-0.014854239 0.70599997 -0.0086649731 9.8674505e-39 308 247
-0.013577812 0.704 -0.0086404262 9.8674505e-39 309 247
-0.012325933 0.70300001 -0.0086281532 9.7734402e-39 310 247
-0.01109334 0.70300001 -0.0086281532 7.7451364e-39 311 247
-0.0098607466 0.70300001 -0.0086281532 6.8260513e-39 312 247
-0.0086281532 0.70300001 -0.0086281532 8.2089858e-39 313 247
-0.0074060797 0.704 -0.0086404262 7.8384264e-39 314 247
-0.0061717331 0.704 -0.0086404262 6.2711007e-39 315 247
-0.0049373866 0.704 -0.0086404262 6.7292272e-39 316 247
-0.0037030398 0.704 -0.0086404262 7.0058141e-39 317 247
-0.0024757064 0.70599997 -0.0086649731 7.3742505e-39 318 247
-0.0012378532 0.70599997 -0.0086649731 7.1894991e-39 319 247
0 0.70599997 -0.0086649731 7.1855362e-39 320 247
0.0012378532 0.70599997 -0.0086649731 7.1855362e-39 321 247
0.0024757064 0.70599997 -0.0086649731 7.2777291e-39 322 247
0.0037135598 0.70599997 -0.0086649731 7.2777291e-39 323 247
0.0049584266 0.70700002 -0.008677247 7.1898368e-39 324 247
0.0061980332 0.70700002 -0.008677247 8.0192373e-39 325 247
0.0074376399 0.70700002 -0.008677247 8.3862094e-39 326 247
0.008689519 0.708 -0.008689519 7.9252298e-39 327 247
0.0099589331 0.70999998 -0.0087140659 7.6464976e-39 328 247
0.01121958 0.71100003 -0.0087263398 6.632347e-39 329 247
0.0124662 0.71100003 -0.0087263398 5.4388555e-39 330 247
0.013751393 0.713 -0.0087508867 5.0704317e-39 331 247
0.01506464 0.71600002 -0.0087877065 5.3484634e-39 332 247
0.016342819 0.71700001 -0.0087999795 5.9938328e-39 333 247
0.017649053 0.71899998 -0.0088245263 6.9175785e-39 334 247
0.018909698 0.71899998 -0.0088245263 7.0097742e-39 335 247
0.020170346 0.71899998 -0.0088245263 7.0075909e-39 336 247
0.021371379 0.71700001 -0.0087999795 9.9578497e-39 337 247
0.02262852 0.71700001 -0.0087999795 1.5114306e-38 338 247
-0.0499174 0.73000002 -0.010239467 1.6404689e-38 281 248
-0.048637468 0.73000002 -0.010239467 1.6404689e-38 282 248
-0.047357533 0.73000002 -0.010239467 1.6312493e-38 283 248
-0.045951359 0.72799999 -0.010211413 1.6311771e-38 284 248
-0.044613566 0.727 -0.010197386 1.6588357e-38 285 248
-0.043219667 0.72500002 -0.010169334 1.5760418e-38 286 248
-0.041832779 0.72299999 -0.01014128 1.1796006e-38 287 248
-0.040509012 0.722 -0.010127253 8.489223e-39 288 248
-0.039243106 0.722 -0.010127253 8.9502012e-39 289 248
-0.037871998 0.72000003 -0.010099201 8.7654596e-39 290 248
-0.036406212 0.71600002 -0.010043093 8.7654596e-39 291 248
-0.035052639 0.71399999 -0.01001504 8.2162333e-39 292 248
-0.033800758 0.71399999 -0.01001504 8.4928188e-39 293 248
-0.032503292 0.713 -0.010001013 9.226065e-39 294 248
-0.031165501 0.71100003 -0.0099729598 9.3182606e-39 295 248
-0.029876797 0.70999998 -0.0099589331 9.5937727e-39 296 248
-0.028631933 0.70999998 -0.0099589331 9.3175446e-39 297 248
-0.027309919 0.708 -0.0099308798 9.4994121e-39 298 248
-0.02603174 0.70700002 -0.0099168532 8.6696528e-39 299 248
-0.024792133 0.70700002 -0.0099168532 7.565815e-39 300 248
-0.023519212 0.70599997 -0.0099028256 7.2895882e-39 301 248
-0.022281358 0.70599997 -0.0099028256 7.4700194e-39 302 248
-0.021043506 0.70599997 -0.0099028256 8.2075845e-39 303 248
-0.019833706 0.70700002 -0.0099168532 8.393768e-39 304 248
-0.018594101 0.70700002 -0.0099168532 7.9327898e-39 305 248
-0.017354494 0.70700002 -0.0099168532 6.3658145e-39 306 248
-0.016092092 0.70599997 -0.0099028256 7.2877708e-39 307 248
-0.014854239 0.70599997 -0.0099028256 7.0111811e-39 308 248
-0.013616386 0.70599997 -0.0099028256 5.9973879e-39 309 248
-0.012343466 0.704 -0.0098747732 7.0090006e-39 310 248
-0.011109119 0.704 -0.0098747732 7.2852274e-39 311 248
-0.0098747732 0.704 -0.0098747732 7.8398501e-39 312 248
-0.0086404262 0.704 -0.0098747732 9.4071758e-39 313 248
-0.0074060797 0.704 -0.0098747732 7.930992e-39 314 248
-0.0061717331 0.704 -0.0098747732 6.3636649e-39 315 248
-0.0049514128 0.70599997 -0.0099028256 7.3742239e-39 316 248
-0.0037135598 0.70599997 -0.0099028256 7.4664195e-39 317 248
-0.0024757064 0.70599997 -0.0099028256 7.5586179e-39 318 248
-0.0012378532 0.70599997 -0.0099028256 7.650815e-39 319 248
0 0.70599997 -0.0099028256 7.8344775e-39 320 248
0.0012378532 0.70599997 -0.0099028256 7.9266732e-39 321 248
0.0024757064 0.70599997 -0.0099028256 8.0199408e-39 322 248
0.0037135598 0.70599997 -0.0099028256 8.2043321e-39 323 248
0.0049584266 0.70700002 -0.0099168532 7.8384264e-39 324 248
0.0061980332 0.70700002 -0.0099168532 7.9306234e-39 325 248
0.0074481601 0.708 -0.0099308798 8.4798428e-39 326 248
0.008689519 0.708 -0.0099308798 7.8344747e-39 327 248
0.0099589331 0.70999998 -0.0099589331 6.8199753e-39 328 248
0.01121958 0.71100003 -0.0099729598 6.1746059e-39 329 248
0.012501267 0.713 -0.010001013 5.2544629e-39 330 248
0.01377068 0.71399999 -0.01001504 4.9782361e-39 331 248
0.01506464 0.71600002 -0.010043093 5.6236055e-39 332 248
0.016342819 0.71700001 -0.01005712 6.7295943e-39 333 248
0.017649053 0.71899998 -0.010085173 7.1008782e-39 334 248
0.018909698 0.71899998 -0.010085173 7.4700194e-39 335 248
0.020170346 0.71899998 -0.010085173 7.8351824e-39 336 248
0.021430992 0.71899998 -0.010085173 1.0601053e-38 337 248
0.022691639 0.71899998 -0.010085173 1.5114303e-38 338 248
-0.049780637 0.72799999 -0.01148784 1.6496161e-38 281 249
-0.048504211 0.72799999 -0.01148784 1.6588357e-38 282 249
-0.047227785 0.72799999 -0.01148784 1.6496161e-38 283 249
-0.045951359 0.72799999 -0.01148784 1.649544e-38 284 249
-0.044674929 0.72799999 -0.01148784 1.649544e-38 285 249
-0.043219667 0.72500002 -0.0114405 1.6036282e-38 286 249
-0.041948501 0.72500002 -0.0114405 1.207187e-38 287 249
-0.040565118 0.72299999 -0.01140894 9.1302765e-39 288 249
-0.039243106 0.722 -0.01139316 9.2224721e-39 289 249
-0.037871998 0.72000003 -0.011361601 8.5810697e-39 290 249
-0.036457058 0.71700001 -0.01131426 8.7654596e-39 291 249
-0.035150826 0.71600002 -0.01129848 8.6750562e-39 292 249
-0.033800758 0.71399999 -0.011266919 8.6750562e-39 293 249
-0.032548878 0.71399999 -0.011266919 8.950204e-39 294 249
-0.031253166 0.713 -0.011251139 8.950204e-39 295 249
-0.029918881 0.71100003 -0.01121958 9.2257119e-39 296 249
-0.028631933 0.70999998 -0.011203799 9.2257119e-39 297 249
-0.027309919 0.708 -0.01117224 9.226065e-39 298 249
-0.026068559 0.708 -0.01117224 8.7650883e-39 299 249
-0.024827199 0.708 -0.01117224 8.7636421e-39 300 249
-0.023552528 0.70700002 -0.011156459 7.5650989e-39 301 249
-0.022312919 0.70700002 -0.011156459 7.2877904e-39 302 249
-0.021073313 0.70700002 -0.011156459 8.2097467e-39 303 249
-0.01986176 0.708 -0.01117224 8.8536741e-39 304 249
-0.018594101 0.70700002 -0.011156459 8.7614771e-39 305 249
-0.017354494 0.70700002 -0.011156459 7.4710886e-39 306 249
-0.016114887 0.70700002 -0.011156459 7.2863386e-39 307 249
-0.01487528 0.70700002 -0.011156459 6.273616e-39 308 249
-0.013635674 0.70700002 -0.011156459 5.536051e-39 309 249
-0.012378532 0.70599997 -0.011140679 6.6423817e-39 310 249
-0.011140679 0.70599997 -0.011140679 7.4721424e-39 311 249
-0.0099028256 0.70599997 -0.011140679 8.3015569e-39 312 249
-0.0086649731 0.70599997 -0.011140679 9.039122e-39 313 249
-0.0074271196 0.70599997 -0.011140679 8.5770803e-39 314 249
-0.0061892662 0.70599997 -0.011140679 7.9317108e-39 315 249
-0.0049514128 0.70599997 -0.011140679 8.206853e-39 316 249
-0.0037135598 0.70599997 -0.011140679 8.1146574e-39 317 249
-0.0024757064 0.70599997 -0.011140679 7.7476769e-39 318 249
-0.0012378532 0.70599997 -0.011140679 7.6554813e-39 319 249
0 0.70599997 -0.011140679 7.9313423e-39 320 249
0.0012378532 0.70599997 -0.011140679 7.8391467e-39 321 249
0.0024757064 0.70599997 -0.011140679 7.9316982e-39 322 249
0.0037188199 0.70700002 -0.011156459 8.0238939e-39 323 249
0.0049584266 0.70700002 -0.011156459 8.2994046e-39 324 249
0.0062067998 0.708 -0.01117224 7.9306234e-39 325 249
0.0074481601 0.708 -0.01117224 8.2036188e-39 326 249
0.0087140659 0.70999998 -0.011203799 7.5582494e-39 327 249
0.0099729598 0.71100003 -0.01121958 6.9125297e-39 328 249
0.011251139 0.713 -0.011251139 6.0824103e-39 329 249
0.012501267 0.713 -0.011251139 5.4384926e-39 330 249
0.013809253 0.71600002 -0.01129848 5.6225237e-39 331 249
0.015085679 0.71700001 -0.01131426 5.9934642e-39 332 249
0.016342819 0.71700001 -0.01131426 6.8228648e-39 333 249
0.017649053 0.71899998 -0.01134582 6.5502211e-39 334 249
0.018909698 0.71899998 -0.01134582 6.6424182e-39 335 249
0.020198401 0.72000003 -0.011361601 9.0304858e-39 336 249
0.021520413 0.722 -0.01139316 1.1611963e-38 337 249
0.022786319 0.722 -0.01139316 1.5297971e-38 338 249
-0.051057063 0.72799999 -0.012764266 1.6496158e-38 280 250
-0.049780637 0.72799999 -0.012764266 1.6588354e-38 281 250
-0.048504211 0.72799999 -0.012764266 1.6587635e-38 282 250
-0.047227785 0.72799999 -0.012764266 1.6587635e-38 283 250
-0.045951359 0.72799999 -0.012764266 1.6495442e-38 284 250
-0.044674929 0.72799999 -0.012764266 1.6587638e-38 285 250
-0.043219667 0.72500002 -0.012711667 1.622067e-38 286 250
-0.041948501 0.72500002 -0.012711667 1.2164062e-38 287 250
-0.040565118 0.72299999 -0.012676599 9.4043396e-39 288 250
-0.039243106 0.722 -0.012659066 9.2203085e-39 289 250
-0.037871998 0.72000003 -0.012624 8.3052031e-39 290 250
-0.036609601 0.72000003 -0.012624 8.4895958e-39 291 250
-0.035150826 0.71600002 -0.012553867 8.3984792e-39 292 250
-0.03389544 0.71600002 -0.012553867 8.3984792e-39 293 250
-0.032548878 0.71399999 -0.012518799 8.3984764e-39 294 250
-0.031253166 0.713 -0.012501267 8.3062807e-39 295 250
-0.029918881 0.71100003 -0.0124662 8.489593e-39 296 250
-0.028631933 0.70999998 -0.012448666 8.489593e-39 297 250
-0.027387066 0.70999998 -0.012448666 8.3062779e-39 298 250
-0.026068559 0.708 -0.0124136 8.3988323e-39 299 250
-0.024827199 0.708 -0.0124136 9.040599e-39 300 250
-0.023552528 0.70700002 -0.012396066 8.3030339e-39 301 250
-0.022312919 0.70700002 -0.012396066 8.3026668e-39 302 250
-0.021073313 0.70700002 -0.012396066 8.3948638e-39 303 250
-0.01986176 0.708 -0.0124136 9.2220965e-39 304 250
-0.0186204 0.708 -0.0124136 9.4990436e-39 305 250
-0.017354494 0.70700002 -0.012396066 8.4841658e-39 306 250
-0.016114887 0.70700002 -0.012396066 7.3778182e-39 307 250
-0.01487528 0.70700002 -0.012396066 5.9966816e-39 308 250
-0.013635674 0.70700002 -0.012396066 6.2732685e-39 309 250
-0.012378532 0.70599997 -0.012378532 7.5640045e-39 310 250
-0.011140679 0.70599997 -0.012378532 8.4859608e-39 311 250
-0.0099028256 0.70599997 -0.012378532 8.7632736e-39 312 250
-0.0086649731 0.70599997 -0.012378532 8.671078e-39 313 250
-0.0074271196 0.70599997 -0.012378532 8.854393e-39 314 250
-0.0061892662 0.70599997 -0.012378532 8.5778061e-39 315 250
-0.0049514128 0.70599997 -0.012378532 8.6692759e-39 316 250
-0.0037135598 0.70599997 -0.012378532 8.3930491e-39 317 250
-0.0024757064 0.70599997 -0.012378532 7.8427466e-39 318 250
-0.0012378532 0.70599997 -0.012378532 7.7505496e-39 319 250
0 0.70599997 -0.012378532 8.0253414e-39 320 250
0.0012378532 0.70599997 -0.012378532 7.9331458e-39 321 250
0.0024792133 0.70700002 -0.012396066 8.0239065e-39 322 250
0.0037188199 0.70700002 -0.012396066 8.0239065e-39 323 250
0.0049654399 0.708 -0.0124136 8.1143042e-39 324 250
0.0062067998 0.708 -0.0124136 7.9302731e-39 325 250
0.0074691991 0.70999998 -0.012448666 8.0195933e-39 326 250
0.0087140659 0.70999998 -0.012448666 7.4664195e-39 327 250
0.0099729598 0.71100003 -0.0124662 6.8206942e-39 328 250
0.011251139 0.713 -0.012501267 6.2678791e-39 329 250
0.012518799 0.71399999 -0.012518799 5.8998197e-39 330 250
0.013809253 0.71600002 -0.012553867 6.2682434e-39 331 250
0.015085679 0.71700001 -0.0125714 6.3643921e-39 332 250
0.016388407 0.71899998 -0.012606465 6.9175659e-39 333 250
0.017649053 0.71899998 -0.012606465 7.1012285e-39 334 250
0.018935999 0.72000003 -0.012624 7.0090315e-39 335 250
0.020198401 0.72000003 -0.012624 1.0043192e-38 336 250
0.021520413 0.722 -0.012659066 1.2532472e-38 337 250
0.022786319 0.722 -0.012659066 1.5481641e-38 338 250
0.024052227 0.722 -0.012659066 1.6311041e-38 339 250
-0.051057063 0.72799999 -0.014040692 1.6587991e-38 280 251
-0.049780637 0.72799999 -0.014040692 1.6587991e-38 281 251
-0.048504211 0.72799999 -0.014040692 1.6771303e-38 282 251
-0.047227785 0.72799999 -0.014040692 1.6771303e-38 283 251
-0.045951359 0.72799999 -0.014040692 1.649544e-38 284 251
-0.044674929 0.72799999 -0.014040692 1.6587635e-38 285 251
-0.043338891 0.727 -0.014021406 1.612883e-38 286 251
-0.041948501 0.72500002 -0.013982833 1.2256614e-38 287 251
-0.040565118 0.72299999 -0.01394426 9.6794818e-39 288 251
-0.039243106 0.722 -0.013924973 9.1266667e-39 289 251
-0.0379772 0.722 -0.013924973 7.6609113e-39 290 251
-0.036609601 0.72000003 -0.0138864 8.1218881e-39 291 251
-0.035199918 0.71700001 -0.013828539 8.2148068e-39 292 251
-0.03389544 0.71600002 -0.013809253 8.0304155e-39 293 251
-0.032548878 0.71399999 -0.01377068 8.2140837e-39 294 251
-0.031253166 0.713 -0.013751393 8.3062807e-39 295 251
-0.029918881 0.71100003 -0.01371282 8.397396e-39 296 251
-0.028631933 0.70999998 -0.013693533 8.3052003e-39 297 251
-0.027387066 0.70999998 -0.013693533 8.397033e-39 298 251
-0.026068559 0.708 -0.013654959 8.397033e-39 299 251
-0.024827199 0.708 -0.013654959 8.7647351e-39 300 251
-0.023552528 0.70700002 -0.013635674 8.5803425e-39 301 251
-0.022312919 0.70700002 -0.013635674 8.3934303e-39 302 251
-0.021073313 0.70700002 -0.013635674 7.2870841e-39 303 251
-0.01986176 0.708 -0.013654959 7.5579117e-39 304 251
-0.0186204 0.708 -0.013654959 7.5579117e-39 305 251
-0.017354494 0.70700002 -0.013635674 6.6395497e-39 306 251
-0.016114887 0.70700002 -0.013635674 5.4410065e-39 307 251
-0.01487528 0.70700002 -0.013635674 3.4162928e-39 308 251
-0.013635674 0.70700002 -0.013635674 5.7215423e-39 309 251
-0.012378532 0.70599997 -0.013616386 8.3005032e-39 310 251
-0.011140679 0.70599997 -0.013616386 8.8533182e-39 311 251
-0.0099028256 0.70599997 -0.013616386 8.4874154e-39 312 251
-0.0086649731 0.70599997 -0.013616386 8.4874154e-39 313 251
-0.0074271196 0.70599997 -0.013616386 8.578532e-39 314 251
-0.0061892662 0.70599997 -0.013616386 8.3937806e-39 315 251
-0.0049514128 0.70599997 -0.013616386 8.2097467e-39 316 251
-0.0037135598 0.70599997 -0.013616386 8.0253554e-39 317 251
-0.0024792133 0.70700002 -0.013635674 8.2090236e-39 318 251
-0.0012396066 0.70700002 -0.013635674 8.0249925e-39 319 251
0 0.70700002 -0.013635674 8.2075845e-39 320 251
0.0012396066 0.70700002 -0.013635674 8.2075845e-39 321 251
0.0024792133 0.70700002 -0.013635674 8.1153888e-39 322 251
0.00372408 0.708 -0.013654959 8.0228345e-39 323 251
0.0049654399 0.708 -0.013654959 7.8384432e-39 324 251
0.0062243328 0.70999998 -0.013693533 7.6540506e-39 325 251
0.0074691991 0.70999998 -0.013693533 7.65261e-39 326 251
0.0087263398 0.71100003 -0.01371282 7.2838261e-39 327 251
0.010001013 0.713 -0.013751393 7.0054427e-39 328 251
0.011251139 0.713 -0.013751393 6.7288545e-39 329 251
0.012518799 0.71399999 -0.01377068 6.4529878e-39 330 251
0.013809253 0.71600002 -0.013809253 6.6377378e-39 331 251
0.015085679 0.71700001 -0.013828539 7.0075965e-39 332 251
0.016388407 0.71899998 -0.013867113 7.8369971e-39 333 251
0.017673599 0.72000003 -0.0138864 7.929899e-39 334 251
0.018935999 0.72000003 -0.0138864 8.5749096e-39 335 251
0.020198401 0.72000003 -0.0138864 1.0872228e-38 336 251
0.021520413 0.722 -0.013924973 1.3269314e-38 337 251
0.022786319 0.722 -0.013924973 1.5849704e-38 338 251
-0.051197331 0.73000002 -0.0153592 1.6587635e-38 280 252
-0.049780637 0.72799999 -0.01531712 1.6587635e-38 281 252
-0.048504211 0.72799999 -0.01531712 1.6679108e-38 282 252
-0.047227785 0.72799999 -0.01531712 1.6679108e-38 283 252
-0.045951359 0.72799999 -0.01531712 1.6494721e-38 284 252
-0.044674929 0.72799999 -0.01531712 1.6494721e-38 285 252
-0.043338891 0.727 -0.015296079 1.6128825e-38 286 252
-0.041948501 0.72500002 -0.015254001 1.327076e-38 287 252
-0.040565118 0.72299999 -0.015211919 1.0967334e-38 288 252
-0.039297458 0.72299999 -0.015211919 9.8609849e-39 289 252
-0.0379772 0.722 -0.015190879 8.6703773e-39 290 252
-0.03671129 0.722 -0.015190879 9.4079423e-39 291 252
-0.035347197 0.72000003 -0.0151488 8.949132e-39 292 252
-0.033942781 0.71700001 -0.015085679 8.5799893e-39 293 252
-0.032640055 0.71600002 -0.01506464 8.3051975e-39 294 252
-0.031296998 0.71399999 -0.015022559 8.3051975e-39 295 252
-0.030003037 0.713 -0.015001519 7.6612672e-39 296 252
-0.028672259 0.71100003 -0.014959441 7.4765159e-39 297 252
-0.027387066 0.70999998 -0.014938398 7.9364192e-39 298 252
-0.026142199 0.70999998 -0.014938398 7.9364192e-39 299 252
-0.024897331 0.70999998 -0.014938398 7.9374912e-39 300 252
-0.023585839 0.708 -0.01489632 7.9374912e-39 301 252
-0.022344479 0.708 -0.01489632 7.8399034e-39 302 252
-0.021103119 0.708 -0.01489632 6.0885465e-39 303 252
-0.01986176 0.708 -0.01489632 4.7956553e-39 304 252
-0.0186204 0.708 -0.01489632 4.1502859e-39 305 252
-0.017379038 0.708 -0.01489632 4.3353974e-39 306 252
-0.016114887 0.70700002 -0.01487528 3.874778e-39 307 252
-0.01487528 0.70700002 -0.01487528 1.5734788e-39 308 252
-0.013635674 0.70700002 -0.01487528 4.0627594e-39 309 252
-0.012396066 0.70700002 -0.01487528 8.4834623e-39 310 252
-0.011140679 0.70599997 -0.014854239 9.4054186e-39 311 252
-0.0099028256 0.70599997 -0.014854239 9.0387843e-39 312 252
-0.0086649731 0.70599997 -0.014854239 8.9465886e-39 313 252
-0.0074271196 0.70599997 -0.014854239 9.2203057e-39 314 252
-0.0061892662 0.70599997 -0.014854239 8.8515218e-39 315 252
-0.0049584266 0.70700002 -0.01487528 8.2086733e-39 316 252
-0.0037188199 0.70700002 -0.01487528 7.9320864e-39 317 252
-0.0024792133 0.70700002 -0.01487528 7.5647458e-39 318 252
-0.0012396066 0.70700002 -0.01487528 7.4725502e-39 319 252
0 0.70700002 -0.01487528 7.7476951e-39 320 252
0.0012396066 0.70700002 -0.01487528 7.6554995e-39 321 252
0.00248272 0.708 -0.01489632 7.3796329e-39 322 252
0.0037345996 0.70999998 -0.014938398 7.3796329e-39 323 252
0.0049794666 0.70999998 -0.014938398 7.2870729e-39 324 252
0.0062243328 0.70999998 -0.014938398 7.1945185e-39 325 252
0.0074797203 0.71100003 -0.014959441 7.4689376e-39 326 252
0.0087508867 0.713 -0.015001519 7.1927109e-39 327 252
0.01001504 0.71399999 -0.015022559 7.0987132e-39 328 252
0.011266919 0.71399999 -0.015022559 6.5455394e-39 329 252
0.012553867 0.71600002 -0.01506464 6.4529906e-39 330 252
0.013809253 0.71600002 -0.01506464 6.5451863e-39 331 252
0.015085679 0.71700001 -0.015085679 7.0072434e-39 332 252
0.016388407 0.71899998 -0.01512776 8.4820134e-39 333 252
0.017673599 0.72000003 -0.0151488 9.4936261e-39 334 252
0.018935999 0.72000003 -0.0151488 9.9549644e-39 335 252
0.020254506 0.722 -0.015190879 1.1425399e-38 336 252
0.021520413 0.722 -0.015190879 1.3453703e-38 337 252
0.022786319 0.722 -0.015190879 1.5850067e-38 338 252
-0.049780637 0.72799999 -0.016593546 1.6587991e-38 281 253
-0.048504211 0.72799999 -0.016593546 1.6679108e-38 282 253
-0.047227785 0.72799999 -0.016593546 1.6679108e-38 283 253
-0.045951359 0.72799999 -0.016593546 1.6403244e-38 284 253
-0.044674929 0.72799999 -0.016593546 1.6403244e-38 285 253
-0.043338891 0.727 -0.016570752 1.6219941e-38 286 253
-0.041948501 0.72500002 -0.016525166 1.4468583e-38 287 253
-0.040565118 0.72299999 -0.01647958 1.2902346e-38 288 253
-0.039297458 0.72299999 -0.01647958 1.2164781e-38 289 253
-0.0379772 0.722 -0.016456785 1.1618816e-38 290 253
-0.03671129 0.722 -0.016456785 1.1711013e-38 291 253
-0.035347197 0.72000003 -0.0164112 1.0235905e-38 292 253
-0.033942781 0.71700001 -0.016342819 9.037362e-39 293 253
-0.032640055 0.71600002 -0.016320027 6.0932283e-39 294 253
-0.031296998 0.71399999 -0.016274439 4.8946851e-39 295 253
-0.030045118 0.71399999 -0.016274439 3.2369644e-39 296 253
-0.028752912 0.713 -0.016251646 3.9745295e-39 297 253
-0.027425639 0.71100003 -0.01620606 6.8315136e-39 298 253
-0.026179021 0.71100003 -0.01620606 7.661633e-39 299 253
-0.024897331 0.70999998 -0.016183265 7.4765159e-39 300 253
-0.023585839 0.708 -0.01613768 7.0158978e-39 301 253
-0.022344479 0.708 -0.01613768 5.3531451e-39 302 253
-0.021103119 0.708 -0.01613768 3.5092339e-39 303 253
-0.019917866 0.70999998 -0.016183265 3.0461076e-39 304 253
-0.018672999 0.70999998 -0.016183265 3.0461076e-39 305 253
-0.017379038 0.708 -0.01613768 4.3307339e-39 306 253
-0.01613768 0.708 -0.01613768 3.7775601e-39 307 253
-0.01489632 0.708 -0.01613768 2.0287172e-39 308 253
-0.013654959 0.708 -0.01613768 3.7800755e-39 309 253
-0.0124136 0.708 -0.01613768 8.3901961e-39 310 253
-0.011156459 0.70700002 -0.016114887 1.0786924e-38 311 253
-0.0099168532 0.70700002 -0.016114887 1.0513191e-38 312 253
-0.008677247 0.70700002 -0.016114887 9.5912364e-39 313 253
-0.0074376399 0.70700002 -0.016114887 9.2220965e-39 314 253
-0.0061980332 0.70700002 -0.016114887 8.6689228e-39 315 253
-0.0049584266 0.70700002 -0.016114887 7.6572974e-39 316 253
-0.0037188199 0.70700002 -0.016114887 7.4729061e-39 317 253
-0.0024792133 0.70700002 -0.016114887 7.5651017e-39 318 253
-0.0012396066 0.70700002 -0.016114887 7.4729061e-39 319 253
0 0.708 -0.01613768 7.5643773e-39 320 253
0.00124136 0.708 -0.01613768 7.379986e-39 321 253
0.00248272 0.708 -0.01613768 7.1948745e-39 322 253
0.0037345996 0.70999998 -0.016183265 6.9179289e-39 323 253
0.0049794666 0.70999998 -0.016183265 7.285275e-39 324 253
0.0062330998 0.71100003 -0.01620606 7.285275e-39 325 253
0.0074797203 0.71100003 -0.01620606 7.10196e-39 326 253
0.0087508867 0.713 -0.016251646 7.0097644e-39 327 253
0.01001504 0.71399999 -0.016274439 6.5477072e-39 328 253
0.011266919 0.71399999 -0.016274439 5.7175864e-39 329 253
0.012553867 0.71600002 -0.016320027 6.083485e-39 330 253
0.013809253 0.71600002 -0.016320027 5.6225069e-39 331 253
0.015085679 0.71700001 -0.016342819 5.9005203e-39 332 253
0.016388407 0.71899998 -0.016388407 8.3898023e-39 333 253
0.017673599 0.72000003 -0.0164112 1.1335368e-38 334 253
0.018935999 0.72000003 -0.0164112 1.1704509e-38 335 253
0.020254506 0.722 -0.016456785 1.2163317e-38 336 253
0.021520413 0.722 -0.016456785 1.336186e-38 337 253
0.022786319 0.722 -0.016456785 1.5757509e-38 338 253
-0.047357533 0.73000002 -0.017919067 1.6678752e-38 283 254
-0.045951359 0.72799999 -0.017869972 1.6402522e-38 284 254
-0.044674929 0.72799999 -0.017869972 1.6494718e-38 285 254
-0.043338891 0.727 -0.017845426 1.6128099e-38 286 254
-0.041948501 0.72500002 -0.017796334 1.4284186e-38 287 254
-0.040565118 0.72299999 -0.017747238 1.3458391e-38 288 254
-0.039297458 0.72299999 -0.017747238 1.3089609e-38 289 254
-0.0379772 0.722 -0.017722692 1.2814472e-38 290 254
-0.03671129 0.722 -0.017722692 1.2906669e-38 291 254
-0.035347197 0.72000003 -0.017673599 9.8681946e-39 292 254
-0.033942781 0.71700001 -0.017599959 8.5774558e-39 293 254
-0.032640055 0.71600002 -0.017575413 4.7099281e-39 294 254
-0.031384666 0.71600002 -0.017575413 3.8801674e-39 295 254
-0.030045118 0.71399999 -0.017526319 1.2090109e-39 296 254
-0.028752912 0.713 -0.017501773 3.2373147e-39 297 254
-0.027502786 0.713 -0.017501773 9.2185064e-39 298 254
-0.026179021 0.71100003 -0.01745268 1.0509245e-38 299 254
-0.024932399 0.71100003 -0.01745268 9.2213777e-39 300 254
-0.023652466 0.70999998 -0.017428132 7.7462476e-39 301 254
-0.022407599 0.70999998 -0.017428132 6.0867445e-39 302 254
-0.021162732 0.70999998 -0.017428132 4.70381e-39 303 254
-0.019917866 0.70999998 -0.017428132 3.9666205e-39 304 254
-0.018672999 0.70999998 -0.017428132 3.8744249e-39 305 254
-0.017428132 0.70999998 -0.017428132 3.3219742e-39 306 254
-0.01613768 0.708 -0.017379038 3.2294198e-39 307 254
-0.01489632 0.708 -0.017379038 3.0443083e-39 308 254
-0.013654959 0.708 -0.017379038 3.6896777e-39 309 254
-0.0124136 0.708 -0.017379038 6.9172254e-39 310 254
-0.011156459 0.70700002 -0.017354494 9.5912574e-39 311 254
-0.0099168532 0.70700002 -0.017354494 1.1615577e-38 312 254
-0.008677247 0.70700002 -0.017354494 1.0878011e-38 313 254
-0.0074376399 0.70700002 -0.017354494 1.0692895e-38 314 254
-0.0061980332 0.70700002 -0.017354494 1.0232276e-38 315 254
-0.0049584266 0.70700002 -0.017354494 9.4036039e-39 316 254
-0.00372408 0.708 -0.017379038 9.127017e-39 317 254
-0.00248272 0.708 -0.017379038 8.4830938e-39 318 254
-0.00124136 0.708 -0.017379038 8.3908967e-39 319 254
0 0.708 -0.017379038 6.9197295e-39 320 254
0.00124136 0.708 -0.017379038 6.3665557e-39 321 254
0.0024897333 0.70999998 -0.017428132 5.7229912e-39 322 254
0.0037345996 0.70999998 -0.017428132 5.7229912e-39 323 254
0.0049864799 0.71100003 -0.01745268 7.2845534e-39 324 254
0.0062330998 0.71100003 -0.01745268 7.9299228e-39 325 254
0.0075007593 0.713 -0.017501773 8.4812791e-39 326 254
0.0087631596 0.71399999 -0.017526319 8.2968864e-39 327 254
0.010043093 0.71600002 -0.017575413 7.9273794e-39 328 254
0.01129848 0.71600002 -0.017575413 7.0972586e-39 329 254
0.012553867 0.71600002 -0.017575413 6.6359203e-39 330 254
0.013828539 0.71700001 -0.017599959 6.082748e-39 331 254
0.015085679 0.71700001 -0.017599959 6.3614816e-39 332 254
0.016388407 0.71899998 -0.017649053 8.1128399e-39 333 254
0.017673599 0.72000003 -0.017673599 1.1887809e-38 334 254
0.018935999 0.72000003 -0.017673599 1.2256233e-38 335 254
0.020254506 0.722 -0.017722692 1.09698e-38 336 254
0.021520413 0.722 -0.017722692 1.2260539e-38 337 254
0.022786319 0.722 -0.017722692 1.5389798e-38 338 254
-0.044490833 0.72500002 -0.0190675 1.6312127e-38 285 255
-0.043219667 0.72500002 -0.0190675 1.5760391e-38 286 255
-0.041948501 0.72500002 -0.0190675 1.3455502e-38 287 255
-0.040565118 0.72299999 -0.019014901 1.2815892e-38 288 255
-0.039297458 0.72299999 -0.019014901 1.327723e-38 289 255
-0.0379772 0.722 -0.0189886 1.3366924e-38 290 255
-0.03671129 0.722 -0.0189886 1.2629359e-38 291 255
-0.035347197 0.72000003 -0.018935999 1.0142964e-38 292 255
-0.03403746 0.71899998 -0.018909698 7.9302703e-39 293 255
-0.032685637 0.71700001 -0.018857099 4.4304503e-39 294 255
-0.031384666 0.71600002 -0.0188308 4.2460591e-39 295 255
-0.030045118 0.71399999 -0.018778199 3.690384e-39 296 255
-0.028793238 0.71399999 -0.018778199 5.6264922e-39 297 255
-0.027502786 0.713 -0.018751899 1.0506378e-38 298 255
-0.026179021 0.71100003 -0.0186993 1.2442486e-38 299 255
-0.024932399 0.71100003 -0.0186993 1.106205e-38 300 255
-0.023652466 0.70999998 -0.018672999 9.4025277e-39 301 255
-0.022407599 0.70999998 -0.018672999 7.9277704e-39 302 255
-0.021162732 0.70999998 -0.018672999 6.0838578e-39 303 255
-0.019917866 0.70999998 -0.018672999 4.7956525e-39 304 255
-0.018672999 0.70999998 -0.018672999 4.4272301e-39 305 255
-0.017428132 0.70999998 -0.018672999 3.6918259e-39 306 255
-0.016183265 0.70999998 -0.018672999 4.2449997e-39 307 255
-0.014938398 0.70999998 -0.018672999 4.8900062e-39 308 255
-0.013654959 0.708 -0.0186204 5.1662329e-39 309 255
-0.0124136 0.708 -0.0186204 5.1669392e-39 310 255
-0.01117224 0.708 -0.0186204 8.0250051e-39 311 255
-0.0099308798 0.708 -0.0186204 1.1338986e-38 312 255
-0.008689519 0.708 -0.0186204 1.0970205e-38 313 255
-0.0074481601 0.708 -0.0186204 1.0970911e-38 314 255
-0.0062067998 0.708 -0.0186204 1.0970911e-38 315 255
-0.0049654399 0.708 -0.0186204 1.1243901e-38 316 255
-0.00372408 0.708 -0.0186204 1.0783282e-38 317 255
-0.0024897333 0.70999998 -0.018672999 9.9556861e-39 318 255
-0.0012448666 0.70999998 -0.018672999 9.4025123e-39 319 255
0 0.70999998 -0.018672999 6.2747104e-39 320 255
0.0012448666 0.70999998 -0.018672999 4.5233536e-39 321 255
0.0024897333 0.70999998 -0.018672999 4.9829024e-39 322 255
0.0037398601 0.71100003 -0.0186993 5.812303e-39 323 255
0.0049864799 0.71100003 -0.0186993 9.2156127e-39 324 255
0.0062506334 0.713 -0.018751899 9.5847554e-39 325 255
0.0075007593 0.713 -0.018751899 9.3110355e-39 326 255
0.0087631596 0.71399999 -0.018778199 9.1266457e-39 327 255
0.010043093 0.71600002 -0.0188308 9.4939793e-39 328 255
0.01129848 0.71600002 -0.0188308 9.4939793e-39 329 255
0.0125714 0.71700001 -0.018857099 9.5814932e-39 330 255
0.013828539 0.71700001 -0.018857099 8.9361237e-39 331 255
0.015085679 0.71700001 -0.018857099 9.3099453e-39 332 255
0.0164112 0.72000003 -0.018935999 1.0324096e-38 333 255
0.017673599 0.72000003 -0.018935999 1.1429349e-38 334 255
0.0189886 0.722 -0.0189886 1.1060566e-38 335 255
0.020254506 0.722 -0.0189886 9.9559944e-39 336 255
0.021520413 0.722 -0.0189886 1.1707713e-38 337 255
0.022786319 0.722 -0.0189886 1.5022089e-38 338 255
-0.043219667 0.72500002 -0.020338668 1.5852218e-38 286 256
-0.041948501 0.72500002 -0.020338668 1.2809763e-38 287 256
-0.040565118 0.72299999 -0.020282559 1.1342911e-38 288 256
-0.039297458 0.72299999 -0.020282559 1.2357422e-38 289 256
-0.0379772 0.722 -0.020254506 1.3275442e-38 290 256
-0.03671129 0.722 -0.020254506 1.2814823e-38 291 256
-0.035347197 0.72000003 -0.020198401 1.2167299e-38 292 256
-0.034084801 0.72000003 -0.020198401 1.0138996e-38 293 256
-0.032776814 0.71899998 -0.020170346 7.9259543e-39 294 256
-0.031384666 0.71600002 -0.020086186 6.0820417e-39 295 256
-0.030045118 0.71399999 -0.020030079 3.2297589e-39 296 256
-0.028793238 0.71399999 -0.020030079 3.8751284e-39 297 256
-0.027502786 0.713 -0.020002026 7.3800014e-39 298 256
-0.026179021 0.71100003 -0.01994592 1.0699044e-38 299 256
-0.024932399 0.71100003 -0.01994592 1.1434429e-38 300 256
-0.023652466 0.70999998 -0.019917866 1.0419918e-38 301 256
-0.022407599 0.70999998 -0.019917866 9.6762448e-39 302 256
-0.021162732 0.70999998 -0.019917866 7.7401365e-39 303 256
-0.019917866 0.70999998 -0.019917866 5.9931111e-39 304 256
-0.018672999 0.70999998 -0.019917866 5.5317728e-39 305 256
-0.017428132 0.70999998 -0.019917866 4.7048932e-39 306 256
-0.016183265 0.70999998 -0.019917866 5.0733156e-39 307 256
-0.014938398 0.70999998 -0.019917866 5.6286432e-39 308 256
-0.013693533 0.70999998 -0.019917866 5.4438932e-39 309 256
-0.0124136 0.708 -0.01986176 6.0824159e-39 310 256
-0.01117224 0.708 -0.01986176 8.9404804e-39 311 256
-0.0099308798 0.708 -0.01986176 1.1338621e-38 312 256
-0.0087140659 0.70999998 -0.019917866 1.1338621e-38 313 256
-0.0074481601 0.708 -0.01986176 1.1338968e-38 314 256
-0.0062067998 0.708 -0.01986176 1.1246772e-38 315 256
-0.0049794666 0.70999998 -0.019917866 1.142972e-38 316 256
-0.0037345996 0.70999998 -0.019917866 1.1337525e-38 317 256
-0.0024897333 0.70999998 -0.019917866 1.1152059e-38 318 256
-0.0012448666 0.70999998 -0.019917866 1.0506689e-38 319 256
0 0.70999998 -0.019917866 8.3865625e-39 320 256
0.00124662 0.71100003 -0.01994592 7.2798548e-39 321 256
0.0024932399 0.71100003 -0.01994592 6.2707476e-39 322 256
0.0037398601 0.71100003 -0.01994592 7.1005082e-39 323 256
0.0049864799 0.71100003 -0.01994592 9.8613353e-39 324 256
0.0062506334 0.713 -0.020002026 1.0414869e-38 325 256
0.0075112795 0.71399999 -0.020030079 1.0965872e-38 326 256
0.0087631596 0.71399999 -0.020030079 1.0873677e-38 327 256
0.010043093 0.71600002 -0.020086186 1.050704e-38 328 256
0.01129848 0.71600002 -0.020086186 1.050704e-38 329 256
0.0125714 0.71700001 -0.020114239 1.0689989e-38 330 256
0.013828539 0.71700001 -0.020114239 1.0321206e-38 331 256
0.01512776 0.71899998 -0.020170346 1.0967297e-38 332 256
0.0164112 0.72000003 -0.020198401 1.1335721e-38 333 256
0.017722692 0.722 -0.020254506 1.0509894e-38 334 256
0.019014901 0.72299999 -0.020282559 9.772329e-39 335 256
0.020338668 0.72500002 -0.020338668 8.9425459e-39 336 256
0.021609833 0.72500002 -0.020338668 1.1431828e-38 337 256
-0.041948501 0.72500002 -0.021609833 1.2258021e-38 287 257
-0.040677335 0.72500002 -0.021609833 1.0145422e-38 288 257
-0.039297458 0.72299999 -0.021550218 1.1159933e-38 289 257
-0.0379772 0.722 -0.021520413 1.2448183e-38 290 257
-0.03671129 0.722 -0.021520413 1.2909521e-38 291 257
-0.035347197 0.72000003 -0.021460801 1.327401e-38 292 257
-0.034084801 0.72000003 -0.021460801 1.2812672e-38 293 257
-0.032776814 0.71899998 -0.021430992 1.0966244e-38 294 257
-0.031428497 0.71700001 -0.021371379 9.0301355e-39 295 257
-0.03012928 0.71600002 -0.021341572 6.0831291e-39 296 257
-0.028793238 0.71399999 -0.021281958 4.5161635e-39 297 257
-0.027502786 0.713 -0.021252153 3.974514e-39 298 257
-0.026179021 0.71100003 -0.021192541 8.3995455e-39 299 257
-0.024932399 0.71100003 -0.021192541 1.161919e-38 300 257
-0.023652466 0.70999998 -0.021162732 1.1434797e-38 301 257
-0.022407599 0.70999998 -0.021162732 1.1336115e-38 302 257
-0.021162732 0.70999998 -0.021162732 9.2156155e-39 303 257
-0.01994592 0.71100003 -0.021192541 7.650459e-39 304 257
-0.0186993 0.71100003 -0.021192541 6.820697e-39 305 257
-0.01745268 0.71100003 -0.021192541 5.7183193e-39 306 257
-0.016183265 0.70999998 -0.021162732 5.6261237e-39 307 257
-0.014938398 0.70999998 -0.021162732 5.7168844e-39 308 257
-0.013693533 0.70999998 -0.021162732 5.4406562e-39 309 257
-0.012448666 0.70999998 -0.021162732 6.1739024e-39 310 257
-0.011203799 0.70999998 -0.021162732 8.4787932e-39 311 257
-0.0099589331 0.70999998 -0.021162732 1.0509598e-38 312 257
-0.0087140659 0.70999998 -0.021162732 1.0970577e-38 313 257
-0.0074691991 0.70999998 -0.021162732 1.170668e-38 314 257
-0.0062243328 0.70999998 -0.021162732 1.1429734e-38 315 257
-0.0049794666 0.70999998 -0.021162732 1.1430085e-38 316 257
-0.0037345996 0.70999998 -0.021162732 1.1246052e-38 317 257
-0.0024897333 0.70999998 -0.021162732 1.1337525e-38 318 257
-0.00124662 0.71100003 -0.021192541 1.0784351e-38 319 257
0 0.71100003 -0.021192541 1.0689283e-38 320 257
0.00124662 0.71100003 -0.021192541 1.0320859e-38 321 257
0.0024932399 0.71100003 -0.021192541 9.4010634e-39 322 257
0.0037503797 0.713 -0.021252153 9.4010634e-39 323 257
0.0050005065 0.713 -0.021252153 1.0045714e-38 324 257
0.0062593995 0.71399999 -0.021281958 1.0783279e-38 325 257
0.0075112795 0.71399999 -0.021281958 1.1335005e-38 326 257
0.0087877065 0.71600002 -0.021341572 1.1335005e-38 327 257
0.010043093 0.71600002 -0.021341572 1.105949e-38 328 257
0.01129848 0.71600002 -0.021341572 1.105949e-38 329 257
0.0125714 0.71700001 -0.021371379 1.1060564e-38 330 257
0.013828539 0.71700001 -0.021371379 1.1060564e-38 331 257
0.01512776 0.71899998 -0.021430992 1.0877249e-38 332 257
0.0164112 0.72000003 -0.021460801 1.060066e-38 333 257
0.017722692 0.722 -0.021520413 9.5907866e-39 334 257
0.019014901 0.72299999 -0.021550218 8.7610259e-39 335 257
0.020282559 0.72299999 -0.021550218 8.7595615e-39 336 257
0.021550218 0.72299999 -0.021550218 1.152543e-38 337 257
-0.039243106 0.722 -0.022786319 1.0051762e-38 289 258
-0.0379772 0.722 -0.022786319 1.0149728e-38 290 258
-0.03671129 0.722 -0.022786319 1.0887293e-38 291 258
-0.035347197 0.72000003 -0.022723202 1.21716e-38 292 258
-0.034084801 0.72000003 -0.022723202 1.2540381e-38 293 258
-0.032776814 0.71899998 -0.022691639 1.2812306e-38 294 258
-0.031428497 0.71700001 -0.02262852 1.2259132e-38 295 258
-0.03012928 0.71600002 -0.022596961 1.11492e-38 296 258
-0.028793238 0.71399999 -0.022533838 7.6461262e-39 297 258
-0.02754136 0.71399999 -0.022533838 2.9589174e-39 298 258
-0.026252659 0.713 -0.022502279 5.9088188e-39 299 258
-0.024932399 0.71100003 -0.022439159 9.9560742e-39 300 258
-0.023652466 0.70999998 -0.022407599 1.0601444e-38 301 258
-0.022407599 0.70999998 -0.022407599 1.0877658e-38 302 258
-0.021162732 0.70999998 -0.022407599 9.9557015e-39 303 258
-0.01994592 0.71100003 -0.022439159 9.1241458e-39 304 258
-0.0186993 0.71100003 -0.022439159 8.663169e-39 305 258
-0.01745268 0.71100003 -0.022439159 8.6642536e-39 306 258
-0.01620606 0.71100003 -0.022439159 7.8348531e-39 307 258
-0.014938398 0.70999998 -0.022407599 7.55719e-39 308 258
-0.013693533 0.70999998 -0.022407599 7.2806031e-39 309 258
-0.012448666 0.70999998 -0.022407599 6.7270762e-39 310 258
-0.011203799 0.70999998 -0.022407599 6.4504893e-39 311 258
-0.0099589331 0.70999998 -0.022407599 6.7364201e-39 312 258
-0.0087140659 0.70999998 -0.022407599 8.7647239e-39 313 258
-0.0074691991 0.70999998 -0.022407599 1.1245353e-38 314 258
-0.0062243328 0.70999998 -0.022407599 1.1153156e-38 315 258
-0.0049794666 0.70999998 -0.022407599 1.1430087e-38 316 258
-0.0037345996 0.70999998 -0.022407599 1.1430087e-38 317 258
-0.0024897333 0.70999998 -0.022407599 1.1246049e-38 318 258
-0.00124662 0.71100003 -0.022439159 1.0969462e-38 319 258
0 0.71100003 -0.022439159 1.1427922e-38 320 258
0.00124662 0.71100003 -0.022439159 1.1335368e-38 321 258
0.0024932399 0.71100003 -0.022439159 1.1241736e-38 322 258
0.0037503797 0.713 -0.022502279 1.1241736e-38 323 258
0.0050005065 0.713 -0.022502279 1.1150254e-38 324 258
0.0062593995 0.71399999 -0.022533838 1.1242808e-38 325 258
0.00753232 0.71600002 -0.022596961 1.1242805e-38 326 258
0.0087877065 0.71600002 -0.022596961 1.1335002e-38 327 258
0.010043093 0.71600002 -0.022596961 1.1243158e-38 328 258
0.01131426 0.71700001 -0.02262852 1.1150963e-38 329 258
0.0125714 0.71700001 -0.02262852 1.0692485e-38 330 258
0.013828539 0.71700001 -0.02262852 1.0508093e-38 331 258
0.01512776 0.71899998 -0.022691639 9.223446e-39 332 258
0.0164112 0.72000003 -0.022723202 8.9472192e-39 333 258
0.017722692 0.722 -0.022786319 8.3043259e-39 334 258
0.019014901 0.72299999 -0.02281788 7.9355434e-39 335 258
0.020282559 0.72299999 -0.02281788 9.4049253e-39 336 258
0.021550218 0.72299999 -0.02281788 1.2724327e-38 337 258
-0.039243106 0.722 -0.024052227 1.0693149e-38 289 259
-0.0379772 0.722 -0.024052227 9.5954137e-39 290 259
-0.03671129 0.722 -0.024052227 1.033298e-38 291 259
-0.035347197 0.72000003 -0.0239856 1.0975538e-38 292 259
-0.034084801 0.72000003 -0.0239856 1.1620908e-38 293 259
-0.032776814 0.71899998 -0.023952285 1.2815539e-38 294 259
-0.031516165 0.71899998 -0.023952285 1.2999931e-38 295 259
-0.030171359 0.71700001 -0.02388566 1.327222e-38 296 259
-0.028873893 0.71600002 -0.023852346 1.0783299e-38 297 259
-0.02754136 0.71399999 -0.02378572 5.0736505e-39 298 259
