# .PCD v.7 - Point Cloud Data file format
FIELDS x y z rgb imX imY
SIZE 4 4 4 4 4 4
TYPE F F F F F F
COUNT 1 1 1 1 1 1
WIDTH 836
HEIGHT 1
VIEWPOINT 0 0 0 1 0 0 0
POINTS 836
DATA ascii
0.029938167 0.68300003 -0.037123326 1.4293951e-38 345 271
0.031135695 0.68300003 -0.037123326 1.3464875e-38 346 271
0.032333218 0.68300003 -0.037123326 1.2819506e-38 347 271
0.033530746 0.68300003 -0.037123326 1.2176285e-38 348 271
0.03477912 0.68400002 -0.037177678 1.2361035e-38 349 271
0.035978399 0.68400002 -0.037177678 1.3371606e-38 350 271
0.037286382 0.68599999 -0.037286382 1.3648553e-38 351 271
0.03848917 0.68599999 -0.037286382 1.2448986e-38 352 271
0.039691959 0.68599999 -0.037286382 5.4424765e-39 353 271
0.040954359 0.68699998 -0.037340738 5.8130905e-39 354 271
0.042220265 0.68800002 -0.037395094 7.7491987e-39 355 271
0.043426562 0.68800002 -0.037395094 8.2087111e-39 356 271
0.0447626 0.69 -0.037503798 8.1165155e-39 357 271
0.04617228 0.69300002 -0.037666857 6.7332125e-39 358 271
0.047455717 0.69400001 -0.037721213 7.1016349e-39 359 271
0.048812799 0.69599998 -0.037829921 1.1065313e-38 360 271
0.050105009 0.69700003 -0.037884273 1.2263856e-38 361 271
0.051327083 0.69700003 -0.037884273 1.2819531e-38 362 271
0.052624546 0.69800001 -0.037938625 1.2727335e-38 363 271
0.053848371 0.69800001 -0.037938625 1.2725889e-38 364 271
0.0550722 0.69800001 -0.037938625 1.2818086e-38 365 271
0.056296028 0.69800001 -0.037938625 1.2909186e-38 366 271
0.057519849 0.69800001 -0.037938625 1.6043837e-38 367 271
-0.0049584266 0.70700002 -0.039667413 1.493751e-38 316 272
-0.0037188199 0.70700002 -0.039667413 1.4844954e-38 317 272
-0.0024757064 0.70599997 -0.039611302 1.5031516e-38 318 272
-0.0012325933 0.70300001 -0.039442986 1.5031516e-38 319 272
0 0.70300001 -0.039442986 1.457234e-38 320 272
0.0012273333 0.69999999 -0.039274666 1.3281601e-38 321 272
0.0024476533 0.69800001 -0.039162453 1.0794489e-38 322 272
0.00366622 0.69700003 -0.039106347 1.1347663e-38 323 272
0.0048812795 0.69599998 -0.039050236 1.1532424e-38 324 272
0.0060840664 0.69400001 -0.038938027 1.1808651e-38 325 272
0.0072903596 0.69300002 -0.03888192 1.1533869e-38 326 272
0.0085054198 0.69300002 -0.03888192 9.8743477e-39 327 272
0.0096924258 0.69099998 -0.038769703 1.1623177e-38 328 272
0.010888199 0.69 -0.038713597 1.3558926e-38 329 272
0.012062933 0.68800002 -0.038601387 1.2546206e-38 330 272
0.013269227 0.68800002 -0.038601387 1.162389e-38 331 272
0.014454478 0.68699998 -0.038545277 1.1898682e-38 332 272
0.015659019 0.68699998 -0.038545277 1.2083433e-38 333 272
0.01686356 0.68699998 -0.038545277 1.2174544e-38 334 272
0.018068098 0.68699998 -0.038545277 1.2174544e-38 335 272
0.019244585 0.68599999 -0.03848917 1.2358575e-38 336 272
0.020447372 0.68599999 -0.03848917 1.2173824e-38 337 272
0.021650158 0.68599999 -0.03848917 1.1622452e-38 338 272
0.022852944 0.68599999 -0.03848917 1.27288e-38 339 272
0.024055731 0.68599999 -0.03848917 1.365003e-38 340 272
0.025184879 0.68400002 -0.038376961 1.4111008e-38 341 272
0.02638416 0.68400002 -0.038376961 1.2544407e-38 342 272
0.027583439 0.68400002 -0.038376961 9.5019527e-39 343 272
0.02878272 0.68400002 -0.038376961 1.1899032e-38 344 272
0.029982001 0.68400002 -0.038376961 1.3742945e-38 345 272
0.03118128 0.68400002 -0.038376961 1.3741836e-38 346 272
0.032380559 0.68400002 -0.038376961 1.3649282e-38 347 272
0.033579841 0.68400002 -0.038376961 1.355672e-38 348 272
0.03477912 0.68400002 -0.038376961 1.355672e-38 349 272
0.036083598 0.68599999 -0.03848917 1.3831512e-38 350 272
0.037340738 0.68699998 -0.038545277 1.3831512e-38 351 272
0.038545277 0.68699998 -0.038545277 1.2357495e-38 352 272
0.039749816 0.68699998 -0.038545277 4.705259e-39 353 272
0.040954359 0.68699998 -0.038545277 4.337959e-39 354 272
0.042220265 0.68800002 -0.038601387 5.4443066e-39 355 272
0.043552797 0.69 -0.038713597 6.0021439e-39 356 272
0.044827472 0.69099998 -0.038769703 8.1230021e-39 357 272
0.046238903 0.69400001 -0.038938027 1.0330985e-38 358 272
0.047455717 0.69400001 -0.038938027 1.1068908e-38 359 272
0.048812799 0.69599998 -0.039050236 1.3091442e-38 360 272
0.050105009 0.69700003 -0.039106347 1.2815215e-38 361 272
0.051327083 0.69700003 -0.039106347 1.2265278e-38 362 272
0.052624546 0.69800001 -0.039162453 1.2080887e-38 363 272
0.053848371 0.69800001 -0.039162453 1.2537549e-38 364 272
0.0550722 0.69800001 -0.039162453 1.2445353e-38 365 272
0.056296028 0.69800001 -0.039162453 1.2171621e-38 366 272
0.057519849 0.69800001 -0.039162453 1.5767252e-38 367 272
-0.0049654399 0.708 -0.040964879 1.4478332e-38 316 273
-0.00372408 0.708 -0.040964879 1.3740408e-38 317 273
-0.0024792133 0.70700002 -0.040907022 1.4203204e-38 318 273
-0.0012343467 0.704 -0.040733438 1.4756376e-38 319 273
0 0.70300001 -0.040675577 1.4756371e-38 320 273
0.0012290865 0.70099998 -0.040559858 1.3742579e-38 321 273
0.0024546667 0.69999999 -0.040502001 1.2266377e-38 322 273
0.00366622 0.69700003 -0.040328421 1.198943e-38 323 273
0.0048882933 0.69700003 -0.040328421 1.171609e-38 324 273
0.0061015999 0.69599998 -0.040270556 1.1900481e-38 325 273
0.0073008798 0.69400001 -0.040154841 1.1624976e-38 326 273
0.0085054198 0.69300002 -0.04009698 1.0610464e-38 327 273
0.0097204801 0.69300002 -0.04009698 1.1623527e-38 328 273
0.010888199 0.69 -0.0399234 1.3559635e-38 329 273
0.012097999 0.69 -0.0399234 1.2085228e-38 330 273
0.013269227 0.68800002 -0.039807681 1.0702294e-38 331 273
0.014475521 0.68800002 -0.039807681 1.1070003e-38 332 273
0.015681813 0.68800002 -0.039807681 1.1346231e-38 333 273
0.01686356 0.68699998 -0.039749816 1.1438064e-38 334 273
0.018068098 0.68699998 -0.039749816 1.1530259e-38 335 273
0.019272638 0.68699998 -0.039749816 1.1806486e-38 336 273
0.020477179 0.68699998 -0.039749816 1.1806486e-38 337 273
0.021681719 0.68699998 -0.039749816 1.1531329e-38 338 273
0.022886258 0.68699998 -0.039749816 1.2176698e-38 339 273
0.024090799 0.68699998 -0.039749816 1.2913897e-38 340 273
0.025258519 0.68599999 -0.039691959 1.4204636e-38 341 273
0.026461305 0.68599999 -0.039691959 1.2269259e-38 342 273
0.027664091 0.68599999 -0.039691959 9.2271636e-39 343 273
0.02886688 0.68599999 -0.039691959 1.1715723e-38 344 273
0.029982001 0.68400002 -0.03957624 1.3651831e-38 345 273
0.03118128 0.68400002 -0.03957624 1.3925879e-38 346 273
0.032475237 0.68599999 -0.039691959 1.3833683e-38 347 273
0.033678025 0.68599999 -0.039691959 1.383368e-38 348 273
0.034880809 0.68599999 -0.039691959 1.3741483e-38 349 273
0.036083598 0.68599999 -0.039691959 1.3831515e-38 350 273
0.037340738 0.68699998 -0.039749816 1.3739319e-38 351 273
0.038545277 0.68699998 -0.039749816 1.2815934e-38 352 273
0.039749816 0.68699998 -0.039749816 7.8373712e-39 353 273
0.041013971 0.68800002 -0.039807681 3.7908781e-39 354 273
0.042220265 0.68800002 -0.039807681 5.7269863e-39 355 273
0.043552797 0.69 -0.0399234 7.7527748e-39 356 273
0.044827472 0.69099998 -0.039981257 9.8732743e-39 357 273
0.046238903 0.69400001 -0.040154841 1.2540436e-38 358 273
0.047455717 0.69400001 -0.040154841 1.327836e-38 359 273
0.048812799 0.69599998 -0.040270556 1.2080167e-38 360 273
0.050105009 0.69700003 -0.040328421 1.1987971e-38 361 273
0.051400717 0.69800001 -0.040386278 1.1436246e-38 362 273
0.052624546 0.69800001 -0.040386278 1.1344051e-38 363 273
0.053848371 0.69800001 -0.040386278 1.1527007e-38 364 273
0.055229999 0.69999999 -0.040502001 1.0974192e-38 365 273
0.056457333 0.69999999 -0.040502001 1.0972722e-38 366 273
0.065101266 0.79000002 -0.045709401 1.5951286e-38 367 273
0.066486403 0.79000002 -0.045709401 1.8802851e-38 368 273
-0.0062243328 0.70999998 -0.042325463 1.7238788e-38 315 274
-0.0049654399 0.708 -0.042206239 1.3925879e-38 316 274
-0.00372408 0.708 -0.042206239 1.2450388e-38 317 274
-0.0024792133 0.70700002 -0.042146627 1.2914263e-38 318 274
-0.0012378532 0.70599997 -0.042087011 1.4020611e-38 319 274
0 0.704 -0.041967787 1.4755657e-38 320 274
0.0012290865 0.70099998 -0.041788943 1.4847853e-38 321 274
0.0024546667 0.69999999 -0.041729331 1.4660589e-38 322 274
0.0036714801 0.69800001 -0.041610107 1.3462046e-38 323 274
0.0048882933 0.69700003 -0.041550495 1.162354e-38 324 274
0.0061015999 0.69599998 -0.041490879 1.1807932e-38 325 274
0.0073219193 0.69599998 -0.041490879 1.162462e-38 326 274
0.0085176928 0.69400001 -0.041371655 1.1255836e-38 327 274
0.0097204801 0.69300002 -0.041312039 1.1993035e-38 328 274
0.01090398 0.69099998 -0.041192811 1.3283415e-38 329 274
0.012115533 0.69099998 -0.041192811 1.0979969e-38 330 274
0.0133078 0.69 -0.041133199 8.8594699e-39 331 274
0.014475521 0.68800002 -0.041013971 8.951318e-39 332 274
0.015681813 0.68800002 -0.041013971 9.1357093e-39 333 274
0.016888106 0.68800002 -0.041013971 9.5030499e-39 334 274
0.0180944 0.68800002 -0.041013971 9.6870824e-39 335 274
0.019272638 0.68699998 -0.040954359 9.8718296e-39 336 274
0.020477179 0.68699998 -0.040954359 1.0517199e-38 337 274
0.021681719 0.68699998 -0.040954359 1.1530975e-38 338 274
0.022886258 0.68699998 -0.040954359 1.2176345e-38 339 274
0.024090799 0.68699998 -0.040954359 1.2731304e-38 340 274
0.025295338 0.68699998 -0.040954359 1.3560704e-38 341 274
0.026499879 0.68699998 -0.040954359 1.1626045e-38 342 274
0.027664091 0.68599999 -0.040894743 8.8601762e-39 343 274
0.02886688 0.68599999 -0.040894743 1.171572e-38 344 274
0.030069664 0.68599999 -0.040894743 1.3651828e-38 345 274
0.031272452 0.68599999 -0.040894743 1.383368e-38 346 274
0.032475237 0.68599999 -0.040894743 1.3741483e-38 347 274
0.033678025 0.68599999 -0.040894743 1.3741483e-38 348 274
0.034880809 0.68599999 -0.040894743 1.3741483e-38 349 274
0.036136195 0.68699998 -0.040954359 1.34649e-38 350 274
0.037340738 0.68699998 -0.040954359 1.3280509e-38 351 274
0.038545277 0.68699998 -0.040954359 1.3002849e-38 352 274
0.039807681 0.68800002 -0.041013971 1.1251133e-38 353 274
0.041013971 0.68800002 -0.041013971 1.143913e-38 354 274
0.042342998 0.69 -0.041133199 1.2729869e-38 355 274
0.043615919 0.69099998 -0.041192811 1.3372354e-38 356 274
0.044957221 0.69300002 -0.041312039 1.3187604e-38 357 274
0.046238903 0.69400001 -0.041371655 1.3093244e-38 358 274
0.047592476 0.69599998 -0.041490879 1.2355679e-38 359 274
0.048882935 0.69700003 -0.041550495 1.0605767e-38 360 274
0.050176892 0.69800001 -0.041610107 1.1066385e-38 361 274
0.051547997 0.69999999 -0.041729331 1.1526644e-38 362 274
0.052775331 0.69999999 -0.041729331 1.1711035e-38 363 274
0.054002665 0.69999999 -0.041729331 1.1527716e-38 364 274
0.055308893 0.70099998 -0.041788943 1.0236977e-38 365 274
0.056537982 0.70099998 -0.041788943 9.7749018e-39 366 274
0.065018855 0.78899997 -0.047034916 1.6228594e-38 367 274
0.066402234 0.78899997 -0.047034916 1.9171278e-38 368 274
-0.0062243328 0.70999998 -0.043570329 1.7238791e-38 315 275
-0.0049794666 0.70999998 -0.043570329 1.4937154e-38 316 275
-0.00372408 0.708 -0.043447599 1.3001045e-38 317 275
-0.0024792133 0.70700002 -0.043386232 1.1624246e-38 318 275
-0.0012378532 0.70599997 -0.043324865 1.2361812e-38 319 275
0 0.704 -0.043202132 1.3836589e-38 320 275
0.0012325933 0.70300001 -0.043140765 1.4481959e-38 321 275
0.0024546667 0.69999999 -0.042956665 1.5031895e-38 322 275
0.0036819996 0.69999999 -0.042956665 1.3648961e-38 323 275
0.0048953067 0.69800001 -0.042833932 1.0887774e-38 324 275
0.0061103669 0.69700003 -0.042772565 1.1164719e-38 325 275
0.00733244 0.69700003 -0.042772565 1.162354e-38 326 275
0.0085422397 0.69599998 -0.042711195 1.1162563e-38 327 275
0.0097345067 0.69400001 -0.042588469 1.125763e-38 328 275
0.010935539 0.69300002 -0.042527102 1.2640923e-38 329 275
0.012150601 0.69300002 -0.042527102 1.0979616e-38 330 275
0.013327086 0.69099998 -0.042404365 8.8591168e-39 331 275
0.014517599 0.69 -0.042342998 9.2264728e-39 332 275
0.015727401 0.69 -0.042342998 9.410864e-39 333 275
0.016888106 0.68800002 -0.042220265 9.5023436e-39 334 275
0.0180944 0.68800002 -0.042220265 9.410148e-39 335 275
0.019300694 0.68800002 -0.042220265 9.0424389e-39 336 275
0.020506985 0.68800002 -0.042220265 1.0056589e-38 337 275
0.021713281 0.68800002 -0.042220265 1.1162919e-38 338 275
0.022919573 0.68800002 -0.042220265 1.2361462e-38 339 275
0.024125867 0.68800002 -0.042220265 1.3374519e-38 340 275
0.025295338 0.68699998 -0.042158898 1.3835496e-38 341 275
0.026499879 0.68699998 -0.042158898 1.1625326e-38 342 275
0.027704418 0.68699998 -0.042158898 9.3200753e-39 343 275
0.028908957 0.68699998 -0.042158898 1.2359289e-38 344 275
0.030113498 0.68699998 -0.042158898 1.3834777e-38 345 275
0.031318039 0.68699998 -0.042158898 1.3650012e-38 346 275
0.032522578 0.68699998 -0.042158898 1.3465619e-38 347 275
0.033727121 0.68699998 -0.042158898 1.3649287e-38 348 275
0.034931656 0.68699998 -0.042158898 1.3465256e-38 349 275
0.036136195 0.68699998 -0.042158898 1.3556373e-38 350 275
0.037340738 0.68699998 -0.042158898 1.3463819e-38 351 275
0.038601387 0.68800002 -0.042220265 1.2912099e-38 352 275
0.039807681 0.68800002 -0.042220265 1.1621361e-38 353 275
0.041133199 0.69 -0.042342998 1.2357489e-38 354 275
0.042342998 0.69 -0.042342998 1.2818828e-38 355 275
0.043615919 0.69099998 -0.042404365 1.327871e-38 356 275
0.044957221 0.69300002 -0.042527102 1.2909929e-38 357 275
0.046238903 0.69400001 -0.042588469 1.1987615e-38 358 275
0.047592476 0.69599998 -0.042711195 1.1434801e-38 359 275
0.048882935 0.69700003 -0.042772565 1.1065669e-38 360 275
0.050176892 0.69800001 -0.042833932 1.1434092e-38 361 275
0.051547997 0.69999999 -0.042956665 1.1161454e-38 362 275
0.052775331 0.69999999 -0.042956665 1.125365e-38 363 275
0.054002665 0.69999999 -0.042956665 1.1251849e-38 364 275
0.0554667 0.70300001 -0.043140765 9.4082955e-39 365 275
0.056699295 0.70300001 -0.043140765 1.0231923e-38 366 275
0.065018855 0.78899997 -0.048418298 1.7054041e-38 367 275
-0.0062243328 0.70999998 -0.044815198 1.7146955e-38 315 276
-0.0049794666 0.70999998 -0.044815198 1.5397056e-38 316 276
-0.0037345996 0.70999998 -0.044815198 1.4198871e-38 317 276
-0.00248272 0.708 -0.044688959 1.0978523e-38 318 276
-0.0012396066 0.70700002 -0.044625837 1.0056927e-38 319 276
0 0.70599997 -0.044562716 1.2085961e-38 320 276
0.0012343467 0.704 -0.044436477 1.356145e-38 321 276
0.0024581731 0.70099998 -0.044247117 1.5217008e-38 322 276
0.0036819996 0.69999999 -0.044183996 1.3741878e-38 323 276
0.0049093333 0.69999999 -0.044183996 1.061119e-38 324 276
0.006119133 0.69800001 -0.04405776 1.0979972e-38 325 276
0.00733244 0.69700003 -0.043994639 1.1347679e-38 326 276
0.0085545136 0.69700003 -0.043994639 1.0886702e-38 327 276
0.0097625591 0.69599998 -0.043931518 1.0614427e-38 328 276
0.01095132 0.69400001 -0.043805279 1.199772e-38 329 276
0.012168133 0.69400001 -0.043805279 1.0979972e-38 330 276
0.01336566 0.69300002 -0.043742158 9.043864e-39 331 276
0.014580719 0.69300002 -0.043742158 9.4115703e-39 332 276
0.015750192 0.69099998 -0.043615919 9.4115703e-39 333 276
0.0169372 0.69 -0.043552797 9.5030471e-39 334 276
0.0180944 0.68800002 -0.043426562 9.5030471e-39 335 276
0.019300694 0.68800002 -0.043426562 9.2271762e-39 336 276
0.020506985 0.68800002 -0.043426562 9.9647413e-39 337 276
0.021713281 0.68800002 -0.043426562 1.1163635e-38 338 276
0.022919573 0.68800002 -0.043426562 1.2270342e-38 339 276
0.024125867 0.68800002 -0.043426562 1.3557832e-38 340 276
0.02533216 0.68800002 -0.043426562 1.3742582e-38 341 276
0.026538454 0.68800002 -0.043426562 1.1809357e-38 342 276
0.027704418 0.68699998 -0.043363437 9.412271e-39 343 276
0.028908957 0.68699998 -0.043363437 1.2358928e-38 344 276
0.030113498 0.68699998 -0.043363437 1.3925894e-38 345 276
0.031318039 0.68699998 -0.043363437 1.3465622e-38 346 276
0.032522578 0.68699998 -0.043363437 1.3280872e-38 347 276
0.033727121 0.68699998 -0.043363437 1.3280872e-38 348 276
0.03498251 0.68800002 -0.043426562 1.3096841e-38 349 276
0.0361888 0.68800002 -0.043426562 1.337127e-38 350 276
0.037395094 0.68800002 -0.043426562 1.3187237e-38 351 276
0.038713597 0.69 -0.043552797 1.2634436e-38 352 276
0.0399234 0.69 -0.043552797 1.1435893e-38 353 276
0.041192811 0.69099998 -0.043615919 1.1896152e-38 354 276
0.042404365 0.69099998 -0.043615919 1.1803955e-38 355 276
0.043742158 0.69300002 -0.043742158 1.1436243e-38 356 276
0.045022093 0.69400001 -0.043805279 1.088307e-38 357 276
0.046372157 0.69599998 -0.043931518 1.0606132e-38 358 276
0.047660861 0.69700003 -0.043994639 1.0698328e-38 359 276
0.048953064 0.69800001 -0.04405776 1.1158583e-38 360 276
0.050320663 0.69999999 -0.044183996 1.1619561e-38 361 276
0.051621638 0.70099998 -0.044247117 1.116217e-38 362 276
0.053001512 0.70300001 -0.04437336 1.0978139e-38 363 276
0.054234106 0.70300001 -0.04437336 1.1341527e-38 364 276
0.055545598 0.704 -0.044436477 9.9585924e-39 365 276
0.056779943 0.704 -0.044436477 1.1060239e-38 366 276
-0.0062330998 0.71100003 -0.046124939 1.6870725e-38 315 277
-0.0049864799 0.71100003 -0.046124939 1.5122264e-38 316 277
-0.0037398601 0.71100003 -0.046124939 1.4200668e-38 317 277
-0.00248272 0.708 -0.045930319 1.2267098e-38 318 277
-0.0012396066 0.70700002 -0.045865446 1.0883805e-38 319 277
0 0.70599997 -0.04580057 1.0151288e-38 320 277
0.0012343467 0.704 -0.045670826 1.1257635e-38 321 277
0.0024651866 0.70300001 -0.04560595 1.3556412e-38 322 277
0.0036872597 0.70099998 -0.045476202 1.3095434e-38 323 277
0.0049093333 0.69999999 -0.04541133 1.1162563e-38 324 277
0.006119133 0.69800001 -0.045281585 1.1255117e-38 325 277
0.0073429602 0.69800001 -0.045281585 1.1072171e-38 326 277
0.0085545136 0.69700003 -0.045216713 1.0611194e-38 327 277
0.0097765867 0.69700003 -0.045216713 1.0613711e-38 328 277
0.010982879 0.69599998 -0.045151837 1.1812254e-38 329 277
0.012168133 0.69400001 -0.045022093 1.0979972e-38 330 277
0.013384946 0.69400001 -0.045022093 9.2282552e-39 331 277
0.014580719 0.69300002 -0.044957221 9.5030471e-39 332 277
0.015795778 0.69300002 -0.044957221 9.5030471e-39 333 277
0.016961746 0.69099998 -0.044827472 9.228258e-39 334 277
0.018146999 0.69 -0.0447626 9.228258e-39 335 277
0.019356798 0.69 -0.0447626 8.9516684e-39 336 277
0.020506985 0.68800002 -0.044632856 9.781429e-39 337 277
0.021713281 0.68800002 -0.044632856 1.1163272e-38 338 277
0.022919573 0.68800002 -0.044632856 1.2269259e-38 339 277
0.024125867 0.68800002 -0.044632856 1.3282324e-38 340 277
0.02533216 0.68800002 -0.044632856 1.3374519e-38 341 277
0.026538454 0.68800002 -0.044632856 1.1257618e-38 342 277
0.027744746 0.68800002 -0.044632856 9.2293146e-39 343 277
0.028951041 0.68800002 -0.044632856 1.1898669e-38 344 277
0.030157333 0.68800002 -0.044632856 1.3281604e-38 345 277
0.031363625 0.68800002 -0.044632856 1.3096844e-38 346 277
0.032569919 0.68800002 -0.044632856 1.3004648e-38 347 277
0.033776212 0.68800002 -0.044632856 1.2820616e-38 348 277
0.03498251 0.68800002 -0.044632856 1.2636584e-38 349 277
0.036293998 0.69 -0.0447626 1.2819178e-38 350 277
0.037503798 0.69 -0.0447626 1.2634787e-38 351 277
0.038769703 0.69099998 -0.044827472 1.1806839e-38 352 277
0.039981257 0.69099998 -0.044827472 9.5019499e-39 353 277
0.041312039 0.69300002 -0.044957221 9.7792584e-39 354 277
0.042527102 0.69300002 -0.044957221 9.5026715e-39 355 277
0.043742158 0.69300002 -0.044957221 1.0056198e-38 356 277
0.045022093 0.69400001 -0.045022093 1.024059e-38 357 277
0.046438783 0.69700003 -0.045216713 1.0883441e-38 358 277
0.047660861 0.69700003 -0.045216713 1.0975638e-38 359 277
0.048953064 0.69800001 -0.045281585 1.0977789e-38 360 277
0.050392549 0.70099998 -0.045476202 1.116182e-38 361 277
0.051768921 0.70300001 -0.04560595 1.1162173e-38 362 277
0.053076904 0.704 -0.045670826 1.0608999e-38 363 277
0.054311249 0.704 -0.045670826 1.0789429e-38 364 277
0.055703394 0.70599997 -0.04580057 1.014406e-38 365 277
0.056941248 0.70599997 -0.04580057 1.2074382e-38 366 277
-0.0062769335 0.71600002 -0.047704693 1.6595213e-38 315 278
-0.0049864799 0.71100003 -0.047371563 1.4755639e-38 316 278
-0.0037398601 0.71100003 -0.047371563 1.3833683e-38 317 278
-0.0024897333 0.70999998 -0.047304932 1.2543683e-38 318 278
-0.0012396066 0.70700002 -0.047105055 1.1806118e-38 319 278
0 0.70599997 -0.047038425 1.0517547e-38 320 278
0.0012343467 0.704 -0.046905171 1.0149123e-38 321 278
0.0024651866 0.70300001 -0.046838548 1.17125e-38 322 278
0.0036872597 0.70099998 -0.046705291 1.2081281e-38 323 278
0.0049093333 0.69999999 -0.046638668 1.0887777e-38 324 278
0.0061366665 0.69999999 -0.046638668 1.0887777e-38 325 278
0.0073429602 0.69800001 -0.046505414 1.0611913e-38 326 278
0.0085667865 0.69800001 -0.046505414 1.0519717e-38 327 278
0.0097765867 0.69700003 -0.046438783 1.0430035e-38 328 278
0.01099866 0.69700003 -0.046438783 1.11676e-38 329 278
0.0122032 0.69599998 -0.046372157 1.1163282e-38 330 278
0.013384946 0.69400001 -0.046238903 9.9650972e-39 331 278
0.01460176 0.69400001 -0.046238903 1.0055495e-38 332 278
0.015795778 0.69300002 -0.04617228 1.0055495e-38 333 278
0.01701084 0.69300002 -0.04617228 9.6877873e-39 334 278
0.0181733 0.69099998 -0.046039023 9.5033974e-39 335 278
0.019384852 0.69099998 -0.046039023 9.3197278e-39 336 278
0.020566599 0.69 -0.045972396 9.8725428e-39 337 278
0.021776399 0.69 -0.045972396 1.1070717e-38 338 278
0.022986198 0.69 -0.045972396 1.2361456e-38 339 278
0.024195999 0.69 -0.045972396 1.3557832e-38 340 278
0.02533216 0.68800002 -0.045839146 1.3281604e-38 341 278
0.026538454 0.68800002 -0.045839146 1.1440928e-38 342 278
0.027744746 0.68800002 -0.045839146 1.0057993e-38 343 278
0.028951041 0.68800002 -0.045839146 1.1530607e-38 344 278
0.030244999 0.69 -0.045972396 1.2636954e-38 345 278
0.031454802 0.69 -0.045972396 1.2269247e-38 346 278
0.032664597 0.69 -0.045972396 1.2361442e-38 347 278
0.0338744 0.69 -0.045972396 1.1993383e-38 348 278
0.035084199 0.69 -0.045972396 1.1901187e-38 349 278
0.036346599 0.69099998 -0.046039023 1.2084137e-38 350 278
0.03755815 0.69099998 -0.046039023 1.1899385e-38 351 278
0.038769703 0.69099998 -0.046039023 1.1255818e-38 352 278
0.04009698 0.69300002 -0.04617228 9.227514e-39 353 278
0.041312039 0.69300002 -0.04617228 9.6870628e-39 354 278
0.042527102 0.69300002 -0.04617228 9.6870628e-39 355 278
0.043805279 0.69400001 -0.046238903 9.9654447e-39 356 278
0.045151837 0.69599998 -0.046372157 1.0242392e-38 357 278
0.046438783 0.69700003 -0.046438783 1.0610446e-38 358 278
0.047729239 0.69800001 -0.046505414 1.0703e-38 359 278
0.049093332 0.69999999 -0.046638668 1.0518969e-38 360 278
0.050392549 0.70099998 -0.046705291 1.0518969e-38 361 278
0.051768921 0.70300001 -0.046838548 1.0701562e-38 362 278
0.053076904 0.704 -0.046905171 1.0148747e-38 363 278
0.054465543 0.70599997 -0.047038425 1.0605034e-38 364 278
0.055703394 0.70599997 -0.047038425 1.0789425e-38 365 278
0.056941248 0.70599997 -0.047038425 1.2907018e-38 366 278
-0.0062769335 0.71600002 -0.048960082 1.6136033e-38 315 279
-0.0050215465 0.71600002 -0.048960082 1.4387936e-38 316 279
-0.0037398601 0.71100003 -0.048618179 1.3557815e-38 317 279
-0.0024897333 0.70999998 -0.048549797 1.2544401e-38 318 279
-0.00124136 0.708 -0.048413038 1.1899032e-38 319 279
0 0.70700002 -0.048344657 1.1255114e-38 320 279
0.0012378532 0.70599997 -0.048276275 1.0609745e-38 321 279
0.0024686933 0.704 -0.048139516 1.0425001e-38 322 279
0.0036872597 0.70099998 -0.047934376 1.0332805e-38 323 279
0.0049163462 0.70099998 -0.047934376 1.0149858e-38 324 279
0.0061366665 0.69999999 -0.047865998 1.0518641e-38 325 279
0.0073429602 0.69800001 -0.047729239 1.0337124e-38 326 279
0.0085667865 0.69800001 -0.047729239 1.0337124e-38 327 279
0.0097906133 0.69800001 -0.047729239 1.0888853e-38 328 279
0.01099866 0.69700003 -0.047660861 1.1257635e-38 329 279
0.012220734 0.69700003 -0.047660861 1.0980325e-38 330 279
0.013423519 0.69599998 -0.047592476 1.0334956e-38 331 279
0.01460176 0.69400001 -0.047455717 1.0149842e-38 332 279
0.015818574 0.69400001 -0.047455717 1.0149842e-38 333 279
0.01701084 0.69300002 -0.047387339 9.7817821e-39 334 279
0.018225901 0.69300002 -0.047387339 9.5970322e-39 335 279
0.01944096 0.69300002 -0.047387339 9.5048393e-39 336 279
0.020596405 0.69099998 -0.047250576 9.7814262e-39 337 279
0.021807959 0.69099998 -0.047250576 1.0428224e-38 338 279
0.023019511 0.69099998 -0.047250576 1.2087746e-38 339 279
0.024195999 0.69 -0.047182199 1.3557834e-38 340 279
0.025405798 0.69 -0.047182199 1.3096856e-38 341 279
0.026615599 0.69 -0.047182199 1.171896e-38 342 279
0.027825398 0.69 -0.047182199 1.1257983e-38 343 279
0.029035198 0.69 -0.047182199 1.1625326e-38 344 279
0.030244999 0.69 -0.047182199 1.1809357e-38 345 279
0.031500384 0.69099998 -0.047250576 1.2084146e-38 346 279
0.032711938 0.69099998 -0.047250576 1.1991951e-38 347 279
0.033923492 0.69099998 -0.047250576 1.1807917e-38 348 279
0.035135046 0.69099998 -0.047250576 1.1623524e-38 349 279
0.036451802 0.69300002 -0.047387339 1.1623527e-38 350 279
0.037666857 0.69300002 -0.047387339 1.1438777e-38 351 279
0.03888192 0.69300002 -0.047387339 1.0795928e-38 352 279
0.04009698 0.69300002 -0.047387339 9.5973853e-39 353 279
0.041371655 0.69400001 -0.047455717 1.014912e-38 354 279
0.042588469 0.69400001 -0.047455717 1.0333151e-38 355 279
0.043931518 0.69599998 -0.047592476 1.0059793e-38 356 279
0.045216713 0.69700003 -0.047660861 1.0336378e-38 357 279
0.046505414 0.69800001 -0.047729239 1.0702644e-38 358 279
0.047865998 0.69999999 -0.047865998 1.0426057e-38 359 279
0.049093332 0.69999999 -0.047865998 1.0424981e-38 360 279
0.050536323 0.70300001 -0.048071139 1.0332785e-38 361 279
0.051842559 0.704 -0.048139516 1.0700126e-38 362 279
0.053227689 0.70599997 -0.048276275 1.060793e-38 363 279
0.054465543 0.70599997 -0.048276275 1.0882341e-38 364 279
0.055703394 0.70599997 -0.048276275 1.171246e-38 365 279
0.056941248 0.70599997 -0.048276275 1.3920093e-38 366 279
-0.0062769335 0.71600002 -0.050215468 1.6504093e-38 315 280
-0.0050215465 0.71600002 -0.050215468 1.447905e-38 316 280
-0.0037556398 0.71399999 -0.050075196 1.3649287e-38 317 280
-0.0024897333 0.70999998 -0.049794663 1.2636957e-38 318 280
-0.00124136 0.708 -0.049654398 1.2175979e-38 319 280
0 0.70700002 -0.049584266 1.2450774e-38 320 280
0.0012378532 0.70599997 -0.04951413 1.2358219e-38 321 280
0.0024686933 0.704 -0.049373865 1.2173827e-38 322 280
0.0036977797 0.70300001 -0.049303733 1.1528457e-38 323 280
0.0049163462 0.70099998 -0.049163464 9.9665405e-39 324 280
0.0061366665 0.69999999 -0.049093332 1.0151291e-38 325 280
0.0073639993 0.69999999 -0.049093332 9.9679909e-39 326 280
0.0085667865 0.69800001 -0.048953064 1.0060187e-38 327 280
0.0097906133 0.69800001 -0.048953064 9.9708622e-39 328 280
0.01101444 0.69800001 -0.048953064 1.0524036e-38 329 280
0.012220734 0.69700003 -0.048882935 1.0520069e-38 330 280
0.013423519 0.69599998 -0.048812799 1.0059092e-38 331 280
0.014643839 0.69599998 -0.048812799 9.8739778e-39 332 280
0.015818574 0.69400001 -0.048672531 9.8739778e-39 333 280
0.017035386 0.69400001 -0.048672531 9.782501e-39 334 280
0.0182522 0.69400001 -0.048672531 9.8746966e-39 335 280
0.01944096 0.69300002 -0.048602402 9.782501e-39 336 280
0.020656019 0.69300002 -0.048602402 1.0151285e-38 337 280
0.021807959 0.69099998 -0.04846213 1.0980676e-38 338 280
0.023019511 0.69099998 -0.04846213 1.2271414e-38 339 280
0.024231065 0.69099998 -0.04846213 1.3649314e-38 340 280
0.025442619 0.69099998 -0.04846213 1.309614e-38 341 280
0.026654173 0.69099998 -0.04846213 1.1627493e-38 342 280
0.027865725 0.69099998 -0.04846213 1.1627493e-38 343 280
0.029077278 0.69099998 -0.04846213 1.1442027e-38 344 280
0.030288832 0.69099998 -0.04846213 1.1165438e-38 345 280
0.031591557 0.69300002 -0.048602402 1.0706257e-38 346 280
0.03280662 0.69300002 -0.048602402 1.0614061e-38 347 280
0.034021679 0.69300002 -0.048602402 1.0521865e-38 348 280
0.035236739 0.69300002 -0.048602402 1.042967e-38 349 280
0.036451802 0.69300002 -0.048602402 1.0428951e-38 350 280
0.037666857 0.69300002 -0.048602402 1.0428951e-38 351 280
0.038938027 0.69400001 -0.048672531 1.0428948e-38 352 280
0.040154841 0.69400001 -0.048672531 9.7835786e-39 353 280
0.041371655 0.69400001 -0.048672531 1.0059442e-38 354 280
0.042711195 0.69599998 -0.048812799 9.9672468e-39 355 280
0.043994639 0.69700003 -0.048882935 9.7839317e-39 356 280
0.045281585 0.69800001 -0.048953064 9.9679629e-39 357 280
0.046505414 0.69800001 -0.048953064 1.0334585e-38 358 280
0.047865998 0.69999999 -0.049093332 1.0150192e-38 359 280
0.049163464 0.70099998 -0.049163464 9.0441989e-39 360 280
0.050536323 0.70300001 -0.049303733 9.5973727e-39 361 280
0.051842559 0.704 -0.049373865 1.1804303e-38 362 280
0.053227689 0.70599997 -0.04951413 1.1896498e-38 363 280
0.054542694 0.70700002 -0.049584266 1.2355662e-38 364 280
0.055782299 0.70700002 -0.049584266 1.2908836e-38 365 280
0.057021905 0.70700002 -0.049584266 1.383077e-38 366 280
-0.0062769335 0.71600002 -0.051470853 1.7054744e-38 315 281
-0.0050215465 0.71600002 -0.051470853 1.4661982e-38 316 281
-0.0037556398 0.71399999 -0.05132708 1.3371243e-38 317 281
-0.0024932399 0.71100003 -0.051111419 1.2729856e-38 318 281
-0.0012448666 0.70999998 -0.051039528 1.2729856e-38 319 281
0 0.708 -0.050895758 1.327945e-38 320 281
0.0012396066 0.70700002 -0.050823875 1.3832624e-38 321 281
0.0024757064 0.70599997 -0.050751984 1.4937898e-38 322 281
0.0037030398 0.704 -0.050608214 1.3370572e-38 323 281
0.0049303733 0.70300001 -0.050536323 1.0700508e-38 324 281
0.0061454331 0.70099998 -0.050392549 1.0516477e-38 325 281
0.0073639993 0.69999999 -0.050320663 1.0333531e-38 326 281
0.0085913334 0.69999999 -0.050320663 1.0241335e-38 327 281
0.0097906133 0.69800001 -0.050176892 9.6010034e-39 328 281
0.01101444 0.69800001 -0.050176892 1.0706992e-38 329 281
0.012238266 0.69800001 -0.050176892 9.7835968e-39 330 281
0.013442807 0.69700003 -0.050105009 8.6772493e-39 331 281
0.01466488 0.69700003 -0.050105009 9.0442297e-39 332 281
0.015864158 0.69599998 -0.050033119 9.2286224e-39 333 281
0.017035386 0.69400001 -0.049889345 1.0054423e-38 334 281
0.0182522 0.69400001 -0.049889345 1.0054423e-38 335 281
0.01944096 0.69300002 -0.049817458 1.0147691e-38 336 281
0.020656019 0.69300002 -0.049817458 1.0885256e-38 337 281
0.021871079 0.69300002 -0.049817458 1.1438777e-38 338 281
0.02308614 0.69300002 -0.049817458 1.2453289e-38 339 281
0.024301201 0.69300002 -0.049817458 1.3557481e-38 340 281
0.02551626 0.69300002 -0.049817458 1.2543688e-38 341 281
0.02673132 0.69300002 -0.049817458 1.052331e-38 342 281
0.027946379 0.69300002 -0.049817458 1.0246723e-38 343 281
0.029161438 0.69300002 -0.049817458 1.08885e-38 344 281
0.0303765 0.69300002 -0.049817458 1.0704108e-38 345 281
0.031591557 0.69300002 -0.049817458 1.0612629e-38 346 281
0.03280662 0.69300002 -0.049817458 1.0336401e-38 347 281
0.034021679 0.69300002 -0.049817458 1.0244921e-38 348 281
0.035287585 0.69400001 -0.049889345 9.9686943e-39 349 281
0.036504399 0.69400001 -0.049889345 1.0059808e-38 350 281
0.037721213 0.69400001 -0.049889345 1.0059808e-38 351 281
0.038938027 0.69400001 -0.049889345 9.7850191e-39 352 281
0.040154841 0.69400001 -0.049889345 9.7850191e-39 353 281
0.041490879 0.69599998 -0.050033119 9.6921047e-39 354 281
0.042772565 0.69700003 -0.050105009 9.5999076e-39 355 281
0.04405776 0.69800001 -0.050176892 9.8746938e-39 356 281
0.045281585 0.69800001 -0.050176892 9.7824982e-39 357 281
0.046638668 0.69999999 -0.050320663 9.5044694e-39 358 281
0.047865998 0.69999999 -0.050320663 8.3981232e-39 359 281
0.049163464 0.70099998 -0.050392549 6.0953835e-39 360 281
0.050536323 0.70300001 -0.050536323 9.5066218e-39 361 281
0.051842559 0.704 -0.050608214 1.383009e-38 362 281
0.053227689 0.70599997 -0.050751984 1.3553502e-38 363 281
0.054542694 0.70700002 -0.050823875 1.3276894e-38 364 281
0.055782299 0.70700002 -0.050823875 1.3184697e-38 365 281
0.057021905 0.70700002 -0.050823875 1.3555612e-38 366 281
-0.0062857 0.71700001 -0.052799881 1.7239491e-38 315 282
-0.0050285598 0.71700001 -0.052799881 1.4753802e-38 316 282
-0.00376616 0.71600002 -0.052726239 1.3094281e-38 317 282
-0.0025037599 0.71399999 -0.052578956 1.273056e-38 318 282
-0.00124662 0.71100003 -0.052358042 1.3191178e-38 319 282
0 0.70999998 -0.052284397 1.3281601e-38 320 282
0.00124136 0.708 -0.052137118 1.3558188e-38 321 282
0.0024757064 0.70599997 -0.051989835 1.4572712e-38 322 282
0.0037030398 0.704 -0.051842559 1.3097222e-38 323 282
0.0049303733 0.70300001 -0.051768921 1.0056218e-38 324 282
0.0061454331 0.70099998 -0.051621638 9.4108486e-39 325 282
0.0073639993 0.69999999 -0.051547997 9.778562e-39 326 282
0.0085913334 0.69999999 -0.051547997 9.5938106e-39 327 282
0.0098186666 0.69999999 -0.051547997 8.9534802e-39 328 282
0.01101444 0.69800001 -0.051400717 1.0336415e-38 329 282
0.012238266 0.69800001 -0.051400717 1.0517562e-38 330 282
0.013442807 0.69700003 -0.051327083 9.5037701e-39 331 282
0.01466488 0.69700003 -0.051327083 9.4115703e-39 332 282
0.015886955 0.69700003 -0.051327083 9.5037673e-39 333 282
0.017084479 0.69599998 -0.051253434 1.0053704e-38 334 282
0.018304799 0.69599998 -0.051253434 1.0053704e-38 335 282
0.019469013 0.69400001 -0.051106159 9.6874327e-39 336 282
0.020685827 0.69400001 -0.051106159 1.0424998e-38 337 282
0.021902639 0.69400001 -0.051106159 1.1346584e-38 338 282
0.023119451 0.69400001 -0.051106159 1.226854e-38 339 282
0.024301201 0.69300002 -0.051032521 1.3464568e-38 340 282
0.02551626 0.69300002 -0.051032521 1.2358222e-38 341 282
0.02673132 0.69300002 -0.051032521 9.788266e-39 342 282
0.027946379 0.69300002 -0.051032521 9.5113203e-39 343 282
0.029161438 0.69300002 -0.051032521 9.7853947e-39 344 282
0.0303765 0.69300002 -0.051032521 9.6931991e-39 345 282
0.031591557 0.69300002 -0.051032521 9.6939151e-39 346 282
0.032853961 0.69400001 -0.051106159 9.6017195e-39 347 282
0.034070771 0.69400001 -0.051106159 9.3254899e-39 348 282
0.035287585 0.69400001 -0.051106159 9.2332943e-39 349 282
0.036504399 0.69400001 -0.051106159 9.2332915e-39 350 282
0.037721213 0.69400001 -0.051106159 9.2332915e-39 351 282
0.039050236 0.69599998 -0.051253434 9.1414504e-39 352 282
0.040270556 0.69599998 -0.051253434 9.1414504e-39 353 282
0.041550495 0.69700003 -0.051327083 9.2318482e-39 354 282
0.042772565 0.69700003 -0.051327083 9.1396525e-39 355 282
0.04405776 0.69800001 -0.051400717 9.2311265e-39 356 282
0.045281585 0.69800001 -0.051400717 9.1389309e-39 357 282
0.046638668 0.69999999 -0.051547997 7.8456739e-39 358 282
0.047934376 0.70099998 -0.051621638 6.3705438e-39 359 282
0.049303733 0.70300001 -0.051768921 5.0816001e-39 360 282
0.050608214 0.704 -0.051842559 8.2162515e-39 361 282
0.051989835 0.70599997 -0.051989835 1.263299e-38 362 282
0.053303085 0.70700002 -0.05206348 1.2540436e-38 363 282
0.054542694 0.70700002 -0.05206348 1.2174136e-38 364 282
0.055782299 0.70700002 -0.05206348 1.2543278e-38 365 282
0.057102561 0.708 -0.052137118 1.3556681e-38 366 282
-0.0062857 0.71700001 -0.054057021 1.7699746e-38 315 283
-0.0050285598 0.71700001 -0.054057021 1.521261e-38 316 283
-0.0037714199 0.71700001 -0.054057021 1.3368697e-38 317 283
-0.0025107733 0.71600002 -0.053981625 1.2363918e-38 318 283
-0.00125188 0.71399999 -0.053830836 1.319368e-38 319 283
0 0.70999998 -0.053529263 1.3559985e-38 320 283
0.00124136 0.708 -0.053378478 1.3375235e-38 321 283
0.0024792133 0.70700002 -0.053303085 1.4111731e-38 322 283
0.0037135598 0.70599997 -0.053227689 1.2913547e-38 323 283
0.0049373866 0.704 -0.053076904 9.4119234e-39 324 283
0.0061629666 0.70300001 -0.053001512 8.2133816e-39 325 283
0.0073745195 0.70099998 -0.052850723 8.48747e-39 326 283
0.0085913334 0.69999999 -0.052775331 8.48747e-39 327 283
0.0098186666 0.69999999 -0.052775331 8.3081108e-39 328 283
0.011045999 0.69999999 -0.052775331 9.8757953e-39 329 283
0.012238266 0.69800001 -0.052624546 1.0791985e-38 330 283
0.013462093 0.69800001 -0.052624546 1.0146616e-38 331 283
0.01468592 0.69800001 -0.052624546 9.779264e-39 332 283
0.015886955 0.69700003 -0.052549154 9.871461e-39 333 283
0.017109027 0.69700003 -0.052549154 1.0055492e-38 334 283
0.018331099 0.69700003 -0.052549154 1.0147688e-38 335 283
0.019525118 0.69599998 -0.052473757 9.6885117e-39 336 283
0.020745439 0.69599998 -0.052473757 1.0057293e-38 337 283
0.021902639 0.69400001 -0.052322973 1.1070723e-38 338 283
0.023119451 0.69400001 -0.052322973 1.1900484e-38 339 283
0.024336265 0.69400001 -0.052322973 1.2451858e-38 340 283
0.025553079 0.69400001 -0.052322973 1.1806489e-38 341 283
0.026769891 0.69400001 -0.052322973 9.0528659e-39 342 283
0.027986705 0.69400001 -0.052322973 8.5918878e-39 343 283
0.029203519 0.69400001 -0.052322973 9.2333069e-39 344 283
0.030420333 0.69400001 -0.052322973 9.0492758e-39 345 283
0.031637147 0.69400001 -0.052322973 9.0503506e-39 346 283
0.032853961 0.69400001 -0.052322973 9.0503506e-39 347 283
0.034070771 0.69400001 -0.052322973 8.8659565e-39 348 283
0.035287585 0.69400001 -0.052322973 8.681924e-39 349 283
0.036504399 0.69400001 -0.052322973 8.9563501e-39 350 283
0.037829921 0.69599998 -0.052473757 9.0485457e-39 351 283
0.039050236 0.69599998 -0.052473757 8.956706e-39 352 283
0.040328421 0.69700003 -0.052549154 9.0489016e-39 353 283
0.041550495 0.69700003 -0.052549154 9.1396525e-39 354 283
0.042833932 0.69800001 -0.052624546 8.9552627e-39 355 283
0.04405776 0.69800001 -0.052624546 8.3098933e-39 356 283
0.04541133 0.69999999 -0.052775331 7.4801326e-39 357 283
0.046638668 0.69999999 -0.052775331 5.173444e-39 358 283
0.047934376 0.70099998 -0.052850723 4.3436819e-39 359 283
0.049303733 0.70300001 -0.053001512 3.4235235e-39 360 283
0.050608214 0.704 -0.053076904 5.63622e-39 361 283
0.051989835 0.70599997 -0.053227689 1.0239145e-38 362 283
0.053303085 0.70700002 -0.053303085 1.0884514e-38 363 283
0.054542694 0.70700002 -0.053303085 1.1347603e-38 364 283
0.055861197 0.708 -0.053378478 1.1900777e-38 365 283
0.057102561 0.708 -0.053378478 1.3924019e-38 366 283
0.058343921 0.708 -0.053378478 1.770404e-38 367 283
-0.0063032326 0.71899998 -0.055468451 1.8252564e-38 315 284
-0.0050425865 0.71899998 -0.055468451 1.6225317e-38 316 284
-0.0037714199 0.71700001 -0.055314157 1.4104817e-38 317 284
-0.0025107733 0.71600002 -0.055237014 1.1536659e-38 318 284
-0.00125188 0.71399999 -0.05508272 1.2274225e-38 319 284
0 0.71100003 -0.054851279 1.3284822e-38 320 284
0.0012448666 0.70999998 -0.054774132 1.3377377e-38 321 284
0.00248272 0.708 -0.054619838 1.4480147e-38 322 284
0.0037188199 0.70700002 -0.054542694 1.3465636e-38 323 284
0.0049373866 0.704 -0.054311249 1.0424628e-38 324 284
0.0061629666 0.70300001 -0.054234106 9.7792584e-39 325 284
0.0073745195 0.70099998 -0.054079808 9.9622274e-39 326 284
0.0086036054 0.70099998 -0.054079808 9.8700303e-39 327 284
0.0098186666 0.69999999 -0.054002665 9.4133696e-39 328 284
0.011045999 0.69999999 -0.054002665 1.0334966e-38 329 284
0.012273333 0.69999999 -0.054002665 1.088489e-38 330 284
0.013462093 0.69800001 -0.053848371 1.0515747e-38 331 284
0.01468592 0.69800001 -0.053848371 9.7789095e-39 332 284
0.015909746 0.69800001 -0.053848371 9.5945168e-39 333 284
0.017133573 0.69800001 -0.053848371 8.9487943e-39 334 284
0.018331099 0.69700003 -0.053771228 8.8565987e-39 335 284
0.019553173 0.69700003 -0.053771228 7.940759e-39 336 284
0.020745439 0.69599998 -0.053694077 8.7705211e-39 337 284
0.021965759 0.69599998 -0.053694077 1.0702662e-38 338 284
0.023186078 0.69599998 -0.053694077 1.1440227e-38 339 284
0.0244064 0.69599998 -0.053694077 1.2083796e-38 340 284
0.025626717 0.69599998 -0.053694077 1.1623177e-38 341 284
0.026769891 0.69400001 -0.053539783 8.2249059e-39 342 284
0.027986705 0.69400001 -0.053539783 7.5795365e-39 343 284
0.029203519 0.69400001 -0.053539783 7.4862675e-39 344 284
0.030420333 0.69400001 -0.053539783 7.8546913e-39 345 284
0.031637147 0.69400001 -0.053539783 8.5893752e-39 346 284
0.032853961 0.69400001 -0.053539783 8.6815709e-39 347 284
0.034070771 0.69400001 -0.053539783 8.4056972e-39 348 284
0.035287585 0.69400001 -0.053539783 8.0372749e-39 349 284
0.036609598 0.69599998 -0.053694077 8.4031763e-39 350 284
0.037829921 0.69599998 -0.053694077 8.1269496e-39 351 284
0.039106347 0.69700003 -0.053771228 8.2198641e-39 352 284
0.040328421 0.69700003 -0.053771228 8.6808422e-39 353 284
0.041610107 0.69800001 -0.053848371 9.5066344e-39 354 284
0.042833932 0.69800001 -0.053848371 9.5066344e-39 355 284
0.044183996 0.69999999 -0.054002665 7.5708821e-39 356 284
0.04541133 0.69999999 -0.054002665 5.4503826e-39 357 284
0.046638668 0.69999999 -0.054002665 4.7095904e-39 358 284
0.047934376 0.70099998 -0.054079808 4.6173947e-39 359 284
0.049373865 0.704 -0.054311249 3.6979594e-39 360 284
0.050751984 0.70599997 -0.054465543 4.1589375e-39 361 284
0.051989835 0.70599997 -0.054465543 7.2942728e-39 362 284
0.053378478 0.708 -0.054619838 9.6913592e-39 363 284
0.054619838 0.708 -0.054619838 1.1073161e-38 364 284
0.056018997 0.70999998 -0.054774132 1.1811085e-38 365 284
0.057344519 0.71100003 -0.054851279 1.4936726e-38 366 284
0.058591139 0.71100003 -0.054851279 1.825577e-38 367 284
-0.0050285598 0.71700001 -0.056571297 1.723839e-38 316 285
-0.0037714199 0.71700001 -0.056571297 1.511789e-38 317 285
-0.0025142799 0.71700001 -0.056571297 1.1810341e-38 318 285
-0.00125188 0.71399999 -0.0563346 1.1902537e-38 319 285
0 0.71100003 -0.056097899 1.2364999e-38 320 285
0.0012448666 0.70999998 -0.056018997 1.3194399e-38 321 285
0.00248272 0.708 -0.055861197 1.4573061e-38 322 285
0.00372408 0.708 -0.055861197 1.3743301e-38 323 285
0.0049584266 0.70700002 -0.055782299 1.1989433e-38 324 285
0.0061892662 0.70599997 -0.055703394 1.1528454e-38 325 285
0.0074060797 0.704 -0.055545598 1.1989082e-38 326 285
0.0086036054 0.70099998 -0.055308893 1.1435908e-38 327 285
0.0098186666 0.69999999 -0.055229999 1.0610111e-38 328 285
0.011045999 0.69999999 -0.055229999 1.1163284e-38 329 285
0.012273333 0.69999999 -0.055229999 1.1896884e-38 330 285
0.013500666 0.69999999 -0.055229999 1.152846e-38 331 285
0.014727999 0.69999999 -0.055229999 1.0516828e-38 332 285
0.015909746 0.69800001 -0.0550722 1.0055489e-38 333 285
0.017133573 0.69800001 -0.0550722 8.8587539e-39 334 285
0.0183574 0.69800001 -0.0550722 8.5818068e-39 335 285
0.019553173 0.69700003 -0.054993302 7.9400374e-39 336 285
0.020775247 0.69700003 -0.054993302 8.9538306e-39 337 285
0.02199732 0.69700003 -0.054993302 1.1161117e-38 338 285
0.023186078 0.69599998 -0.054914396 1.1806486e-38 339 285
0.0244064 0.69599998 -0.054914396 1.1991598e-38 340 285
0.025626717 0.69599998 -0.054914396 1.1346228e-38 341 285
0.026847038 0.69599998 -0.054914396 7.8543227e-39 342 285
0.028067358 0.69599998 -0.054914396 6.7483339e-39 343 285
0.029287677 0.69599998 -0.054914396 7.0234915e-39 344 285
0.030507999 0.69599998 -0.054914396 8.1294803e-39 345 285
0.031728316 0.69599998 -0.054914396 8.9570802e-39 346 285
0.032948639 0.69599998 -0.054914396 8.6804919e-39 347 285
0.034168959 0.69599998 -0.054914396 8.2205871e-39 348 285
0.035389278 0.69599998 -0.054914396 7.759609e-39 349 285
0.036662199 0.69700003 -0.054993302 7.8496424e-39 350 285
0.037884273 0.69700003 -0.054993302 8.2180662e-39 351 285
0.039162453 0.69800001 -0.0550722 9.4144416e-39 352 285
0.040386278 0.69800001 -0.0550722 1.0152007e-38 353 285
0.041610107 0.69800001 -0.0550722 1.1529175e-38 354 285
0.042833932 0.69800001 -0.0550722 1.0883805e-38 355 285
0.044183996 0.69999999 -0.055229999 8.3052003e-39 356 285
0.045476202 0.70099998 -0.055308893 5.1705503e-39 357 285
0.046705291 0.70099998 -0.055308893 5.3553101e-39 358 285
0.048071139 0.70300001 -0.0554667 6.2776265e-39 359 285
0.04951413 0.70599997 -0.055703394 5.8173701e-39 360 285
0.050751984 0.70599997 -0.055703394 5.7251744e-39 361 285
0.05206348 0.70700002 -0.055782299 7.5722862e-39 362 285
0.053378478 0.708 -0.055861197 9.4161988e-39 363 285
0.054619838 0.708 -0.055861197 1.0706524e-38 364 285
0.056018997 0.70999998 -0.056018997 1.2089817e-38 365 285
0.057344519 0.71100003 -0.056097899 1.6133474e-38 366 285
0.058591139 0.71100003 -0.056097899 1.8807148e-38 367 285
-0.0050285598 0.71700001 -0.057828441 1.7606103e-38 316 286
-0.0037714199 0.71700001 -0.057828441 1.6315364e-38 317 286
-0.0025142799 0.71700001 -0.057828441 1.3740326e-38 318 286
-0.0012553866 0.71600002 -0.057747785 1.2910925e-38 319 286
0 0.71600002 -0.057747785 1.1904703e-38 320 286
0.00124662 0.71100003 -0.057344519 1.1904703e-38 321 286
0.0024897333 0.70999998 -0.057263866 1.2732358e-38 322 286
0.0037345996 0.70999998 -0.057263866 1.2916389e-38 323 286
0.0049654399 0.708 -0.057102561 1.3001774e-38 324 286
0.0061980332 0.70700002 -0.057021905 1.2264209e-38 325 286
0.0074271196 0.70599997 -0.056941248 1.1529178e-38 326 286
0.0086281532 0.70300001 -0.056699295 1.1068199e-38 327 286
0.0098326923 0.70099998 -0.056537982 1.0795211e-38 328 286
0.011061779 0.70099998 -0.056537982 1.208595e-38 329 286
0.012290866 0.70099998 -0.056537982 1.2816679e-38 330 286
0.013500666 0.69999999 -0.056457333 1.2079114e-38 331 286
0.014727999 0.69999999 -0.056457333 1.1253312e-38 332 286
0.015955333 0.69999999 -0.056457333 1.0977086e-38 333 286
0.017182667 0.69999999 -0.056457333 1.088489e-38 334 286
0.0183574 0.69800001 -0.056296028 1.0607943e-38 335 286
0.019581227 0.69800001 -0.056296028 1.0607943e-38 336 286
0.020805053 0.69800001 -0.056296028 1.1161117e-38 337 286
0.02199732 0.69700003 -0.056215372 1.1804322e-38 338 286
0.023219392 0.69700003 -0.056215372 1.2818474e-38 339 286
0.024441468 0.69700003 -0.056215372 1.2726998e-38 340 286
0.025663542 0.69700003 -0.056215372 9.7770976e-39 341 286
0.026885614 0.69700003 -0.056215372 3.8927833e-39 342 286
0.028107686 0.69700003 -0.056215372 2.4172945e-39 343 286
0.02932976 0.69700003 -0.056215372 4.439144e-39 344 286
0.030551834 0.69700003 -0.056215372 6.1908595e-39 345 286
0.03177391 0.69700003 -0.056215372 8.3106332e-39 346 286
0.03299598 0.69700003 -0.056215372 9.1403952e-39 347 286
0.034218054 0.69700003 -0.056215372 9.04818e-39 348 286
0.035440128 0.69700003 -0.056215372 7.8496368e-39 349 286
0.0367148 0.69800001 -0.056296028 6.9262287e-39 350 286
0.037938625 0.69800001 -0.056296028 9.0470884e-39 351 286
0.039162453 0.69800001 -0.056296028 1.2634433e-38 352 286
0.040386278 0.69800001 -0.056296028 1.3648584e-38 353 286
0.041729331 0.69999999 -0.056457333 1.3368033e-38 354 286
0.042956665 0.69999999 -0.056457333 1.2077294e-38 355 286
0.044247117 0.70099998 -0.056537982 1.051392e-38 356 286
0.04560595 0.70300001 -0.056699295 1.032917e-38 357 286
0.046905171 0.704 -0.056779943 1.143695e-38 358 286
0.048139516 0.704 -0.056779943 1.2542938e-38 359 286
0.04951413 0.70599997 -0.056941248 1.2175937e-38 360 286
0.050751984 0.70599997 -0.056941248 1.1530568e-38 361 286
0.05206348 0.70700002 -0.057021905 1.0888407e-38 362 286
0.053378478 0.708 -0.057102561 1.0703656e-38 363 286
0.054619838 0.708 -0.057102561 1.0063306e-38 364 286
0.056018997 0.70999998 -0.057263866 1.2552588e-38 365 286
0.057263866 0.70999998 -0.057263866 1.7329869e-38 366 286
-0.0050285598 0.71700001 -0.059085581 1.6961462e-38 316 287
-0.0037714199 0.71700001 -0.059085581 1.6223897e-38 317 287
-0.0025142799 0.71700001 -0.059085581 1.5305846e-38 318 287
-0.0012553866 0.71600002 -0.059003171 1.4291334e-38 319 287
0 0.71600002 -0.059003171 1.171918e-38 320 287
0.00125188 0.71399999 -0.058838356 1.1442234e-38 321 287
0.0024932399 0.71100003 -0.058591139 1.1261849e-38 322 287
0.0037345996 0.70999998 -0.058508728 1.1907218e-38 323 287
0.0049794666 0.70999998 -0.058508728 1.22703e-38 324 287
0.0062067998 0.708 -0.058343921 1.1717127e-38 325 287
0.0074271196 0.70599997 -0.058179103 1.1346216e-38 326 287
0.0086404262 0.704 -0.058014292 1.0516454e-38 327 287
0.0098607466 0.70300001 -0.057931885 1.0518265e-38 328 287
0.01109334 0.70300001 -0.057931885 1.2270342e-38 329 287
0.012325933 0.70300001 -0.057931885 1.3096503e-38 330 287
0.013519952 0.70099998 -0.057767071 1.2174547e-38 331 287
0.014749039 0.70099998 -0.057767071 1.1438061e-38 332 287
0.015978126 0.70099998 -0.057767071 1.1438061e-38 333 287
0.017182667 0.69999999 -0.05768466 1.152918e-38 334 287
0.018409999 0.69999999 -0.05768466 1.1344789e-38 335 287
0.019637333 0.69999999 -0.05768466 1.1435906e-38 336 287
0.020864666 0.69999999 -0.05768466 1.134371e-38 337 287
0.02202888 0.69800001 -0.057519849 1.1711404e-38 338 287
0.023252707 0.69800001 -0.057519849 1.3739708e-38 339 287
0.024476532 0.69800001 -0.057519849 1.4108472e-38 340 287
0.025700359 0.69800001 -0.057519849 1.1342602e-38 341 287
0.026885614 0.69700003 -0.05743745 6.3705228e-39 342 287
0.028107686 0.69700003 -0.05743745 4.987587e-39 343 287
