# .PCD v.7 - Point Cloud Data file format
FIELDS x y z rgb imX imY
SIZE 4 4 4 4 4 4
TYPE F F F F F F
COUNT 1 1 1 1 1 1
WIDTH 835
HEIGHT 1
VIEWPOINT 0 0 0 1 0 0 0
POINTS 835
DATA ascii
0.018068098 0.68699998 -0.039749816 1.4017721e-38 335 273
0.019300694 0.68800002 -0.039807681 1.4018077e-38 336 273
0.020506985 0.68800002 -0.039807681 1.3925523e-38 337 273
0.021713281 0.68800002 -0.039807681 1.4108119e-38 338 273
0.022919573 0.68800002 -0.039807681 1.2264206e-38 339 273
0.024125867 0.68800002 -0.039807681 1.0973836e-38 340 273
0.025405798 0.69 -0.0399234 1.0328467e-38 341 273
0.026615599 0.69 -0.0399234 1.0788006e-38 342 273
0.027865725 0.69099998 -0.039981257 1.0788006e-38 343 273
0.029077278 0.69099998 -0.039981257 1.0972394e-38 344 273
0.0303765 0.69300002 -0.04009698 1.0972394e-38 345 273
0.031591557 0.69300002 -0.04009698 1.069581e-38 346 273
0.032853961 0.69400001 -0.040154841 1.0603614e-38 347 273
0.034168959 0.69599998 -0.040270556 1.0514287e-38 348 273
0.035440128 0.69700003 -0.040328421 1.1344048e-38 349 273
0.0367148 0.69800001 -0.040386278 1.2264912e-38 350 273
0.038047329 0.69999999 -0.040502001 1.2541139e-38 351 273
0.039274666 0.69999999 -0.040502001 1.2818083e-38 352 273
0.040559858 0.70099998 -0.040559858 1.2818083e-38 353 273
0.041908171 0.70300001 -0.040675577 1.2724086e-38 354 273
0.043140765 0.70300001 -0.040675577 1.180249e-38 355 273
0.04437336 0.70300001 -0.040675577 1.3920093e-38 356 273
-0.019665385 0.70099998 -0.041788943 1.8620643e-38 304 274
-0.018436298 0.70099998 -0.041788943 1.7606491e-38 305 274
-0.017280852 0.704 -0.041967787 1.2355323e-38 306 274
-0.016092092 0.70599997 -0.042087011 9.3132258e-39 307 274
-0.014854239 0.70599997 -0.042087011 7.5708667e-39 308 274
-0.013616386 0.70599997 -0.042087011 1.0797714e-38 309 274
-0.012343466 0.704 -0.041967787 1.3558185e-38 310 274
-0.011109119 0.704 -0.041967787 1.3097207e-38 311 274
-0.0098607466 0.70300001 -0.041908171 1.1258354e-38 312 274
-0.0085913334 0.69999999 -0.041729331 9.4144416e-39 313 274
-0.0073429602 0.69800001 -0.041610107 9.9715782e-39 314 274
-0.0061103669 0.69700003 -0.041550495 1.1262317e-38 315 274
-0.0048812795 0.69599998 -0.041490879 1.3741875e-38 316 274
-0.0036504399 0.69400001 -0.041371655 1.4295049e-38 317 274
-0.0024336267 0.69400001 -0.041371655 1.4114608e-38 318 274
-0.0012168133 0.69400001 -0.041371655 1.4298999e-38 319 274
0 0.69300002 -0.041312039 1.4298997e-38 320 274
0.00121506 0.69300002 -0.041312039 1.3837658e-38 321 274
0.0024231065 0.69099998 -0.041192811 1.3557834e-38 322 274
0.0036293997 0.69 -0.041133199 1.2912465e-38 323 274
0.0048391996 0.69 -0.041133199 1.2270693e-38 324 274
0.0060314666 0.68800002 -0.041013971 1.3377039e-38 325 274
0.0072377604 0.68800002 -0.041013971 1.4297553e-38 326 274
0.0084440531 0.68800002 -0.041013971 1.4297553e-38 327 274
0.0096503468 0.68800002 -0.041013971 1.44805e-38 328 274
0.010856641 0.68800002 -0.041013971 1.4387945e-38 329 274
0.012062933 0.68800002 -0.041013971 1.4295031e-38 330 274
0.013269227 0.68800002 -0.041013971 1.4295031e-38 331 274
0.014475521 0.68800002 -0.041013971 1.4202834e-38 332 274
0.015681813 0.68800002 -0.041013971 1.4018443e-38 333 274
0.016888106 0.68800002 -0.041013971 1.4110638e-38 334 274
0.0180944 0.68800002 -0.041013971 1.3926247e-38 335 274
0.019300694 0.68800002 -0.041013971 1.4017721e-38 336 274
0.020506985 0.68800002 -0.041013971 1.4017721e-38 337 274
0.021776399 0.69 -0.041133199 1.4201036e-38 338 274
0.022986198 0.69 -0.041133199 1.2264928e-38 339 274
0.024195999 0.69 -0.041133199 1.0883438e-38 340 274
0.025442619 0.69099998 -0.041192811 1.0238069e-38 341 274
0.026654173 0.69099998 -0.041192811 1.0694375e-38 342 274
0.027865725 0.69099998 -0.041192811 1.1063518e-38 343 274
0.029161438 0.69300002 -0.041312039 1.0881277e-38 344 274
0.0303765 0.69300002 -0.041312039 1.0973473e-38 345 274
0.031637147 0.69400001 -0.041371655 1.0698681e-38 346 274
0.032948639 0.69599998 -0.041490879 1.0790877e-38 347 274
0.034168959 0.69599998 -0.041490879 1.1710309e-38 348 274
0.035440128 0.69700003 -0.041550495 1.254007e-38 349 274
0.0367148 0.69800001 -0.041610107 1.2910279e-38 350 274
0.038047329 0.69999999 -0.041729331 1.3186865e-38 351 274
0.039274666 0.69999999 -0.041729331 1.3369455e-38 352 274
0.040675577 0.70300001 -0.041908171 1.2540055e-38 353 274
0.041967787 0.704 -0.041967787 1.088305e-38 354 274
0.043202132 0.704 -0.041967787 1.0790496e-38 355 274
-0.019665385 0.70099998 -0.043018032 1.8619922e-38 304 275
-0.018436298 0.70099998 -0.043018032 1.7790159e-38 305 275
-0.017280852 0.704 -0.043202132 1.3643899e-38 306 275
-0.016092092 0.70599997 -0.043324865 1.0232302e-38 307 275
-0.014854239 0.70599997 -0.043324865 8.5774726e-39 308 275
-0.013616386 0.70599997 -0.043324865 1.1528092e-38 309 275
-0.012378532 0.70599997 -0.043324865 1.3835146e-38 310 275
-0.011109119 0.704 -0.043202132 1.3374169e-38 311 275
-0.0098747732 0.704 -0.043202132 1.1810805e-38 312 275
-0.0086036054 0.70099998 -0.043018032 1.1257632e-38 313 275
-0.0073639993 0.69999999 -0.042956665 1.0522584e-38 314 275
-0.006119133 0.69800001 -0.042833932 1.061478e-38 315 275
-0.0048882933 0.69700003 -0.042772565 1.1256912e-38 316 275
-0.0036609597 0.69599998 -0.042711195 1.1256912e-38 317 275
-0.0024336267 0.69400001 -0.042588469 1.2270345e-38 318 275
-0.0012168133 0.69400001 -0.042588469 1.3561084e-38 319 275
0 0.69300002 -0.042527102 1.4205368e-38 320 275
0.00121506 0.69300002 -0.042527102 1.4205368e-38 321 275
0.0024231065 0.69099998 -0.042404365 1.4205005e-38 322 275
0.0036346598 0.69099998 -0.042404365 1.3744028e-38 323 275
0.0048391996 0.69 -0.042342998 1.3283769e-38 324 275
0.0060489997 0.69 -0.042342998 1.3375964e-38 325 275
0.0072587994 0.69 -0.042342998 1.3560351e-38 326 275
0.0084440531 0.68800002 -0.042220265 1.3652548e-38 327 275
0.0096503468 0.68800002 -0.042220265 1.3834775e-38 328 275
0.010856641 0.68800002 -0.042220265 1.3834775e-38 329 275
0.012062933 0.68800002 -0.042220265 1.3742579e-38 330 275
0.013269227 0.68800002 -0.042220265 1.3834775e-38 331 275
0.014475521 0.68800002 -0.042220265 1.383513e-38 332 275
0.015681813 0.68800002 -0.042220265 1.383513e-38 333 275
0.016888106 0.68800002 -0.042220265 1.4109917e-38 334 275
0.0180944 0.68800002 -0.042220265 1.4017721e-38 335 275
0.019356798 0.69 -0.042342998 1.3742213e-38 336 275
0.020566599 0.69 -0.042342998 1.3742213e-38 337 275
0.021776399 0.69 -0.042342998 1.3741857e-38 338 275
0.023019511 0.69099998 -0.042404365 1.2266727e-38 339 275
0.024231065 0.69099998 -0.042404365 1.2079097e-38 340 275
0.025442619 0.69099998 -0.042404365 1.1064587e-38 341 275
0.02673132 0.69300002 -0.042527102 1.0421737e-38 342 275
0.027946379 0.69300002 -0.042527102 1.0698325e-38 343 275
0.029161438 0.69300002 -0.042527102 1.0973473e-38 344 275
0.030420333 0.69400001 -0.042588469 1.12497e-38 345 275
0.031637147 0.69400001 -0.042588469 1.1342248e-38 346 275
0.032948639 0.69599998 -0.042711195 1.1342248e-38 347 275
0.034168959 0.69599998 -0.042711195 1.1711386e-38 348 275
0.035490975 0.69800001 -0.042833932 1.263334e-38 349 275
0.0367148 0.69800001 -0.042833932 1.3002477e-38 350 275
0.038047329 0.69999999 -0.042956665 1.2725889e-38 351 275
0.039330769 0.70099998 -0.043018032 1.1804659e-38 352 275
0.040733438 0.704 -0.043202132 1.0790148e-38 353 275
0.042087011 0.70599997 -0.043324865 1.0972374e-38 354 275
0.043386232 0.70700002 -0.043386232 1.1525548e-38 355 275
0.044625837 0.70700002 -0.043386232 1.4471114e-38 356 275
-0.019833706 0.70700002 -0.044625837 1.8527724e-38 304 276
-0.018594101 0.70700002 -0.044625837 1.7790159e-38 305 276
-0.017354494 0.70700002 -0.044625837 1.4381093e-38 306 276
-0.016114887 0.70700002 -0.044625837 1.1615224e-38 307 276
-0.014854239 0.70599997 -0.044562716 9.2206742e-39 308 276
-0.013616386 0.70599997 -0.044562716 1.1709956e-38 309 276
-0.012378532 0.70599997 -0.044562716 1.3742591e-38 310 276
-0.011140679 0.70599997 -0.044562716 1.355856e-38 311 276
-0.0098747732 0.704 -0.044436477 1.2455102e-38 312 276
-0.0086281532 0.70300001 -0.04437336 1.2270711e-38 313 276
-0.0073745195 0.70099998 -0.044247117 1.1533869e-38 314 276
-0.0061366665 0.69999999 -0.044183996 1.0519717e-38 315 276
-0.0048953067 0.69800001 -0.04405776 9.7846688e-39 316 276
-0.0036609597 0.69599998 -0.043931518 9.4158877e-39 317 276
-0.0024406398 0.69599998 -0.043931518 9.5080833e-39 318 276
-0.0012168133 0.69400001 -0.043805279 1.0430038e-38 319 276
0 0.69300002 -0.043742158 1.2178159e-38 320 276
0.00121506 0.69300002 -0.043742158 1.2823529e-38 321 276
0.00243012 0.69300002 -0.043742158 1.3652201e-38 322 276
0.0036451798 0.69300002 -0.043742158 1.3928788e-38 323 276
0.0048462129 0.69099998 -0.043615919 1.3744744e-38 324 276
0.0060577663 0.69099998 -0.043615919 1.3191929e-38 325 276
0.0072693196 0.69099998 -0.043615919 1.327945e-38 326 276
0.0084686 0.69 -0.043552797 1.2726635e-38 327 276
0.0096783992 0.69 -0.043552797 1.1991588e-38 328 276
0.010888199 0.69 -0.043552797 1.2083783e-38 329 276
0.012097999 0.69 -0.043552797 1.199303e-38 330 276
0.0133078 0.69 -0.043552797 1.2361812e-38 331 276
0.014517599 0.69 -0.043552797 1.3464919e-38 332 276
0.015727401 0.69 -0.043552797 1.4018092e-38 333 276
0.016961746 0.69099998 -0.043615919 1.4201036e-38 334 276
0.0181733 0.69099998 -0.043615919 1.410884e-38 335 276
0.019384852 0.69099998 -0.043615919 1.3557465e-38 336 276
0.020596405 0.69099998 -0.043615919 1.3557465e-38 337 276
0.021807959 0.69099998 -0.043615919 1.3372354e-38 338 276
0.023019511 0.69099998 -0.043615919 1.2634789e-38 339 276
0.024301201 0.69300002 -0.043742158 1.2724111e-38 340 276
0.02551626 0.69300002 -0.043742158 1.1617763e-38 341 276
0.02673132 0.69300002 -0.043742158 1.0606851e-38 342 276
0.027946379 0.69300002 -0.043742158 1.0699047e-38 343 276
0.029203519 0.69400001 -0.043805279 1.0974192e-38 344 276
0.030420333 0.69400001 -0.043805279 1.1158583e-38 345 276
0.031728316 0.69599998 -0.043931518 1.125078e-38 346 276
0.032948639 0.69599998 -0.043931518 1.125078e-38 347 276
0.034218054 0.69700003 -0.043994639 1.1895422e-38 348 276
0.035490975 0.69800001 -0.04405776 1.2909576e-38 349 276
0.036819998 0.69999999 -0.044183996 1.3552054e-38 350 276
0.038101684 0.70099998 -0.044247117 1.1984728e-38 351 276
0.039499093 0.704 -0.044436477 9.4090115e-39 352 276
0.040849157 0.70599997 -0.044562716 1.0146577e-38 353 276
0.042146627 0.70700002 -0.044625837 1.2260959e-38 354 276
0.043386232 0.70700002 -0.044625837 1.2353514e-38 355 276
0.044625837 0.70700002 -0.044625837 1.4655864e-38 356 276
-0.018672999 0.70999998 -0.046060063 1.7514296e-38 305 277
-0.017428132 0.70999998 -0.046060063 1.4475085e-38 306 277
-0.01613768 0.708 -0.045930319 1.2262392e-38 307 277
-0.01487528 0.70700002 -0.045865446 1.0142989e-38 308 277
-0.013635674 0.70700002 -0.045865446 1.1802152e-38 309 277
-0.012378532 0.70599997 -0.04580057 1.4202132e-38 310 277
-0.011140679 0.70599997 -0.04580057 1.4109935e-38 311 277
-0.0098747732 0.704 -0.045670826 1.2180676e-38 312 277
-0.0086404262 0.704 -0.045670826 1.1904449e-38 313 277
-0.0073955595 0.70300001 -0.04560595 1.1627507e-38 314 277
-0.0061454331 0.70099998 -0.045476202 1.1351278e-38 315 277
-0.0049093333 0.69999999 -0.04541133 1.1166882e-38 316 277
-0.00366622 0.69700003 -0.045216713 1.0890293e-38 317 277
-0.0024441467 0.69700003 -0.045216713 1.0796304e-38 318 277
-0.0012203199 0.69599998 -0.045151837 1.0704108e-38 319 277
0 0.69400001 -0.045022093 1.0428247e-38 320 277
0.0012168133 0.69400001 -0.045022093 1.1349844e-38 321 277
0.00243012 0.69300002 -0.044957221 1.2729894e-38 322 277
0.0036451798 0.69300002 -0.044957221 1.3006122e-38 323 277
0.00486024 0.69300002 -0.044957221 1.2638768e-38 324 277
0.0060577663 0.69099998 -0.044827472 1.1440224e-38 325 277
0.0072693196 0.69099998 -0.044827472 1.1527741e-38 326 277
0.008480873 0.69099998 -0.044827472 1.0605426e-38 327 277
0.0096924258 0.69099998 -0.044827472 9.7789095e-39 328 277
0.01090398 0.69099998 -0.044827472 9.8711051e-39 329 277
0.012115533 0.69099998 -0.044827472 1.0058736e-38 330 277
0.013327086 0.69099998 -0.044827472 1.079666e-38 331 277
0.014538639 0.69099998 -0.044827472 1.2083433e-38 332 277
0.015750192 0.69099998 -0.044827472 1.2820998e-38 333 277
0.016961746 0.69099998 -0.044827472 1.3189052e-38 334 277
0.0181733 0.69099998 -0.044827472 1.3189052e-38 335 277
0.01944096 0.69300002 -0.044957221 1.3372717e-38 336 277
0.020656019 0.69300002 -0.044957221 1.3096491e-38 337 277
0.021871079 0.69300002 -0.044957221 1.3003212e-38 338 277
0.02308614 0.69300002 -0.044957221 1.2634789e-38 339 277
0.024301201 0.69300002 -0.044957221 1.2725553e-38 340 277
0.02551626 0.69300002 -0.044957221 1.1158586e-38 341 277
0.026769891 0.69400001 -0.045022093 1.0698694e-38 342 277
0.027986705 0.69400001 -0.045022093 1.0606498e-38 343 277
0.029203519 0.69400001 -0.045022093 1.0881637e-38 344 277
0.030507999 0.69599998 -0.045151837 1.1434811e-38 345 277
0.031728316 0.69599998 -0.045151837 1.1341895e-38 346 277
0.03299598 0.69700003 -0.045216713 1.12497e-38 347 277
0.034267146 0.69800001 -0.045281585 1.1801433e-38 348 277
0.035592664 0.69999999 -0.04541133 1.1709237e-38 349 277
0.036977798 0.70300001 -0.04560595 1.1522678e-38 350 277
0.038210396 0.70300001 -0.04560595 1.0692916e-38 351 277
0.039499093 0.704 -0.045670826 9.314295e-39 352 277
0.040907022 0.70700002 -0.045865446 1.1342599e-38 353 277
0.042206239 0.708 -0.045930319 1.3274025e-38 354 277
0.043447599 0.708 -0.045930319 1.3274025e-38 355 277
-0.018672999 0.70999998 -0.047304932 1.7606491e-38 305 278
-0.017428132 0.70999998 -0.047304932 1.475132e-38 306 278
-0.016183265 0.70999998 -0.047304932 1.3091798e-38 307 278
-0.01489632 0.708 -0.047171678 1.0880921e-38 308 278
-0.013635674 0.70700002 -0.047105055 1.1710682e-38 309 278
-0.012396066 0.70700002 -0.047105055 1.3741878e-38 310 278
-0.011140679 0.70599997 -0.047038425 1.4202498e-38 311 278
-0.0099028256 0.70599997 -0.047038425 1.2823532e-38 312 278
-0.0086404262 0.704 -0.046905171 1.2178162e-38 313 278
-0.0073955595 0.70300001 -0.046838548 1.1261245e-38 314 278
-0.0061454331 0.70099998 -0.046705291 1.1169049e-38 315 278
-0.0049093333 0.69999999 -0.046638668 1.1628942e-38 316 278
-0.0036714801 0.69800001 -0.046505414 1.1812973e-38 317 278
-0.0024441467 0.69700003 -0.046438783 1.2085961e-38 318 278
-0.0012203199 0.69599998 -0.046372157 1.1717537e-38 319 278
0 0.69400001 -0.046238903 1.1072887e-38 320 278
0.0012168133 0.69400001 -0.046238903 1.1072887e-38 321 278
0.0024336267 0.69400001 -0.046238903 1.1901929e-38 322 278
0.0036451798 0.69300002 -0.04617228 1.1901929e-38 323 278
0.00486024 0.69300002 -0.04617228 1.1164363e-38 324 278
0.0060753003 0.69300002 -0.04617228 1.0242407e-38 325 278
0.0072903596 0.69300002 -0.04617228 9.7785592e-39 326 278
0.0085054198 0.69300002 -0.04617228 8.2112321e-39 327 278
0.0097204801 0.69300002 -0.04617228 7.3843595e-39 328 278
0.010935539 0.69300002 -0.04617228 7.1077712e-39 329 278
0.012150601 0.69300002 -0.04617228 7.2964798e-39 330 278
0.01336566 0.69300002 -0.04617228 9.2325881e-39 331 278
0.014580719 0.69300002 -0.04617228 1.0794861e-38 332 278
0.015795778 0.69300002 -0.04617228 1.1163284e-38 333 278
0.01701084 0.69300002 -0.04617228 1.2176345e-38 334 278
0.018225901 0.69300002 -0.04617228 1.2637323e-38 335 278
0.01944096 0.69300002 -0.04617228 1.2453289e-38 336 278
0.020656019 0.69300002 -0.04617228 1.2361092e-38 337 278
0.021871079 0.69300002 -0.04617228 1.2451487e-38 338 278
0.02308614 0.69300002 -0.04617228 1.1990868e-38 339 278
0.024336265 0.69400001 -0.046238903 1.2909228e-38 340 278
0.025553079 0.69400001 -0.046238903 1.1434098e-38 341 278
0.026769891 0.69400001 -0.046238903 1.0606501e-38 342 278
0.027986705 0.69400001 -0.046238903 1.0237718e-38 343 278
0.029203519 0.69400001 -0.046238903 1.0421031e-38 344 278
0.030507999 0.69599998 -0.046372157 1.0790173e-38 345 278
0.03177391 0.69700003 -0.046438783 1.0788373e-38 346 278
0.033043321 0.69800001 -0.046505414 1.0143003e-38 347 278
0.034365334 0.69999999 -0.046638668 1.0511782e-38 348 278
0.035745207 0.70300001 -0.046838548 1.0050803e-38 349 278
0.037030395 0.704 -0.046905171 1.0232308e-38 350 278
0.038264744 0.704 -0.046905171 1.0232308e-38 351 278
0.039611302 0.70599997 -0.047038425 1.0050791e-38 352 278
0.040907022 0.70700002 -0.047105055 1.1802508e-38 353 278
0.042206239 0.708 -0.047171678 1.3643531e-38 354 278
0.043447599 0.708 -0.047171678 1.3459138e-38 355 278
-0.0186993 0.71100003 -0.048618179 1.7147311e-38 305 279
-0.01745268 0.71100003 -0.048618179 1.5304131e-38 306 279
-0.01620606 0.71100003 -0.048618179 1.3920837e-38 307 279
-0.014938398 0.70999998 -0.048549797 1.0791243e-38 308 279
-0.013654959 0.708 -0.048413038 1.0975635e-38 309 279
-0.012396066 0.70700002 -0.048344657 1.3006108e-38 310 279
-0.011156459 0.70700002 -0.048344657 1.4389044e-38 311 279
-0.0099028256 0.70599997 -0.048276275 1.4204298e-38 312 279
-0.0086404262 0.704 -0.048139516 1.2360386e-38 313 279
-0.0073955595 0.70300001 -0.048071139 1.0065579e-38 314 279
-0.0061454331 0.70099998 -0.047934376 1.0526197e-38 315 279
-0.0049093333 0.69999999 -0.047865998 1.1169052e-38 316 279
-0.0036714801 0.69800001 -0.047729239 1.1353443e-38 317 279
-0.0024441467 0.69700003 -0.047660861 1.1444194e-38 318 279
-0.0012203199 0.69599998 -0.047592476 1.153639e-38 319 279
0 0.69599998 -0.047592476 1.1535307e-38 320 279
0.0012168133 0.69400001 -0.047455717 1.1351276e-38 321 279
0.0024336267 0.69400001 -0.047455717 1.1627863e-38 322 279
0.0036504399 0.69400001 -0.047455717 1.0982493e-38 323 279
0.00486024 0.69300002 -0.047387339 1.0978897e-38 324 279
0.0060753003 0.69300002 -0.047387339 9.6881586e-39 325 279
0.0072903596 0.69300002 -0.047387339 7.7542238e-39 326 279
0.0085054198 0.69300002 -0.047387339 6.0943423e-39 327 279
0.0097204801 0.69300002 -0.047387339 6.1887086e-39 328 279
0.010935539 0.69300002 -0.047387339 5.7277304e-39 329 279
0.012150601 0.69300002 -0.047387339 5.8245994e-39 330 279
0.01336566 0.69300002 -0.047387339 6.9309455e-39 331 279
0.014580719 0.69300002 -0.047387339 8.3106276e-39 332 279
0.015818574 0.69400001 -0.047455717 8.955997e-39 333 279
0.017035386 0.69400001 -0.047455717 1.0612266e-38 334 279
0.0182522 0.69400001 -0.047455717 1.1349831e-38 335 279
0.019469013 0.69400001 -0.047455717 1.2358941e-38 336 279
0.020656019 0.69300002 -0.047387339 1.2451137e-38 337 279
0.021871079 0.69300002 -0.047387339 1.1716087e-38 338 279
0.023119451 0.69400001 -0.047455717 1.0610098e-38 339 279
0.024336265 0.69400001 -0.047455717 1.1434817e-38 340 279
0.025553079 0.69400001 -0.047455717 1.0881643e-38 341 279
0.026847038 0.69599998 -0.047592476 1.0235918e-38 342 279
0.028067358 0.69599998 -0.047592476 9.4983527e-39 343 279
0.029287677 0.69599998 -0.047592476 9.4965619e-39 344 279
0.030551834 0.69700003 -0.047660861 9.3121692e-39 345 279
0.031819493 0.69800001 -0.047729239 8.8526302e-39 346 279
0.033137999 0.69999999 -0.047865998 8.4842064e-39 347 279
0.034512613 0.70300001 -0.048071139 8.8551371e-39 348 279
0.035796054 0.704 -0.048139516 1.005368e-38 349 279
0.037030395 0.704 -0.048139516 1.0788356e-38 350 279
0.038373452 0.70599997 -0.048276275 1.069616e-38 351 279
0.039667413 0.70700002 -0.048344657 1.0419571e-38 352 279
0.040907022 0.70700002 -0.048344657 1.1710309e-38 353 279
0.042206239 0.708 -0.048413038 1.3001031e-38 354 279
-0.017526319 0.71399999 -0.050075196 1.493714e-38 306 280
-0.016274439 0.71399999 -0.050075196 1.429177e-38 307 280
-0.014959441 0.71100003 -0.049864799 1.2171657e-38 308 280
-0.013693533 0.70999998 -0.049794663 1.1526288e-38 309 280
-0.012448666 0.70999998 -0.049794663 1.2268896e-38 310 280
-0.011156459 0.70700002 -0.049584266 1.4389397e-38 311 280
-0.0099168532 0.70700002 -0.049584266 1.5035483e-38 312 280
-0.0086649731 0.70599997 -0.04951413 1.3284124e-38 313 280
-0.0074060797 0.704 -0.049373865 1.135055e-38 314 280
-0.0061629666 0.70300001 -0.049303733 1.1442745e-38 315 280
-0.0049163462 0.70099998 -0.049163464 1.0526202e-38 316 280
-0.0036819996 0.69999999 -0.049093332 1.0433648e-38 317 280
-0.0024476533 0.69800001 -0.048953064 1.0617676e-38 318 280
-0.0012220733 0.69700003 -0.048882935 1.0801709e-38 319 280
0 0.69599998 -0.048812799 1.107685e-38 320 280
0.0012203199 0.69599998 -0.048812799 1.107685e-38 321 280
0.0024406398 0.69599998 -0.048812799 1.1076131e-38 322 280
0.0036504399 0.69400001 -0.048672531 1.0707348e-38 323 280
0.0048672534 0.69400001 -0.048672531 1.1347325e-38 324 280
0.0060840664 0.69400001 -0.048672531 9.6881642e-39 325 280
0.0073008798 0.69400001 -0.048672531 7.4754817e-39 326 280
0.0085176928 0.69400001 -0.048672531 6.9223079e-39 327 280
0.0097345067 0.69400001 -0.048672531 6.8312039e-39 328 280
0.01095132 0.69400001 -0.048672531 6.3705859e-39 329 280
0.012168133 0.69400001 -0.048672531 5.7298982e-39 330 280
0.013384946 0.69400001 -0.048672531 5.545507e-39 331 280
0.01460176 0.69400001 -0.048672531 6.8369492e-39 332 280
0.015818574 0.69400001 -0.048672531 7.8511011e-39 333 280
0.017035386 0.69400001 -0.048672531 9.8761484e-39 334 280
0.0182522 0.69400001 -0.048672531 1.0613713e-38 335 280
0.019469013 0.69400001 -0.048672531 1.1165082e-38 336 280
0.020685827 0.69400001 -0.048672531 1.1257279e-38 337 280
0.021902639 0.69400001 -0.048672531 1.107324e-38 338 280
0.023119451 0.69400001 -0.048672531 9.8746966e-39 339 280
0.0244064 0.69599998 -0.048812799 1.0422464e-38 340 280
0.025626717 0.69599998 -0.048812799 1.005368e-38 341 280
0.026847038 0.69599998 -0.048812799 1.0050806e-38 342 280
0.028107686 0.69700003 -0.048882935 9.3132412e-39 343 280
0.02932976 0.69700003 -0.048882935 9.4951311e-39 344 280
0.030595668 0.69800001 -0.048953064 9.2189044e-39 345 280
0.031910665 0.69999999 -0.049093332 8.9448314e-39 346 280
0.03318534 0.70099998 -0.049163464 9.037027e-39 347 280
0.034512613 0.70300001 -0.049303733 1.0144075e-38 348 280
0.035796054 0.704 -0.049373865 1.1066032e-38 349 280
0.037135597 0.70599997 -0.04951413 1.1250406e-38 350 280
0.038373452 0.70599997 -0.04951413 1.0789429e-38 351 280
0.039667413 0.70700002 -0.049584266 1.0973093e-38 352 280
0.040964879 0.708 -0.049654398 1.2079801e-38 353 280
0.042206239 0.708 -0.049654398 1.2908467e-38 354 280
-0.018909698 0.71899998 -0.05168651 1.7514646e-38 305 281
-0.017526319 0.71399999 -0.05132708 1.4477232e-38 306 281
-0.016274439 0.71399999 -0.05132708 1.3924058e-38 307 281
-0.014959441 0.71100003 -0.051111419 1.34631e-38 308 281
-0.01371282 0.71100003 -0.051111419 1.2357111e-38 309 281
-0.012448666 0.70999998 -0.051039528 1.107035e-38 310 281
-0.01117224 0.708 -0.050895758 1.3651828e-38 311 281
-0.0099168532 0.70700002 -0.050823875 1.5678334e-38 312 281
-0.0086649731 0.70599997 -0.050751984 1.4756376e-38 313 281
-0.0074060797 0.704 -0.050608214 1.3558563e-38 314 281
-0.0061717331 0.704 -0.050608214 1.2451855e-38 315 281
-0.0049303733 0.70300001 -0.050536323 1.0525478e-38 316 281
-0.0036872597 0.70099998 -0.050392549 1.0525478e-38 317 281
-0.0024546667 0.69999999 -0.050320663 1.0983585e-38 318 281
-0.0012238267 0.69800001 -0.050176892 1.107578e-38 319 281
0 0.69700003 -0.050105009 1.0983585e-38 320 281
0.0012220733 0.69700003 -0.050105009 1.0891389e-38 321 281
0.0024406398 0.69599998 -0.050033119 1.0615878e-38 322 281
0.0036609597 0.69599998 -0.050033119 1.0338931e-38 323 281
0.0048812795 0.69599998 -0.050033119 1.1255133e-38 324 281
0.0060840664 0.69400001 -0.049889345 9.8718394e-39 325 281
0.0073008798 0.69400001 -0.049889345 7.663826e-39 326 281
0.0085176928 0.69400001 -0.049889345 6.1883372e-39 327 281
0.0097345067 0.69400001 -0.049889345 5.7259325e-39 328 281
0.01095132 0.69400001 -0.049889345 5.7259325e-39 329 281
0.012168133 0.69400001 -0.049889345 5.2646041e-39 330 281
0.013384946 0.69400001 -0.049889345 4.8036259e-39 331 281
0.01460176 0.69400001 -0.049889345 6.1915798e-39 332 281
0.015818574 0.69400001 -0.049889345 7.7589055e-39 333 281
0.017035386 0.69400001 -0.049889345 9.6913984e-39 334 281
0.0182522 0.69400001 -0.049889345 1.0336768e-38 335 281
0.019469013 0.69400001 -0.049889345 1.0797379e-38 336 281
0.020685827 0.69400001 -0.049889345 1.0704824e-38 337 281
0.021902639 0.69400001 -0.049889345 1.0336398e-38 338 281
0.023186078 0.69599998 -0.050033119 9.3222459e-39 339 281
0.0244064 0.69599998 -0.050033119 9.6849118e-39 340 281
0.025626717 0.69599998 -0.050033119 8.4867273e-39 341 281
0.026885614 0.69700003 -0.050105009 9.9557407e-39 342 281
0.028107686 0.69700003 -0.050105009 1.0047936e-38 343 281
0.029371841 0.69800001 -0.050176892 9.6823838e-39 344 281
0.030683333 0.69999999 -0.050320663 9.9586106e-39 345 281
0.031956252 0.70099998 -0.050392549 1.0328467e-38 346 281
0.033280019 0.70300001 -0.050536323 1.0513217e-38 347 281
0.034561705 0.704 -0.050608214 1.1157138e-38 348 281
0.035897743 0.70599997 -0.050751984 1.1617758e-38 349 281
0.037135597 0.70599997 -0.050751984 1.1342602e-38 350 281
0.038427804 0.70700002 -0.050823875 1.1342602e-38 351 281
0.039723519 0.708 -0.050895758 1.1803211e-38 352 281
0.040964879 0.708 -0.050895758 1.2632972e-38 353 281
0.042206239 0.708 -0.050895758 1.2726574e-38 354 281
-0.018909698 0.71899998 -0.05294716 1.7791946e-38 305 282
-0.017649053 0.71899998 -0.05294716 1.4385743e-38 306 282
-0.016320027 0.71600002 -0.052726239 1.3647817e-38 307 282
-0.014959441 0.71100003 -0.052358042 1.346632e-38 308 282
-0.01371282 0.71100003 -0.052358042 1.2728755e-38 309 282
-0.012448666 0.70999998 -0.052284397 1.1712476e-38 310 282
-0.01117224 0.708 -0.052137118 1.3464553e-38 311 282
-0.0099168532 0.70700002 -0.05206348 1.4849652e-38 312 282
-0.0086649731 0.70599997 -0.051989835 1.4757457e-38 313 282
-0.0074271196 0.70599997 -0.051989835 1.4847853e-38 314 282
-0.0061717331 0.704 -0.051842559 1.3925538e-38 315 282
-0.0049303733 0.70300001 -0.051768921 1.1258001e-38 316 282
-0.0036872597 0.70099998 -0.051621638 1.0151653e-38 317 282
-0.0024546667 0.69999999 -0.051547997 9.7861178e-39 318 282
-0.0012273333 0.69999999 -0.051547997 1.0062705e-38 319 282
0 0.69800001 -0.051400717 9.7882786e-39 320 282
0.0012238267 0.69800001 -0.051400717 9.8808329e-39 321 282
0.0024441467 0.69700003 -0.051327083 9.605688e-39 322 282
0.00366622 0.69700003 -0.051327083 9.5134923e-39 323 282
0.0048812795 0.69599998 -0.051253434 1.006091e-38 324 282
0.0061015999 0.69599998 -0.051253434 9.2307888e-39 325 282
0.0073219193 0.69599998 -0.051253434 9.1353562e-39 326 282
0.0085422397 0.69599998 -0.051253434 7.2914436e-39 327 282
0.0097625591 0.69599998 -0.051253434 5.7262829e-39 328 282
0.010982879 0.69599998 -0.051253434 6.0032285e-39 329 282
0.0122032 0.69599998 -0.051253434 5.9106797e-39 330 282
0.013423519 0.69599998 -0.051253434 5.7259297e-39 331 282
0.014643839 0.69599998 -0.051253434 7.5705472e-39 332 282
0.015864158 0.69599998 -0.051253434 8.6772549e-39 333 282
0.017084479 0.69599998 -0.051253434 9.8761456e-39 334 282
0.018304799 0.69599998 -0.051253434 1.0244569e-38 335 282
0.019525118 0.69599998 -0.051253434 1.0062332e-38 336 282
0.020745439 0.69599998 -0.051253434 9.8779406e-39 337 282
0.021965759 0.69599998 -0.051253434 9.8764987e-39 338 282
0.023219392 0.69700003 -0.051327083 9.1389337e-39 339 282
0.024441468 0.69700003 -0.051327083 1.023557e-38 340 282
0.025663542 0.69700003 -0.051327083 9.2214197e-39 341 282
0.026924185 0.69800001 -0.051400717 9.865343e-39 342 282
0.028148014 0.69800001 -0.051400717 1.014193e-38 343 282
0.029371841 0.69800001 -0.051400717 9.7774507e-39 344 282
0.030683333 0.69999999 -0.051547997 1.0053677e-38 345 282
0.031956252 0.70099998 -0.051621638 1.0421015e-38 346 282
0.033280019 0.70300001 -0.051768921 1.0513211e-38 347 282
0.034561705 0.704 -0.051842559 1.0973467e-38 348 282
0.035897743 0.70599997 -0.051989835 1.1250053e-38 349 282
0.037188202 0.70700002 -0.05206348 1.1342602e-38 350 282
0.038427804 0.70700002 -0.05206348 1.1895775e-38 351 282
0.039723519 0.708 -0.052137118 1.2448212e-38 352 282
0.041080594 0.70999998 -0.052284397 1.2816634e-38 353 282
0.042325463 0.70999998 -0.052284397 1.1900031e-38 354 282
-0.017649053 0.71899998 -0.054207806 1.4845632e-38 306 283
-0.016342819 0.71700001 -0.054057021 1.3738924e-38 307 283
-0.01506464 0.71600002 -0.053981625 1.2916008e-38 308 283
-0.013751393 0.713 -0.053755447 1.2823812e-38 309 283
-0.0124662 0.71100003 -0.053604662 1.2359998e-38 310 283
-0.011203799 0.70999998 -0.053529263 1.3005367e-38 311 283
-0.0099308798 0.708 -0.053378478 1.3560354e-38 312 283
-0.008677247 0.70700002 -0.053303085 1.4482312e-38 313 283
-0.0074271196 0.70599997 -0.053227689 1.558362e-38 314 283
-0.0061717331 0.704 -0.053076904 1.4846055e-38 315 283
-0.0049373866 0.704 -0.053076904 1.1716093e-38 316 283
-0.0036872597 0.70099998 -0.052850723 8.6736367e-39 317 283
-0.0024581731 0.70099998 -0.052850723 7.1138892e-39 318 283
-0.0012273333 0.69999999 -0.052775331 7.4823116e-39 319 283
0 0.69999999 -0.052775331 8.4982698e-39 320 283
0.0012238267 0.69800001 -0.052624546 9.4202247e-39 321 283
0.0024476533 0.69800001 -0.052624546 9.5131364e-39 322 283
0.0036714801 0.69800001 -0.052624546 9.3291053e-39 323 283
0.0048882933 0.69700003 -0.052549154 9.6031712e-39 324 283
0.0061103669 0.69700003 -0.052549154 8.5890193e-39 325 283
0.00733244 0.69700003 -0.052549154 9.3201047e-39 326 283
0.0085545136 0.69700003 -0.052549154 8.3055927e-39 327 283
0.0097765867 0.69700003 -0.052549154 8.3970723e-39 328 283
0.010982879 0.69599998 -0.052473757 8.212681e-39 329 283
0.0122032 0.69599998 -0.052473757 8.0304477e-39 330 283
0.013423519 0.69599998 -0.052473757 8.2151977e-39 331 283
0.014643839 0.69599998 -0.052473757 8.6772521e-39 332 283
0.015886955 0.69700003 -0.052549154 9.1382302e-39 333 283
0.017109027 0.69700003 -0.052549154 9.8779477e-39 334 283
0.018331099 0.69700003 -0.052549154 1.0061979e-38 335 283
0.019553173 0.69700003 -0.052549154 1.0153809e-38 336 283
0.020775247 0.69700003 -0.052549154 9.9690573e-39 337 283
0.02199732 0.69700003 -0.052549154 9.2329244e-39 338 283
0.023219392 0.69700003 -0.052549154 8.8641418e-39 339 283
0.024476532 0.69800001 -0.052624546 9.9618546e-39 340 283
0.025700359 0.69800001 -0.052624546 9.5930721e-39 341 283
0.026924185 0.69800001 -0.052624546 9.9596938e-39 342 283
0.028228667 0.69999999 -0.052775331 1.0235921e-38 343 283
0.029455997 0.69999999 -0.052775331 9.7788885e-39 344 283
0.030727165 0.70099998 -0.052850723 9.9632797e-39 345 283
0.032047424 0.70300001 -0.053001512 1.0513934e-38 346 283
0.03332736 0.704 -0.053076904 1.060613e-38 347 283
0.034659892 0.70599997 -0.053227689 1.1065666e-38 348 283
0.035897743 0.70599997 -0.053227689 1.1249697e-38 349 283
0.037188202 0.70700002 -0.053303085 1.1434078e-38 350 283
0.038482159 0.708 -0.053378478 1.2355676e-38 351 283
0.039835732 0.70999998 -0.053529263 1.2358165e-38 352 283
0.041080594 0.70999998 -0.053529263 1.1989022e-38 353 283
0.042325463 0.70999998 -0.053529263 1.1256814e-38 354 283
0.043570329 0.70999998 -0.053529263 1.217841e-38 355 283
-0.017599959 0.71700001 -0.055314157 1.6134203e-38 306 284
-0.016342819 0.71700001 -0.055314157 1.4566519e-38 307 284
-0.01506464 0.71600002 -0.055237014 1.2086946e-38 308 284
-0.01377068 0.71399999 -0.05508272 1.264012e-38 309 284
-0.0124662 0.71100003 -0.054851279 1.2638724e-38 310 284
-0.011203799 0.70999998 -0.054774132 1.2638724e-38 311 284
-0.0099589331 0.70999998 -0.054774132 1.2916418e-38 312 284
-0.008689519 0.708 -0.054619838 1.4207157e-38 313 284
-0.0074376399 0.70700002 -0.054542694 1.5401024e-38 314 284
-0.0061892662 0.70599997 -0.054465543 1.4940047e-38 315 284
-0.0049373866 0.704 -0.054311249 1.3925175e-38 316 284
-0.0036977797 0.70300001 -0.054234106 1.1804676e-38 317 284
-0.0024651866 0.70300001 -0.054234106 8.8587539e-39 318 284
-0.0012290865 0.70099998 -0.054079808 8.1208287e-39 319 284
0 0.69999999 -0.054002665 1.0888149e-38 320 284
0.0012273333 0.69999999 -0.054002665 1.1349127e-38 321 284
0.0024476533 0.69800001 -0.053848371 9.8808329e-39 322 284
0.0036714801 0.69800001 -0.053848371 8.8666824e-39 323 284
0.0048953067 0.69800001 -0.053848371 7.4859144e-39 324 284
0.006119133 0.69800001 -0.053848371 4.6274911e-39 325 284
0.0073429602 0.69800001 -0.053848371 5.2703424e-39 326 284
0.0085545136 0.69700003 -0.053771228 6.4688856e-39 327 284
0.0097765867 0.69700003 -0.053771228 9.8693241e-39 328 284
0.01099866 0.69700003 -0.053771228 1.0883836e-38 329 284
0.012220734 0.69700003 -0.053771228 9.8732743e-39 330 284
0.013442807 0.69700003 -0.053771228 9.2279049e-39 331 284
0.01466488 0.69700003 -0.053771228 8.4049812e-39 332 284
0.015886955 0.69700003 -0.053771228 8.5893724e-39 333 284
0.017109027 0.69700003 -0.053771228 9.1425434e-39 334 284
0.018331099 0.69700003 -0.053771228 8.9581522e-39 335 284
0.019581227 0.69800001 -0.053848371 8.2205843e-39 336 284
0.020805053 0.69800001 -0.053848371 8.1283873e-39 337 284
0.02202888 0.69800001 -0.053848371 7.760681e-39 338 284
0.023252707 0.69800001 -0.053848371 8.0372693e-39 339 284
0.024476532 0.69800001 -0.053848371 1.0513233e-38 340 284
0.025773998 0.69999999 -0.054002665 9.8678639e-39 341 284
0.027001332 0.69999999 -0.054002665 9.867494e-39 342 284
0.028228667 0.69999999 -0.054002665 1.0328113e-38 343 284
0.029498078 0.70099998 -0.054079808 1.0145876e-38 344 284
0.030814834 0.70300001 -0.054234106 1.0330269e-38 345 284
0.032093015 0.704 -0.054311249 1.0331341e-38 346 284
0.03332736 0.704 -0.054311249 1.0423536e-38 347 284
0.034659892 0.70599997 -0.054465543 1.0974542e-38 348 284
0.035948593 0.70700002 -0.054542694 1.0974542e-38 349 284
0.037188202 0.70700002 -0.054542694 1.1342949e-38 350 284
0.038482159 0.708 -0.054619838 1.1619896e-38 351 284
0.039835732 0.70999998 -0.054774132 1.1532337e-38 352 284
0.041080594 0.70999998 -0.054774132 1.0518546e-38 353 284
0.042385083 0.71100003 -0.054851279 1.0889104e-38 354 284
0.043631699 0.71100003 -0.054851279 1.3839364e-38 355 284
-0.016320027 0.71600002 -0.056492399 1.5579229e-38 307 285
-0.01506464 0.71600002 -0.056492399 1.1993286e-38 308 285
-0.01377068 0.71399999 -0.0563346 1.236171e-38 309 285
-0.0124662 0.71100003 -0.056097899 1.2180954e-38 310 285
-0.01121958 0.71100003 -0.056097899 1.2180954e-38 311 285
-0.0099589331 0.70999998 -0.056018997 1.2182086e-38 312 285
-0.008689519 0.708 -0.055861197 1.3657217e-38 313 285
-0.0074376399 0.70700002 -0.055782299 1.530991e-38 314 285
-0.0061892662 0.70599997 -0.055703394 1.5032965e-38 315 285
-0.0049373866 0.704 -0.055545598 1.5216267e-38 316 285
-0.0037030398 0.704 -0.055545598 1.4386146e-38 317 285
-0.0024651866 0.70300001 -0.0554667 1.2081281e-38 318 285
-0.0012290865 0.70099998 -0.055308893 9.7763914e-39 319 285
0 0.70099998 -0.055308893 1.2635547e-38 320 285
0.0012273333 0.69999999 -0.055229999 1.318872e-38 321 285
0.0024546667 0.69999999 -0.055229999 1.1442748e-38 322 285
0.0036819996 0.69999999 -0.055229999 1.0059455e-38 323 285
0.0049093333 0.69999999 -0.055229999 7.481227e-39 324 285
0.0061366665 0.69999999 -0.055229999 4.7153581e-39 325 285
0.0073429602 0.69800001 -0.0550722 3.4260696e-39 326 285
0.0085667865 0.69800001 -0.0550722 5.3618191e-39 327 285
0.0097906133 0.69800001 -0.0550722 8.8576973e-39 328 285
0.01101444 0.69800001 -0.0550722 1.0978197e-38 329 285
0.012238266 0.69800001 -0.0550722 1.171467e-38 330 285
0.013462093 0.69800001 -0.0550722 1.0977104e-38 331 285
0.01468592 0.69800001 -0.0550722 1.006054e-38 332 285
0.015909746 0.69800001 -0.0550722 1.0244572e-38 333 285
0.017133573 0.69800001 -0.0550722 1.0519713e-38 334 285
0.0183574 0.69800001 -0.0550722 9.9665405e-39 335 285
0.019581227 0.69800001 -0.0550722 7.4815801e-39 336 285
0.020805053 0.69800001 -0.0550722 6.7440151e-39 337 285
0.022091998 0.69999999 -0.055229999 7.1124375e-39 338 285
0.023319334 0.69999999 -0.055229999 8.4953733e-39 339 285
0.024546666 0.69999999 -0.055229999 1.1156435e-38 340 285
0.025773998 0.69999999 -0.055229999 1.041887e-38 341 285
0.027001332 0.69999999 -0.055229999 1.0143356e-38 342 285
0.028268991 0.70099998 -0.055308893 1.0696529e-38 343 285
0.029582238 0.70300001 -0.0554667 1.0513217e-38 344 285
0.030858666 0.704 -0.055545598 1.0789445e-38 345 285
0.032093015 0.704 -0.055545598 1.0607204e-38 346 285
0.033422034 0.70599997 -0.055703394 1.06994e-38 347 285
0.034659892 0.70599997 -0.055703394 1.1250406e-38 348 285
0.035948593 0.70700002 -0.055782299 1.1250406e-38 349 285
0.0372408 0.708 -0.055861197 1.0978097e-38 350 285
0.038590867 0.70999998 -0.056018997 1.0885902e-38 351 285
0.039835732 0.70999998 -0.056018997 1.0247312e-38 352 285
0.041138459 0.71100003 -0.056097899 9.4171923e-39 353 285
0.042385083 0.71100003 -0.056097899 1.1900369e-38 354 285
0.043631699 0.71100003 -0.056097899 1.6325759e-38 355 285
-0.016320027 0.71600002 -0.057747785 1.7236597e-38 307 286
-0.01506464 0.71600002 -0.057747785 1.355665e-38 308 286
-0.013809253 0.71600002 -0.057747785 1.272653e-38 309 286
-0.012518799 0.71399999 -0.057586476 1.0984889e-38 310 286
-0.01121958 0.71100003 -0.057344519 1.1261836e-38 311 286
-0.0099729598 0.71100003 -0.057344519 1.1171493e-38 312 286
-0.0087140659 0.70999998 -0.057263866 1.2831015e-38 313 286
-0.0074481601 0.708 -0.057102561 1.4941472e-38 314 286
-0.0061980332 0.70700002 -0.057021905 1.5125864e-38 315 286
-0.0049514128 0.70599997 -0.056941248 1.503439e-38 316 286
-0.0037030398 0.704 -0.056779943 1.4850359e-38 317 286
-0.0024686933 0.704 -0.056779943 1.4848206e-38 318 286
-0.0012325933 0.70300001 -0.056699295 1.3925891e-38 319 286
0 0.70300001 -0.056699295 1.3742226e-38 320 286
0.0012290865 0.70099998 -0.056537982 1.4387595e-38 321 286
0.0024581731 0.70099998 -0.056537982 1.4756376e-38 322 286
0.0036872597 0.70099998 -0.056537982 1.3834421e-38 323 286
0.0049163462 0.70099998 -0.056537982 1.3001424e-38 324 286
0.0061454331 0.70099998 -0.056537982 1.0880924e-38 325 286
0.0073639993 0.69999999 -0.056457333 7.9335662e-39 326 286
0.0085913334 0.69999999 -0.056457333 4.7067205e-39 327 286
0.0098186666 0.69999999 -0.056457333 2.0496134e-39 328 286
0.011045999 0.69999999 -0.056457333 5.0920692e-39 329 286
0.012273333 0.69999999 -0.056457333 1.189798e-38 330 286
0.013500666 0.69999999 -0.056457333 1.291249e-38 331 286
0.014727999 0.69999999 -0.056457333 1.3465283e-38 332 286
0.015955333 0.69999999 -0.056457333 1.3557837e-38 333 286
0.017182667 0.69999999 -0.056457333 1.3739708e-38 334 286
0.018409999 0.69999999 -0.056457333 1.2541166e-38 335 286
0.019637333 0.69999999 -0.056457333 1.0423186e-38 336 286
0.020864666 0.69999999 -0.056457333 9.2246427e-39 337 286
0.022091998 0.69999999 -0.056457333 1.0054406e-38 338 286
0.023319334 0.69999999 -0.056457333 1.1345145e-38 339 286
0.024546666 0.69999999 -0.056457333 1.2078018e-38 340 286
0.025810819 0.70099998 -0.056537982 1.161704e-38 341 286
0.027039904 0.70099998 -0.056537982 1.134153e-38 342 286
0.028349647 0.70300001 -0.056699295 1.134153e-38 343 286
0.029624319 0.704 -0.056779943 1.0515732e-38 344 286
0.030858666 0.704 -0.056779943 1.0515732e-38 345 286
0.032184184 0.70599997 -0.056941248 1.0699394e-38 346 286
0.033422034 0.70599997 -0.056941248 1.0884144e-38 347 286
0.034708988 0.70700002 -0.057021905 1.0885195e-38 348 286
0.03599944 0.708 -0.057102561 1.0977391e-38 349 286
0.0372408 0.708 -0.057102561 1.042957e-38 350 286
0.038590867 0.70999998 -0.057263866 1.0060789e-38 351 286
0.039835732 0.70999998 -0.057263866 9.143132e-39 352 286
0.041138459 0.71100003 -0.057344519 1.0710098e-38 353 286
0.042385083 0.71100003 -0.057344519 1.484418e-38 354 286
0.043631699 0.71100003 -0.057344519 1.8532005e-38 355 286
-0.01506464 0.71600002 -0.059003171 1.6041978e-38 308 287
-0.013809253 0.71600002 -0.059003171 1.4474654e-38 309 287
-0.012518799 0.71399999 -0.058838356 1.1903561e-38 310 287
-0.01121958 0.71100003 -0.058591139 1.1350387e-38 311 287
-0.0099729598 0.71100003 -0.058591139 1.0435662e-38 312 287
-0.0087140659 0.70999998 -0.058508728 1.1542369e-38 313 287
-0.0074481601 0.708 -0.058343921 1.2552633e-38 314 287
-0.0061980332 0.70700002 -0.05826151 1.3566424e-38 315 287
-0.0049514128 0.70599997 -0.058179103 1.457593e-38 316 287
-0.0037135598 0.70599997 -0.058179103 1.4668125e-38 317 287
-0.0024686933 0.704 -0.058014292 1.5034034e-38 318 287
-0.0012343467 0.704 -0.058014292 1.4850003e-38 319 287
0 0.70300001 -0.057931885 1.4572695e-38 320 287
0.0012325933 0.70300001 -0.057931885 1.44805e-38 321 287
0.0024651866 0.70300001 -0.057931885 1.5033315e-38 322 287
0.0036977797 0.70300001 -0.057931885 1.4941119e-38 323 287
0.0049303733 0.70300001 -0.057931885 1.5121913e-38 324 287
0.0061629666 0.70300001 -0.057931885 1.4015925e-38 325 287
0.0073745195 0.70099998 -0.057767071 1.1986549e-38 326 287
0.0085913334 0.69999999 -0.05768466 7.929941e-39 327 287
0.0098186666 0.69999999 -0.05768466 1.3134735e-39 328 287
0.011045999 0.69999999 -0.05768466 3.2495817e-39 329 287
0.012273333 0.69999999 -0.05768466 9.5041331e-39 330 287
0.013500666 0.69999999 -0.05768466 1.2270361e-38 331 287
0.014727999 0.69999999 -0.05768466 1.392697e-38 332 287
0.015955333 0.69999999 -0.05768466 1.4295753e-38 333 287
0.017182667 0.69999999 -0.05768466 1.4477976e-38 334 287
0.018409999 0.69999999 -0.05768466 1.3832607e-38 335 287
0.019665385 0.70099998 -0.057767071 1.2541868e-38 336 287
0.020894472 0.70099998 -0.057767071 1.1896498e-38 337 287
0.022123558 0.70099998 -0.057767071 1.2632271e-38 338 287
0.023352645 0.70099998 -0.057767071 1.2447521e-38 339 287
0.024581732 0.70099998 -0.057767071 1.2538275e-38 340 287
0.025810819 0.70099998 -0.057767071 1.2445719e-38 341 287
0.027117053 0.70300001 -0.057931885 1.1711386e-38 342 287
0.028389972 0.704 -0.058014292 1.161919e-38 343 287
0.029624319 0.704 -0.058014292 1.1251482e-38 344 287
0.030858666 0.704 -0.058014292 1.1159287e-38 345 287
0.032184184 0.70599997 -0.058179103 1.0885564e-38 346 287
0.033422034 0.70599997 -0.058179103 1.0885564e-38 347 287
0.034708988 0.70700002 -0.05826151 1.0704375e-38 348 287
0.03599944 0.708 -0.058343921 1.0520344e-38 349 287
0.0372408 0.708 -0.058343921 9.8792495e-39 350 287
0.038590867 0.70999998 -0.058508728 9.7870538e-39 351 287
0.039835732 0.70999998 -0.058508728 1.0797258e-38 352 287
0.041138459 0.71100003 -0.058591139 1.328654e-38 353 287
0.042385083 0.71100003 -0.058591139 1.6317528e-38 354 287
0.043631699 0.71100003 -0.058591139 1.8530583e-38 355 287
-0.012518799 0.71399999 -0.060090236 1.3836085e-38 310 288
-0.011251139 0.713 -0.060006075 1.2360596e-38 311 288
-0.010001013 0.713 -0.060006075 1.0066485e-38 312 288
-0.0087263398 0.71100003 -0.059837762 1.0066485e-38 313 288
-0.0074691991 0.70999998 -0.059753593 9.6105939e-39 314 288
-0.0062067998 0.708 -0.059585281 1.0440355e-38 315 288
-0.0049584266 0.70700002 -0.059501119 1.2000528e-38 316 288
-0.0037135598 0.70599997 -0.059416957 1.2645897e-38 317 288
-0.0024757064 0.70599997 -0.059416957 1.4023462e-38 318 288
-0.0012343467 0.704 -0.059248637 1.448444e-38 319 288
0 0.704 -0.059248637 1.4483012e-38 320 288
0.0012343467 0.704 -0.059248637 1.4483012e-38 321 288
0.0024686933 0.704 -0.059248637 1.4482662e-38 322 288
0.0037030398 0.704 -0.059248637 1.4390466e-38 323 288
0.0049303733 0.70300001 -0.059164476 1.5123715e-38 324 288
0.0061629666 0.70300001 -0.059164476 1.5123715e-38 325 288
0.0073955595 0.70300001 -0.059164476 1.4476178e-38 326 288
0.0086036054 0.70099998 -0.058996156 1.3093244e-38 327 288
0.0098326923 0.70099998 -0.058996156 1.208485e-38 328 288
0.011061779 0.70099998 -0.058996156 1.22696e-38 329 288
0.012290866 0.70099998 -0.058996156 1.2084499e-38 330 288
0.013519952 0.70099998 -0.058996156 1.2637673e-38 331 288
0.014749039 0.70099998 -0.058996156 1.3834775e-38 332 288
0.015978126 0.70099998 -0.058996156 1.4203557e-38 333 288
0.017207211 0.70099998 -0.058996156 1.4478699e-38 334 288
0.018436298 0.70099998 -0.058996156 1.4478699e-38 335 288
0.019665385 0.70099998 -0.058996156 1.4753841e-38 336 288
0.020954086 0.70300001 -0.059164476 1.4661644e-38 337 288
0.02218668 0.70300001 -0.059164476 1.4200668e-38 338 288
0.023419274 0.70300001 -0.059164476 1.2909929e-38 339 288
0.024651866 0.70300001 -0.059164476 1.2632619e-38 340 288
0.025884461 0.70300001 -0.059164476 1.2079445e-38 341 288
0.027155625 0.704 -0.059248637 1.1438022e-38 342 288
0.028389972 0.704 -0.059248637 1.1438022e-38 343 288
0.029708479 0.70599997 -0.059416957 1.1163214e-38 344 288
0.030946331 0.70599997 -0.059416957 1.107066e-38 345 288
0.032184184 0.70599997 -0.059416957 1.0338454e-38 346 288
0.033469379 0.70700002 -0.059501119 1.0338454e-38 347 288
0.034708988 0.70700002 -0.059501119 1.0062562e-38 348 288
0.03599944 0.708 -0.059585281 9.6941379e-39 349 288
0.037345998 0.70999998 -0.059753593 9.6948568e-39 350 288
0.038645219 0.71100003 -0.059837762 1.1077793e-38 351 288
0.039891839 0.71100003 -0.059837762 1.3649954e-38 352 288
0.041254178 0.713 -0.060006075 1.5217279e-38 353 288
0.042504307 0.713 -0.060006075 1.714514e-38 354 288
0.043754432 0.713 -0.060006075 1.8528075e-38 355 288
-0.011251139 0.713 -0.061256204 1.5028178e-38 311 289
-0.010001013 0.713 -0.061256204 1.2731511e-38 312 289
-0.0087263398 0.71100003 -0.061084379 1.1625164e-38 313 289
-0.0074797203 0.71100003 -0.061084379 9.6080155e-39 314 289
-0.0062243328 0.70999998 -0.060998458 9.8842423e-39 315 289
-0.0049654399 0.708 -0.060826641 1.0529303e-38 316 289
-0.00372408 0.708 -0.060826641 1.1174673e-38 317 289
-0.0024792133 0.70700002 -0.060740728 1.190833e-38 318 289
-0.0012378532 0.70599997 -0.060654808 1.2553699e-38 319 289
0 0.70599997 -0.060654808 1.3471362e-38 320 289
0.0012343467 0.704 -0.060482983 1.3563557e-38 321 289
0.0024686933 0.704 -0.060482983 1.3930195e-38 322 289
0.0037030398 0.704 -0.060482983 1.402239e-38 323 289
0.0049373866 0.704 -0.060482983 1.4297904e-38 324 289
0.0061717331 0.704 -0.060482983 1.4482296e-38 325 289
0.0073955595 0.70300001 -0.06039707 1.4388655e-38 326 289
0.0086281532 0.70300001 -0.06039707 1.4203905e-38 327 289
0.0098326923 0.70099998 -0.060225245 1.4387933e-38 328 289
0.011061779 0.70099998 -0.060225245 1.4387933e-38 329 289
0.012325933 0.70300001 -0.06039707 1.4294304e-38 330 289
0.013558527 0.70300001 -0.06039707 1.4018077e-38 331 289
0.014791119 0.70300001 -0.06039707 1.4111708e-38 332 289
0.016023712 0.70300001 -0.06039707 1.4111708e-38 333 289
0.017256306 0.70300001 -0.06039707 1.4386497e-38 334 289
0.018488899 0.70300001 -0.06039707 1.4386497e-38 335 289
0.019721493 0.70300001 -0.06039707 1.438685e-38 336 289
0.020954086 0.70300001 -0.06039707 1.4479047e-38 337 289
0.02218668 0.70300001 -0.06039707 1.4294651e-38 338 289
0.023419274 0.70300001 -0.06039707 1.3003912e-38 339 289
0.024651866 0.70300001 -0.06039707 1.2175581e-38 340 289
0.02592128 0.704 -0.060482983 1.1622766e-38 341 289
0.027232772 0.70599997 -0.060654808 1.0522511e-38 342 289
0.028470624 0.70599997 -0.060654808 1.0798738e-38 343 289
0.029708479 0.70599997 -0.060654808 1.0799063e-38 344 289
0.030946331 0.70599997 -0.060654808 1.0522116e-38 345 289
0.032229774 0.70700002 -0.060740728 9.7877559e-39 346 289
0.033469379 0.70700002 -0.060740728 9.9721485e-39 347 289
0.034708988 0.70700002 -0.060740728 9.880306e-39 348 289
0.03599944 0.708 -0.060826641 1.0156533e-38 349 289
0.037345998 0.70999998 -0.060998458 1.2361344e-38 350 289
0.038645219 0.71100003 -0.061084379 1.346769e-38 351 289
0.040004052 0.713 -0.061256204 1.4844197e-38 352 289
0.041312039 0.71399999 -0.061342116 1.5858708e-38 353 289
0.042563915 0.71399999 -0.061342116 1.7053671e-38 354 289
-0.01129848 0.71600002 -0.062769331 1.7237676e-38 311 290
-0.010001013 0.713 -0.062506333 1.5493109e-38 312 290
-0.0087508867 0.713 -0.062506333 1.3925423e-38 313 290
-0.0074797203 0.71100003 -0.062331002 1.1996447e-38 314 290
-0.0062243328 0.70999998 -0.062243331 1.1351078e-38 315 290
-0.0049794666 0.70999998 -0.062243331 1.0252286e-38 316 290
-0.0037345996 0.70999998 -0.062243331 1.0713264e-38 317 290
-0.00248272 0.708 -0.062068 1.0435997e-38 318 290
-0.0012396066 0.70700002 -0.061980337 1.0712585e-38 319 290
0 0.70599997 -0.061892662 1.144802e-38 320 290
0.0012378532 0.70599997 -0.061892662 1.1908638e-38 321 290
0.0024757064 0.70599997 -0.061892662 1.2366774e-38 322 290
0.0037135598 0.70599997 -0.061892662 1.2919948e-38 323 290
0.0049373866 0.704 -0.061717331 1.3378793e-38 324 290
0.0061717331 0.704 -0.061717331 1.3563543e-38 325 290
0.0074060797 0.704 -0.061717331 1.3746503e-38 326 290
0.0086281532 0.70300001 -0.061629668 1.402345e-38 327 290
0.0098607466 0.70300001 -0.061629668 1.4573749e-38 328 290
