# .PCD v.7 - Point Cloud Data file format
FIELDS x y z rgb imX imY
SIZE 4 4 4 4 4 4
TYPE F F F F F F
COUNT 1 1 1 1 1 1
WIDTH 844
HEIGHT 1
VIEWPOINT 0 0 0 1 0 0 0
POINTS 844
DATA ascii
0.035136797 0.66799998 -0.02459576 1.1900384e-38 350 261
0.036416732 0.67000002 -0.024669399 1.0609645e-38 351 261
0.037647571 0.671 -0.024706218 8.5874597e-39 352 261
0.038824059 0.671 -0.024706218 1.0154425e-38 353 261
0.040000543 0.671 -0.024706218 1.2448883e-38 354 261
0.041238401 0.67199999 -0.024743039 1.208046e-38 355 261
0.042416636 0.67199999 -0.024743039 1.1065541e-38 356 261
0.043594878 0.67199999 -0.024743039 9.9591935e-39 357 261
0.044773117 0.67199999 -0.024743039 1.2448125e-38 358 261
-0.011905133 0.67900002 -0.026191294 9.7870692e-39 310 262
-0.010698839 0.67799997 -0.026152719 1.0709384e-38 311 262
-0.0095100794 0.67799997 -0.026152719 1.2733036e-38 312 262
-0.0082967728 0.676 -0.026075572 1.3101818e-38 313 262
-0.0071010003 0.67500001 -0.026037 1.1996463e-38 314 262
-0.0059087332 0.67400002 -0.025998428 9.7841279e-39 315 262
-0.0047129598 0.67199999 -0.025921278 9.4224654e-39 316 262
-0.0035294599 0.671 -0.025882706 9.5146596e-39 317 262
-0.0023494666 0.67000002 -0.025844134 9.2384357e-39 318 262
-0.0011712266 0.66799998 -0.025766984 9.0544059e-39 319 262
0 0.667 -0.025728412 8.961853e-39 320 262
0.0011694733 0.667 -0.025728412 8.8696588e-39 321 262
0.0023389466 0.667 -0.025728412 8.7774645e-39 322 262
0.0035031599 0.66600001 -0.02568984 8.6852703e-39 323 262
0.0046568532 0.66399997 -0.025612691 8.1346161e-39 324 262
0.0058210664 0.66399997 -0.025612691 8.0424218e-39 325 262
0.0069747595 0.66299999 -0.025574118 8.1346161e-39 326 262
0.0081249457 0.662 -0.025535546 8.2268103e-39 327 262
0.009285653 0.662 -0.025535546 8.2268103e-39 328 262
0.01044636 0.662 -0.025535546 8.2268103e-39 329 262
0.011607066 0.662 -0.025535546 8.5930803e-39 330 262
0.012748486 0.66100001 -0.025496973 8.5930803e-39 331 262
0.01390744 0.66100001 -0.025496973 8.9597076e-39 332 262
0.015089186 0.662 -0.025535546 8.7756765e-39 333 262
0.016249891 0.662 -0.025535546 8.9597006e-39 334 262
0.017410601 0.662 -0.025535546 8.8675064e-39 335 262
0.018571306 0.662 -0.025535546 8.8678651e-39 336 262
0.019732011 0.662 -0.025535546 8.9600593e-39 337 262
0.020892721 0.662 -0.025535546 9.4185193e-39 338 262
0.022053426 0.662 -0.025535546 9.5107136e-39 339 262
0.023214132 0.662 -0.025535546 9.7858613e-39 340 262
0.024374841 0.662 -0.025535546 9.8780556e-39 341 262
0.025574118 0.66299999 -0.025574118 9.8773381e-39 342 262
0.026736578 0.66299999 -0.025574118 1.0245762e-38 343 262
0.027941117 0.66399997 -0.025612691 1.0888652e-38 344 262
0.02910533 0.66399997 -0.025612691 1.1073402e-38 345 262
0.030269546 0.66399997 -0.025612691 1.1347157e-38 346 262
0.031528439 0.66600001 -0.02568984 1.1623384e-38 347 262
0.032696161 0.66600001 -0.02568984 1.2359179e-38 348 262
0.033914726 0.667 -0.025728412 1.1990037e-38 349 262
0.035136797 0.66799998 -0.025766984 9.5075789e-39 350 262
0.036471087 0.671 -0.025882706 7.6636663e-39 351 262
0.037703678 0.67199999 -0.025921278 7.2073895e-39 352 262
0.03888192 0.67199999 -0.025921278 1.0434237e-38 353 262
0.040060159 0.67199999 -0.025921278 1.3737849e-38 354 262
0.041238401 0.67199999 -0.025921278 1.3737849e-38 355 262
0.042416636 0.67199999 -0.025921278 1.2630766e-38 356 262
0.043594878 0.67199999 -0.025921278 1.1432223e-38 357 262
0.045039624 0.676 -0.026075572 1.2725127e-38 358 262
-0.010714619 0.67900002 -0.027381808 1.1072769e-38 311 263
-0.0095100794 0.67799997 -0.027341479 9.9754318e-39 312 263
-0.0082967728 0.676 -0.027260827 1.2279964e-38 313 263
-0.0071010003 0.67500001 -0.027220501 1.2917723e-38 314 263
-0.0059174998 0.67500001 -0.027220501 1.0336245e-38 315 263
-0.0047129598 0.67199999 -0.027099518 9.4217479e-39 316 263
-0.0035294599 0.671 -0.027059194 9.5139422e-39 317 263
-0.0023494666 0.67000002 -0.027018867 9.5139422e-39 318 263
-0.0011712266 0.66799998 -0.026938211 9.4217479e-39 319 263
0 0.667 -0.026897885 9.4213934e-39 320 263
0.0011694733 0.667 -0.026897885 9.2370021e-39 321 263
0.0023389466 0.667 -0.026897885 9.1440891e-39 322 263
0.0035031599 0.66600001 -0.026857559 9.0518948e-39 323 263
0.0046708798 0.66600001 -0.026857559 8.4101225e-39 324 263
0.0058210664 0.66399997 -0.026776904 8.2260928e-39 325 263
0.0069852793 0.66399997 -0.026776904 7.859827e-39 326 263
0.0081372196 0.66299999 -0.026736578 7.859827e-39 327 263
0.0092996797 0.66299999 -0.026736578 7.9513038e-39 328 263
0.01046214 0.66299999 -0.026736578 8.043498e-39 329 263
0.0116246 0.66299999 -0.026736578 8.4097638e-39 330 263
0.012767773 0.662 -0.026696252 8.4097638e-39 331 263
0.01392848 0.662 -0.026696252 8.5012406e-39 332 263
0.015089186 0.662 -0.026696252 8.5012406e-39 333 263
0.016249891 0.662 -0.026696252 8.5927173e-39 334 263
0.017436899 0.66299999 -0.026736578 8.5927173e-39 335 263
0.018599359 0.66299999 -0.026736578 8.9597006e-39 336 263
0.019761819 0.66299999 -0.026736578 9.0518948e-39 337 263
0.020924279 0.66299999 -0.026736578 9.7858613e-39 338 263
0.02208674 0.66299999 -0.026736578 9.7858613e-39 339 263
0.0232492 0.66299999 -0.026736578 9.694037e-39 340 263
0.024448479 0.66399997 -0.026776904 1.0247209e-38 341 263
0.025612691 0.66399997 -0.026776904 1.0980866e-38 342 263
0.026776904 0.66399997 -0.026776904 1.1718431e-38 343 263
0.027941117 0.66399997 -0.026776904 1.2637556e-38 344 263
0.02910533 0.66399997 -0.026776904 1.2729751e-38 345 263
0.030269546 0.66399997 -0.026776904 1.2543938e-38 346 263
0.031528439 0.66600001 -0.026857559 1.1898568e-38 347 263
0.032696161 0.66600001 -0.026857559 1.0427384e-38 348 263
0.033914726 0.667 -0.026897885 9.5976235e-39 349 263
0.035136797 0.66799998 -0.026938211 7.2084278e-39 350 263
0.036471087 0.671 -0.027059194 7.2084278e-39 351 263
0.037703678 0.67199999 -0.027099518 9.5972858e-39 352 263
0.03888192 0.67199999 -0.027099518 1.2270959e-38 353 263
0.040060159 0.67199999 -0.027099518 1.355419e-38 354 263
0.041238401 0.67199999 -0.027099518 1.336944e-38 355 263
0.042416636 0.67199999 -0.027099518 1.2540755e-38 356 263
0.043854371 0.676 -0.027260827 1.1710993e-38 357 263
0.045039624 0.676 -0.027260827 1.1710643e-38 358 263
-0.010714619 0.67900002 -0.028572321 1.1439408e-38 311 264
-0.0095100794 0.67799997 -0.028530238 8.4098955e-39 312 264
-0.0082967728 0.676 -0.028446076 1.1452351e-38 313 264
-0.0071115191 0.676 -0.028446076 1.3470206e-38 314 264
-0.0059174998 0.67500001 -0.028404001 1.1534097e-38 315 264
-0.0047269869 0.67400002 -0.02836192 1.0614567e-38 316 264
-0.0035294599 0.671 -0.028235679 1.0522371e-38 317 264
-0.0023494666 0.67000002 -0.028193599 1.0615974e-38 318 264
-0.0011747333 0.67000002 -0.028193599 1.0431581e-38 319 264
0 0.66799998 -0.028109439 1.0247207e-38 320 264
0.0011712266 0.66799998 -0.028109439 1.0062815e-38 321 264
0.0023424532 0.66799998 -0.028109439 9.4196011e-39 322 264
0.0035084197 0.667 -0.028067358 9.3270454e-39 323 264
0.0046708798 0.66600001 -0.028025279 8.5015993e-39 324 264
0.0058385995 0.66600001 -0.028025279 8.3172109e-39 325 264
0.0070063197 0.66600001 -0.028025279 7.9513038e-39 326 264
0.0081494926 0.66399997 -0.027941117 7.9513038e-39 327 264
0.0093137063 0.66399997 -0.027941117 7.9513038e-39 328 264
0.010477919 0.66399997 -0.027941117 8.0438568e-39 329 264
0.011642133 0.66399997 -0.027941117 8.2260928e-39 330 264
0.012787059 0.66299999 -0.027899038 8.2260928e-39 331 264
0.013949519 0.66299999 -0.027899038 8.4097638e-39 332 264
0.015111978 0.66299999 -0.027899038 8.4097638e-39 333 264
0.016274439 0.66299999 -0.027899038 8.7763883e-39 334 264
0.017436899 0.66299999 -0.027899038 8.6841941e-39 335 264
0.018599359 0.66299999 -0.027899038 9.2341365e-39 336 264
0.019761819 0.66299999 -0.027899038 9.3263321e-39 337 264
0.020924279 0.66299999 -0.027899038 9.7851551e-39 338 264
0.02208674 0.66299999 -0.027899038 9.7851551e-39 339 264
0.023284266 0.66399997 -0.027941117 9.9685122e-39 340 264
0.024448479 0.66399997 -0.027941117 1.1443642e-38 341 264
0.02568984 0.66600001 -0.028025279 1.2452836e-38 342 264
0.026857559 0.66600001 -0.028025279 1.3374433e-38 343 264
0.028025279 0.66600001 -0.028025279 1.3742168e-38 344 264
0.029192999 0.66600001 -0.028025279 1.3649973e-38 345 264
0.030360719 0.66600001 -0.028025279 1.2544682e-38 346 264
0.031528439 0.66600001 -0.028025279 1.1253943e-38 347 264
0.032745253 0.667 -0.028067358 8.4033767e-39 348 264
0.033914726 0.667 -0.028067358 7.4814204e-39 349 264
0.035241999 0.67000002 -0.028193599 6.9322039e-39 350 264
0.036525436 0.67199999 -0.02827776 8.4998883e-39 351 264
0.037815895 0.67400002 -0.02836192 1.1713852e-38 352 264
0.038997639 0.67400002 -0.02836192 1.2819839e-38 353 264
0.040179387 0.67400002 -0.02836192 1.2358881e-38 354 264
0.041361131 0.67400002 -0.02836192 1.2266685e-38 355 264
0.042542879 0.67400002 -0.02836192 1.2356719e-38 356 264
0.043854371 0.676 -0.028446076 1.1987577e-38 357 264
0.045039624 0.676 -0.028446076 1.0973431e-38 358 264
0.046224877 0.676 -0.028446076 1.1710996e-38 359 264
-0.0107304 0.68000001 -0.029806666 1.3006051e-38 311 265
-0.009524107 0.67900002 -0.029762832 1.1168597e-38 312 265
-0.0083213197 0.67799997 -0.029718997 1.1353347e-38 313 265
-0.0071115191 0.676 -0.029631332 1.3010342e-38 314 265
-0.0059174998 0.67500001 -0.0295875 1.3102537e-38 315 265
-0.0047269869 0.67400002 -0.029543666 1.3005602e-38 316 265
-0.00353472 0.67199999 -0.029455997 1.2175483e-38 317 265
-0.0023529732 0.671 -0.029412165 1.1900637e-38 318 265
-0.0011747333 0.67000002 -0.029368332 1.1531854e-38 319 265
0 0.67000002 -0.029368332 1.1165573e-38 320 265
0.0011747333 0.67000002 -0.029368332 1.0704595e-38 321 265
0.0023424532 0.66799998 -0.029280664 9.4203172e-39 322 265
0.0035084197 0.667 -0.029236831 9.1440891e-39 323 265
0.0046778931 0.667 -0.029236831 8.4101225e-39 324 265
0.0058473665 0.667 -0.029236831 8.2260928e-39 325 265
0.0070063197 0.66600001 -0.029192999 7.9509451e-39 326 265
0.0081740404 0.66600001 -0.029192999 7.9509451e-39 327 265
0.0093417596 0.66600001 -0.029192999 7.9513038e-39 328 265
0.01050948 0.66600001 -0.029192999 8.043498e-39 329 265
0.011642133 0.66399997 -0.02910533 8.4104813e-39 330 265
0.012806346 0.66399997 -0.02910533 8.2264516e-39 331 265
0.013970559 0.66399997 -0.02910533 8.4094051e-39 332 265
0.015134773 0.66399997 -0.02910533 8.5015993e-39 333 265
0.016298985 0.66399997 -0.02910533 8.9589915e-39 334 265
0.0174632 0.66399997 -0.02910533 8.9589915e-39 335 265
0.018627413 0.66399997 -0.02910533 9.5092941e-39 336 265
0.019791625 0.66399997 -0.02910533 9.4170984e-39 337 265
0.020955838 0.66399997 -0.02910533 9.3245693e-39 338 265
0.022120051 0.66399997 -0.02910533 1.0615308e-38 339 265
0.023354398 0.66600001 -0.029192999 1.1716691e-38 340 265
0.02452212 0.66600001 -0.029192999 1.300743e-38 341 265
0.02568984 0.66600001 -0.029192999 1.3464505e-38 342 265
0.026857559 0.66600001 -0.029192999 1.3925483e-38 343 265
0.028025279 0.66600001 -0.029192999 1.3097521e-38 344 265
0.029192999 0.66600001 -0.029192999 1.2359956e-38 345 265
0.030360719 0.66600001 -0.029192999 9.4161231e-39 346 265
0.03157578 0.667 -0.029236831 8.4941654e-39 347 265
0.032745253 0.667 -0.029236831 7.667957e-39 348 265
0.033965573 0.66799998 -0.029280664 7.7601527e-39 349 265
0.0352946 0.671 -0.029412165 8.4037494e-39 350 265
0.036525436 0.67199999 -0.029455997 1.0339858e-38 351 265
0.037815895 0.67400002 -0.029543666 1.2818397e-38 352 265
0.038997639 0.67400002 -0.029543666 1.2541812e-38 353 265
0.040179387 0.67400002 -0.029543666 1.2174122e-38 354 265
0.041422497 0.67500001 -0.0295875 1.2634742e-38 355 265
0.042606 0.67500001 -0.0295875 1.2541124e-38 356 265
0.043854371 0.676 -0.029631332 1.1619166e-38 357 265
0.045039624 0.676 -0.029631332 1.14337e-38 358 265
0.046498399 0.68000001 -0.029806666 1.2171265e-38 359 265
-0.01077774 0.68300003 -0.031135695 1.3743295e-38 311 266
-0.009566186 0.68199998 -0.031090107 1.3376996e-38 312 266
-0.0083458666 0.68000001 -0.030998932 1.2178452e-38 313 266
-0.0071325595 0.67799997 -0.030907756 1.2916371e-38 314 266
-0.0059262668 0.676 -0.030816587 1.4299305e-38 315 266
-0.0047339997 0.67500001 -0.030771 1.4386439e-38 316 266
-0.00353472 0.67199999 -0.030634239 1.3003505e-38 317 266
-0.0023529732 0.671 -0.030588651 1.2819406e-38 318 266
-0.0011764866 0.671 -0.030588651 1.2266232e-38 319 266
0 0.671 -0.030588651 1.0338706e-38 320 266
0.0011747333 0.67000002 -0.030543067 1.0061759e-38 321 266
0.0023494666 0.67000002 -0.030543067 8.9614943e-39 322 266
0.0035136798 0.66799998 -0.030451892 8.7767471e-39 323 266
0.0046849065 0.66799998 -0.030451892 8.2268103e-39 324 266
0.0058473665 0.667 -0.030406304 8.1346161e-39 325 266
0.0070168395 0.667 -0.030406304 7.9513038e-39 326 266
0.0081863133 0.667 -0.030406304 7.9513038e-39 327 266
0.0093557863 0.667 -0.030406304 7.9513038e-39 328 266
0.01050948 0.66600001 -0.030360719 8.0438568e-39 329 266
0.011677199 0.66600001 -0.030360719 8.4097638e-39 330 266
0.01284492 0.66600001 -0.030360719 8.4097638e-39 331 266
0.014012639 0.66600001 -0.030360719 8.9593419e-39 332 266
0.01518036 0.66600001 -0.030360719 8.9593419e-39 333 266
0.016348081 0.66600001 -0.030360719 9.5082193e-39 334 266
0.0174632 0.66399997 -0.030269546 9.6004149e-39 335 266
0.018627413 0.66399997 -0.030269546 9.325979e-39 336 266
0.019851239 0.66600001 -0.030360719 9.0490334e-39 337 266
0.02101896 0.66600001 -0.030360719 9.7830433e-39 338 266
0.02218668 0.66600001 -0.030360719 1.1903902e-38 339 266
0.023354398 0.66600001 -0.030360719 1.2637966e-38 340 266
0.02452212 0.66600001 -0.030360719 1.3652477e-38 341 266
0.025728412 0.667 -0.030406304 1.3833666e-38 342 266
0.026897885 0.667 -0.030406304 1.3741112e-38 343 266
0.028025279 0.66600001 -0.030360719 1.1994032e-38 344 266
0.029192999 0.66600001 -0.030360719 1.0887324e-38 345 266
0.030406304 0.667 -0.030406304 8.0356662e-39 346 266
0.03157578 0.667 -0.030406304 7.6668851e-39 347 266
0.032745253 0.667 -0.030406304 7.8541266e-39 348 266
0.033965573 0.66799998 -0.030451892 8.1307148e-39 349 266
0.0352946 0.671 -0.030588651 9.0487657e-39 350 266
0.036525436 0.67199999 -0.030634239 1.0523536e-38 351 266
0.037871998 0.67500001 -0.030771 1.2174473e-38 352 266
0.039055496 0.67500001 -0.030771 1.226667e-38 353 266
0.040238999 0.67500001 -0.030771 1.2359231e-38 354 266
0.041483864 0.676 -0.030816587 1.2912405e-38 355 266
0.042669121 0.676 -0.030816587 1.2448212e-38 356 266
0.043854371 0.676 -0.030816587 1.0880526e-38 357 266
0.045306131 0.68000001 -0.030998932 1.106529e-38 358 266
0.046498399 0.68000001 -0.030998932 1.272517e-38 359 266
0.047690667 0.68000001 -0.030998932 1.8160371e-38 360 266
-0.014475521 0.68800002 -0.032569919 1.1801059e-38 308 267
-0.013269227 0.68800002 -0.032569919 1.1893254e-38 309 267
-0.012045399 0.68699998 -0.032522578 1.116182e-38 310 267
-0.01079352 0.68400002 -0.032380559 1.3559267e-38 311 267
-0.0095802136 0.68300003 -0.032333218 1.4758157e-38 312 267
-0.0083704125 0.68199998 -0.032285877 1.4204984e-38 313 267
-0.0071430802 0.67900002 -0.032143861 1.4481198e-38 314 267
-0.0059262668 0.676 -0.032001842 1.4481198e-38 315 267
-0.0047339997 0.67500001 -0.031954501 1.4203146e-38 316 267
-0.00354524 0.67400002 -0.03190716 1.3465581e-38 317 267
-0.0023564799 0.67199999 -0.031812478 1.3095647e-38 318 267
-0.0011782399 0.67199999 -0.031812478 1.1989299e-38 319 267
0 0.671 -0.031765141 9.4206928e-39 320 267
0.0011764866 0.671 -0.031765141 9.2363015e-39 321 267
0.0023529732 0.671 -0.031765141 8.6877814e-39 322 267
0.0035241998 0.67000002 -0.0317178 8.3190045e-39 323 267
0.0046989331 0.67000002 -0.0317178 7.9520213e-39 324 267
0.0058561331 0.66799998 -0.031623118 7.9520213e-39 325 267
0.0070273597 0.66799998 -0.031623118 7.7683503e-39 326 267
0.0081863133 0.667 -0.03157578 7.7683503e-39 327 267
0.0093557863 0.667 -0.03157578 8.2268103e-39 328 267
0.010525259 0.667 -0.03157578 8.2268103e-39 329 267
0.011677199 0.66600001 -0.031528439 8.5008846e-39 330 267
0.01284492 0.66600001 -0.031528439 8.5930803e-39 331 267
0.014012639 0.66600001 -0.031528439 9.1426793e-39 332 267
0.01518036 0.66600001 -0.031528439 9.0504837e-39 333 267
0.016348081 0.66600001 -0.031528439 9.5085878e-39 334 267
0.017515799 0.66600001 -0.031528439 9.5085878e-39 335 267
0.018683519 0.66600001 -0.031528439 9.3256287e-39 336 267
0.019851239 0.66600001 -0.031528439 9.233433e-39 337 267
0.02101896 0.66600001 -0.031528439 9.8774348e-39 338 267
0.02218668 0.66600001 -0.031528439 1.2366717e-38 339 267
0.023389466 0.667 -0.03157578 1.3649988e-38 340 267
0.024558939 0.667 -0.03157578 1.3742184e-38 341 267
0.025728412 0.667 -0.03157578 1.2728739e-38 342 267
0.026897885 0.667 -0.03157578 1.1253608e-38 343 267
0.028067358 0.667 -0.03157578 9.3246267e-39 344 267
0.029236831 0.667 -0.03157578 8.5870617e-39 345 267
0.030406304 0.667 -0.03157578 7.851607e-39 346 267
0.03157578 0.667 -0.03157578 8.4047808e-39 347 267
0.032745253 0.667 -0.03157578 8.2214811e-39 348 267
0.034118112 0.671 -0.031765141 8.6828194e-39 349 267
0.035452399 0.67400002 -0.03190716 9.2335325e-39 350 267
0.036634147 0.67400002 -0.03190716 1.033952e-38 351 267
0.037871998 0.67500001 -0.031954501 1.1900048e-38 352 267
0.039113361 0.676 -0.032001842 1.2084439e-38 353 267
0.040298611 0.676 -0.032001842 1.2820938e-38 354 267
0.041483864 0.676 -0.032001842 1.3281916e-38 355 267
0.042669121 0.676 -0.032001842 1.1711741e-38 356 267
0.043984115 0.67799997 -0.03209652 9.2220993e-39 357 267
0.045306131 0.68000001 -0.032191198 1.0236974e-38 358 267
0.046498399 0.68000001 -0.032191198 1.2265278e-38 359 267
0.047690667 0.68000001 -0.032191198 1.8435882e-38 360 267
-0.015681813 0.68800002 -0.033776212 1.5395597e-38 307 268
-0.014475521 0.68800002 -0.033776212 1.2815934e-38 308 268
-0.013269227 0.68800002 -0.033776212 1.1617391e-38 309 268
-0.012045399 0.68699998 -0.033727121 9.7796115e-39 310 268
-0.01079352 0.68400002 -0.033579841 1.2453286e-38 311 268
-0.0095802136 0.68300003 -0.033530746 1.484785e-38 312 268
-0.0083826864 0.68300003 -0.033530746 1.4755655e-38 313 268
-0.0071535995 0.68000001 -0.033383466 1.3652887e-38 314 268
-0.0059525664 0.67900002 -0.033334374 1.2822768e-38 315 268
-0.0047410131 0.676 -0.033187091 1.3836181e-38 316 268
-0.0035505001 0.67500001 -0.033137999 1.4112408e-38 317 268
-0.0023634934 0.67400002 -0.033088908 1.3374405e-38 318 268
-0.0011782399 0.67199999 -0.03299072 1.1807077e-38 319 268
0 0.67199999 -0.03299072 8.9607908e-39 320 268
0.0011782399 0.67199999 -0.03299072 8.8685938e-39 321 268
0.0023529732 0.671 -0.032941625 8.3190045e-39 322 268
0.0035294599 0.671 -0.032941625 8.3190045e-39 323 268
0.0047059464 0.671 -0.032941625 7.7683503e-39 324 268
0.0058736666 0.67000002 -0.032892533 7.7683503e-39 325 268
0.0070483997 0.67000002 -0.032892533 7.9516625e-39 326 268
0.0081985854 0.66799998 -0.032794341 7.9516625e-39 327 268
0.0093557863 0.667 -0.032745253 7.9513038e-39 328 268
0.010525259 0.667 -0.032745253 7.9513038e-39 329 268
0.011694733 0.667 -0.032745253 8.7756919e-39 330 268
0.012864206 0.667 -0.032745253 8.8678875e-39 331 268
0.014033679 0.667 -0.032745253 9.6929805e-39 332 268
0.01518036 0.66600001 -0.032696161 9.6007848e-39 333 268
0.016348081 0.66600001 -0.032696161 9.4174684e-39 334 268
0.017515799 0.66600001 -0.032696161 9.4174684e-39 335 268
0.018683519 0.66600001 -0.032696161 9.2348974e-39 336 268
0.019881045 0.667 -0.032745253 9.6955168e-39 337 268
0.021050518 0.667 -0.032745253 1.098202e-38 338 268
0.022219993 0.667 -0.032745253 1.2825932e-38 339 268
0.023389466 0.667 -0.032745253 1.3741831e-38 340 268
0.024558939 0.667 -0.032745253 1.3189017e-38 341 268
0.025728412 0.667 -0.032745253 1.1533044e-38 342 268
0.026938211 0.66799998 -0.032794341 9.5969355e-39 343 268
0.028109439 0.66799998 -0.032794341 7.7601373e-39 344 268
0.029280664 0.66799998 -0.032794341 7.4835504e-39 345 268
0.030451892 0.66799998 -0.032794341 8.128903e-39 346 268
0.0317178 0.67000002 -0.032892533 8.5895224e-39 347 268
0.033137999 0.67500001 -0.033137999 9.5090012e-39 348 268
0.034321502 0.67500001 -0.033137999 1.0061816e-38 349 268
0.035557602 0.676 -0.033187091 1.1254659e-38 350 268
0.036742851 0.676 -0.033187091 1.208478e-38 351 268
0.037928104 0.676 -0.033187091 1.2728015e-38 352 268
0.039113361 0.676 -0.033187091 1.3373384e-38 353 268
0.040298611 0.676 -0.033187091 1.3555274e-38 354 268
0.041483864 0.676 -0.033187091 1.2448928e-38 355 268
0.042669121 0.676 -0.033187091 1.0330972e-38 356 268
0.043984115 0.67799997 -0.033285279 8.3026668e-39 357 268
0.045172878 0.67799997 -0.033285279 1.0051863e-38 358 268
0.046635158 0.68199998 -0.03348165 1.2264559e-38 359 268
-0.015727401 0.69 -0.035084199 1.5765456e-38 307 269
-0.014475521 0.68800002 -0.03498251 1.2908848e-38 308 269
-0.013269227 0.68800002 -0.03498251 1.1341883e-38 309 269
-0.012045399 0.68699998 -0.034931656 1.0698331e-38 310 269
-0.010825079 0.68599999 -0.034880809 1.2173461e-38 311 269
-0.0095942402 0.68400002 -0.03477912 1.3096859e-38 312 269
-0.0083826864 0.68300003 -0.034728274 1.3465283e-38 313 269
-0.00717464 0.68199998 -0.034677424 1.1625674e-38 314 269
-0.0059613334 0.68000001 -0.034575731 1.0703716e-38 315 269
-0.0047550397 0.67799997 -0.034474038 1.3376292e-38 316 269
-0.0035557596 0.676 -0.034372345 1.4483e-38 317 269
-0.0023669999 0.67500001 -0.034321502 1.4112377e-38 318 269
-0.0011834999 0.67500001 -0.034321502 1.2821639e-38 319 269
0 0.67500001 -0.034321502 9.7877152e-39 320 269
0.0011817467 0.67400002 -0.034270655 9.1423458e-39 321 269
0.0023564799 0.67199999 -0.034168959 8.1342573e-39 322 269
0.0035294599 0.671 -0.034118112 8.2264516e-39 323 269
0.0047059464 0.671 -0.034118112 8.0438568e-39 324 269
0.0058824331 0.671 -0.034118112 8.0438568e-39 325 269
0.0070483997 0.67000002 -0.034067266 8.043498e-39 326 269
0.0082231332 0.67000002 -0.034067266 8.043498e-39 327 269
0.0093698129 0.66799998 -0.033965573 8.1335441e-39 328 269
0.010525259 0.667 -0.033914726 8.2257397e-39 329 269
0.011694733 0.667 -0.033914726 9.0508509e-39 330 269
0.012864206 0.667 -0.033914726 9.1430465e-39 331 269
0.014033679 0.667 -0.033914726 9.7851817e-39 332 269
0.015203152 0.667 -0.033914726 9.6929861e-39 333 269
0.016372627 0.667 -0.033914726 8.9579378e-39 334 269
0.0175421 0.667 -0.033914726 9.5107528e-39 335 269
0.018711573 0.667 -0.033914726 1.0340577e-38 336 269
0.019910853 0.66799998 -0.033965573 1.1262893e-38 337 269
0.021082079 0.66799998 -0.033965573 1.2454316e-38 338 269
0.022253305 0.66799998 -0.033965573 1.3099686e-38 339 269
0.023424532 0.66799998 -0.033965573 1.3189363e-38 340 269
0.02459576 0.66799998 -0.033965573 1.1714233e-38 341 269
0.025766984 0.66799998 -0.033965573 9.5075761e-39 342 269
0.026938211 0.66799998 -0.033965573 8.1246416e-39 343 269
0.028193599 0.67000002 -0.034067266 7.6679542e-39 344 269
0.029412165 0.671 -0.034118112 7.9449013e-39 345 269
0.030634239 0.67199999 -0.034168959 8.7732704e-39 346 269
0.03190716 0.67400002 -0.034270655 9.6952267e-39 347 269
0.033137999 0.67500001 -0.034321502 1.1348309e-38 348 269
0.034372345 0.676 -0.034372345 1.1624536e-38 349 269
0.035557602 0.676 -0.034372345 1.2541477e-38 350 269
0.036742851 0.676 -0.034372345 1.3371238e-38 351 269
0.038040318 0.67799997 -0.034474038 1.3464878e-38 352 269
0.039286941 0.67900002 -0.034524884 1.3649269e-38 353 269
0.040477451 0.67900002 -0.034524884 1.3276543e-38 354 269
0.041667968 0.67900002 -0.034524884 1.0602869e-38 355 269
0.042858478 0.67900002 -0.034524884 9.497617e-39 356 269
0.044048995 0.67900002 -0.034524884 9.4054214e-39 357 269
0.045439381 0.68199998 -0.034677424 1.0880176e-38 358 269
0.046635158 0.68199998 -0.034677424 1.2724089e-38 359 269
0.0479712 0.68400002 -0.03477912 1.8621347e-38 360 269
-0.015795778 0.69300002 -0.036451802 1.5673979e-38 307 270
-0.014580719 0.69300002 -0.036451802 1.2080887e-38 308 270
-0.013327086 0.69099998 -0.036346599 1.1159289e-38 309 270
-0.012062933 0.68800002 -0.0361888 1.13437e-38 310 270
-0.010840859 0.68699998 -0.036136195 1.2081265e-38 311 270
-0.0096222926 0.68599999 -0.036083598 1.134766e-38 312 270
-0.0083949603 0.68400002 -0.035978399 1.0794845e-38 313 270
-0.0071851597 0.68300003 -0.035925802 1.1531682e-38 314 270
-0.0059613334 0.68000001 -0.035767999 1.2084855e-38 315 270
-0.0047620535 0.67900002 -0.035715401 1.4294304e-38 316 270
-0.0035557596 0.676 -0.035557602 1.5401011e-38 317 270
-0.0023705065 0.676 -0.035557602 1.4574102e-38 318 270
-0.0011834999 0.67500001 -0.035505001 1.3928733e-38 319 270
0 0.67500001 -0.035505001 1.2731905e-38 320 270
0.0011817467 0.67400002 -0.035452399 1.1164221e-38 321 270
0.0023564799 0.67199999 -0.035347197 8.5927328e-39 322 270
0.00353472 0.67199999 -0.035347197 8.2235915e-39 323 270
0.0047129598 0.67199999 -0.035347197 7.8591096e-39 324 270
0.0058824331 0.671 -0.0352946 7.9513038e-39 325 270
0.0070589199 0.671 -0.0352946 7.6765148e-39 326 270
0.0082231332 0.67000002 -0.035241999 7.6765148e-39 327 270
0.0093698129 0.66799998 -0.035136797 8.0424274e-39 328 270
0.01054104 0.66799998 -0.035136797 8.0424274e-39 329 270
0.011712266 0.66799998 -0.035136797 8.5916734e-39 330 270
0.012883492 0.66799998 -0.035136797 8.6838704e-39 331 270
0.014054719 0.66799998 -0.035136797 9.1416242e-39 332 270
0.015203152 0.667 -0.035084199 9.1416242e-39 333 270
0.016372627 0.667 -0.035084199 8.683188e-39 334 270
0.017568398 0.66799998 -0.035136797 9.8813724e-39 335 270
0.018739626 0.66799998 -0.035136797 1.2455004e-38 336 270
0.019910853 0.66799998 -0.035136797 1.3192569e-38 337 270
0.021082079 0.66799998 -0.035136797 1.3190815e-38 338 270
0.022253305 0.66799998 -0.035136797 1.3467042e-38 339 270
0.023494666 0.67000002 -0.035241999 1.2638342e-38 340 270
0.024669399 0.67000002 -0.035241999 1.1163212e-38 341 270
0.025844134 0.67000002 -0.035241999 1.0428473e-38 342 270
0.027018867 0.67000002 -0.035241999 1.024444e-38 343 270
0.028235679 0.671 -0.0352946 1.0980573e-38 344 270
0.029455997 0.67199999 -0.035347197 1.1072769e-38 345 270
0.030725412 0.67400002 -0.035452399 1.153199e-38 346 270
0.031954501 0.67500001 -0.035505001 1.1716383e-38 347 270
0.033187091 0.676 -0.035557602 1.2175581e-38 348 270
0.034372345 0.676 -0.035557602 1.1253625e-38 349 270
0.0356628 0.67799997 -0.0356628 1.1067807e-38 350 270
0.036851559 0.67799997 -0.0356628 1.2450741e-38 351 270
0.038096428 0.67900002 -0.035715401 1.2725533e-38 352 270
0.039286941 0.67900002 -0.035715401 1.1342599e-38 353 270
0.040477451 0.67900002 -0.035715401 1.0513564e-38 354 270
0.041729335 0.68000001 -0.035767999 9.5916077e-39 355 270
0.043047838 0.68199998 -0.035873197 9.8656807e-39 356 270
0.044243611 0.68199998 -0.035873197 1.0141907e-38 357 270
0.045439381 0.68199998 -0.035873197 1.2261666e-38 358 270
0.046771921 0.68400002 -0.035978399 1.3828991e-38 359 270
0.0479712 0.68400002 -0.035978399 1.8713177e-38 360 270
-0.015795778 0.69300002 -0.037666857 1.5766172e-38 307 271
-0.014580719 0.69300002 -0.037666857 1.2265629e-38 308 271
-0.013327086 0.69099998 -0.03755815 1.1620259e-38 309 271
-0.012097999 0.69 -0.037503798 1.1897587e-38 310 271
-0.010856641 0.68800002 -0.037395094 1.2174533e-38 311 271
-0.0096363192 0.68699998 -0.037340738 1.079484e-38 312 271
-0.0084195063 0.68599999 -0.037286382 9.1353183e-39 313 271
-0.0071851597 0.68300003 -0.037123326 9.8721617e-39 314 271
-0.005978866 0.68199998 -0.037068974 1.180827e-38 315 271
-0.0047690663 0.68000001 -0.036960267 1.42936e-38 316 271
-0.0035715401 0.67900002 -0.036905911 1.5215558e-38 317 271
-0.0023705065 0.676 -0.036742851 1.4850356e-38 318 271
-0.0011852533 0.676 -0.036742851 1.475816e-38 319 271
0 0.676 -0.036742851 1.4390042e-38 320 271
0.0011834999 0.67500001 -0.036688499 1.2822357e-38 321 271
0.0023634934 0.67400002 -0.036634147 1.0155419e-38 322 271
0.00354524 0.67400002 -0.036634147 8.8650387e-39 323 271
0.0047129598 0.67199999 -0.036525436 7.6740036e-39 324 271
0.0058911997 0.67199999 -0.036525436 7.8587508e-39 325 271
0.0070589199 0.671 -0.036471087 8.1342573e-39 326 271
0.0082354061 0.671 -0.036471087 8.0420631e-39 327 271
0.0093978662 0.67000002 -0.036416732 7.4910501e-39 328 271
0.0105726 0.67000002 -0.036416732 7.5832443e-39 329 271
0.011747333 0.67000002 -0.036416732 8.4090814e-39 330 271
0.012883492 0.66799998 -0.036308024 8.7778625e-39 331 271
0.014054719 0.66799998 -0.036308024 9.232766e-39 332 271
0.015225946 0.66799998 -0.036308024 9.6937442e-39 333 271
0.016397171 0.66799998 -0.036308024 1.0246971e-38 334 271
0.017568398 0.66799998 -0.036308024 1.1629906e-38 335 271
0.018739626 0.66799998 -0.036308024 1.3926932e-38 336 271
0.019970467 0.67000002 -0.036416732 1.4295355e-38 337 271
0.0211452 0.67000002 -0.036416732 1.3743633e-38 338 271
0.022319933 0.67000002 -0.036416732 1.3467044e-38 339 271
0.023529733 0.671 -0.036471087 1.2821306e-38 340 271
0.024706218 0.671 -0.036471087 1.2175937e-38 341 271
0.025882706 0.671 -0.036471087 1.2084089e-38 342 271
0.027059194 0.671 -0.036471087 1.2268839e-38 343 271
0.02827776 0.67199999 -0.036525436 1.2175937e-38 344 271
0.029455997 0.67199999 -0.036525436 1.1622763e-38 345 271
0.030725412 0.67400002 -0.036634147 1.1807524e-38 346 271
0.031954501 0.67500001 -0.036688499 1.2176306e-38 347 271
0.033187091 0.676 -0.036742851 1.1991568e-38 348 271
0.034372345 0.676 -0.036742851 1.0608634e-38 349 271
0.0356628 0.67799997 -0.036851559 9.8703624e-39 350 271
0.036851559 0.67799997 -0.036851559 1.0884514e-38 351 271
0.038096428 0.67900002 -0.036905911 1.1066032e-38 352 271
0.039286941 0.67900002 -0.036905911 8.6693053e-39 353 271
0.040537067 0.68000001 -0.036960267 7.9324563e-39 354 271
0.041852064 0.68199998 -0.037068974 9.5923364e-39 355 271
0.043047838 0.68199998 -0.037068974 1.0971305e-38 356 271
0.044243611 0.68199998 -0.037068974 1.1155336e-38 357 271
0.045506012 0.68300003 -0.037123326 1.3091429e-38 358 271
0.046771921 0.68400002 -0.037177678 1.4842787e-38 359 271
0.0479712 0.68400002 -0.037177678 1.8620624e-38 360 271
-0.015795778 0.69300002 -0.03888192 1.6043119e-38 307 272
-0.014580719 0.69300002 -0.03888192 1.3923708e-38 308 272
-0.01336566 0.69300002 -0.03888192 1.3001752e-38 309 272
-0.012097999 0.69 -0.038713597 1.1622079e-38 310 272
-0.010888199 0.69 -0.038713597 1.0700123e-38 311 272
-0.0096363192 0.68699998 -0.038545277 9.2268105e-39 312 272
-0.0084195063 0.68599999 -0.03848917 5.7230164e-39 313 272
-0.0071851597 0.68300003 -0.038320854 5.9967391e-39 314 272
-0.0059876335 0.68300003 -0.038320854 7.2874779e-39 315 272
-0.004783093 0.68199998 -0.038264744 8.7683659e-39 316 272
-0.0035715401 0.67900002 -0.038096428 1.0889224e-38 317 272
-0.0023775198 0.67799997 -0.038040318 1.2639118e-38 318 272
-0.0011852533 0.676 -0.037928104 1.3561434e-38 319 272
0 0.676 -0.037928104 1.4667387e-38 320 272
0.0011852533 0.676 -0.037928104 1.3837628e-38 321 272
0.0023669999 0.67500001 -0.037871998 1.3376237e-38 322 272
0.00354524 0.67400002 -0.037815895 1.2454281e-38 323 272
0.0047269869 0.67400002 -0.037815895 1.1261091e-38 324 272
0.0058911997 0.67199999 -0.037703678 1.0984145e-38 325 272
0.0070694401 0.67199999 -0.037703678 1.0616775e-38 326 272
0.0082354061 0.671 -0.037647571 9.8792102e-39 327 272
0.0094118929 0.671 -0.037647571 8.9633832e-39 328 272
0.01058838 0.671 -0.037647571 9.7009496e-39 329 272
0.011747333 0.67000002 -0.037591465 1.1170006e-38 330 272
0.012922067 0.67000002 -0.037591465 1.153879e-38 331 272
0.014054719 0.66799998 -0.037479252 1.2362453e-38 332 272
0.015225946 0.66799998 -0.037479252 1.2270256e-38 333 272
0.016397171 0.66799998 -0.037479252 1.1900424e-38 334 272
0.017568398 0.66799998 -0.037479252 1.2177009e-38 335 272
0.018795732 0.67000002 -0.037591465 1.2635493e-38 336 272
0.020000271 0.671 -0.037647571 1.2082319e-38 337 272
0.021176759 0.671 -0.037647571 1.0888458e-38 338 272
0.022353247 0.671 -0.037647571 1.1626383e-38 339 272
0.023529733 0.671 -0.037647571 1.3556367e-38 340 272
0.024706218 0.671 -0.037647571 1.3833313e-38 341 272
0.025882706 0.671 -0.037647571 1.2541139e-38 342 272
0.027059194 0.671 -0.037647571 9.3142922e-39 343 272
0.02827776 0.67199999 -0.037703678 6.6431679e-39 344 272
0.029455997 0.67199999 -0.037703678 6.4584179e-39 345 272
0.030771 0.67500001 -0.037871998 8.677224e-39 346 272
0.031954501 0.67500001 -0.037871998 1.0982474e-38 347 272
0.033187091 0.676 -0.037928104 1.1990862e-38 348 272
0.034474038 0.67799997 -0.038040318 1.0607927e-38 349 272
0.0356628 0.67799997 -0.038040318 8.854784e-39 350 272
0.036905911 0.67900002 -0.038096428 8.3938072e-39 351 272
0.038096428 0.67900002 -0.038096428 8.762238e-39 352 272
0.039344799 0.68000001 -0.038152531 7.8402831e-39 353 272
0.040537067 0.68000001 -0.038152531 8.3916422e-39 354 272
0.041852064 0.68199998 -0.038264744 1.0603977e-38 355 272
0.043110959 0.68300003 -0.038320854 1.1985452e-38 356 272
0.044308487 0.68300003 -0.038320854 1.2538624e-38 357 272
0.045506012 0.68300003 -0.038320854 1.3737515e-38 358 272
0.04670354 0.68300003 -0.038320854 1.4567635e-38 359 272
0.047901068 0.68300003 -0.038320854 1.8528431e-38 360 272
-0.015795778 0.69300002 -0.04009698 1.6134958e-38 307 273
-0.014580719 0.69300002 -0.04009698 1.4201018e-38 308 273
-0.01336566 0.69300002 -0.04009698 1.4016625e-38 309 273
-0.012115533 0.69099998 -0.039981257 1.2264925e-38 310 273
-0.010888199 0.69 -0.0399234 1.0421371e-38 311 273
-0.0096503468 0.68800002 -0.039807681 8.5792859e-39 312 273
-0.0084317802 0.68699998 -0.039749816 6.550982e-39 313 273
-0.0071956799 0.68400002 -0.03957624 5.9045589e-39 314 273
-0.0059876335 0.68300003 -0.039518382 5.2591894e-39 315 273
-0.004783093 0.68199998 -0.039460517 5.6340844e-39 316 273
-0.0035767998 0.68000001 -0.039344799 8.0315295e-39 317 273
-0.0023810267 0.67900002 -0.039286941 9.5066372e-39 318 273
-0.0011887599 0.67799997 -0.039229076 1.1258354e-38 319 273
0 0.67799997 -0.039229076 1.4390469e-38 320 273
0.0011852533 0.676 -0.039113361 1.4390469e-38 321 273
0.0023705065 0.676 -0.039113361 1.44812e-38 322 273
0.0035505001 0.67500001 -0.039055496 1.4112058e-38 323 273
0.0047269869 0.67400002 -0.038997639 1.3469181e-38 324 273
0.0059087332 0.67400002 -0.038997639 1.3100039e-38 325 273
0.0070694401 0.67199999 -0.03888192 1.264012e-38 326 273
0.00824768 0.67199999 -0.03888192 1.1994751e-38 327 273
0.0094118929 0.671 -0.038824059 1.1444107e-38 328 273
0.01058838 0.671 -0.038824059 1.2181673e-38 329 273
0.011764866 0.671 -0.038824059 1.3468122e-38 330 273
0.012941353 0.671 -0.038824059 1.3744707e-38 331 273
0.01411784 0.671 -0.038824059 1.3835828e-38 332 273
0.015271533 0.67000002 -0.038766202 1.3467044e-38 333 273
0.016446266 0.67000002 -0.038766202 9.9672272e-39 334 273
0.0176473 0.671 -0.038824059 8.3077058e-39 335 273
0.018823786 0.671 -0.038824059 7.2049736e-39 336 273
0.020000271 0.671 -0.038824059 6.375213e-39 337 273
0.021176759 0.671 -0.038824059 5.3639295e-39 338 273
0.022353247 0.671 -0.038824059 9.236146e-39 339 273
0.023564799 0.67199999 -0.03888192 1.419959e-38 340 273
0.024743039 0.67199999 -0.03888192 1.466057e-38 341 273
0.025921278 0.67199999 -0.03888192 1.1805767e-38 342 273
0.027099518 0.67199999 -0.03888192 6.4584207e-39 343 273
0.02827776 0.67199999 -0.03888192 3.7901746e-39 344 273
0.029543666 0.67400002 -0.038997639 3.8823703e-39 345 273
0.030771 0.67500001 -0.039055496 7.7527748e-39 346 273
0.032001842 0.676 -0.039113361 1.0518644e-38 347 273
0.033187091 0.676 -0.039113361 1.143519e-38 348 273
0.034474038 0.67799997 -0.039229076 9.591277e-39 349 273
0.035715401 0.67900002 -0.039286941 6.0918116e-39 350 273
0.036905911 0.67900002 -0.039286941 6.8293766e-39 351 273
0.038096428 0.67900002 -0.039286941 8.3016298e-39 352 273
0.039344799 0.68000001 -0.039344799 8.4860211e-39 353 273
0.040537067 0.68000001 -0.039344799 8.4870777e-39 354 273
0.041852064 0.68199998 -0.039460517 9.8700121e-39 355 273
0.043110959 0.68300003 -0.039518382 1.1252202e-38 356 273
0.044308487 0.68300003 -0.039518382 1.2081963e-38 357 273
0.045506012 0.68300003 -0.039518382 1.3185774e-38 358 273
0.04670354 0.68300003 -0.039518382 1.4015175e-38 359 273
-0.015818574 0.69400001 -0.041371655 1.5398112e-38 307 274
-0.01460176 0.69400001 -0.041371655 1.3556367e-38 308 274
-0.013384946 0.69400001 -0.041371655 1.4293932e-38 309 274
-0.012150601 0.69300002 -0.041312039 1.4752042e-38 310 274
-0.010888199 0.69 -0.041133199 1.226276e-38 311 274
-0.0096503468 0.68800002 -0.041013971 9.9589637e-39 312 274
-0.0084317802 0.68699998 -0.040954359 8.0228555e-39 313 274
-0.0072167199 0.68599999 -0.040894743 6.4569984e-39 314 274
-0.0059876335 0.68300003 -0.040715907 6.7332251e-39 315 274
-0.004783093 0.68199998 -0.040656291 7.3818413e-39 316 274
-0.0035767998 0.68000001 -0.040537067 8.7647758e-39 317 274
-0.0023810267 0.67900002 -0.040477451 5.3617995e-39 318 274
-0.0011887599 0.67799997 -0.040417835 7.2979078e-39 319 274
0 0.67799997 -0.040417835 1.3929504e-38 320 274
0.0011887599 0.67799997 -0.040417835 1.3929504e-38 321 274
0.0023705065 0.676 -0.040298611 1.4020958e-38 322 274
0.0035557596 0.676 -0.040298611 1.3836927e-38 323 274
0.0047339997 0.67500001 -0.040238999 1.4112061e-38 324 274
0.0059174998 0.67500001 -0.040238999 1.4296453e-38 325 274
0.0070904801 0.67400002 -0.040179387 1.4296804e-38 326 274
0.0082722269 0.67400002 -0.040179387 1.4112411e-38 327 274
0.0094259195 0.67199999 -0.040060159 1.4111695e-38 328 274
0.010604159 0.67199999 -0.040060159 1.4019141e-38 329 274
0.011782399 0.67199999 -0.040060159 1.3927674e-38 330 274
0.012960639 0.67199999 -0.040060159 1.3743282e-38 331 274
0.01411784 0.671 -0.040000543 1.3009314e-38 332 274
0.015294326 0.671 -0.040000543 1.2640172e-38 333 274
0.016470812 0.671 -0.040000543 8.403514e-39 334 274
0.017673599 0.67199999 -0.040060159 5.7298408e-39 335 274
0.018851839 0.67199999 -0.040060159 2.5247194e-41 336 274
0.020030079 0.67199999 -0.040060159 3.9871145e-40 337 274
0.021208318 0.67199999 -0.040060159 7.7556461e-39 338 274
0.022386558 0.67199999 -0.040060159 1.0521515e-38 339 274
0.023564799 0.67199999 -0.040060159 1.3185805e-38 340 274
0.024743039 0.67199999 -0.040060159 1.3462752e-38 341 274
0.025921278 0.67199999 -0.040060159 1.1433389e-38 342 274
0.027099518 0.67199999 -0.040060159 7.4689769e-39 343 274
0.02836192 0.67400002 -0.040179387 6.1833037e-39 344 274
0.0295875 0.67500001 -0.040238999 6.6439232e-39 345 274
0.030816587 0.676 -0.040298611 7.658424e-39 346 274
0.032001842 0.676 -0.040298611 8.5807404e-39 347 274
0.033285279 0.67799997 -0.040417835 9.8689555e-39 348 274
0.034474038 0.67799997 -0.040417835 8.0250429e-39 349 274
0.035715401 0.67900002 -0.040477451 4.803235e-39 350 274
0.036905911 0.67900002 -0.040477451 6.8315388e-39 351 274
0.038152531 0.68000001 -0.040537067 9.4969304e-39 352 274
0.039344799 0.68000001 -0.040537067 9.2203421e-39 353 274
0.040656291 0.68199998 -0.040656291 8.2122858e-39 354 274
0.041913435 0.68300003 -0.040715907 8.7654596e-39 355 274
0.043110959 0.68300003 -0.040715907 9.8739371e-39 356 274
0.044308487 0.68300003 -0.040715907 1.1256872e-38 357 274
0.045506012 0.68300003 -0.040715907 1.2633675e-38 358 274
0.046977058 0.68699998 -0.040954359 1.3739664e-38 359 274
0.048181597 0.68699998 -0.040954359 1.8437315e-38 360 274
-0.017035386 0.69400001 -0.042588469 1.6780328e-38 306 275
-0.015818574 0.69400001 -0.042588469 1.4752024e-38 307 275
-0.01460176 0.69400001 -0.042588469 1.2452178e-38 308 275
-0.013384946 0.69400001 -0.042588469 1.346597e-38 309 275
-0.012168133 0.69400001 -0.042588469 1.4478332e-38 310 275
-0.01090398 0.69099998 -0.042404365 1.3740408e-38 311 275
-0.0096783992 0.69 -0.042342998 1.2262041e-38 312 275
-0.0084440531 0.68800002 -0.042220265 1.0233737e-38 313 275
-0.0072272392 0.68699998 -0.042158898 6.1832757e-39 314 275
-0.0059964 0.68400002 -0.041974798 5.6301019e-39 315 275
-0.004783093 0.68199998 -0.041852064 7.2903646e-39 316 275
-0.0035767998 0.68000001 -0.041729335 9.5956154e-39 317 275
-0.0023810267 0.67900002 -0.041667968 7.2925142e-39 318 275
-0.0011905134 0.67900002 -0.041667968 7.1081215e-39 319 275
0 0.67799997 -0.041606598 1.4111381e-38 320 275
0.0011887599 0.67799997 -0.041606598 1.4572359e-38 321 275
0.0023705065 0.676 -0.041483864 1.4112803e-38 322 275
0.0035557596 0.676 -0.041483864 1.4020608e-38 323 275
0.0047410131 0.676 -0.041483864 1.3836577e-38 324 275
0.0059262668 0.676 -0.041483864 1.4020608e-38 325 275
0.0071010003 0.67500001 -0.041422497 1.3929844e-38 326 275
0.0082844999 0.67500001 -0.041422497 1.3745094e-38 327 275
0.0094679995 0.67500001 -0.041422497 1.374473e-38 328 275
0.0106515 0.67500001 -0.041422497 1.3560339e-38 329 275
0.011835 0.67500001 -0.041422497 1.3559617e-38 330 275
0.012999214 0.67400002 -0.041361131 1.3467421e-38 331 275
0.01413888 0.67199999 -0.041238401 1.3467774e-38 332 275
0.01531712 0.67199999 -0.041238401 1.355997e-38 333 275
0.01649536 0.67199999 -0.041238401 1.2912099e-38 334 275
0.0177262 0.67400002 -0.041361131 9.5930553e-39 335 275
0.018907947 0.67400002 -0.041361131 1.3959497e-39 336 275
0.020089693 0.67400002 -0.041361131 3.8848716e-39 337 275
0.021271439 0.67400002 -0.041361131 1.0421408e-38 338 275
0.022453187 0.67400002 -0.041361131 1.0605797e-38 339 275
0.023634933 0.67400002 -0.041361131 1.0050803e-38 340 275
0.024816679 0.67400002 -0.041361131 9.5901854e-39 341 275
0.025998428 0.67400002 -0.041361131 8.7611632e-39 342 275
0.027180174 0.67400002 -0.041361131 6.9172506e-39 343 275
0.028404001 0.67500001 -0.041422497 5.9985594e-39 344 275
0.029631332 0.676 -0.041483864 6.4591788e-39 345 275
0.030816587 0.676 -0.041483864 6.2765826e-39 346 275
0.03209652 0.67799997 -0.041606598 7.106702e-39 347 275
0.033334374 0.67900002 -0.041667968 9.7771284e-39 348 275
0.034524884 0.67900002 -0.041667968 8.2101629e-39 349 275
0.035715401 0.67900002 -0.041667968 4.803235e-39 350 275
0.036960267 0.68000001 -0.041729335 6.7393432e-39 351 275
0.038152531 0.68000001 -0.041729335 9.6827496e-39 352 275
0.039460517 0.68199998 -0.041852064 1.0235923e-38 353 275
0.040656291 0.68199998 -0.041852064 1.0332044e-38 354 275
0.041913435 0.68300003 -0.041913435 1.0885216e-38 355 275
0.043110959 0.68300003 -0.041913435 1.1162861e-38 356 275
0.044308487 0.68300003 -0.041913435 1.1808231e-38 357 275
0.045772515 0.68699998 -0.042158898 1.2726943e-38 358 275
0.046977058 0.68699998 -0.042158898 1.3648901e-38 359 275
0.048181597 0.68699998 -0.042158898 1.8621347e-38 360 275
-0.017084479 0.69599998 -0.043931518 1.6595936e-38 306 276
-0.015864158 0.69599998 -0.043931518 1.438324e-38 307 276
-0.014643839 0.69599998 -0.043931518 1.2359629e-38 308 276
-0.013423519 0.69599998 -0.043931518 1.3281225e-38 309 276
-0.0122032 0.69599998 -0.043931518 1.3190124e-38 310 276
-0.010935539 0.69300002 -0.043742158 1.3927689e-38 311 276
-0.0096924258 0.69099998 -0.043615919 1.4936806e-38 312 276
-0.008480873 0.69099998 -0.043615919 1.2631915e-38 313 276
-0.0072377604 0.68800002 -0.043426562 9.1328156e-39 314 276
-0.0060226996 0.68699998 -0.043363437 6.3669481e-39 315 276
-0.0047901068 0.68300003 -0.043110959 6.8318947e-39 316 276
-0.0035925799 0.68300003 -0.043110959 9.6895991e-39 317 276
-0.0023915465 0.68199998 -0.043047838 8.1201154e-39 318 276
-0.0011922666 0.68000001 -0.042921599 7.474746e-39 319 276
0 0.67900002 -0.042858478 1.4294693e-38 320 276
0.0011905134 0.67900002 -0.042858478 1.4940063e-38 321 276
0.0023775198 0.67799997 -0.042795356 1.3837295e-38 322 276
0.0035662798 0.67799997 -0.042795356 1.3837295e-38 323 276
0.0047410131 0.676 -0.042669121 1.3837295e-38 324 276
0.0059262668 0.676 -0.042669121 1.3837295e-38 325 276
0.0071115191 0.676 -0.042669121 1.3561785e-38 326 276
0.0082967728 0.676 -0.042669121 1.3561785e-38 327 276
0.0094820261 0.676 -0.042669121 1.3560702e-38 328 276
0.01066728 0.676 -0.042669121 1.3560702e-38 329 276
0.011835 0.67500001 -0.042606 1.3559983e-38 330 276
0.0130185 0.67500001 -0.042606 1.3467787e-38 331 276
0.014202001 0.67500001 -0.042606 1.3467421e-38 332 276
0.015362706 0.67400002 -0.042542879 1.3835844e-38 333 276
0.016544454 0.67400002 -0.042542879 1.4938248e-38 334 276
0.0177525 0.67500001 -0.042606 1.1158586e-38 335 276
0.018907947 0.67400002 -0.042542879 2.3132271e-39 336 276
0.020089693 0.67400002 -0.042542879 5.079096e-39 337 276
0.021271439 0.67400002 -0.042542879 1.0603277e-38 338 276
0.022453187 0.67400002 -0.042542879 9.3125377e-39 339 276
0.023634933 0.67400002 -0.042542879 7.1934872e-39 340 276
0.0248535 0.67500001 -0.042606 4.5194552e-39 341 276
0.026037 0.67500001 -0.042606 4.7074646e-39 342 276
0.027220501 0.67500001 -0.042606 5.7216165e-39 343 276
0.028404001 0.67500001 -0.042606 6.0904019e-39 344 276
0.029631332 0.676 -0.042669121 6.1825975e-39 345 276
0.030907756 0.67799997 -0.042795356 5.8138122e-39 346 276
0.032143861 0.67900002 -0.042858478 6.0903991e-39 347 276
0.033334374 0.67900002 -0.042858478 8.9491656e-39 348 276
0.034524884 0.67900002 -0.042858478 7.8428195e-39 349 276
0.035767999 0.68000001 -0.042921599 5.2638432e-39 350 276
0.036960267 0.68000001 -0.042921599 7.1999514e-39 351 276
0.038264744 0.68199998 -0.043047838 1.0145151e-38 352 276
0.039460517 0.68199998 -0.043047838 1.1343695e-38 353 276
0.040715907 0.68300003 -0.043110959 1.2450726e-38 354 276
0.041974798 0.68400002 -0.043174081 1.3372681e-38 355 276
0.043174081 0.68400002 -0.043174081 1.3004253e-38 356 276
0.04437336 0.68400002 -0.043174081 1.2819862e-38 357 276
0.045772515 0.68699998 -0.043363437 1.3003897e-38 358 276
0.046977058 0.68699998 -0.043363437 1.3741821e-38 359 276
0.048181597 0.68699998 -0.043363437 1.8620272e-38 360 276
-0.017109027 0.69700003 -0.045216713 1.6320071e-38 306 277
-0.015886955 0.69700003 -0.045216713 1.401518e-38 307 277
-0.01466488 0.69700003 -0.045216713 1.2727338e-38 308 277
-0.013423519 0.69599998 -0.045151837 1.3280153e-38 309 277
-0.0122032 0.69599998 -0.045151837 1.1718241e-38 310 277
-0.010935539 0.69300002 -0.044957221 1.2179219e-38 311 277
-0.0097204801 0.69300002 -0.044957221 1.4110652e-38 312 277
-0.008480873 0.69099998 -0.044827472 1.3834424e-38 313 277
-0.0072377604 0.68800002 -0.044632856 1.318726e-38 314 277
-0.0060226996 0.68699998 -0.044567976 1.1343347e-38 315 277
-0.0048111463 0.68599999 -0.044503104 9.872896e-39 316 277
-0.0035925799 0.68300003 -0.044308487 1.0703015e-38 317 277
-0.0023915465 0.68199998 -0.044243611 6.4623863e-39 318 277
-0.0011957732 0.68199998 -0.044243611 6.3701907e-39 319 277
0 0.68000001 -0.044113863 1.392699e-38 320 277
0.0011905134 0.67900002 -0.044048995 1.4664555e-38 321 277
0.0023810267 0.67900002 -0.044048995 1.3837295e-38 322 277
0.0035662798 0.67799997 -0.043984115 1.3837295e-38 323 277
0.0047550397 0.67799997 -0.043984115 1.365398e-38 324 277
0.0059437994 0.67799997 -0.043984115 1.365398e-38 325 277
0.0071115191 0.676 -0.043854371 1.3837649e-38 326 277
0.0082967728 0.676 -0.043854371 1.3745094e-38 327 277
0.0094820261 0.676 -0.043854371 1.3744733e-38 328 277
0.01066728 0.676 -0.043854371 1.3744733e-38 329 277
0.011852534 0.676 -0.043854371 1.3652534e-38 330 277
0.013037786 0.676 -0.043854371 1.3560339e-38 331 277
0.014223038 0.676 -0.043854371 1.3743648e-38 332 277
0.0153855 0.67500001 -0.043789499 1.3835844e-38 333 277
0.016569 0.67500001 -0.043789499 1.457091e-38 334 277
0.0177525 0.67500001 -0.043789499 1.0975641e-38 335 277
0.018935999 0.67500001 -0.043789499 1.762577e-39 336 277
0.020089693 0.67400002 -0.043724626 4.8050328e-39 337 277
0.021271439 0.67400002 -0.043724626 1.0697271e-38 338 277
0.022453187 0.67400002 -0.043724626 9.7753152e-39 339 277
0.023669999 0.67500001 -0.043789499 7.8424537e-39 340 277
0.0248535 0.67500001 -0.043789499 4.7996378e-39 341 277
0.026037 0.67500001 -0.043789499 5.8102192e-39 342 277
0.027220501 0.67500001 -0.043789499 6.4555886e-39 343 277
0.028446076 0.676 -0.043854371 5.9078057e-39 344 277
0.029718997 0.67799997 -0.043984115 6.1843926e-39 345 277
0.030953348 0.67900002 -0.044048995 6.0932703e-39 346 277
0.032143861 0.67900002 -0.044048995 6.0010747e-39 347 277
0.033383466 0.68000001 -0.044113863 6.6467944e-39 348 277
0.034677424 0.68199998 -0.044243611 6.8315444e-39 349 277
0.035873197 0.68199998 -0.044243611 8.1179462e-39 350 277
0.037068974 0.68199998 -0.044243611 1.0330281e-38 351 277
0.038264744 0.68199998 -0.044243611 1.226491e-38 352 277
0.039518382 0.68300003 -0.044308487 1.2818083e-38 353 277
0.040775519 0.68400002 -0.04437336 1.26369e-38 354 277
0.041974798 0.68400002 -0.04437336 1.26369e-38 355 277
0.043174081 0.68400002 -0.04437336 1.2452151e-38 356 277
