# .PCD v.7 - Point Cloud Data file format
FIELDS x y z rgb imX imY
SIZE 4 4 4 4 4 4
TYPE F F F F F F
COUNT 1 1 1 1 1 1
WIDTH 848
HEIGHT 1
VIEWPOINT 0 0 0 1 0 0 0
POINTS 848
DATA ascii
0.011133666 0.63499999 0.089069329 1.8531675e-38 330 160
0.012247032 0.63499999 0.089069329 1.8531675e-38 331 160
0.0133604 0.63499999 0.089069329 1.8531675e-38 332 160
0.014473766 0.63499999 0.089069329 1.8531675e-38 333 160
0.015587131 0.63499999 0.089069329 1.8623147e-38 334 160
0.016700499 0.63499999 0.089069329 1.8623147e-38 335 160
0.017813865 0.63499999 0.089069329 1.8532028e-38 336 160
0.018927233 0.63499999 0.089069329 1.8347637e-38 337 160
0.020009039 0.634 0.088929065 1.7702633e-38 338 160
0.021054026 0.63200003 0.088648535 1.5674329e-38 339 160
0.022162134 0.63200003 0.088648535 1.3832935e-38 340 160
-0.0067012399 0.63700002 0.088232994 1.558612e-38 314 161
-0.0055843666 0.63700002 0.088232994 1.8259793e-38 315 161
-0.0044745067 0.63800001 0.088371508 1.6058645e-38 316 161
-0.0033506199 0.63700002 0.088232994 1.6519622e-38 317 161
-0.0022337467 0.63700002 0.088232994 1.7622728e-38 318 161
-0.0011168733 0.63700002 0.088232994 1.7991146e-38 319 161
0 0.63700002 0.088232994 1.9459058e-38 320 161
0.0011168733 0.63700002 0.088232994 1.899808e-38 321 161
0.0022302398 0.63599998 0.088094473 1.9087379e-38 322 161
0.0033453598 0.63599998 0.088094473 1.8718957e-38 323 161
0.0044604796 0.63599998 0.088094473 1.8808987e-38 324 161
0.0055755996 0.63599998 0.088094473 1.8716792e-38 325 161
0.0066801999 0.63499999 0.087955967 1.8900101e-38 326 161
0.0077935657 0.63499999 0.087955967 1.8900101e-38 327 161
0.0089069325 0.63499999 0.087955967 1.8716789e-38 328 161
0.0100203 0.63499999 0.087955967 1.8624593e-38 329 161
0.011133666 0.63499999 0.087955967 1.8715713e-38 330 161
0.012247032 0.63499999 0.087955967 1.8715713e-38 331 161
0.0133604 0.63499999 0.087955967 1.8715707e-38 332 161
0.014473766 0.63499999 0.087955967 1.8715707e-38 333 161
0.015587131 0.63499999 0.087955967 1.8624944e-38 334 161
0.016726799 0.63599998 0.088094473 1.8624944e-38 335 161
0.017813865 0.63499999 0.087955967 1.8440195e-38 336 161
0.018927233 0.63499999 0.087955967 1.7057261e-38 337 161
0.0200406 0.63499999 0.087955967 1.5402065e-38 338 161
0.021054026 0.63200003 0.087540425 1.4019131e-38 339 161
0.022162134 0.63200003 0.087540425 1.3647823e-38 340 161
-0.0067117601 0.63800001 0.087252878 1.53117e-38 314 162
-0.0055931332 0.63800001 0.087252878 1.7985373e-38 315 162
-0.0044745067 0.63800001 0.087252878 1.6426351e-38 316 162
-0.00335588 0.63800001 0.087252878 1.6426351e-38 317 162
-0.0022372534 0.63800001 0.087252878 1.6702579e-38 318 162
-0.0011168733 0.63700002 0.087116122 1.7347939e-38 319 162
0 0.63700002 0.087116122 1.8266651e-38 320 162
0.0011168733 0.63700002 0.087116122 1.8174097e-38 321 162
0.0022302398 0.63599998 0.086979352 1.8815121e-38 322 162
0.0033453598 0.63599998 0.086979352 1.8722925e-38 323 162
0.0044604796 0.63599998 0.086979352 1.9179212e-38 324 162
0.0055755996 0.63599998 0.086979352 1.8902625e-38 325 162
0.0066801999 0.63499999 0.086842597 1.9361079e-38 326 162
0.0077935657 0.63499999 0.086842597 1.9361079e-38 327 162
0.0089069325 0.63499999 0.086842597 1.8809706e-38 328 162
0.0100203 0.63499999 0.086842597 1.8717511e-38 329 162
0.011133666 0.63499999 0.086842597 1.89923e-38 330 162
0.012227747 0.634 0.086705834 1.89923e-38 331 162
0.013339359 0.634 0.086705834 1.8717508e-38 332 162
0.014450972 0.634 0.086705834 1.8625312e-38 333 162
0.015587131 0.63499999 0.086842597 1.8533114e-38 334 162
0.016700499 0.63499999 0.086842597 1.797994e-38 335 162
0.017785814 0.634 0.086705834 1.705871e-38 336 162
0.018897425 0.634 0.086705834 1.5583578e-38 337 162
0.0200406 0.63499999 0.086842597 1.4844938e-38 338 162
0.021054026 0.63200003 0.086432323 1.4292123e-38 339 162
0.022162134 0.63200003 0.086432323 1.3830419e-38 340 162
-0.00679592 0.64600003 0.087214306 1.4852173e-38 314 163
-0.0056194332 0.64099997 0.086539268 1.7802073e-38 315 163
-0.0044885329 0.63999999 0.086404264 1.6609664e-38 316 163
-0.00335588 0.63800001 0.086134247 1.6425272e-38 317 163
-0.0022372534 0.63800001 0.086134247 1.6057937e-38 318 163
-0.0011186267 0.63800001 0.086134247 1.6426714e-38 319 163
0 0.63700002 0.08599925 1.7255027e-38 320 163
0.0011168733 0.63700002 0.08599925 1.7439416e-38 321 163
0.0022302398 0.63599998 0.085864238 1.89095e-38 322 163
0.0033453598 0.63599998 0.085864238 1.9001695e-38 323 163
0.0044604796 0.63599998 0.085864238 1.9550532e-38 324 163
0.0055755996 0.63599998 0.085864238 1.8905163e-38 325 163
0.0066907196 0.63599998 0.085864238 1.9364695e-38 326 163
0.0078058392 0.63599998 0.085864238 1.8903717e-38 327 163
0.0089209592 0.63599998 0.085864238 1.8443815e-38 328 163
0.0100203 0.63499999 0.085729234 1.853601e-38 329 163
0.011133666 0.63499999 0.085729234 1.8718957e-38 330 163
0.012227747 0.634 0.085594222 1.862676e-38 331 163
0.013339359 0.634 0.085594222 1.8443445e-38 332 163
0.014450972 0.634 0.085594222 1.8351249e-38 333 163
0.015587131 0.63499999 0.085729234 1.7428934e-38 334 163
0.016700499 0.63499999 0.085729234 1.6322945e-38 335 163
0.017785814 0.634 0.085594222 1.5125124e-38 336 163
0.018897425 0.634 0.085594222 1.4110973e-38 337 163
0.0200406 0.63499999 0.085729234 1.4107376e-38 338 163
0.021054026 0.63200003 0.085324213 1.4107376e-38 339 163
0.022162134 0.63200003 0.085324213 1.4289957e-38 340 163
-0.00679592 0.64600003 0.086081654 1.4851817e-38 314 164
-0.0056194332 0.64099997 0.085415386 1.7433295e-38 315 164
-0.0044955462 0.64099997 0.085415386 1.6149408e-38 316 164
-0.0033663998 0.63999999 0.085282132 1.6057213e-38 317 164
-0.0022372534 0.63800001 0.085015625 1.6241608e-38 318 164
-0.0011186267 0.63800001 0.085015625 1.6425997e-38 319 164
0 0.63800001 0.085015625 1.6702221e-38 320 164
0.0011168733 0.63700002 0.084882379 1.6702221e-38 321 164
0.0022337467 0.63700002 0.084882379 1.7345428e-38 322 164
0.0033453598 0.63599998 0.084749117 1.7437622e-38 323 164
0.0044604796 0.63599998 0.084749117 1.7896068e-38 324 164
0.0055755996 0.63599998 0.084749117 1.761948e-38 325 164
0.0066907196 0.63599998 0.084749117 1.7987174e-38 326 164
0.0078058392 0.63599998 0.084749117 1.7802424e-38 327 164
0.0089209592 0.63599998 0.084749117 1.7892456e-38 328 164
0.0100203 0.63499999 0.084615864 1.7892456e-38 329 164
0.011133666 0.63499999 0.084615864 1.7432187e-38 330 164
0.012247032 0.63499999 0.084615864 1.715524e-38 331 164
0.0133604 0.63499999 0.084615864 1.6602419e-38 332 164
0.014473766 0.63499999 0.084615864 1.6325832e-38 333 164
0.015587131 0.63499999 0.084615864 1.5219487e-38 334 164
0.016700499 0.63499999 0.084615864 1.475851e-38 335 164
0.017785814 0.634 0.08448261 1.4294654e-38 336 164
0.018897425 0.634 0.08448261 1.3833677e-38 337 164
0.0200406 0.63499999 0.084615864 1.4199575e-38 338 164
-0.0079531204 0.648 0.085211992 1.3743285e-38 313 165
-0.00679592 0.64600003 0.084949002 1.4943288e-38 314 165
-0.0056632664 0.64600003 0.084949002 1.7340735e-38 315 165
-0.00450256 0.64200002 0.084422998 1.5966096e-38 316 165
-0.0033716597 0.64099997 0.084291495 1.5873901e-38 317 165
-0.0022442664 0.63999999 0.08416 1.6149055e-38 318 165
-0.0011221332 0.63999999 0.08416 1.6333803e-38 319 165
0 0.63800001 0.083897002 1.6333803e-38 320 165
0.0011186267 0.63800001 0.083897002 1.6333803e-38 321 165
0.0022337467 0.63700002 0.083765499 1.6241607e-38 322 165
0.0033506199 0.63700002 0.083765499 1.6241607e-38 323 165
0.0044604796 0.63599998 0.083633989 1.6700417e-38 324 165
0.0055755996 0.63599998 0.083633989 1.6608222e-38 325 165
0.0066907196 0.63599998 0.083633989 1.6791161e-38 326 165
0.0078058392 0.63599998 0.083633989 1.660713e-38 327 165
0.0089209592 0.63599998 0.083633989 1.6697884e-38 328 165
0.0100203 0.63499999 0.083502494 1.6513134e-38 329 165
0.011133666 0.63499999 0.083502494 1.6236177e-38 330 165
0.012247032 0.63499999 0.083502494 1.5867753e-38 331 165
0.0133604 0.63499999 0.083502494 1.5312776e-38 332 165
0.014473766 0.63499999 0.083502494 1.5036189e-38 333 165
0.015611678 0.63599998 0.083633989 1.4390099e-38 334 165
0.016726799 0.63599998 0.083633989 1.4020958e-38 335 165
0.017841918 0.63599998 0.083633989 1.3557815e-38 336 165
0.018957037 0.63599998 0.083633989 1.3465619e-38 337 165
0.020198399 0.63999999 0.08416 1.3923711e-38 338 165
-0.0079408465 0.64700001 0.083946094 1.3284475e-38 313 166
-0.00679592 0.64600003 0.083816342 1.5128047e-38 314 166
-0.0056632664 0.64600003 0.083816342 1.7248905e-38 315 166
-0.0045165867 0.64399999 0.083556846 1.6057213e-38 316 166
-0.00337692 0.64200002 0.083297364 1.587318e-38 317 166
-0.00225128 0.64200002 0.083297364 1.6148336e-38 318 166
-0.0011238866 0.64099997 0.083167605 1.6240891e-38 319 166
0 0.63999999 0.083037868 1.6516396e-38 320 166
0.0011221332 0.63999999 0.083037868 1.64242e-38 321 166
0.0022372534 0.63800001 0.082778372 1.6240888e-38 322 166
0.0033506199 0.63700002 0.082648627 1.59643e-38 323 166
0.0044674934 0.63700002 0.082648627 1.5871382e-38 324 166
0.0055755996 0.63599998 0.082518876 1.5779187e-38 325 166
0.0066907196 0.63599998 0.082518876 1.5318562e-38 326 166
0.0078058392 0.63599998 0.082518876 1.4857224e-38 327 166
0.0089209592 0.63599998 0.082518876 1.5133446e-38 328 166
0.0100203 0.63499999 0.082389124 1.4764662e-38 329 166
0.011133666 0.63499999 0.082389124 1.4578823e-38 330 166
0.012266319 0.63599998 0.082518876 1.4486628e-38 331 166
0.013381439 0.63599998 0.082518876 1.4485179e-38 332 166
0.014496559 0.63599998 0.082518876 1.4392983e-38 333 166
0.015636226 0.63700002 0.082648627 1.4022759e-38 334 166
0.0167531 0.63700002 0.082648627 1.3469585e-38 335 166
0.017869974 0.63700002 0.082648627 1.3833327e-38 336 166
0.019076265 0.63999999 0.083037868 1.374113e-38 337 166
0.020261521 0.64200002 0.083297364 1.392443e-38 338 166
-0.0079408465 0.64700001 0.082811691 1.2914982e-38 313 167
-0.0068064397 0.64700001 0.082811691 1.439301e-38 314 167
-0.0056720334 0.64700001 0.082811691 1.6697899e-38 315 167
-0.0045306133 0.64600003 0.08268369 1.6239805e-38 316 167
-0.0033874398 0.64399999 0.082427703 1.6147609e-38 317 167
-0.00225128 0.64200002 0.082171716 1.587283e-38 318 167
-0.00112564 0.64200002 0.082171716 1.6056861e-38 319 167
0 0.64200002 0.082171716 1.6149055e-38 320 167
0.0011238866 0.64099997 0.082043722 1.6056861e-38 321 167
0.0022442664 0.63999999 0.081915729 1.5689155e-38 322 167
0.0033663998 0.63999999 0.081915729 1.5596959e-38 323 167
0.0044745067 0.63800001 0.081659749 1.577955e-38 324 167
0.0055931332 0.63800001 0.081659749 1.5503323e-38 325 167
0.0067012399 0.63700002 0.081531756 1.5686268e-38 326 167
0.0078181131 0.63700002 0.081531756 1.5317127e-38 327 167
0.0089349868 0.63700002 0.081531756 1.5317477e-38 328 167
0.010036079 0.63599998 0.081403755 1.4672108e-38 329 167
0.011151199 0.63599998 0.081403755 1.485469e-38 330 167
0.012285607 0.63700002 0.081531756 1.466994e-38 331 167
0.01340248 0.63700002 0.081531756 1.4392986e-38 332 167
0.014519353 0.63700002 0.081531756 1.4392986e-38 333 167
0.015660774 0.63800001 0.081659749 1.4113154e-38 334 167
0.016779399 0.63800001 0.081659749 1.374473e-38 335 167
0.017954132 0.63999999 0.081915729 1.3741483e-38 336 167
0.019106071 0.64099997 0.082043722 1.3649287e-38 337 167
0.020293079 0.64300001 0.082299709 1.3648919e-38 338 167
0.02158704 0.648 0.082939677 1.3556723e-38 339 167
-0.0079531204 0.648 0.081803516 1.199338e-38 313 168
-0.0068064397 0.64700001 0.08167728 1.4206816e-38 314 168
-0.0056720334 0.64700001 0.08167728 1.6972685e-38 315 168
-0.0045306133 0.64600003 0.081551038 1.6331282e-38 316 168
-0.0033874398 0.64399999 0.08129856 1.6239086e-38 317 168
-0.0022547867 0.64300001 0.081172317 1.6056493e-38 318 168
-0.00112564 0.64200002 0.081046082 1.6056493e-38 319 168
0 0.64200002 0.081046082 1.5873183e-38 320 168
0.0011238866 0.64099997 0.080919832 1.5688433e-38 321 168
0.0022477731 0.64099997 0.080919832 1.577955e-38 322 168
0.0033663998 0.63999999 0.080793597 1.5595519e-38 323 168
0.0044885329 0.63999999 0.080793597 1.5686635e-38 324 168
0.0056106662 0.63999999 0.080793597 1.5594438e-38 325 168
0.0067117601 0.63800001 0.080541119 1.5318209e-38 326 168
0.007830387 0.63800001 0.080541119 1.5133817e-38 327 168
0.0089349868 0.63700002 0.080414884 1.4949416e-38 328 168
0.01005186 0.63700002 0.080414884 1.4488798e-38 329 168
0.011168733 0.63700002 0.080414884 1.4486628e-38 330 168
0.012304893 0.63800001 0.080541119 1.4302236e-38 331 168
0.013465599 0.63999999 0.080793597 1.4392986e-38 332 168
0.014587732 0.63999999 0.080793597 1.4024205e-38 333 168
0.015709866 0.63999999 0.080793597 1.3836927e-38 334 168
0.016858298 0.64099997 0.080919832 1.3467784e-38 335 168
0.017982185 0.64099997 0.080919832 1.355637e-38 336 168
0.019165685 0.64300001 0.081172317 1.3648566e-38 337 168
0.020293079 0.64300001 0.081172317 1.36482e-38 338 168
0.02158704 0.648 0.081803516 1.36482e-38 339 168
-0.0068274797 0.64899999 0.080791838 1.3100822e-38 314 169
-0.0056720334 0.64700001 0.08054287 1.6512419e-38 315 169
-0.0045306133 0.64600003 0.080418386 1.6331282e-38 316 169
-0.0033874398 0.64399999 0.08016941 1.6331282e-38 317 169
-0.0022547867 0.64300001 0.080044925 1.5780982e-38 318 169
-0.0011273933 0.64300001 0.080044925 1.5780982e-38 319 169
0 0.64200002 0.079920441 1.59643e-38 320 169
0.00112564 0.64200002 0.079920441 1.577955e-38 321 169
0.0022477731 0.64099997 0.079795949 1.5778834e-38 322 169
0.0033716597 0.64099997 0.079795949 1.5686638e-38 323 169
0.0044885329 0.63999999 0.079671465 1.5594438e-38 324 169
0.0056106662 0.63999999 0.079671465 1.5502243e-38 325 169
0.0067327996 0.63999999 0.079671465 1.5226366e-38 326 169
0.0078549329 0.63999999 0.079671465 1.4949419e-38 327 169
0.0089770658 0.63999999 0.079671465 1.4856858e-38 328 169
0.01006764 0.63800001 0.079422489 1.439588e-38 329 169
0.011186266 0.63800001 0.079422489 1.4577744e-38 330 169
0.012343466 0.63999999 0.079671465 1.4301516e-38 331 169
0.013465599 0.63999999 0.079671465 1.4392267e-38 332 169
0.014610525 0.64099997 0.079795949 1.4023124e-38 333 169
0.015734414 0.64099997 0.079795949 1.3835847e-38 334 169
0.016884599 0.64200002 0.079920441 1.3467065e-38 335 169
0.01801024 0.64200002 0.079920441 1.3741117e-38 336 169
0.019284913 0.64700001 0.08054287 1.3741117e-38 337 169
0.02041932 0.64700001 0.08054287 1.3924783e-38 338 169
0.021653665 0.64999998 0.08091633 1.3648197e-38 339 169
0.022863466 0.65200001 0.081165306 1.3647118e-38 340 169
-0.0045376266 0.64700001 0.079408467 1.6331287e-38 316 170
-0.0034032199 0.64700001 0.079408467 1.669971e-38 317 170
-0.0022653067 0.64600003 0.079285733 1.587318e-38 318 170
-0.0011326533 0.64600003 0.079285733 1.5780985e-38 319 170
0 0.64399999 0.079040259 1.59643e-38 320 170
0.0011273933 0.64300001 0.078917533 1.5871745e-38 321 170
0.00225128 0.64200002 0.0787948 1.5595519e-38 322 170
0.00337692 0.64200002 0.0787948 1.5503323e-38 323 170
0.0044955462 0.64099997 0.078672059 1.5593717e-38 324 170
0.0056194332 0.64099997 0.078672059 1.5409325e-38 325 170
0.0067433193 0.64099997 0.078672059 1.531748e-38 326 170
0.0078672068 0.64099997 0.078672059 1.4949056e-38 327 170
0.0089770658 0.63999999 0.078549333 1.4763938e-38 328 170
0.0100992 0.63999999 0.078549333 1.4395154e-38 329 170
0.011221332 0.63999999 0.078549333 1.4485184e-38 330 170
0.012362752 0.64099997 0.078672059 1.439263e-38 331 170
0.013486639 0.64099997 0.078672059 1.4574858e-38 332 170
0.014610525 0.64099997 0.078672059 1.4206074e-38 333 170
0.01575896 0.64200002 0.0787948 1.3927676e-38 334 170
0.016910899 0.64300001 0.078917533 1.3743285e-38 335 170
0.018066347 0.64399999 0.079040259 1.3925507e-38 336 170
0.019284913 0.64700001 0.079408467 1.383331e-38 337 170
0.02041932 0.64700001 0.079408467 1.392478e-38 338 170
0.021653665 0.64999998 0.079776667 1.3463803e-38 339 170
0.022863466 0.65200001 0.080022126 1.3186496e-38 340 170
-0.00454464 0.648 0.078395039 1.4490258e-38 316 171
-0.00340848 0.648 0.078395039 1.6426356e-38 317 171
-0.0022688133 0.64700001 0.078274064 1.6240532e-38 318 171
-0.0011344067 0.64700001 0.078274064 1.5963947e-38 319 171
0 0.64600003 0.078153081 1.5688433e-38 320 171
0.0011326533 0.64600003 0.078153081 1.5596238e-38 321 171
0.0022582933 0.64399999 0.077911116 1.5595519e-38 322 171
0.0033821799 0.64300001 0.077790141 1.5411126e-38 323 171
0.0045095733 0.64300001 0.077790141 1.5318209e-38 324 171
0.0056369668 0.64300001 0.077790141 1.5226013e-38 325 171
0.00675384 0.64200002 0.077669159 1.4859023e-38 326 171
0.0078794798 0.64200002 0.077669159 1.4398045e-38 327 171
0.00900512 0.64200002 0.077669159 1.4947253e-38 328 171
0.010114979 0.64099997 0.077548169 1.4486633e-38 329 171
0.011238866 0.64099997 0.077548169 1.4760694e-38 330 171
0.01238204 0.64200002 0.077669159 1.4484466e-38 331 171
0.01350768 0.64200002 0.077669159 1.4483018e-38 332 171
0.01463332 0.64200002 0.077669159 1.4206071e-38 333 171
0.015783506 0.64300001 0.077790141 1.4020592e-38 334 171
0.0169372 0.64399999 0.077911116 1.38362e-38 335 171
0.018122453 0.64600003 0.078153081 1.4018424e-38 336 171
0.019284913 0.64700001 0.078274064 1.3741836e-38 337 171
0.02041932 0.64700001 0.078274064 1.3648553e-38 338 171
0.021653665 0.64999998 0.078636996 1.2726237e-38 339 171
-0.00227232 0.648 0.077258877 1.6240891e-38 318 172
-0.00113616 0.648 0.077258877 1.6333444e-38 319 172
0 0.64700001 0.077139653 1.5779553e-38 320 172
0.0011344067 0.64700001 0.077139653 1.5502967e-38 321 172
0.0022653067 0.64600003 0.077020429 1.5962143e-38 322 172
0.00339796 0.64600003 0.077020429 1.5778112e-38 323 172
0.0045306133 0.64600003 0.077020429 1.5777388e-38 324 172
0.0056457333 0.64399999 0.076781973 1.5500802e-38 325 172
0.0067748795 0.64399999 0.076781973 1.550259e-38 326 172
0.0079040267 0.64399999 0.076781973 1.4857221e-38 327 172
0.0090191467 0.64300001 0.076662742 1.5039804e-38 328 172
0.01014654 0.64300001 0.076662742 1.4855053e-38 329 172
0.011273934 0.64300001 0.076662742 1.4945804e-38 330 172
0.012401327 0.64300001 0.076662742 1.4577381e-38 331 172
0.01352872 0.64300001 0.076662742 1.4574858e-38 332 172
0.014656113 0.64300001 0.076662742 1.4390466e-38 333 172
0.015808053 0.64399999 0.076781973 1.42961e-38 334 172
0.016989801 0.64600003 0.077020429 1.4111708e-38 335 172
0.018122453 0.64600003 0.077020429 1.4109897e-38 336 172
0.019314719 0.648 0.077258877 1.3648919e-38 337 172
-0.0022758266 0.64899999 0.076240189 1.439879e-38 318 173
-0.00113616 0.648 0.076122716 1.6058296e-38 319 173
0 0.64700001 0.07600525 1.6884457e-38 320 173
0.0011344067 0.64700001 0.07600525 1.6423484e-38 321 173
0.0022688133 0.64700001 0.07600525 1.5963581e-38 322 173
0.00339796 0.64600003 0.075887777 1.5686635e-38 323 173
0.0045306133 0.64600003 0.075887777 1.5318206e-38 324 173
0.0056632664 0.64600003 0.075887777 1.5133815e-38 325 173
0.00679592 0.64600003 0.075887777 1.5133449e-38 326 173
0.0079040267 0.64399999 0.075652823 1.4949056e-38 327 173
0.0090331733 0.64399999 0.075652823 1.5039448e-38 328 173
0.01016232 0.64399999 0.075652823 1.4855057e-38 329 173
0.011291467 0.64399999 0.075652823 1.4578823e-38 330 173
0.012420613 0.64399999 0.075652823 1.4302236e-38 331 173
0.013549759 0.64399999 0.075652823 1.4575579e-38 332 173
0.014724494 0.64600003 0.075887777 1.4207157e-38 333 173
0.015857147 0.64600003 0.075887777 1.4112435e-38 334 173
0.0170161 0.64700001 0.07600525 1.3835847e-38 335 173
0.018150507 0.64700001 0.07600525 1.3465254e-38 336 173
0.019344525 0.64899999 0.076240189 1.2174515e-38 337 173
-0.00113616 0.648 0.074986562 1.3937795e-38 319 174
0 0.64700001 0.07487084 1.5962872e-38 320 174
0.0011344067 0.64700001 0.07487084 1.6423844e-38 321 174
0.0022688133 0.64700001 0.07487084 1.6607869e-38 322 174
0.00339796 0.64600003 0.074755117 1.614689e-38 323 174
0.0045306133 0.64600003 0.074755117 1.5411476e-38 324 174
0.0056632664 0.64600003 0.074755117 1.5227085e-38 325 174
0.00679592 0.64600003 0.074755117 1.5316758e-38 326 174
0.0079040267 0.64399999 0.074523672 1.5224561e-38 327 174
0.0090331733 0.64399999 0.074523672 1.5132e-38 328 174
0.01019388 0.64600003 0.074755117 1.4947609e-38 329 174
0.011326533 0.64600003 0.074755117 1.4761773e-38 330 174
0.012459187 0.64600003 0.074755117 1.4577381e-38 331 174
0.01359184 0.64600003 0.074755117 1.494292e-38 332 174
0.014724494 0.64600003 0.074755117 1.4481943e-38 333 174
0.015881693 0.64700001 0.07487084 1.4111354e-38 334 174
0.0170161 0.64700001 0.07487084 1.3281954e-38 335 174
0.01817856 0.648 0.074986562 1.2359982e-38 336 174
-0.0011396665 0.64999998 0.074078329 9.6920878e-39 319 175
0 0.648 0.073850393 1.2091727e-38 320 175
0.00113616 0.648 0.073850393 1.3567218e-38 321 175
0.0022688133 0.64700001 0.073736429 1.5132743e-38 322 175
0.0034032199 0.64700001 0.073736429 1.5778112e-38 323 175
0.0045376266 0.64700001 0.073736429 1.6055048e-38 324 175
0.0056720334 0.64700001 0.073736429 1.5962852e-38 325 175
0.00679592 0.64600003 0.073622465 1.6237271e-38 326 175
0.0079285735 0.64600003 0.073622465 1.605288e-38 327 175
0.0090612266 0.64600003 0.073622465 1.6143631e-38 328 175
0.01019388 0.64600003 0.073622465 1.5682653e-38 329 175
0.011326533 0.64600003 0.073622465 1.549681e-38 330 175
0.012459187 0.64600003 0.073622465 1.5035833e-38 331 175
0.013612879 0.64700001 0.073736429 1.475708e-38 332 175
0.014747286 0.64700001 0.073736429 1.3650734e-38 333 175
0.015881693 0.64700001 0.073736429 1.2451474e-38 334 175
0.0170424 0.648 0.073850393 1.1252571e-38 335 175
0.0011379133 0.64899999 0.072826453 1.162497e-38 321 176
0.00227232 0.648 0.072714239 1.2362191e-38 322 176
0.00340848 0.648 0.072714239 1.300756e-38 323 176
0.00454464 0.648 0.072714239 1.3102271e-38 324 176
0.0056720334 0.64700001 0.072602026 1.3563248e-38 325 176
0.0068064397 0.64700001 0.072602026 1.4391917e-38 326 176
0.0079408465 0.64700001 0.072602026 1.4576309e-38 327 176
0.0090752533 0.64700001 0.072602026 1.475781e-38 328 176
0.01020966 0.64700001 0.072602026 1.411244e-38 329 176
0.011344067 0.64700001 0.072602026 1.3557815e-38 330 176
0.012478473 0.64700001 0.072602026 1.2728054e-38 331 176
0.013612879 0.64700001 0.072602026 1.1807896e-38 332 176
0.014747286 0.64700001 0.072602026 1.1162526e-38 333 176
0.015881693 0.64700001 0.072602026 1.0425684e-38 334 176
0.0056807999 0.648 0.071578078 9.4137227e-39 325 177
0.0068169599 0.648 0.071578078 1.0792694e-38 326 177
0.0079531204 0.648 0.071578078 1.1253312e-38 327 177
0.0091033066 0.64899999 0.07168854 1.0885593e-38 328 177
0.01024122 0.64899999 0.07168854 1.0424255e-38 329 177
0.0113616 0.648 0.071578078 1.0053309e-38 330 177
0.01249776 0.648 0.071578078 9.5001352e-39 331 177
0.01363392 0.648 0.071578078 9.1335191e-39 332 177
0.014770079 0.648 0.071578078 9.3179103e-39 333 177
0.0079776663 0.64999998 0.070659332 1.3274388e-38 327 178
0.0091173323 0.64999998 0.070659332 1.2450373e-38 328 178
0.01024122 0.64899999 0.070550621 1.2542927e-38 329 178
0.011379133 0.64899999 0.070550621 1.3093226e-38 330 178
0.012517046 0.64899999 0.070550621 1.3462007e-38 331 178
0.013654959 0.64899999 0.070550621 1.383044e-38 332 178
0.014792874 0.64899999 0.070550621 1.4383614e-38 333 178
0.0091173323 0.64999998 0.069519661 1.5212982e-38 328 179
0.010256999 0.64999998 0.069519661 1.5581765e-38 329 179
-0.022944121 0.727 0.020394772 1.3746093e-38 302 224
-0.021669446 0.727 0.020394772 1.319292e-38 303 224
-0.020394772 0.727 0.020394772 1.0986707e-38 304 224
-0.0191464 0.72799999 0.020422826 1.071048e-38 305 224
-0.024252106 0.72799999 0.0191464 1.4391128e-38 301 225
-0.022944121 0.727 0.019120099 1.402231e-38 302 225
-0.021669446 0.727 0.019120099 1.3284745e-38 303 225
-0.020394772 0.727 0.019120099 1.0710801e-38 304 225
-0.019120099 0.727 0.019120099 1.0065432e-38 305 225
-0.017845426 0.727 0.019120099 1.0433165e-38 306 225
-0.025528532 0.72799999 0.017869972 1.4576615e-38 300 226
-0.024252106 0.72799999 0.017869972 1.4300027e-38 301 226
-0.022944121 0.727 0.017845426 1.347271e-38 302 226
-0.021669446 0.727 0.017845426 1.2366364e-38 303 226
-0.020394772 0.727 0.017845426 1.1539059e-38 304 226
-0.019120099 0.727 0.017845426 1.0525268e-38 305 226
-0.017845426 0.727 0.017845426 9.9735709e-39 306 226
-0.016593546 0.72799999 0.017869972 1.080369e-38 307 226
0.026584039 0.722 0.017722692 1.1624173e-38 341 226
0.027849946 0.722 0.017722692 1.0520306e-38 342 226
-0.025528532 0.72799999 0.016593546 1.4391869e-38 300 227
-0.024252106 0.72799999 0.016593546 1.3654304e-38 301 227
-0.022975679 0.72799999 0.016593546 1.3379805e-38 302 227
-0.021669446 0.727 0.016570752 1.282699e-38 303 227
-0.020394772 0.727 0.016570752 1.2274464e-38 304 227
-0.019120099 0.727 0.016570752 1.172129e-38 305 227
-0.017845426 0.727 0.016570752 1.0619254e-38 306 227
-0.016593546 0.72799999 0.016593546 1.0619254e-38 307 227
-0.01531712 0.72799999 0.016593546 1.0343445e-38 308 227
0.024085538 0.72299999 0.01647958 1.1899315e-38 339 227
0.025353199 0.72299999 0.01647958 1.079833e-38 340 227
0.026584039 0.722 0.016456785 1.0337354e-38 341 227
0.027849946 0.722 0.016456785 1.0888731e-38 342 227
0.029438468 0.73000002 0.016639132 1.07047e-38 343 227
0.030718399 0.73000002 0.016639132 1.1070649e-38 344 227
0.032042164 0.73100001 0.016661927 1.1623464e-38 345 227
-0.025528532 0.72799999 0.01531712 1.4391156e-38 300 228
-0.024252106 0.72799999 0.01531712 1.3468841e-38 301 228
-0.022975679 0.72799999 0.01531712 1.264549e-38 302 228
-0.021669446 0.727 0.015296079 1.2461098e-38 303 228
-0.020394772 0.727 0.015296079 1.3102425e-38 304 228
-0.0191464 0.72799999 0.01531712 1.236486e-38 305 228
-0.017869972 0.72799999 0.01531712 1.1355337e-38 306 228
-0.016593546 0.72799999 0.01531712 1.0893998e-38 307 228
-0.01531712 0.72799999 0.01531712 9.9760371e-39 308 228
0.024085538 0.72299999 0.015211919 1.0337707e-38 339 228
0.025353199 0.72299999 0.015211919 9.9714087e-39 340 228
0.026620859 0.72299999 0.015211919 9.8788543e-39 341 228
0.02788852 0.72299999 0.015211919 1.0152611e-38 342 228
0.029357811 0.72799999 0.01531712 1.0429199e-38 343 228
0.030718399 0.73000002 0.0153592 1.1345457e-38 344 228
0.032042164 0.73100001 0.01538024 1.171388e-38 345 228
0.033323854 0.73100001 0.01538024 1.3091429e-38 346 228
-0.027394081 0.74400002 0.01434928 1.5859463e-38 299 229
-0.025528532 0.72799999 0.014040692 1.4299673e-38 300 229
-0.024252106 0.72799999 0.014040692 1.2732708e-38 301 229
-0.022975679 0.72799999 0.014040692 1.1633876e-38 302 229
-0.021699252 0.72799999 0.014040692 1.2187048e-38 303 229
-0.020422826 0.72799999 0.014040692 1.3379047e-38 304 229
-0.019199001 0.73000002 0.014079267 1.2733678e-38 305 229
-0.017919067 0.73000002 0.014079267 1.1998555e-38 306 229
-0.016593546 0.72799999 0.014040692 1.1445381e-38 307 229
-0.01531712 0.72799999 0.014040692 1.0252585e-38 308 229
-0.014079267 0.73000002 0.014079267 1.0344782e-38 309 229
0.022975679 0.72799999 0.014040692 9.6058645e-39 338 229
0.024252106 0.72799999 0.014040692 9.5136675e-39 339 229
0.025528532 0.72799999 0.014040692 9.9696458e-39 340 229
0.026620859 0.72299999 0.01394426 9.8774502e-39 341 229
0.02788852 0.72299999 0.01394426 1.0057936e-38 342 229
0.029357811 0.72799999 0.014040692 1.0703305e-38 343 229
0.03076048 0.73100001 0.014098554 1.161954e-38 344 229
0.032042164 0.73100001 0.014098554 1.1527345e-38 345 229
0.033323854 0.73100001 0.014098554 1.3366937e-38 346 229
-0.02869856 0.74400002 0.0130448 1.5767623e-38 298 230
-0.027394081 0.74400002 0.0130448 1.5306645e-38 299 230
-0.025984399 0.741 0.0129922 1.420856e-38 300 230
-0.024252106 0.72799999 0.012764266 1.2917821e-38 301 230
-0.022975679 0.72799999 0.012764266 1.1448414e-38 302 230
-0.021699252 0.72799999 0.012764266 1.1540609e-38 303 230
-0.020478934 0.73000002 0.012799333 1.3013178e-38 304 230
-0.019199001 0.73000002 0.012799333 1.2828787e-38 305 230
-0.017919067 0.73000002 0.012799333 1.3193539e-38 306 230
-0.016639132 0.73000002 0.012799333 1.254817e-38 307 230
-0.0153592 0.73000002 0.012799333 1.1722314e-38 308 230
-0.014040692 0.72799999 0.012764266 1.1261696e-38 309 230
-0.012711667 0.72500002 0.012711667 9.8859477e-39 310 230
-0.01140894 0.72299999 0.012676599 9.7012005e-39 311 230
-0.01014128 0.72299999 0.012676599 9.4260836e-39 312 230
-0.0088613462 0.722 0.012659066 9.6104762e-39 313 230
-0.0075954394 0.722 0.012659066 9.7916935e-39 314 230
-0.0063295332 0.722 0.012659066 9.9764449e-39 315 230
0.022975679 0.72799999 0.012764266 9.511148e-39 338 230
0.024252106 0.72799999 0.012764266 9.4189523e-39 339 230
0.025528532 0.72799999 0.012764266 1.0241952e-38 340 230
0.026804959 0.72799999 0.012764266 1.0241952e-38 341 230
0.028081384 0.72799999 0.012764266 1.0608258e-38 342 230
0.029357811 0.72799999 0.012764266 1.0977041e-38 343 230
0.03076048 0.73100001 0.012816866 1.2078722e-38 344 230
0.032042164 0.73100001 0.012816866 1.2078722e-38 345 230
0.03815604 0.83700001 0.014675399 1.4011943e-38 346 230
0.039623581 0.83700001 0.014675399 1.6316474e-38 347 230
-0.030124018 0.74699998 0.011787659 1.7423898e-38 297 231
-0.02869856 0.74400002 0.011740319 1.5859819e-38 298 231
-0.027394081 0.74400002 0.011740319 1.5122254e-38 299 231
-0.025984399 0.741 0.01169298 1.4390803e-38 300 231
-0.024352046 0.73100001 0.01153518 1.4021661e-38 301 231
-0.023038799 0.73000002 0.011519399 1.1906165e-38 302 231
-0.021758866 0.73000002 0.011519399 1.11686e-38 303 231
-0.020506985 0.73100001 0.01153518 1.2371443e-38 304 231
-0.019225299 0.73100001 0.01153518 1.3109008e-38 305 231
-0.017943613 0.73100001 0.01153518 1.3470906e-38 306 231
-0.016639132 0.73000002 0.011519399 1.254931e-38 307 231
-0.0153592 0.73000002 0.011519399 1.2182596e-38 308 231
-0.014040692 0.72799999 0.01148784 1.1721616e-38 309 231
-0.012711667 0.72500002 0.0114405 1.0436245e-38 310 231
-0.01140894 0.72299999 0.01140894 1.0344049e-38 311 231
-0.01014128 0.72299999 0.01140894 9.6097307e-39 312 231
-0.0088613462 0.722 0.01139316 9.5175351e-39 313 231
-0.0075954394 0.722 0.01139316 1.0159683e-38 314 231
-0.0063295332 0.722 0.01139316 1.0067487e-38 315 231
-0.0050636264 0.722 0.01139316 9.5172268e-39 316 231
-0.0037872 0.72000003 0.011361601 9.7934536e-39 317 231
-0.0025248001 0.72000003 0.011361601 9.7906117e-39 318 231
-0.0012606466 0.71899998 0.01134582 9.9746429e-39 319 231
0 0.71899998 0.01134582 9.8810277e-39 320 231
0.0012606466 0.71899998 0.01134582 1.0157615e-38 321 231
0.01647958 0.72299999 0.01140894 9.4200047e-39 333 231
0.017747238 0.72299999 0.01140894 9.8809675e-39 334 231
0.020338668 0.72500002 0.0114405 1.006251e-38 336 231
0.021609833 0.72500002 0.0114405 1.006251e-38 337 231
0.022944121 0.727 0.01147206 9.5065363e-39 338 231
0.024252106 0.72799999 0.01148784 9.4143393e-39 339 231
0.025528532 0.72799999 0.01148784 1.0239829e-38 340 231
0.026804959 0.72799999 0.01148784 1.0700807e-38 341 231
0.028081384 0.72799999 0.01148784 1.0884495e-38 342 231
0.029357811 0.72799999 0.01148784 1.1252919e-38 343 231
0.03076048 0.73100001 0.01153518 1.1987605e-38 344 231
0.032042164 0.73100001 0.01153518 1.2079801e-38 345 231
0.03815604 0.83700001 0.013207859 1.4565114e-38 346 231
-0.031517919 0.74900001 0.010505973 1.74257e-38 296 232
-0.030124018 0.74699998 0.010477919 1.7333504e-38 297 232
-0.028775707 0.74599999 0.010463892 1.6411921e-38 298 232
-0.027467718 0.74599999 0.010463892 1.364605e-38 299 232
-0.026019465 0.74199998 0.010407786 1.2365032e-38 300 232
-0.024718491 0.74199998 0.010407786 1.4024555e-38 301 232
-0.023038799 0.73000002 0.010239467 1.282562e-38 302 232
-0.021758866 0.73000002 0.010239467 1.088987e-38 303 232
-0.020506985 0.73100001 0.010253493 1.0989956e-38 304 232
-0.019225299 0.73100001 0.010253493 1.2464726e-38 305 232
-0.017943613 0.73100001 0.010253493 1.3656046e-38 306 232
-0.016639132 0.73000002 0.010239467 1.2826285e-38 307 232
-0.0153592 0.73000002 0.010239467 1.162981e-38 308 232
-0.014040692 0.72799999 0.010211413 1.1261387e-38 309 232
-0.012764266 0.72799999 0.010211413 1.0620996e-38 310 232
-0.0114405 0.72500002 0.010169334 1.0160019e-38 311 232
-0.01014128 0.72299999 0.01014128 1.0160749e-38 312 232
-0.0088736191 0.72299999 0.01014128 1.0622088e-38 313 232
-0.0075954394 0.722 0.010127253 1.1720544e-38 314 232
-0.0063295332 0.722 0.010127253 1.1535794e-38 315 232
-0.0050636264 0.722 0.010127253 9.7930724e-39 316 232
-0.0037872 0.72000003 0.010099201 9.6086797e-39 317 232
-0.0025248001 0.72000003 0.010099201 9.7909172e-39 318 232
-0.0012606466 0.71899998 0.010085173 9.606526e-39 319 232
0 0.71899998 0.010085173 9.8816835e-39 320 232
0.0012606466 0.71899998 0.010085173 9.8816835e-39 321 232
0.0025212932 0.71899998 0.010085173 9.5143682e-39 322 232
0.0037819401 0.71899998 0.010085173 9.5143682e-39 323 232
0.01139316 0.722 0.010127253 9.9724596e-39 329 232
0.012659066 0.722 0.010127253 9.970659e-39 330 232
0.013924973 0.722 0.010127253 9.970659e-39 331 232
0.015211919 0.72299999 0.01014128 9.787718e-39 332 232
0.01647958 0.72299999 0.01014128 9.787718e-39 333 232
0.017747238 0.72299999 0.01014128 9.8781382e-39 334 232
0.0190675 0.72500002 0.010169334 9.4167999e-39 335 232
0.020338668 0.72500002 0.010169334 9.8691909e-39 336 232
0.021609833 0.72500002 0.010169334 1.0237973e-38 337 232
0.022944121 0.727 0.010197386 9.778852e-39 338 232
0.024252106 0.72799999 0.010211413 1.0055438e-38 339 232
0.025528532 0.72799999 0.010211413 1.0606469e-38 340 232
0.026804959 0.72799999 0.010211413 1.0974893e-38 341 232
0.028158534 0.73000002 0.010239467 1.1251482e-38 342 232
0.029438468 0.73000002 0.010239467 1.152771e-38 343 232
0.03076048 0.73100001 0.010253493 1.1802855e-38 344 232
0.032042164 0.73100001 0.010253493 1.1895051e-38 345 232
-0.031517919 0.74900001 0.0091927266 1.7608293e-38 296 233
-0.030204674 0.74900001 0.0091927266 1.7608293e-38 297 233
-0.028814279 0.74699998 0.0091681797 1.6689232e-38 298 233
-0.027504537 0.74699998 0.0091681797 1.3277635e-38 299 233
-0.026194798 0.74699998 0.0091681797 1.0796282e-38 300 233
-0.024885058 0.74699998 0.0091681797 1.3193727e-38 301 233
-0.023038799 0.73000002 0.0089595336 1.3100064e-38 302 233
-0.021758866 0.73000002 0.0089595336 1.1347988e-38 303 233
-0.020506985 0.73100001 0.0089718066 1.0251682e-38 304 233
-0.019225299 0.73100001 0.0089718066 1.1450226e-38 305 233
-0.017943613 0.73100001 0.0089718066 1.3567466e-38 306 233
-0.016639132 0.73000002 0.0089595336 1.3290877e-38 307 233
-0.0153592 0.73000002 0.0089595336 1.1814204e-38 308 233
-0.014040692 0.72799999 0.0089349858 1.1076639e-38 309 233
-0.012764266 0.72799999 0.0089349858 1.1262763e-38 310 233
-0.01147206 0.727 0.0089227129 1.1078733e-38 311 233
-0.010169334 0.72500002 0.0088981669 1.0252596e-38 312 233
-0.0088736191 0.72299999 0.0088736191 1.0805768e-38 313 233
-0.0076059597 0.72299999 0.0088736191 1.1355003e-38 314 233
-0.0063382997 0.72299999 0.0088736191 1.1262806e-38 315 233
-0.0050636264 0.722 0.0088613462 1.0526319e-38 316 233
-0.0037977197 0.722 0.0088613462 1.024973e-38 317 233
-0.0025318132 0.722 0.0088613462 9.0562234e-39 318 233
-0.0012624001 0.72000003 0.0088367993 8.9640264e-39 319 233
0 0.72000003 0.0088367993 8.4123044e-39 320 233
0.0012624001 0.72000003 0.0088367993 8.7807282e-39 321 233
0.0025212932 0.71899998 0.0088245263 8.5048503e-39 322 233
0.0037819401 0.71899998 0.0088245263 8.4126547e-39 323 233
0.0050496003 0.72000003 0.0088367993 8.5030497e-39 324 233
0.0063120001 0.72000003 0.0088367993 8.5952453e-39 325 233
0.0075954394 0.722 0.0088613462 8.5048657e-39 326 233
0.0088613462 0.722 0.0088613462 8.3204745e-39 327 233
0.01014128 0.72299999 0.0088736191 8.5034406e-39 328 233
0.01139316 0.722 0.0088613462 8.411245e-39 329 233
0.012659066 0.722 0.0088613462 9.1434402e-39 330 233
0.013924973 0.722 0.0088613462 9.3278329e-39 331 233
0.015211919 0.72299999 0.0088736191 1.0428459e-38 332 233
0.01647958 0.72299999 0.0088736191 1.0335905e-38 333 233
0.017796334 0.72500002 0.0088981669 1.042563e-38 334 233
0.0190675 0.72500002 0.0088981669 1.0148684e-38 335 233
0.020338668 0.72500002 0.0088981669 1.0419921e-38 336 233
0.021699252 0.72799999 0.0089349858 1.0327724e-38 337 233
0.022975679 0.72799999 0.0089349858 9.9611161e-39 338 233
0.024318734 0.73000002 0.0089595336 1.0053312e-38 339 233
0.025598666 0.73000002 0.0089595336 1.0421734e-38 340 233
0.026878599 0.73000002 0.0089595336 1.0790877e-38 341 233
0.028158534 0.73000002 0.0089595336 1.1067454e-38 342 233
0.029438468 0.73000002 0.0089595336 1.1528792e-38 343 233
0.030886721 0.73400003 0.0090086265 1.1986521e-38 344 233
-0.030244999 0.75 0.00789 1.7424268e-38 297 234
-0.028814279 0.74699998 0.0078584393 1.6229337e-38 298 234
-0.027504537 0.74699998 0.0078584393 1.383261e-38 299 234
-0.026194798 0.74699998 0.0078584393 1.2081981e-38 300 234
-0.024318734 0.73000002 0.0076795998 1.0699047e-38 301 234
-0.023038799 0.73000002 0.0076795998 1.0702994e-38 302 234
-0.021758866 0.73000002 0.0076795998 1.1624949e-38 303 234
-0.020506985 0.73100001 0.00769012 1.0065516e-38 304 234
-0.019225299 0.73100001 0.00769012 1.0342101e-38 305 234
-0.017943613 0.73100001 0.00769012 1.1911204e-38 306 234
-0.016661927 0.73100001 0.00769012 1.2740964e-38 307 234
-0.0153592 0.73000002 0.0076795998 1.2829843e-38 308 234
-0.014079267 0.73000002 0.0076795998 1.1446909e-38 309 234
-0.012764266 0.72799999 0.0076585598 1.1078028e-38 310 234
-0.01148784 0.72799999 0.0076585598 1.0985831e-38 311 234
-0.010197386 0.727 0.0076480396 1.062029e-38 312 234
-0.0088981669 0.72500002 0.0076270006 1.0989071e-38 313 234
-0.0076059597 0.72299999 0.0076059597 1.1355719e-38 314 234
-0.0063382997 0.72299999 0.0076059597 1.0987295e-38 315 234
-0.0050706398 0.72299999 0.0076059597 1.0250428e-38 316 234
-0.0037977197 0.722 0.0075954394 9.6976132e-39 317 234
-0.0025318132 0.722 0.0075954394 8.8728874e-39 318 234
-0.0012659066 0.722 0.0075954394 8.6884989e-39 319 234
0 0.722 0.0075954394 8.5055454e-39 320 234
0.0012659066 0.722 0.0075954394 8.2293214e-39 321 234
0.0025248001 0.72000003 0.0075743999 8.5037517e-39 322 234
0.0037872 0.72000003 0.0075743999 8.5037517e-39 323 234
0.0050496003 0.72000003 0.0075743999 8.319722e-39 324 234
0.0063120001 0.72000003 0.0075743999 8.319722e-39 325 234
0.0075954394 0.722 0.0075954394 8.0442155e-39 326 234
0.0088613462 0.722 0.0075954394 8.0442155e-39 327 234
0.01014128 0.72299999 0.0076059597 8.4097862e-39 328 234
0.01140894 0.72299999 0.0076059597 8.5019833e-39 329 234
0.012676599 0.72299999 0.0076059597 8.7718229e-39 330 234
0.01394426 0.72299999 0.0076059597 8.7718229e-39 331 234
0.015254001 0.72500002 0.0076270006 9.8703204e-39 332 234
0.016525166 0.72500002 0.0076270006 1.0147267e-38 333 234
0.017845426 0.727 0.0076480396 1.0605034e-38 334 234
0.019120099 0.727 0.0076480396 1.0605034e-38 335 234
0.020394772 0.727 0.0076480396 1.0512488e-38 336 234
0.021699252 0.72799999 0.0076585598 1.0143707e-38 337 234
0.022975679 0.72799999 0.0076585598 9.7760116e-39 338 234
0.024318734 0.73000002 0.0076795998 9.3153936e-39 339 234
0.025598666 0.73000002 0.0076795998 9.2257091e-39 340 234
0.026915418 0.73100001 0.00769012 1.0793395e-38 341 234
0.028197108 0.73100001 0.00769012 1.2078366e-38 342 234
0.029801406 0.73900002 0.0077742799 1.2355312e-38 343 234
0.03109712 0.73900002 0.0077742799 1.2170912e-38 344 234
-0.030244999 0.75 0.006575 1.7424268e-38 297 235
-0.028814279 0.74699998 0.0065486995 1.6137495e-38 298 235
-0.027504537 0.74699998 0.0065486995 1.4385778e-38 299 235
-0.026194798 0.74699998 0.0065486995 1.2544386e-38 300 235
-0.024318734 0.73000002 0.0063996664 1.1161452e-38 301 235
-0.023038799 0.73000002 0.0063996664 1.0333136e-38 302 235
-0.021758866 0.73000002 0.0063996664 1.1070701e-38 303 235
-0.020506985 0.73100001 0.006408433 1.1534903e-38 304 235
-0.019277899 0.73299998 0.0064259665 1.1719294e-38 305 235
-0.017992707 0.73299998 0.0064259665 1.1264408e-38 306 235
-0.016707512 0.73299998 0.0064259665 1.2555147e-38 307 235
-0.01538024 0.73100001 0.006408433 1.3384127e-38 308 235
-0.014098554 0.73100001 0.006408433 1.1540216e-38 309 235
-0.012799333 0.73000002 0.0063996664 1.0710353e-38 310 235
-0.01148784 0.72799999 0.0063821329 1.0434124e-38 311 235
-0.010197386 0.727 0.0063733663 1.0252949e-38 312 235
-0.0089227129 0.727 0.0063733663 1.0345145e-38 313 235
-0.0076480396 0.727 0.0063733663 9.6104468e-39 314 235
-0.0063733663 0.727 0.0063733663 9.1498288e-39 315 235
-0.0050706398 0.72299999 0.0063382997 9.6082888e-39 316 235
-0.0038029798 0.72299999 0.0063382997 9.5160946e-39 317 235
-0.0025353199 0.72299999 0.0063382997 8.6895751e-39 318 235
-0.0012676599 0.72299999 0.0063382997 8.5973809e-39 319 235
0 0.722 0.0063295332 8.2293214e-39 320 235
0.0012659066 0.722 0.0063295332 8.2293214e-39 321 235
0.0025318132 0.722 0.0063295332 8.4115575e-39 322 235
0.0037977197 0.722 0.0063295332 8.4115575e-39 323 235
0.0050636264 0.722 0.0063295332 8.0442155e-39 324 235
0.0063295332 0.722 0.0063295332 7.9520213e-39 325 235
0.0076059597 0.72299999 0.0063382997 7.4921263e-39 326 235
0.0088736191 0.72299999 0.0063382997 7.9531003e-39 327 235
0.010169334 0.72500002 0.0063558333 9.7870118e-39 328 235
0.0114405 0.72500002 0.0063558333 1.0063599e-38 329 235
0.012711667 0.72500002 0.0063558333 1.0058302e-38 330 235
0.013982833 0.72500002 0.0063558333 9.8742706e-39 331 235
0.015296079 0.727 0.0063733663 1.0055107e-38 332 235
0.016570752 0.727 0.0063733663 9.9629112e-39 333 235
0.017845426 0.727 0.0063733663 9.961835e-39 334 235
0.019120099 0.727 0.0063733663 9.7774451e-39 335 235
0.020394772 0.727 0.0063733663 9.9600413e-39 336 235
0.021699252 0.72799999 0.0063821329 9.7756487e-39 337 235
0.022975679 0.72799999 0.0063821329 9.8678443e-39 338 235
0.024318734 0.73000002 0.0063996664 1.0328822e-38 339 235
0.025633732 0.73100001 0.006408433 1.042209e-38 340 235
0.02702588 0.73400003 0.006434733 1.1528439e-38 341 235
0.028467119 0.73799998 0.0064697997 1.2355309e-38 342 235
0.029801406 0.73900002 0.0064785667 1.2539701e-38 343 235
0.03109712 0.73900002 0.0064785667 1.2447859e-38 344 235
-0.030244999 0.75 0.00526 1.7240232e-38 297 236
-0.028814279 0.74699998 0.0052389596 1.6045649e-38 298 236
-0.027504537 0.74699998 0.0052389596 1.4570879e-38 299 236
-0.02637013 0.75199997 0.0052740262 1.3190111e-38 300 236
-0.025051624 0.75199997 0.0052740262 1.2913166e-38 301 236
-0.02307036 0.73100001 0.0051267464 1.1252593e-38 302 236
-0.021788673 0.73100001 0.0051267464 1.0330637e-38 303 236
-0.020506985 0.73100001 0.0051267464 1.1809357e-38 304 236
-0.019277899 0.73299998 0.005140773 1.2823869e-38 305 236
-0.018017253 0.73400003 0.0051477868 1.1170437e-38 306 236
-0.016730307 0.73400003 0.0051477868 1.1631415e-38 307 236
-0.015422319 0.73299998 0.005140773 1.3199409e-38 308 236
-0.014098554 0.73100001 0.0051267464 1.2000866e-38 309 236
-0.012816866 0.73100001 0.0051267464 1.1079158e-38 310 236
-0.011519399 0.73000002 0.0051197335 1.0065006e-38 311 236
-0.010211413 0.72799999 0.0051057064 1.0067825e-38 312 236
-0.0089349858 0.72799999 0.0051057064 1.0067825e-38 313 236
-0.0076480396 0.727 0.0050986931 8.5988158e-39 314 236
-0.0063733663 0.727 0.0050986931 8.5066216e-39 315 236
-0.0050846669 0.72500002 0.0050846669 9.3324236e-39 316 236
-0.0038135003 0.72500002 0.0050846669 9.3324236e-39 317 236
-0.0025353199 0.72299999 0.0050706398 9.0561996e-39 318 236
-0.0012676599 0.72299999 0.0050706398 9.0561996e-39 319 236
0 0.72299999 0.0050706398 9.0554821e-39 320 236
0.0012711667 0.72500002 0.0050846669 9.0554821e-39 321 236
0.0025353199 0.72299999 0.0050706398 8.5041104e-39 322 236
0.0038029798 0.72299999 0.0050706398 8.4119162e-39 323 236
0.0050706398 0.72299999 0.0050706398 7.9516625e-39 324 236
0.0063558333 0.72500002 0.0050846669 7.9516625e-39 325 236
0.0076270006 0.72500002 0.0050846669 7.4914369e-39 326 236
0.0088981669 0.72500002 0.0050846669 9.0591227e-39 327 236
0.010169334 0.72500002 0.0050846669 1.2085834e-38 328 236
0.0114405 0.72500002 0.0050846669 1.1901441e-38 329 236
0.012711667 0.72500002 0.0050846669 1.0977041e-38 330 236
0.014021406 0.727 0.0050986931 1.0700454e-38 331 236
0.015296079 0.727 0.0050986931 1.0238789e-38 332 236
0.016593546 0.72799999 0.0051057064 9.7781696e-39 333 236
0.017869972 0.72799999 0.0051057064 9.5934224e-39 334 236
0.0191464 0.72799999 0.0051057064 9.3171943e-39 335 236
0.020422826 0.72799999 0.0051057064 9.7752955e-39 336 236
0.021758866 0.73000002 0.0051197335 9.9596882e-39 337 236
0.023038799 0.73000002 0.0051197335 1.0238419e-38 338 236
0.024352046 0.73100001 0.0051267464 1.106854e-38 339 236
0.025703866 0.73299998 0.005140773 1.1987605e-38 340 236
0.027173158 0.73799998 0.0051758396 1.2263832e-38 341 236
0.028505694 0.73900002 0.0051828534 1.2356026e-38 342 236
0.029801406 0.73900002 0.0051828534 1.2448581e-38 343 236
0.031223357 0.74199998 0.0052038929 1.2631527e-38 344 236
0.032524332 0.74199998 0.0052038929 1.2446776e-38 345 236
-0.030244999 0.75 0.003945 1.7148037e-38 297 237
-0.028929999 0.75 0.003945 1.5952733e-38 298 237
-0.027688639 0.75199997 0.0039555198 1.4846387e-38 299 237
-0.02637013 0.75199997 0.0039555198 1.4294304e-38 300 237
-0.025051624 0.75199997 0.0039555198 1.374113e-38 301 237
-0.023669999 0.75 0.003945 1.1069647e-38 302 237
-0.022355 0.75 0.003945 9.5945168e-39 303 237
-0.020563092 0.73299998 0.0038555798 1.0241688e-38 304 237
-0.019277899 0.73299998 0.0038555798 1.2269992e-38 305 237
-0.018017253 0.73400003 0.0038608401 1.3287359e-38 306 237
-0.016775893 0.736 0.0038713599 1.3011131e-38 307 237
-0.01544336 0.73400003 0.0038608401 1.3198365e-38 308 237
-0.014156413 0.73400003 0.0038608401 1.2829941e-38 309 237
-0.012851933 0.73299998 0.0038555798 1.3103225e-38 310 237
-0.011519399 0.73000002 0.0038397999 1.2181269e-38 311 237
-0.010239467 0.73000002 0.0038397999 1.1721991e-38 312 237
-0.0089349858 0.72799999 0.0038292799 1.0339056e-38 313 237
-0.0076585598 0.72799999 0.0038292799 9.0569171e-39 314 237
-0.0063733663 0.727 0.0038240198 9.3334998e-39 315 237
-0.0050986931 0.727 0.0038240198 9.4242675e-39 316 237
-0.0038240198 0.727 0.0038240198 9.7004942e-39 317 237
-0.0025493465 0.727 0.0038240198 1.0710336e-38 318 237
-0.0012764266 0.72799999 0.0038292799 1.0710336e-38 319 237
0 0.72799999 0.0038292799 1.0525573e-38 320 237
0.0012746733 0.727 0.0038240198 1.0248985e-38 321 237
0.0025493465 0.727 0.0038240198 8.6881402e-39 322 237
0.0038135003 0.72500002 0.0038135003 8.4119162e-39 323 237
0.0050846669 0.72500002 0.0038135003 7.8594683e-39 324 237
0.0063733663 0.727 0.0038240198 7.5832443e-39 325 237
0.0076480396 0.727 0.0038240198 6.9397303e-39 326 237
0.0089227129 0.727 0.0038240198 9.7977962e-39 327 237
0.010197386 0.727 0.0038240198 1.3647805e-38 328 237
0.01147206 0.727 0.0038240198 1.2725849e-38 329 237
0.012746733 0.727 0.0038240198 9.688841e-39 330 237
0.014021406 0.727 0.0038240198 9.0434716e-39 331 237
0.01531712 0.72799999 0.0038292799 9.6845488e-39 332 237
0.016593546 0.72799999 0.0038292799 9.6845488e-39 333 237
0.017869972 0.72799999 0.0038292799 9.3168383e-39 334 237
0.0191464 0.72799999 0.0038292799 9.3168383e-39 335 237
0.020478934 0.73000002 0.0038397999 9.6852523e-39 336 237
0.021758866 0.73000002 0.0038397999 1.014587e-38 337 237
0.02307036 0.73100001 0.00384506 1.0607555e-38 338 237
0.024418673 0.73299998 0.0038555798 1.0884142e-38 339 237
0.025914267 0.73900002 0.00388714 1.1619543e-38 340 237
0.027283618 0.741 0.0038976599 1.1987965e-38 341 237
0.028582839 0.741 0.0038976599 1.2172717e-38 342 237
0.029922385 0.74199998 0.0039029196 1.2357108e-38 343 237
0.031223357 0.74199998 0.0039029196 1.2630451e-38 344 237
0.032743499 0.74699998 0.0039292197 1.2538255e-38 345 237
-0.030325651 0.75199997 0.0026370131 1.7331705e-38 297 238
-0.029007144 0.75199997 0.0026370131 1.6042781e-38 298 238
-0.027688639 0.75199997 0.0026370131 1.4844238e-38 299 238
-0.02637013 0.75199997 0.0026370131 1.4753857e-38 300 238
-0.025051624 0.75199997 0.0026370131 1.3463118e-38 301 238
-0.023669999 0.75 0.00263 1.1161114e-38 302 238
-0.022355 0.75 0.00263 1.0055126e-38 303 238
-0.021011947 0.74900001 0.0026264933 9.9647413e-39 304 238
-0.0194357 0.73900002 0.0025914267 1.1808654e-38 305 238
-0.018139986 0.73900002 0.0025914267 1.4022425e-38 306 238
-0.016844273 0.73900002 0.0025914267 1.4575959e-38 307 238
-0.015527519 0.73799998 0.0025879198 1.4024927e-38 308 238
-0.014194986 0.736 0.0025809065 1.4024927e-38 309 238
-0.012869466 0.73400003 0.0025738934 1.4576636e-38 310 238
-0.011582521 0.73400003 0.0025738934 1.3931267e-38 311 238
