# .PCD v.7 - Point Cloud Data file format
FIELDS x y z rgb imX imY
SIZE 4 4 4 4 4 4
TYPE F F F F F F
COUNT 1 1 1 1 1 1
WIDTH 822
HEIGHT 1
VIEWPOINT 0 0 0 1 0 0 0
POINTS 822
DATA ascii
-0.051989835 0.70599997 -0.0012378532 1.1064923e-38 278 241
-0.050608214 0.704 -0.0012343467 1.115712e-38 279 241
-0.049163464 0.70099998 -0.0012290865 1.0695785e-38 280 241
-0.047865998 0.69999999 -0.0012273333 1.0050415e-38 281 241
-0.046505414 0.69800001 -0.0012238267 9.5890868e-39 282 241
-0.045216713 0.69700003 -0.0012220733 9.4046955e-39 283 241
-0.043994639 0.69700003 -0.0012220733 9.313223e-39 284 241
-0.042711195 0.69599998 -0.0012203199 9.313223e-39 285 241
-0.041371655 0.69400001 -0.0012168133 9.4990436e-39 286 241
-0.04009698 0.69300002 -0.00121506 9.8674659e-39 287 241
-0.038769703 0.69099998 -0.0012115532 1.0328077e-38 288 241
-0.03755815 0.69099998 -0.0012115532 1.0328077e-38 289 241
-0.036346599 0.69099998 -0.0012115532 1.0692911e-38 290 241
-0.035135046 0.69099998 -0.0012115532 1.0692911e-38 291 241
-0.0338744 0.69 -0.0012097999 1.0692913e-38 292 241
-0.032664597 0.69 -0.0012097999 1.0692913e-38 293 241
-0.031454802 0.69 -0.0012097999 1.0692911e-38 294 241
-0.030157333 0.68800002 -0.0012062934 1.0692911e-38 295 241
-0.028951041 0.68800002 -0.0012062934 1.0601071e-38 296 241
-0.027744746 0.68800002 -0.0012062934 1.0601071e-38 297 241
-0.026499879 0.68699998 -0.0012045399 1.0327355e-38 298 241
-0.025295338 0.68699998 -0.0012045399 1.106492e-38 299 241
-0.024090799 0.68699998 -0.0012045399 1.1338986e-38 300 241
-0.022886258 0.68699998 -0.0012045399 8.4812819e-39 301 241
-0.021713281 0.68800002 -0.0012062934 9.5883399e-39 302 241
-0.020506985 0.68800002 -0.0012062934 1.1156024e-38 303 241
-0.019300694 0.68800002 -0.0012062934 1.1061263e-38 304 241
-0.018146999 0.69 -0.0012097999 9.9552755e-39 305 241
-0.0169372 0.69 -0.0012097999 7.4717164e-39 306 241
-0.015681813 0.68800002 -0.0012062934 7.6557475e-39 307 241
-0.014475521 0.68800002 -0.0012062934 9.2216705e-39 308 241
-0.013269227 0.68800002 -0.0012062934 1.0328018e-38 309 241
-0.012062933 0.68800002 -0.0012062934 1.0785815e-38 310 241
-0.010888199 0.69 -0.0012097999 5.43811e-39 311 241
-0.0096783992 0.69 -0.0012097999 2.1187198e-39 312 241
-0.0084686 0.69 -0.0012097999 6.820697e-39 313 241
-0.0072693196 0.69099998 -0.0012115532 8.106754e-39 314 241
-0.0060577663 0.69099998 -0.0012115532 7.0004065e-39 315 241
-0.0048672534 0.69400001 -0.0012168133 5.8969456e-39 316 241
-0.0036504399 0.69400001 -0.0012168133 5.5281631e-39 317 241
-0.0024441467 0.69700003 -0.0012220733 5.2519461e-39 318 241
-0.0012238267 0.69800001 -0.0012238267 5.3441418e-39 319 241
0 0.69800001 -0.0012238267 5.1604764e-39 320 241
0.0012273333 0.69999999 -0.0012273333 5.4370619e-39 321 241
0.0024581731 0.70099998 -0.0012290865 5.8983945e-39 322 241
0.0036977797 0.70300001 -0.0012325933 6.1746213e-39 323 241
0.0049373866 0.704 -0.0012343467 6.9110793e-39 324 241
0.0061892662 0.70599997 -0.0012378532 8.2940138e-39 325 241
0.0074271196 0.70599997 -0.0012378532 9.3992627e-39 326 241
-0.056097899 0.71100003 -0.0024932399 1.4289248e-38 275 242
-0.054774132 0.70999998 -0.0024897333 1.2355662e-38 276 242
-0.053303085 0.70700002 -0.0024792133 1.0511751e-38 277 242
-0.051989835 0.70599997 -0.0024757064 1.1155684e-38 278 242
-0.050751984 0.70599997 -0.0024757064 1.1248238e-38 279 242
-0.049373865 0.704 -0.0024686933 1.0787261e-38 280 242
-0.047865998 0.69999999 -0.0024546667 1.0234088e-38 281 242
-0.046505414 0.69800001 -0.0024476533 9.7720361e-39 282 242
-0.045281585 0.69800001 -0.0024476533 9.7720361e-39 283 242
-0.043994639 0.69700003 -0.0024441467 9.4057745e-39 284 242
-0.042711195 0.69599998 -0.0024406398 9.4057745e-39 285 242
-0.041371655 0.69400001 -0.0024336267 9.2217434e-39 286 242
-0.04009698 0.69300002 -0.00243012 9.5908861e-39 287 242
-0.03888192 0.69300002 -0.00243012 9.8671128e-39 288 242
-0.03755815 0.69099998 -0.0024231065 9.6830817e-39 289 242
-0.036346599 0.69099998 -0.0024231065 9.9567945e-39 290 242
-0.035135046 0.69099998 -0.0024231065 9.8645975e-39 291 242
-0.033923492 0.69099998 -0.0024231065 9.8645975e-39 292 242
-0.032664597 0.69 -0.0024195998 9.8645975e-39 293 242
-0.031454802 0.69 -0.0024195998 9.8638786e-39 294 242
-0.030244999 0.69 -0.0024195998 9.771683e-39 295 242
-0.028951041 0.68800002 -0.0024125867 9.2203057e-39 296 242
-0.027744746 0.68800002 -0.0024125867 9.6812824e-39 297 242
-0.026499879 0.68699998 -0.0024090798 1.0327355e-38 298 242
-0.025295338 0.68699998 -0.0024090798 1.1157117e-38 299 242
-0.024090799 0.68699998 -0.0024090798 1.1247514e-38 300 242
-0.022919573 0.68800002 -0.0024125867 8.2972536e-39 301 242
-0.021776399 0.69 -0.0024195998 8.3934023e-39 302 242
-0.020566599 0.69 -0.0024195998 1.0144759e-38 303 242
-0.019356798 0.69 -0.0024195998 1.0879052e-38 304 242
-0.018146999 0.69 -0.0024195998 1.0233683e-38 305 242
-0.0169372 0.69 -0.0024195998 9.8630771e-39 306 242
-0.015727401 0.69 -0.0024195998 9.7708814e-39 307 242
-0.014517599 0.69 -0.0024195998 1.0415545e-38 308 242
-0.0133078 0.69 -0.0024195998 1.1060914e-38 309 242
-0.012097999 0.69 -0.0024195998 1.0877645e-38 310 242
-0.010888199 0.69 -0.0024195998 5.8065254e-39 311 242
-0.0096924258 0.69099998 -0.0024231065 2.2116427e-39 312 242
-0.008480873 0.69099998 -0.0024231065 5.9916622e-39 313 242
-0.0072693196 0.69099998 -0.0024231065 7.0025715e-39 314 242
-0.0060753003 0.69300002 -0.00243012 6.1728108e-39 315 242
-0.0048672534 0.69400001 -0.0024336267 5.7121984e-39 316 242
-0.0036504399 0.69400001 -0.0024336267 5.2515804e-39 317 242
-0.0024441467 0.69700003 -0.0024441467 4.9753648e-39 318 242
-0.0012238267 0.69800001 -0.0024476533 5.3437886e-39 319 242
0 0.69800001 -0.0024476533 5.8973183e-39 320 242
0.0012273333 0.69999999 -0.0024546667 6.2661009e-39 321 242
0.0024581731 0.70099998 -0.0024581731 6.818183e-39 322 242
0.0037030398 0.704 -0.0024686933 7.6479437e-39 323 242
0.0049373866 0.704 -0.0024686933 9.3052748e-39 324 242
0.0061892662 0.70599997 -0.0024757064 9.766253e-39 325 242
0.0074376399 0.70700002 -0.0024792133 9.4936107e-39 326 242
0.0087140659 0.70999998 -0.0024897333 1.0692153e-38 327 242
0.0099589331 0.70999998 -0.0024897333 1.2814104e-38 328 242
-0.056255698 0.713 -0.0037503797 1.4566915e-38 275 243
-0.054774132 0.70999998 -0.0037345996 1.2632969e-38 276 243
-0.053378478 0.708 -0.00372408 1.051247e-38 277 243
-0.05206348 0.70700002 -0.0037188199 1.0971653e-38 278 243
-0.050751984 0.70599997 -0.0037135598 1.1248238e-38 279 243
-0.049373865 0.704 -0.0037030398 1.0695785e-38 280 243
-0.047934376 0.70099998 -0.0036872597 1.0050415e-38 281 243
-0.046638668 0.69999999 -0.0036819996 9.6809195e-39 282 243
-0.045281585 0.69800001 -0.0036714801 9.5883651e-39 283 243
-0.043994639 0.69700003 -0.00366622 9.2217462e-39 284 243
-0.042711195 0.69599998 -0.0036609597 9.0377151e-39 285 243
-0.041490879 0.69599998 -0.0036609597 8.8526036e-39 286 243
-0.040154841 0.69400001 -0.0036504399 9.4054186e-39 287 243
-0.03888192 0.69300002 -0.0036451798 9.7745542e-39 288 243
-0.037666857 0.69300002 -0.0036451798 9.7745542e-39 289 243
-0.036451802 0.69300002 -0.0036451798 9.6816384e-39 290 243
-0.035236739 0.69300002 -0.0036451798 9.4968884e-39 291 243
-0.033923492 0.69099998 -0.0036346598 9.4961723e-39 292 243
-0.032711938 0.69099998 -0.0036346598 9.4961723e-39 293 243
-0.031500384 0.69099998 -0.0036346598 9.4958164e-39 294 243
-0.030244999 0.69 -0.0036293997 9.3114251e-39 295 243
-0.029035198 0.69 -0.0036293997 8.8533182e-39 296 243
-0.027744746 0.68800002 -0.0036188802 9.314295e-39 297 243
-0.026538454 0.68800002 -0.0036188802 1.0602866e-38 298 243
-0.02533216 0.68800002 -0.0036188802 1.1248235e-38 299 243
-0.024125867 0.68800002 -0.0036188802 1.1247519e-38 300 243
-0.022919573 0.68800002 -0.0036188802 8.0206723e-39 301 243
-0.021776399 0.69 -0.0036293997 7.655847e-39 302 243
-0.020566599 0.69 -0.0036293997 9.6841509e-39 303 243
-0.019356798 0.69 -0.0036293997 1.0786516e-38 304 243
-0.0181733 0.69099998 -0.0036346598 1.0878712e-38 305 243
-0.016961746 0.69099998 -0.0036346598 1.1244961e-38 306 243
-0.015750192 0.69099998 -0.0036346598 1.1152406e-38 307 243
-0.014538639 0.69099998 -0.0036346598 1.1242803e-38 308 243
-0.013327086 0.69099998 -0.0036346598 1.1427554e-38 309 243
-0.012115533 0.69099998 -0.0036346598 1.0968762e-38 310 243
-0.01090398 0.69099998 -0.0036346598 6.0823948e-39 311 243
-0.0096924258 0.69099998 -0.0036346598 2.0286962e-39 312 243
-0.008480873 0.69099998 -0.0036346598 4.6101739e-39 313 243
-0.0072903596 0.69300002 -0.0036451798 4.8856845e-39 314 243
-0.0060840664 0.69400001 -0.0036504399 5.2544657e-39 315 243
-0.0048812795 0.69599998 -0.0036609597 5.5296078e-39 316 243
-0.0036609597 0.69599998 -0.0036609597 4.9764354e-39 317 243
-0.0024441467 0.69700003 -0.00366622 4.7913239e-39 318 243
-0.0012238267 0.69800001 -0.0036714801 5.6210846e-39 319 243
0 0.69800001 -0.0036714801 6.9110975e-39 320 243
0.0012273333 0.69999999 -0.0036819996 7.7408582e-39 321 243
0.0024581731 0.70099998 -0.0036872597 8.1092666e-39 322 243
0.0037030398 0.704 -0.0037030398 9.400004e-39 323 243
0.0049373866 0.704 -0.0037030398 1.1149538e-38 324 243
0.0061892662 0.70599997 -0.0037135598 1.0319777e-38 325 243
0.0074376399 0.70700002 -0.0037188199 8.6649291e-39 326 243
0.0087140659 0.70999998 -0.0037345996 1.0231895e-38 327 243
0.0099589331 0.70999998 -0.0037345996 1.318181e-38 328 243
-0.0563346 0.71399999 -0.0050075199 1.493714e-38 275 244
-0.054851279 0.71100003 -0.0049864799 1.3001752e-38 276 244
-0.053529263 0.70999998 -0.0049794666 1.0420274e-38 277 244
-0.052137118 0.708 -0.0049654399 1.0327002e-38 278 244
-0.050823875 0.70700002 -0.0049584266 1.0880176e-38 279 244
-0.04951413 0.70599997 -0.0049514128 1.0511398e-38 280 244
-0.048139516 0.704 -0.0049373866 1.0050059e-38 281 244
-0.046705291 0.70099998 -0.0049163462 9.4968884e-39 282 244
-0.04541133 0.69999999 -0.0049093333 9.4968884e-39 283 244
-0.04405776 0.69800001 -0.0048953067 9.0377151e-39 284 244
-0.042772565 0.69700003 -0.0048882933 8.8533238e-39 285 244
-0.041490879 0.69599998 -0.0048812795 9.035913e-39 286 244
-0.040154841 0.69400001 -0.0048672534 9.6812824e-39 287 244
-0.03888192 0.69300002 -0.00486024 9.8674659e-39 288 244
-0.037666857 0.69300002 -0.00486024 9.5912392e-39 289 244
-0.036451802 0.69300002 -0.00486024 9.4046927e-39 290 244
-0.035236739 0.69300002 -0.00486024 9.2206616e-39 291 244
-0.033923492 0.69099998 -0.0048462129 9.311781e-39 292 244
-0.032711938 0.69099998 -0.0048462129 9.311781e-39 293 244
-0.031500384 0.69099998 -0.0048462129 9.12811e-39 294 244
-0.030244999 0.69 -0.0048391996 9.035913e-39 295 244
-0.029035198 0.69 -0.0048391996 9.0366333e-39 296 244
-0.027825398 0.69 -0.0048391996 8.6682095e-39 297 244
-0.026615599 0.69 -0.0048391996 9.6809167e-39 298 244
-0.02533216 0.68800002 -0.0048251734 1.069471e-38 299 244
-0.024125867 0.68800002 -0.0048251734 1.152303e-38 300 244
-0.022986198 0.69 -0.0048391996 8.4805756e-39 301 244
-0.021807959 0.69099998 -0.0048462129 7.9317136e-39 302 244
-0.020596405 0.69099998 -0.0048462129 1.0052213e-38 303 244
-0.019384852 0.69099998 -0.0048462129 1.1153506e-38 304 244
-0.018225901 0.69300002 -0.00486024 1.1245703e-38 305 244
-0.01701084 0.69300002 -0.00486024 1.1153854e-38 306 244
-0.015750192 0.69099998 -0.0048462129 1.1061658e-38 307 244
-0.014538639 0.69099998 -0.0048462129 1.0968744e-38 308 244
-0.013327086 0.69099998 -0.0048462129 1.1060939e-38 309 244
-0.012115533 0.69099998 -0.0048462129 1.069397e-38 310 244
-0.01090398 0.69099998 -0.0048462129 5.7154074e-39 311 244
-0.0097204801 0.69300002 -0.00486024 1.6599095e-39 312 244
-0.0085054198 0.69300002 -0.00486024 3.319791e-39 313 244
-0.0072903596 0.69300002 -0.00486024 3.778258e-39 314 244
-0.0060840664 0.69400001 -0.0048672534 4.7927701e-39 315 244
-0.0048812795 0.69599998 -0.0048812795 4.9771515e-39 316 244
-0.0036609597 0.69599998 -0.0048812795 5.0697059e-39 317 244
-0.0024441467 0.69700003 -0.0048882933 6.2682463e-39 318 244
-0.0012238267 0.69800001 -0.0048953067 7.3749525e-39 319 244
0 0.69800001 -0.0048953067 9.1244961e-39 320 244
0.0012273333 0.69999999 -0.0049093333 9.8620611e-39 321 244
0.0024581731 0.70099998 -0.0049163462 1.0320869e-38 322 244
0.0037030398 0.704 -0.0049373866 1.0689651e-38 323 244
0.0049373866 0.704 -0.0049373866 1.0782553e-38 324 244
0.0061980332 0.70700002 -0.0049584266 9.7684025e-39 325 244
0.0074481601 0.708 -0.0049654399 7.2845141e-39 326 244
0.0087140659 0.70999998 -0.0049794666 9.128068e-39 327 244
0.0099729598 0.71100003 -0.0049864799 1.3364401e-38 328 244
-0.059250388 0.71899998 -0.0063032326 1.521445e-38 273 245
-0.057828441 0.71700001 -0.0062857 1.5306648e-38 274 245
-0.0563346 0.71399999 -0.0062593995 1.5306648e-38 275 245
-0.055005573 0.713 -0.0062506334 1.3370537e-38 276 245
-0.053604662 0.71100003 -0.0062330998 1.0604668e-38 277 245
-0.052137118 0.708 -0.0062067998 1.0694343e-38 278 245
-0.050895758 0.708 -0.0062067998 1.1247517e-38 279 245
-0.04951413 0.70599997 -0.0061892662 1.0695429e-38 280 245
-0.048139516 0.704 -0.0061717331 1.0050059e-38 281 245
-0.046705291 0.70099998 -0.0061454331 9.4046955e-39 282 245
-0.04541133 0.69999999 -0.0061366665 9.4046955e-39 283 245
-0.04405776 0.69800001 -0.006119133 9.0377151e-39 284 245
-0.042772565 0.69700003 -0.0061103669 8.8533238e-39 285 245
-0.041490879 0.69599998 -0.0061015999 8.8526036e-39 286 245
-0.040154841 0.69400001 -0.0060840664 9.4054186e-39 287 245
-0.038938027 0.69400001 -0.0060840664 9.5908861e-39 288 245
-0.037666857 0.69300002 -0.0060753003 9.2217434e-39 289 245
-0.036451802 0.69300002 -0.0060753003 8.9433643e-39 290 245
-0.035236739 0.69300002 -0.0060753003 8.758973e-39 291 245
-0.034021679 0.69300002 -0.0060753003 8.0239331e-39 292 245
-0.032711938 0.69099998 -0.0060577663 8.0239331e-39 293 245
-0.031500384 0.69099998 -0.0060577663 8.0239331e-39 294 245
-0.030288832 0.69099998 -0.0060577663 8.0239331e-39 295 245
-0.029077278 0.69099998 -0.0060577663 8.2997997e-39 296 245
-0.027825398 0.69 -0.0060489997 8.2997997e-39 297 245
-0.026615599 0.69 -0.0060489997 8.9455167e-39 298 245
-0.025405798 0.69 -0.0060489997 1.0328451e-38 299 245
-0.024195999 0.69 -0.0060489997 1.152303e-38 300 245
-0.022986198 0.69 -0.0060489997 8.38838e-39 301 245
-0.021871079 0.69300002 -0.0060753003 7.7476797e-39 302 245
-0.020656019 0.69300002 -0.0060753003 1.0144406e-38 303 245
-0.01944096 0.69300002 -0.0060753003 1.1154224e-38 304 245
-0.018225901 0.69300002 -0.0060753003 1.1062027e-38 305 245
-0.01701084 0.69300002 -0.0060753003 1.1061658e-38 306 245
-0.015795778 0.69300002 -0.0060753003 1.1061658e-38 307 245
-0.014580719 0.69300002 -0.0060753003 1.1152412e-38 308 245
-0.01336566 0.69300002 -0.0060753003 1.1244607e-38 309 245
-0.012150601 0.69300002 -0.0060753003 1.0969465e-38 310 245
-0.010935539 0.69300002 -0.0060753003 6.7284677e-39 311 245
-0.0097204801 0.69300002 -0.0060753003 3.8621593e-39 312 245
-0.0085054198 0.69300002 -0.0060753003 5.1528968e-39 313 245
-0.0073008798 0.69400001 -0.0060840664 3.5953017e-39 314 245
-0.0060840664 0.69400001 -0.0060840664 4.7934861e-39 315 245
-0.0048812795 0.69599998 -0.0061015999 6.1746115e-39 316 245
-0.0036609597 0.69599998 -0.0061015999 7.0962077e-39 317 245
-0.0024476533 0.69800001 -0.006119133 8.2039817e-39 318 245
-0.0012238267 0.69800001 -0.006119133 9.4947206e-39 319 245
0 0.69800001 -0.006119133 9.5879756e-39 320 245
0.0012273333 0.69999999 -0.0061366665 9.9563994e-39 321 245
0.0024581731 0.70099998 -0.0061454331 1.0140781e-38 322 245
0.0037030398 0.704 -0.0061717331 9.9560308e-39 323 245
0.0049373866 0.704 -0.0061717331 9.9538686e-39 324 245
0.0062067998 0.708 -0.0062067998 9.1237492e-39 325 245
0.0074691991 0.70999998 -0.0062243328 7.0965243e-39 326 245
0.0087263398 0.71100003 -0.0062330998 9.4936107e-39 327 245
0.0099729598 0.71100003 -0.0062330998 1.3639173e-38 328 245
0.01121958 0.71100003 -0.0062330998 1.6497237e-38 329 245
0.0124662 0.71100003 -0.0062330998 1.6680187e-38 330 245
0.01371282 0.71100003 -0.0062330998 1.6495437e-38 331 245
-0.060511041 0.71899998 -0.0075638802 1.5122973e-38 272 246
-0.059085581 0.71700001 -0.0075428397 1.5122973e-38 273 246
-0.057828441 0.71700001 -0.0075428397 1.5122973e-38 274 246
-0.0563346 0.71399999 -0.0075112795 1.5122973e-38 275 246
-0.055005573 0.713 -0.0075007593 1.3554568e-38 276 246
-0.053604662 0.71100003 -0.0074797203 1.1250037e-38 277 246
-0.052284397 0.70999998 -0.0074691991 1.1433347e-38 278 246
-0.051039528 0.70999998 -0.0074691991 1.115712e-38 279 246
-0.049584266 0.70700002 -0.0074376399 1.0605384e-38 280 246
-0.048276275 0.70599997 -0.0074271196 9.4993953e-39 281 246
-0.046705291 0.70099998 -0.0073745195 9.1273856e-39 282 246
-0.04541133 0.69999999 -0.0073639993 9.4039739e-39 283 246
-0.04405776 0.69800001 -0.0073429602 9.0377179e-39 284 246
-0.042833932 0.69800001 -0.0073429602 8.8529679e-39 285 246
-0.041550495 0.69700003 -0.00733244 8.8504498e-39 286 246
-0.040270556 0.69599998 -0.0073219193 9.4958192e-39 287 246
-0.038938027 0.69400001 -0.0073008798 9.3139446e-39 288 246
-0.037666857 0.69300002 -0.0072903596 8.7607709e-39 289 246
-0.036451802 0.69300002 -0.0072903596 8.5731524e-39 290 246
-0.035236739 0.69300002 -0.0072903596 7.927783e-39 291 246
-0.034021679 0.69300002 -0.0072903596 7.8341552e-39 292 246
-0.03280662 0.69300002 -0.0072903596 7.7416009e-39 293 246
-0.031500384 0.69099998 -0.0072693196 8.0181836e-39 294 246
-0.030288832 0.69099998 -0.0072693196 8.2951306e-39 295 246
-0.029077278 0.69099998 -0.0072693196 8.2050804e-39 296 246
-0.027865725 0.69099998 -0.0072693196 9.1266765e-39 297 246
-0.026654173 0.69099998 -0.0072693196 9.4986764e-39 298 246
-0.025442619 0.69099998 -0.0072693196 1.0420274e-38 299 246
-0.024231065 0.69099998 -0.0072693196 1.1523024e-38 300 246
-0.023019511 0.69099998 -0.0072693196 8.4809288e-39 301 246
-0.021871079 0.69300002 -0.0072903596 7.8405942e-39 302 246
-0.020656019 0.69300002 -0.0072903596 9.9610937e-39 303 246
-0.01944096 0.69300002 -0.0072903596 1.1429018e-38 304 246
-0.018225901 0.69300002 -0.0072903596 1.1244267e-38 305 246
-0.01701084 0.69300002 -0.0072903596 1.124462e-38 306 246
-0.015795778 0.69300002 -0.0072903596 1.1060589e-38 307 246
-0.014580719 0.69300002 -0.0072903596 1.1151703e-38 308 246
-0.01336566 0.69300002 -0.0072903596 1.1244257e-38 309 246
-0.012150601 0.69300002 -0.0072903596 1.1061305e-38 310 246
-0.010935539 0.69300002 -0.0072903596 8.6645787e-39 311 246
-0.0097345067 0.69400001 -0.0073008798 7.0065147e-39 312 246
-0.0085176928 0.69400001 -0.0073008798 7.928471e-39 313 246
-0.0073008798 0.69400001 -0.0073008798 8.8486351e-39 314 246
-0.0061015999 0.69599998 -0.0073219193 9.4018089e-39 315 246
-0.0048882933 0.69700003 -0.00733244 1.0412715e-38 316 246
-0.00366622 0.69700003 -0.00733244 1.0412715e-38 317 246
-0.0024476533 0.69800001 -0.0073429602 1.0413785e-38 318 246
-0.0012238267 0.69800001 -0.0073429602 9.9531652e-39 319 246
0 0.69999999 -0.0073639993 9.3103139e-39 320 246
0.0012290865 0.70099998 -0.0073745195 9.1259212e-39 321 246
0.0024651866 0.70300001 -0.0073955595 9.4936289e-39 322 246
0.0037030398 0.704 -0.0074060797 9.3095978e-39 323 246
0.0049373866 0.704 -0.0074060797 9.4914611e-39 324 246
0.0062243328 0.70999998 -0.0074691991 9.030483e-39 325 246
0.0074797203 0.71100003 -0.0074797203 7.0068483e-39 326 246
0.0087263398 0.71100003 -0.0074797203 9.5883259e-39 327 246
0.0099729598 0.71100003 -0.0074797203 1.391576e-38 328 246
0.01121958 0.71100003 -0.0074797203 1.6589434e-38 329 246
0.0124662 0.71100003 -0.0074797203 1.6863849e-38 330 246
0.01371282 0.71100003 -0.0074797203 1.6679458e-38 331 246
-0.059085581 0.71700001 -0.0087999795 1.5489592e-38 273 247
-0.057828441 0.71700001 -0.0087999795 1.5857654e-38 274 247
-0.056492399 0.71600002 -0.0087877065 1.57651e-38 275 247
-0.05508272 0.71399999 -0.0087631596 1.392191e-38 276 247
-0.053755447 0.713 -0.0087508867 1.1985802e-38 277 247
-0.052284397 0.70999998 -0.0087140659 1.2168031e-38 278 247
-0.051039528 0.70999998 -0.0087140659 1.1983281e-38 279 247
-0.049654398 0.708 -0.008689519 1.1155674e-38 280 247
-0.048276275 0.70599997 -0.0086649731 1.0418109e-38 281 247
-0.046905171 0.704 -0.0086404262 9.4046899e-39 282 247
-0.045476202 0.70099998 -0.0086036054 9.4046899e-39 283 247
-0.044183996 0.69999999 -0.0085913334 9.2210301e-39 284 247
-0.042833932 0.69800001 -0.0085667865 9.0362802e-39 285 247
-0.041550495 0.69700003 -0.0085545136 8.5778229e-39 286 247
-0.040328421 0.69700003 -0.0085545136 8.6703773e-39 287 247
-0.039106347 0.69700003 -0.0085545136 9.0377151e-39 288 247
-0.037721213 0.69400001 -0.0085176928 8.7607681e-39 289 247
-0.036504399 0.69400001 -0.0085176928 8.2050832e-39 290 247
-0.035287585 0.69400001 -0.0085176928 7.6519094e-39 291 247
-0.034021679 0.69300002 -0.0085054198 7.0083546e-39 292 247
-0.03280662 0.69300002 -0.0085054198 6.916159e-39 293 247
-0.031591557 0.69300002 -0.0085054198 6.3655062e-39 294 247
-0.0303765 0.69300002 -0.0085054198 6.5498974e-39 295 247
-0.029077278 0.69099998 -0.008480873 7.1941682e-39 296 247
-0.027865725 0.69099998 -0.008480873 8.3927114e-39 297 247
-0.026654173 0.69099998 -0.008480873 1.0049326e-38 298 247
-0.025442619 0.69099998 -0.008480873 1.1063478e-38 299 247
-0.024231065 0.69099998 -0.008480873 1.124787e-38 300 247
-0.023019511 0.69099998 -0.008480873 8.5741964e-39 301 247
-0.021871079 0.69300002 -0.0085054198 7.840597e-39 302 247
-0.020656019 0.69300002 -0.0085054198 9.8689009e-39 303 247
-0.01944096 0.69300002 -0.0085054198 1.1061676e-38 304 247
-0.0182522 0.69400001 -0.0085176928 1.0785091e-38 305 247
-0.017035386 0.69400001 -0.0085176928 1.0969112e-38 306 247
-0.015795778 0.69300002 -0.0085054198 1.0969112e-38 307 247
-0.014580719 0.69300002 -0.0085054198 1.0876192e-38 308 247
-0.013384946 0.69400001 -0.0085176928 1.0968746e-38 309 247
-0.012168133 0.69400001 -0.0085176928 1.0969109e-38 310 247
-0.01095132 0.69400001 -0.0085176928 9.7705662e-39 311 247
-0.0097345067 0.69400001 -0.0085176928 8.4812791e-39 312 247
-0.0085176928 0.69400001 -0.0085176928 9.3106796e-39 313 247
-0.0073219193 0.69599998 -0.0085422397 1.05989e-38 314 247
-0.0061103669 0.69700003 -0.0085545136 1.05989e-38 315 247
-0.0048953067 0.69800001 -0.0085667865 1.0691436e-38 316 247
-0.0036714801 0.69800001 -0.0085667865 1.0414491e-38 317 247
-0.0024476533 0.69800001 -0.0085667865 9.4936135e-39 318 247
-0.0012273333 0.69999999 -0.0085913334 9.0326354e-39 319 247
0 0.69999999 -0.0085913334 8.5716782e-39 320 247
0.0012290865 0.70099998 -0.0086036054 8.6638753e-39 321 247
0.0024651866 0.70300001 -0.0086281532 8.5716923e-39 322 247
0.0037030398 0.704 -0.0086404262 8.4794966e-39 323 247
0.0049373866 0.704 -0.0086404262 8.4791239e-39 324 247
0.0062067998 0.708 -0.008689519 8.3869283e-39 325 247
0.0074691991 0.70999998 -0.0087140659 7.1919626e-39 326 247
0.0087263398 0.71100003 -0.0087263398 9.8656358e-39 327 247
0.0099729598 0.71100003 -0.0087263398 1.428274e-38 328 247
0.011251139 0.713 -0.0087508867 1.6680187e-38 329 247
0.012501267 0.713 -0.0087508867 1.686313e-38 330 247
-0.059003171 0.71600002 -0.010043093 1.6039153e-38 273 248
-0.057747785 0.71600002 -0.010043093 1.6222465e-38 274 248
-0.056492399 0.71600002 -0.010043093 1.6038433e-38 275 248
-0.05508272 0.71399999 -0.01001504 1.4195253e-38 276 248
-0.053830836 0.71399999 -0.01001504 1.2259145e-38 277 248
-0.052505318 0.713 -0.010001013 1.1892883e-38 278 248
-0.051111419 0.71100003 -0.0099729598 1.1708492e-38 279 248
-0.049654398 0.708 -0.0099308798 1.1341504e-38 280 248
-0.048276275 0.70599997 -0.0099028256 1.0880526e-38 281 248
-0.046905171 0.704 -0.0098747732 1.0327005e-38 282 248
-0.045476202 0.70099998 -0.0098326923 9.7738326e-39 283 248
-0.044183996 0.69999999 -0.0098186666 9.2213931e-39 284 248
-0.042956665 0.69999999 -0.0098186666 8.7607737e-39 285 248
-0.041610107 0.69800001 -0.0097906133 8.5760237e-39 286 248
-0.040328421 0.69700003 -0.0097765867 9.037362e-39 287 248
-0.039106347 0.69700003 -0.0097765867 9.0384339e-39 288 248
-0.037829921 0.69599998 -0.0097625591 8.4852602e-39 289 248
-0.036609598 0.69599998 -0.0097625591 8.1146826e-39 290 248
-0.035287585 0.69400001 -0.0097345067 7.4693132e-39 291 248
-0.034070771 0.69400001 -0.0097345067 7.008705e-39 292 248
-0.03280662 0.69300002 -0.0097204801 6.9165093e-39 293 248
-0.031591557 0.69300002 -0.0097204801 6.6410015e-39 294 248
-0.0303765 0.69300002 -0.0097204801 6.7331971e-39 295 248
-0.029161438 0.69300002 -0.0097204801 7.1945214e-39 296 248
-0.027865725 0.69099998 -0.0096924258 8.3930645e-39 297 248
-0.026654173 0.69099998 -0.0096924258 1.0048247e-38 298 248
-0.025442619 0.69099998 -0.0096924258 1.0878008e-38 299 248
-0.024231065 0.69099998 -0.0096924258 1.1154599e-38 300 248
-0.023019511 0.69099998 -0.0096924258 8.8497071e-39 301 248
-0.021902639 0.69400001 -0.0097345067 7.840597e-39 302 248
-0.020685827 0.69400001 -0.0097345067 9.3157271e-39 303 248
-0.019469013 0.69400001 -0.0097345067 1.0784012e-38 304 248
-0.0182522 0.69400001 -0.0097345067 1.0784012e-38 305 248
-0.017035386 0.69400001 -0.0097345067 1.0968037e-38 306 248
-0.015818574 0.69400001 -0.0097345067 1.0783646e-38 307 248
-0.01460176 0.69400001 -0.0097345067 1.0600331e-38 308 248
-0.013384946 0.69400001 -0.0097345067 1.0600331e-38 309 248
-0.012168133 0.69400001 -0.0097345067 1.0783646e-38 310 248
-0.01095132 0.69400001 -0.0097345067 9.6772985e-39 311 248
-0.0097625591 0.69599998 -0.0097625591 8.8468176e-39 312 248
-0.0085422397 0.69599998 -0.0097625591 9.3999914e-39 313 248
-0.0073219193 0.69599998 -0.0097625591 9.8627646e-39 314 248
-0.0061103669 0.69700003 -0.0097765867 9.770569e-39 315 248
-0.0048953067 0.69800001 -0.0097906133 9.6783733e-39 316 248
-0.0036714801 0.69800001 -0.0097906133 9.2173952e-39 317 248
-0.0024476533 0.69800001 -0.0097906133 8.3869283e-39 318 248
-0.0012273333 0.69999999 -0.0098186666 7.9263102e-39 319 248
0 0.69999999 -0.0098186666 8.2936606e-39 320 248
0.0012325933 0.70300001 -0.0098607466 8.5702461e-39 321 248
0.0024651866 0.70300001 -0.0098607466 8.5713265e-39 322 248
0.0037030398 0.704 -0.0098747732 8.5713265e-39 323 248
0.0049373866 0.704 -0.0098747732 8.4794798e-39 324 248
0.0062067998 0.708 -0.0099308798 8.2950886e-39 325 248
0.0074481601 0.708 -0.0099308798 6.9125044e-39 326 248
0.0087263398 0.71100003 -0.0099729598 1.0508134e-38 327 248
0.0099729598 0.71100003 -0.0099729598 1.4467136e-38 328 248
0.011251139 0.713 -0.010001013 1.6679831e-38 329 248
0.012501267 0.713 -0.010001013 1.6954247e-38 330 248
-0.06025856 0.71600002 -0.01129848 1.6496884e-38 272 249
-0.059003171 0.71600002 -0.01129848 1.6496884e-38 273 249
-0.057747785 0.71600002 -0.01129848 1.6404689e-38 274 249
-0.056492399 0.71600002 -0.01129848 1.6312493e-38 275 249
-0.055237014 0.71600002 -0.01129848 1.391758e-38 276 249
-0.053830836 0.71399999 -0.011266919 1.1704526e-38 277 249
-0.052505318 0.713 -0.011251139 1.115604e-38 278 249
-0.051111419 0.71100003 -0.01121958 1.1432628e-38 279 249
-0.049794663 0.70999998 -0.011203799 1.14337e-38 280 249
-0.048276275 0.70599997 -0.011140679 1.14337e-38 281 249
-0.046905171 0.704 -0.011109119 1.0789062e-38 282 249
-0.04560595 0.70300001 -0.01109334 9.6823558e-39 283 249
-0.044183996 0.69999999 -0.011045999 9.1266821e-39 284 249
-0.042956665 0.69999999 -0.011045999 9.1266821e-39 285 249
-0.041610107 0.69800001 -0.01101444 8.2093964e-39 286 249
-0.040328421 0.69700003 -0.01099866 8.5781789e-39 287 249
-0.039106347 0.69700003 -0.01099866 9.0377123e-39 288 249
-0.037884273 0.69700003 -0.01099866 8.6689284e-39 289 249
-0.036609598 0.69599998 -0.010982879 8.2057964e-39 290 249
-0.035389278 0.69599998 -0.010982879 7.6529814e-39 291 249
-0.034070771 0.69400001 -0.01095132 7.2838499e-39 292 249
-0.032853961 0.69400001 -0.01095132 7.1916543e-39 293 249
-0.031591557 0.69300002 -0.010935539 6.7321167e-39 294 249
-0.0303765 0.69300002 -0.010935539 6.9165093e-39 295 249
-0.029161438 0.69300002 -0.010935539 7.1030446e-39 296 249
-0.027946379 0.69300002 -0.010935539 8.2097523e-39 297 249
-0.02673132 0.69300002 -0.010935539 1.0230838e-38 298 249
-0.02551626 0.69300002 -0.010935539 1.1153153e-38 299 249
-0.024301201 0.69300002 -0.010935539 1.0510305e-38 300 249
-0.02308614 0.69300002 -0.010935539 8.4820008e-39 301 249
-0.021902639 0.69400001 -0.01095132 8.0213897e-39 302 249
-0.020685827 0.69400001 -0.01095132 9.6812698e-39 303 249
-0.019469013 0.69400001 -0.01095132 1.0415951e-38 304 249
-0.0182522 0.69400001 -0.01095132 1.0415951e-38 305 249
-0.017035386 0.69400001 -0.01095132 1.0325192e-38 306 249
-0.015818574 0.69400001 -0.01095132 1.014044e-38 307 249
-0.01460176 0.69400001 -0.01095132 1.0140077e-38 308 249
-0.013423519 0.69599998 -0.010982879 1.0140077e-38 309 249
-0.0122032 0.69599998 -0.010982879 1.0140077e-38 310 249
-0.010982879 0.69599998 -0.010982879 8.4801959e-39 311 249
-0.0097625591 0.69599998 -0.010982879 7.5564487e-39 312 249
-0.0085545136 0.69700003 -0.01099866 8.2940138e-39 313 249
-0.00733244 0.69700003 -0.01099866 8.018859e-39 314 249
-0.006119133 0.69800001 -0.01101444 7.9263032e-39 315 249
-0.0048953067 0.69800001 -0.01101444 7.4678502e-39 316 249
-0.0036714801 0.69800001 -0.01101444 7.6518813e-39 317 249
-0.0024546667 0.69999999 -0.011045999 7.8341244e-39 318 249
-0.0012273333 0.69999999 -0.011045999 8.0188744e-39 319 249
0 0.70099998 -0.011061779 8.0206695e-39 320 249
0.0012343467 0.704 -0.011109119 8.2968976e-39 321 249
0.0024686933 0.704 -0.011109119 8.4812819e-39 322 249
0.0037030398 0.704 -0.011109119 8.665313e-39 323 249
0.0049514128 0.70599997 -0.011140679 8.3890835e-39 324 249
0.0062067998 0.708 -0.01117224 6.5451709e-39 325 249
0.0074481601 0.708 -0.01117224 4.5197341e-39 326 249
0.0087263398 0.71100003 -0.01121958 9.5904937e-39 327 249
0.0099729598 0.71100003 -0.01121958 1.4376019e-38 328 249
0.011251139 0.713 -0.011251139 1.6588354e-38 329 249
0.012501267 0.713 -0.011251139 1.6770938e-38 330 249
-0.060511041 0.71899998 -0.012606465 1.6588354e-38 272 250
-0.059250388 0.71899998 -0.012606465 1.6496158e-38 273 250
-0.057828441 0.71700001 -0.0125714 1.6587635e-38 274 250
-0.056492399 0.71600002 -0.012553867 1.6587635e-38 275 250
-0.055237014 0.71600002 -0.012553867 1.3915777e-38 276 250
-0.053830836 0.71399999 -0.012518799 1.068893e-38 277 250
-0.052505318 0.713 -0.012501267 9.8663813e-39 278 250
-0.051111419 0.71100003 -0.0124662 1.0787978e-38 279 250
-0.049794663 0.70999998 -0.012448666 1.1064923e-38 280 250
-0.048276275 0.70599997 -0.012378532 1.1525901e-38 281 250
-0.046905171 0.704 -0.012343466 1.0881625e-38 282 250
-0.04560595 0.70300001 -0.012325933 9.4064934e-39 283 250
-0.044183996 0.69999999 -0.012273333 9.1259633e-39 284 250
-0.042956665 0.69999999 -0.012273333 9.0334089e-39 285 250
-0.041610107 0.69800001 -0.012238266 8.1179224e-39 286 250
-0.040386278 0.69800001 -0.012238266 8.3945107e-39 287 250
-0.039106347 0.69700003 -0.012220734 8.6703717e-39 288 250
-0.037884273 0.69700003 -0.012220734 8.2097523e-39 289 250
-0.036609598 0.69599998 -0.0122032 8.2983508e-39 290 250
-0.035389278 0.69599998 -0.0122032 7.745177e-39 291 250
-0.034070771 0.69400001 -0.012168133 7.4682342e-39 292 250
-0.032853961 0.69400001 -0.012168133 7.1920074e-39 293 250
-0.031637147 0.69400001 -0.012168133 7.0076218e-39 294 250
-0.030420333 0.69400001 -0.012168133 7.1001775e-39 295 250
-0.029161438 0.69300002 -0.012150601 7.1023257e-39 296 250
-0.027946379 0.69300002 -0.012150601 8.3008689e-39 297 250
-0.02673132 0.69300002 -0.012150601 1.0139724e-38 298 250
-0.02551626 0.69300002 -0.012150601 1.0877289e-38 299 250
-0.024301201 0.69300002 -0.012150601 1.0325908e-38 300 250
-0.02308614 0.69300002 -0.012150601 8.6667451e-39 301 250
-0.021902639 0.69400001 -0.012168133 8.0217457e-39 302 250
-0.020685827 0.69400001 -0.012168133 9.5890714e-39 303 250
-0.019469013 0.69400001 -0.012168133 9.8649352e-39 304 250
-0.0182522 0.69400001 -0.012168133 9.8649352e-39 305 250
-0.017035386 0.69400001 -0.012168133 9.8649352e-39 306 250
-0.015818574 0.69400001 -0.012168133 9.7727396e-39 307 250
-0.014643839 0.69599998 -0.0122032 9.6794663e-39 308 250
-0.013423519 0.69599998 -0.0122032 9.6794663e-39 309 250
-0.0122032 0.69599998 -0.0122032 9.5879896e-39 310 250
-0.010982879 0.69599998 -0.0122032 7.8366313e-39 311 250
-0.0097765867 0.69700003 -0.012220734 7.9216341e-39 312 250
-0.0085545136 0.69700003 -0.012220734 7.4610161e-39 313 250
-0.0073429602 0.69800001 -0.012238266 5.7150543e-39 314 250
-0.006119133 0.69800001 -0.012238266 5.6228572e-39 315 250
-0.0048953067 0.69800001 -0.012238266 6.0856374e-39 316 250
-0.0036819996 0.69999999 -0.012273333 7.0075937e-39 317 250
-0.0024546667 0.69999999 -0.012273333 7.7433609e-39 318 250
-0.0012290865 0.70099998 -0.012290866 8.2965347e-39 319 250
0 0.70300001 -0.012325933 8.1146574e-39 320 250
0.0012343467 0.704 -0.012343466 8.2990486e-39 321 250
0.0024686933 0.704 -0.012343466 8.6663892e-39 322 250
0.0037030398 0.704 -0.012343466 8.7585848e-39 323 250
0.0049514128 0.70599997 -0.012378532 8.2972536e-39 324 250
0.0062067998 0.708 -0.0124136 5.1626021e-39 325 250
0.0074481601 0.708 -0.0124136 3.3211951e-39 326 250
0.0087263398 0.71100003 -0.0124662 9.5904965e-39 327 250
0.0099729598 0.71100003 -0.0124662 1.4283821e-38 328 250
0.011251139 0.713 -0.012501267 1.658871e-38 329 250
0.012501267 0.713 -0.012501267 1.7046443e-38 330 250
-0.060511041 0.71899998 -0.013867113 1.6587988e-38 272 251
-0.059250388 0.71899998 -0.013867113 1.6495793e-38 273 251
-0.057747785 0.71600002 -0.013809253 1.6771301e-38 274 251
-0.056492399 0.71600002 -0.013809253 1.6863496e-38 275 251
-0.055237014 0.71600002 -0.013809253 1.4008328e-38 276 251
-0.053830836 0.71399999 -0.01377068 1.0781481e-38 277 251
-0.052505318 0.713 -0.013751393 8.4820106e-39 278 251
-0.051255193 0.713 -0.013751393 8.4820106e-39 279 251
-0.050005067 0.713 -0.013751393 9.0384311e-39 280 251
-0.048549797 0.70999998 -0.013693533 1.0421366e-38 281 251
-0.047038425 0.70599997 -0.013616386 1.1157138e-38 282 251
-0.045670826 0.704 -0.013577812 9.497617e-39 283 251
-0.044183996 0.69999999 -0.013500666 8.5745887e-39 284 251
-0.042956665 0.69999999 -0.013500666 8.5745887e-39 285 251
-0.041610107 0.69800001 -0.013462093 7.8413425e-39 286 251
-0.040386278 0.69800001 -0.013462093 8.0253736e-39 287 251
-0.039106347 0.69700003 -0.013442807 8.2093992e-39 288 251
-0.037884273 0.69700003 -0.013442807 8.1172035e-39 289 251
-0.036662199 0.69700003 -0.013442807 7.8398936e-39 290 251
-0.035389278 0.69599998 -0.013423519 7.3789168e-39 291 251
-0.034168959 0.69599998 -0.013423519 7.6526254e-39 292 251
-0.032948639 0.69599998 -0.013423519 7.4682342e-39 293 251
-0.031728316 0.69599998 -0.013423519 7.2849219e-39 294 251
-0.030420333 0.69400001 -0.013384946 7.2849219e-39 295 251
-0.029203519 0.69400001 -0.013384946 7.286717e-39 296 251
-0.027946379 0.69300002 -0.01336566 8.2086733e-39 297 251
-0.02673132 0.69300002 -0.01336566 9.9556987e-39 298 251
-0.02551626 0.69300002 -0.01336566 1.0601068e-38 299 251
-0.024336265 0.69400001 -0.013384946 1.0234438e-38 300 251
-0.023119451 0.69400001 -0.013384946 9.4046773e-39 301 251
-0.021902639 0.69400001 -0.013384946 8.4859608e-39 302 251
-0.020685827 0.69400001 -0.013384946 9.0391346e-39 303 251
-0.019469013 0.69400001 -0.013384946 9.5890714e-39 304 251
-0.018304799 0.69599998 -0.013423519 9.4968757e-39 305 251
-0.017084479 0.69599998 -0.013423519 9.4965198e-39 306 251
-0.015864158 0.69599998 -0.013423519 9.4043242e-39 307 251
-0.014643839 0.69599998 -0.013423519 9.3114083e-39 308 251
-0.013423519 0.69599998 -0.013423519 9.2192127e-39 309 251
-0.0122032 0.69599998 -0.013423519 9.1270142e-39 310 251
-0.010982879 0.69599998 -0.013423519 8.3894492e-39 311 251
-0.0097765867 0.69700003 -0.013442807 7.5571648e-39 312 251
-0.0085667865 0.69800001 -0.013462093 6.3589803e-39 313 251
-0.0073429602 0.69800001 -0.013462093 6.5466114e-39 314 251
-0.006119133 0.69800001 -0.013462093 7.1919808e-39 315 251
-0.0049093333 0.69999999 -0.013500666 7.652966e-39 316 251
-0.0036819996 0.69999999 -0.013500666 8.1135854e-39 317 251
-0.0024581731 0.70099998 -0.013519952 7.6554813e-39 318 251
-0.0012325933 0.70300001 -0.013558527 7.931708e-39 319 251
0 0.704 -0.013577812 8.2994046e-39 320 251
0.0012343467 0.704 -0.013577812 8.3916002e-39 321 251
0.0024686933 0.704 -0.013577812 8.5749124e-39 322 251
0.0037135598 0.70599997 -0.013616386 8.4827168e-39 323 251
0.0049584266 0.70700002 -0.013635674 7.5607647e-39 324 251
0.0062067998 0.708 -0.013654959 4.7948958e-39 325 251
0.0074481601 0.708 -0.013654959 3.9647624e-39 326 251
0.0087263398 0.71100003 -0.01371282 1.0326261e-38 327 251
0.0099729598 0.71100003 -0.01371282 1.4283823e-38 328 251
0.011266919 0.71399999 -0.01377068 1.6496158e-38 329 251
0.012518799 0.71399999 -0.01377068 1.6770938e-38 330 251
-0.059003171 0.71600002 -0.01506464 1.6403597e-38 273 252
-0.057747785 0.71600002 -0.01506464 1.6771303e-38 274 252
-0.0563346 0.71399999 -0.015022559 1.6863499e-38 275 252
-0.05508272 0.71399999 -0.015022559 1.4376751e-38 276 252
-0.053830836 0.71399999 -0.015022559 1.1611242e-38 277 252
-0.052505318 0.713 -0.015001519 9.2170617e-39 278 252
-0.051255193 0.713 -0.015001519 7.4653447e-39 279 252
-0.050005067 0.713 -0.015001519 7.2863667e-39 280 252
-0.048549797 0.70999998 -0.014938398 8.6693025e-39 281 252
-0.047105055 0.70700002 -0.01487528 1.014191e-38 282 252
-0.045670826 0.704 -0.014812159 9.4965408e-39 283 252
-0.044247117 0.70099998 -0.014749039 8.3005186e-39 284 252
-0.042956665 0.69999999 -0.014727999 8.0239331e-39 285 252
-0.041610107 0.69800001 -0.01468592 7.3807301e-39 286 252
-0.040386278 0.69800001 -0.01468592 7.6569583e-39 287 252
-0.039162453 0.69800001 -0.01468592 7.5665507e-39 288 252
-0.037884273 0.69700003 -0.01466488 7.8427774e-39 289 252
-0.036662199 0.69700003 -0.01466488 8.2079516e-39 290 252
-0.035440128 0.69700003 -0.01466488 7.9310046e-39 291 252
-0.034218054 0.69700003 -0.01466488 8.0210394e-39 292 252
-0.03299598 0.69700003 -0.01466488 7.9288424e-39 293 252
-0.031728316 0.69599998 -0.014643839 7.6529814e-39 294 252
-0.030507999 0.69599998 -0.014643839 7.6529814e-39 295 252
-0.029287677 0.69599998 -0.014643839 7.562585e-39 296 252
-0.028067358 0.69599998 -0.014643839 8.30015e-39 297 252
-0.026769891 0.69400001 -0.01460176 9.5887183e-39 298 252
-0.025553079 0.69400001 -0.01460176 1.0234088e-38 299 252
-0.0244064 0.69599998 -0.014643839 1.0050766e-38 300 252
-0.023186078 0.69599998 -0.014643839 9.7745374e-39 301 252
-0.021965759 0.69599998 -0.014643839 9.3146453e-39 302 252
-0.020745439 0.69599998 -0.014643839 9.0384185e-39 303 252
-0.019525118 0.69599998 -0.014643839 8.9458698e-39 304 252
-0.018304799 0.69599998 -0.014643839 8.9458698e-39 305 252
-0.017084479 0.69599998 -0.014643839 9.0369864e-39 306 252
-0.015864158 0.69599998 -0.014643839 8.7607583e-39 307 252
-0.014643839 0.69599998 -0.014643839 8.8518721e-39 308 252
-0.013442807 0.69700003 -0.01466488 8.7596764e-39 309 252
-0.012220734 0.69700003 -0.01466488 8.6667549e-39 310 252
-0.01099866 0.69700003 -0.01466488 8.2061369e-39 311 252
-0.0097765867 0.69700003 -0.01466488 7.744077e-39 312 252
-0.0085667865 0.69800001 -0.01468592 7.1912619e-39 313 252
-0.0073429602 0.69800001 -0.01468592 7.5604116e-39 314 252
-0.0061366665 0.69999999 -0.014727999 8.4823665e-39 315 252
-0.0049093333 0.69999999 -0.014727999 8.4837986e-39 316 252
-0.0036872597 0.70099998 -0.014749039 8.2990486e-39 317 252
-0.0024581731 0.70099998 -0.014749039 8.0246127e-39 318 252
-0.0012325933 0.70300001 -0.014791119 8.0246127e-39 319 252
0 0.704 -0.014812159 8.1157364e-39 320 252
0.0012343467 0.704 -0.014812159 8.1157364e-39 321 252
0.0024757064 0.70599997 -0.014854239 8.2068558e-39 322 252
0.0037135598 0.70599997 -0.014854239 7.5614864e-39 323 252
0.0049654399 0.708 -0.01489632 6.638807e-39 324 252
0.0062243328 0.70999998 -0.014938398 4.9792871e-39 325 252
0.0074691991 0.70999998 -0.014938398 5.251188e-39 326 252
0.0087508867 0.713 -0.015001519 1.0782926e-38 327 252
0.010001013 0.713 -0.015001519 1.3915763e-38 328 252
0.011251139 0.713 -0.015001519 1.6220295e-38 329 252
-0.057747785 0.71600002 -0.016320027 1.6403241e-38 274 253
-0.0563346 0.71399999 -0.016274439 1.6587991e-38 275 253
-0.05508272 0.71399999 -0.016274439 1.4837007e-38 276 253
-0.053830836 0.71399999 -0.016274439 1.2624671e-38 277 253
-0.052505318 0.713 -0.016251646 1.0873339e-38 278 253
-0.051255193 0.713 -0.016251646 9.3982089e-39 279 253
-0.050005067 0.713 -0.016251646 8.1146854e-39 280 253
-0.048618179 0.71100003 -0.01620606 7.469316e-39 281 253
-0.047171678 0.708 -0.01613768 7.0083518e-39 282 253
-0.045865446 0.70700002 -0.016114887 7.2849373e-39 283 253
-0.044436477 0.704 -0.016046507 7.19562e-39 284 253
-0.042956665 0.69999999 -0.015955333 7.4718467e-39 285 253
-0.041729331 0.69999999 -0.015955333 7.6565981e-39 286 253
-0.040386278 0.69800001 -0.015909746 7.7487937e-39 287 253
-0.039162453 0.69800001 -0.015909746 7.9342542e-39 288 253
-0.037938625 0.69800001 -0.015909746 7.9342542e-39 289 253
-0.0367148 0.69800001 -0.015909746 8.0242834e-39 290 253
-0.035440128 0.69700003 -0.015886955 7.6554995e-39 291 253
-0.034218054 0.69700003 -0.015886955 7.9284921e-39 292 253
-0.03299598 0.69700003 -0.015886955 7.9284921e-39 293 253
-0.03177391 0.69700003 -0.015886955 7.4693132e-39 294 253
-0.030551834 0.69700003 -0.015886955 7.7455413e-39 295 253
-0.029287677 0.69599998 -0.015864158 8.0224842e-39 296 253
-0.028067358 0.69599998 -0.015864158 8.5756579e-39 297 253
-0.026847038 0.69599998 -0.015864158 9.2217336e-39 298 253
-0.025626717 0.69599998 -0.015864158 9.7745486e-39 299 253
-0.0244064 0.69599998 -0.015864158 9.4997568e-39 300 253
-0.023186078 0.69599998 -0.015864158 9.3157243e-39 301 253
-0.021965759 0.69599998 -0.015864158 9.0377123e-39 302 253
-0.020745439 0.69599998 -0.015864158 8.853321e-39 303 253
-0.019553173 0.69700003 -0.015886955 8.8526008e-39 304 253
-0.018331099 0.69700003 -0.015886955 8.7604051e-39 305 253
-0.017109027 0.69700003 -0.015886955 8.8518749e-39 306 253
-0.015886955 0.69700003 -0.015886955 8.7593205e-39 307 253
-0.01466488 0.69700003 -0.015886955 8.5752894e-39 308 253
-0.013442807 0.69700003 -0.015886955 8.4830938e-39 309 253
-0.012238266 0.69800001 -0.015909746 8.2075845e-39 310 253
-0.01101444 0.69800001 -0.015909746 8.1153888e-39 311 253
-0.0097906133 0.69800001 -0.015909746 7.6551282e-39 312 253
-0.0085913334 0.69999999 -0.015955333 7.5629325e-39 313 253
-0.0073639993 0.69999999 -0.015955333 7.7466007e-39 314 253
-0.0061366665 0.69999999 -0.015955333 7.930992e-39 315 253
-0.0049163462 0.70099998 -0.015978126 8.0235435e-39 316 253
-0.0036872597 0.70099998 -0.015978126 8.1157392e-39 317 253
-0.0024651866 0.70300001 -0.016023712 8.1157392e-39 318 253
-0.0012343467 0.704 -0.016046507 8.0235435e-39 319 253
0 0.704 -0.016046507 8.1157392e-39 320 253
0.0012378532 0.70599997 -0.016092092 7.9309892e-39 321 253
0.0024757064 0.70599997 -0.016092092 7.8380747e-39 322 253
0.0037188199 0.70700002 -0.016114887 6.8239213e-39 323 253
0.0049794666 0.70999998 -0.016183265 6.4508256e-39 324 253
0.0062243328 0.70999998 -0.016183265 6.0820445e-39 325 253
0.0074691991 0.70999998 -0.016183265 6.6319687e-39 326 253
0.0087140659 0.70999998 -0.016183265 1.0043207e-38 327 253
0.0099729598 0.71100003 -0.01620606 1.3639173e-38 328 253
-0.057828441 0.71700001 -0.017599959 1.6494718e-38 274 254
-0.056492399 0.71600002 -0.017575413 1.6679108e-38 275 254
-0.055237014 0.71600002 -0.017575413 1.4929203e-38 276 254
-0.053830836 0.71399999 -0.017526319 1.2900899e-38 277 254
-0.052578956 0.71399999 -0.017526319 1.1151005e-38 278 254
-0.051255193 0.713 -0.017501773 9.8602661e-39 279 254
-0.050005067 0.713 -0.017501773 8.4813099e-39 280 254
-0.048618179 0.71100003 -0.01745268 8.2972788e-39 281 254
-0.047171678 0.708 -0.017379038 7.7462756e-39 282 254
-0.045865446 0.70700002 -0.017354494 7.6537213e-39 283 254
-0.044436477 0.704 -0.017280852 7.7459197e-39 284 254
-0.043018032 0.70099998 -0.017207211 7.7459197e-39 285 254
-0.041729331 0.69999999 -0.017182667 7.3807301e-39 286 254
-0.040502001 0.69999999 -0.017182667 7.5647626e-39 287 254
-0.039162453 0.69800001 -0.017133573 7.4739991e-39 288 254
-0.037938625 0.69800001 -0.017133573 7.5661948e-39 289 254
-0.0367148 0.69800001 -0.017133573 8.022131e-39 290 254
-0.035490975 0.69800001 -0.017133573 7.6533471e-39 291 254
-0.034267146 0.69800001 -0.017133573 7.2845688e-39 292 254
-0.03299598 0.69700003 -0.017109027 7.1923732e-39 293 254
-0.03177391 0.69700003 -0.017109027 6.7339159e-39 294 254
-0.030551834 0.69700003 -0.017109027 6.9183072e-39 295 254
-0.02932976 0.69700003 -0.017109027 7.2870841e-39 296 254
-0.028107686 0.69700003 -0.017109027 8.0250079e-39 297 254
-0.026885614 0.69700003 -0.017109027 9.3135761e-39 298 254
-0.025663542 0.69700003 -0.017109027 9.8667499e-39 299 254
-0.024441468 0.69700003 -0.017109027 9.4986876e-39 300 254
-0.023219392 0.69700003 -0.017109027 9.0380682e-39 301 254
-0.02199732 0.69700003 -0.017109027 8.5771027e-39 302 254
-0.020775247 0.69700003 -0.017109027 8.3927114e-39 303 254
-0.019553173 0.69700003 -0.017109027 7.7498601e-39 304 254
-0.018331099 0.69700003 -0.017109027 7.7498601e-39 305 254
-0.017133573 0.69800001 -0.017133573 8.0250023e-39 306 254
-0.015909746 0.69800001 -0.017133573 7.9328067e-39 307 254
-0.01468592 0.69800001 -0.017133573 7.839888e-39 308 254
-0.013462093 0.69800001 -0.017133573 7.839888e-39 309 254
-0.012238266 0.69800001 -0.017133573 7.5647332e-39 310 254
-0.01101444 0.69800001 -0.017133573 7.5647332e-39 311 254
-0.0097906133 0.69800001 -0.017133573 7.7473238e-39 312 254
-0.0085913334 0.69999999 -0.017182667 7.7473238e-39 313 254
-0.0073639993 0.69999999 -0.017182667 7.7473238e-39 314 254
-0.0061366665 0.69999999 -0.017182667 7.7473238e-39 315 254
-0.0049163462 0.70099998 -0.017207211 7.6558498e-39 316 254
-0.0036977797 0.70300001 -0.017256306 7.6558498e-39 317 254
-0.0024651866 0.70300001 -0.017256306 7.3803391e-39 318 254
-0.0012343467 0.704 -0.017280852 7.1959465e-39 319 254
0 0.704 -0.017280852 7.2856254e-39 320 254
0.0012378532 0.70599997 -0.017329946 7.4700166e-39 321 254
0.0024757064 0.70599997 -0.017329946 8.1132182e-39 322 254
0.0037188199 0.70700002 -0.017354494 7.4678502e-39 323 254
0.0049794666 0.70999998 -0.017428132 6.8210347e-39 324 254
0.0062243328 0.70999998 -0.017428132 6.8210347e-39 325 254
0.0074691991 0.70999998 -0.017428132 8.1052869e-39 326 254
0.0087263398 0.71100003 -0.01745268 1.1147743e-38 327 254
0.0099729598 0.71100003 -0.01745268 1.3912516e-38 328 254
-0.059085581 0.71700001 -0.018857099 1.6678386e-38 273 255
-0.057828441 0.71700001 -0.018857099 1.6403241e-38 274 255
-0.056571297 0.71700001 -0.018857099 1.6495437e-38 275 255
-0.055237014 0.71600002 -0.0188308 1.5021401e-38 276 255
-0.053981625 0.71600002 -0.0188308 1.3177488e-38 277 255
-0.052726239 0.71600002 -0.0188308 1.1336115e-38 278 255
-0.05132708 0.71399999 -0.018778199 9.9531806e-39 279 255
-0.050005067 0.713 -0.018751899 8.5749391e-39 280 255
-0.048618179 0.71100003 -0.0186993 8.7589702e-39 281 255
-0.047304932 0.70999998 -0.018672999 8.3927114e-39 282 255
-0.045865446 0.70700002 -0.018594101 8.024289e-39 283 255
-0.044562716 0.70599997 -0.018567799 7.7469917e-39 284 255
-0.043202132 0.704 -0.018515198 7.5626004e-39 285 255
-0.041788943 0.70099998 -0.018436298 7.1952668e-39 286 255
-0.040502001 0.69999999 -0.018409999 7.1952668e-39 287 255
-0.039274666 0.69999999 -0.018409999 7.2885345e-39 288 255
-0.037938625 0.69800001 -0.0183574 7.5647626e-39 289 255
-0.0367148 0.69800001 -0.0183574 7.6547932e-39 290 255
-0.035490975 0.69800001 -0.0183574 7.0094238e-39 291 255
-0.034267146 0.69800001 -0.0183574 7.0998244e-39 292 255
-0.033043321 0.69800001 -0.0183574 7.0076288e-39 293 255
-0.03177391 0.69700003 -0.018331099 6.7310447e-39 294 255
-0.030551834 0.69700003 -0.018331099 6.8232403e-39 295 255
-0.02932976 0.69700003 -0.018331099 7.1012565e-39 296 255
-0.028107686 0.69700003 -0.018331099 8.2072454e-39 297 255
-0.026885614 0.69700003 -0.018331099 9.5894399e-39 298 255
-0.025663542 0.69700003 -0.018331099 9.7738326e-39 299 255
-0.024441468 0.69700003 -0.018331099 9.1309827e-39 300 255
-0.023219392 0.69700003 -0.018331099 8.670006e-39 301 255
-0.02199732 0.69700003 -0.018331099 8.0253708e-39 302 255
-0.020775247 0.69700003 -0.018331099 7.7491441e-39 303 255
-0.019581227 0.69800001 -0.0183574 7.5651115e-39 304 255
