# .PCD v.7 - Point Cloud Data file format
FIELDS x y z rgb imX imY
SIZE 4 4 4 4 4 4
TYPE F F F F F F
COUNT 1 1 1 1 1 1
WIDTH 848
HEIGHT 1
VIEWPOINT 0 0 0 1 0 0 0
POINTS 848
DATA ascii
0.0088736191 0.72299999 0.0076059597 9.332212e-39 327 234
0.010127253 0.722 0.0075954394 1.0525694e-38 328 234
0.01139316 0.722 0.0075954394 1.0064716e-38 329 234
0.012659066 0.722 0.0075954394 8.9597496e-39 330 234
0.013924973 0.722 0.0075954394 8.6835229e-39 331 234
0.015211919 0.72299999 0.0076059597 9.7855629e-39 332 234
0.016525166 0.72500002 0.0076270006 9.9699555e-39 333 234
0.017796334 0.72500002 0.0076270006 1.0243359e-38 334 234
0.0190675 0.72500002 0.0076270006 1.0059328e-38 335 234
0.020394772 0.727 0.0076480396 9.4146896e-39 336 234
0.021699252 0.72799999 0.0076585598 8.9540716e-39 337 234
0.022975679 0.72799999 0.0076585598 8.7686069e-39 338 234
0.024318734 0.73000002 0.0076795998 8.8608026e-39 339 234
0.025598666 0.73000002 0.0076795998 8.5863779e-39 340 234
0.026915418 0.73100001 0.00769012 8.6785735e-39 341 234
0.028312827 0.73400003 0.0077216802 9.4139763e-39 342 234
0.029680425 0.736 0.0077427197 9.7824001e-39 343 234
0.030970879 0.736 0.0077427197 9.9657222e-39 344 234
-0.028775707 0.74599999 0.0065399334 1.6322595e-38 298 235
-0.027467718 0.74599999 0.0065399334 1.6045649e-38 299 235
-0.026159734 0.74599999 0.0065399334 1.5586842e-38 300 235
-0.024851745 0.74599999 0.0065399334 1.5955983e-38 301 235
-0.023543758 0.74599999 0.0065399334 1.448657e-38 302 235
-0.021937706 0.736 0.0064522666 1.2919245e-38 303 235
-0.020591147 0.73400003 0.006434733 1.2279263e-38 304 235
-0.019304199 0.73400003 0.006434733 1.3293416e-38 305 235
-0.018017253 0.73400003 0.006434733 1.5039789e-38 306 235
-0.016707512 0.73299998 0.0064259665 1.4855038e-38 307 235
-0.01538024 0.73100001 0.006408433 1.2640933e-38 308 235
-0.014098554 0.73100001 0.006408433 1.1073967e-38 309 235
-0.012799333 0.73000002 0.0063996664 9.7853975e-39 310 235
-0.01148784 0.72799999 0.0063821329 1.0246017e-38 311 235
-0.010197386 0.727 0.0063733663 1.0429685e-38 312 235
-0.0089227129 0.727 0.0063733663 1.0614076e-38 313 235
-0.0076480396 0.727 0.0063733663 1.098249e-38 314 235
-0.0063558333 0.72500002 0.0063558333 1.0613708e-38 315 235
-0.0050706398 0.72299999 0.0063382997 1.0430386e-38 316 235
-0.0038029798 0.72299999 0.0063382997 1.0430386e-38 317 235
-0.0025353199 0.72299999 0.0063382997 1.0246708e-38 318 235
-0.0012676599 0.72299999 0.0063382997 1.0246708e-38 319 235
0 0.72299999 0.0063382997 1.1443436e-38 320 235
0.0012659066 0.722 0.0063295332 1.1258685e-38 321 235
0.0025318132 0.722 0.0063295332 1.0338155e-38 322 235
0.0037977197 0.722 0.0063295332 1.0245959e-38 323 235
0.0050636264 0.722 0.0063295332 1.0153761e-38 324 235
0.0063295332 0.722 0.0063295332 9.6931416e-39 325 235
0.0076059597 0.72299999 0.0063382997 8.3170385e-39 326 235
0.0088736191 0.72299999 0.0063382997 9.4233861e-39 327 235
0.01014128 0.72299999 0.0063382997 1.1718902e-38 328 235
0.01140894 0.72299999 0.0063382997 1.1165728e-38 329 235
0.012676599 0.72299999 0.0063382997 9.7859552e-39 330 235
0.01394426 0.72299999 0.0063382997 9.4175314e-39 331 235
0.015211919 0.72299999 0.0063382997 1.0705023e-38 332 235
0.016525166 0.72500002 0.0063558333 1.0428438e-38 333 235
0.017796334 0.72500002 0.0063558333 1.0242655e-38 334 235
0.0190675 0.72500002 0.0063558333 9.8742328e-39 335 235
0.020394772 0.727 0.0063733663 8.9540842e-39 336 235
0.021699252 0.72799999 0.0063821329 8.6778574e-39 337 235
0.022975679 0.72799999 0.0063821329 8.4931088e-39 338 235
0.024318734 0.73000002 0.0063996664 8.5853045e-39 339 235
0.025598666 0.73000002 0.0063996664 8.6775015e-39 340 235
0.026915418 0.73100001 0.006408433 8.954087e-39 341 235
0.028467119 0.73799998 0.0064697997 9.1377566e-39 342 235
0.029761078 0.73799998 0.0064697997 9.8756804e-39 343 235
-0.028775707 0.74599999 0.0052319462 1.5954536e-38 298 236
-0.027467718 0.74599999 0.0052319462 1.5769786e-38 299 236
-0.026159734 0.74599999 0.0052319462 1.5035116e-38 300 236
-0.024851745 0.74599999 0.0052319462 1.5588289e-38 301 236
-0.023543758 0.74599999 0.0052319462 1.5313495e-38 302 236
-0.021937706 0.736 0.005161813 1.4945072e-38 303 236
-0.020647252 0.736 0.005161813 1.4303293e-38 304 236
-0.019304199 0.73400003 0.0051477868 1.4395489e-38 305 236
-0.018017253 0.73400003 0.0051477868 1.5222395e-38 306 236
-0.016730307 0.73400003 0.0051477868 1.4761775e-38 307 236
-0.015422319 0.73299998 0.005140773 1.2272876e-38 308 236
-0.014137126 0.73299998 0.005140773 1.0889942e-38 309 236
-0.012816866 0.73100001 0.0051267464 9.0492786e-39 310 236
-0.011519399 0.73000002 0.0051197335 9.417701e-39 311 236
-0.010211413 0.72799999 0.0051057064 1.006091e-38 312 236
-0.0089227129 0.727 0.0050986931 1.0153105e-38 313 236
-0.0076480396 0.727 0.0050986931 1.0154174e-38 314 236
-0.0063733663 0.727 0.0050986931 1.024637e-38 315 236
-0.0050846669 0.72500002 0.0050846669 1.0706981e-38 316 236
-0.0038135003 0.72500002 0.0050846669 1.0799178e-38 317 236
-0.0025353199 0.72299999 0.0050706398 1.0614783e-38 318 236
-0.0012676599 0.72299999 0.0050706398 1.0799175e-38 319 236
0 0.72500002 0.0050846669 1.13509e-38 320 236
0.0012676599 0.72299999 0.0050706398 1.13509e-38 321 236
0.0025353199 0.72299999 0.0050706398 1.0520416e-38 322 236
0.0038029798 0.72299999 0.0050706398 9.875047e-39 323 236
0.0050706398 0.72299999 0.0050706398 9.5991831e-39 324 236
0.0063382997 0.72299999 0.0050706398 9.5991831e-39 325 236
0.0076270006 0.72500002 0.0050846669 8.8662872e-39 326 236
0.0088981669 0.72500002 0.0050846669 1.0157026e-38 327 236
0.01014128 0.72299999 0.0050706398 1.2452546e-38 328 236
0.01140894 0.72299999 0.0050706398 1.1899373e-38 329 236
0.012711667 0.72500002 0.0050846669 1.0521079e-38 330 236
0.013982833 0.72500002 0.0050846669 1.070547e-38 331 236
0.015296079 0.727 0.0050986931 1.1348675e-38 332 236
0.016570752 0.727 0.0050986931 1.061111e-38 333 236
0.017845426 0.727 0.0050986931 1.0058658e-38 334 236
0.019120099 0.727 0.0050986931 9.597681e-39 335 236
0.020394772 0.727 0.0050986931 8.7700685e-39 336 236
0.021699252 0.72799999 0.0051057064 8.6778728e-39 337 236
0.023038799 0.73000002 0.0051197335 8.5849541e-39 338 236
0.024318734 0.73000002 0.0051197335 8.7693468e-39 339 236
0.025633732 0.73100001 0.0051267464 8.6782232e-39 340 236
0.027173158 0.73799998 0.0051758396 8.5860275e-39 341 236
0.028505694 0.73900002 0.0051828534 9.6884304e-39 342 236
0.030003037 0.74400002 0.0052179201 1.0886974e-38 343 236
0.031307522 0.74400002 0.0052179201 1.272407e-38 344 236
0.032699663 0.74599999 0.0052319462 1.3185047e-38 345 236
0.034053236 0.74699998 0.0052389596 1.4935326e-38 346 236
-0.030523779 0.829 0.0043605398 1.4018793e-38 299 237
-0.02637013 0.75199997 0.0039555198 1.3195889e-38 300 237
-0.025051624 0.75199997 0.0039555198 1.4394432e-38 301 237
-0.02379624 0.75400001 0.00396604 1.5038005e-38 302 237
-0.022474226 0.75400001 0.00396604 1.5038005e-38 303 237
-0.020703359 0.73799998 0.0038818798 1.4211117e-38 304 237
-0.019356798 0.736 0.0038713599 1.4211117e-38 305 237
-0.018066347 0.736 0.0038713599 1.4854337e-38 306 237
-0.016775893 0.736 0.0038713599 1.439336e-38 307 237
-0.01544336 0.73400003 0.0038608401 1.17215e-38 308 237
-0.014156413 0.73400003 0.0038608401 1.0430761e-38 309 237
-0.012851933 0.73299998 0.0038555798 9.6928459e-39 310 237
-0.01153518 0.73100001 0.00384506 9.8772386e-39 311 237
-0.010239467 0.73000002 0.0038397999 1.0244222e-38 312 237
-0.0089349858 0.72799999 0.0038292799 1.0244222e-38 313 237
-0.0076585598 0.72799999 0.0038292799 1.0060907e-38 314 237
-0.0063733663 0.727 0.0038240198 9.7843185e-39 315 237
-0.0050986931 0.727 0.0038240198 9.6010034e-39 316 237
-0.0038240198 0.727 0.0038240198 9.5088078e-39 317 237
-0.0025493465 0.727 0.0038240198 9.234016e-39 318 237
-0.0012746733 0.727 0.0038240198 1.0063777e-38 319 237
0 0.727 0.0038240198 1.1718253e-38 320 237
0.0012711667 0.72500002 0.0038135003 1.1718253e-38 321 237
0.0025423334 0.72500002 0.0038135003 1.125763e-38 322 237
0.0038135003 0.72500002 0.0038135003 1.1073237e-38 323 237
0.0050846669 0.72500002 0.0038135003 1.1165435e-38 324 237
0.0063558333 0.72500002 0.0038135003 1.1165435e-38 325 237
0.0076480396 0.727 0.0038240198 1.0889203e-38 326 237
0.0089227129 0.727 0.0038240198 1.1534573e-38 327 237
0.010169334 0.72500002 0.0038135003 1.2358926e-38 328 237
0.0114405 0.72500002 0.0038135003 1.1897587e-38 329 237
0.012746733 0.727 0.0038240198 1.1072129e-38 330 237
0.014021406 0.727 0.0038240198 1.1348717e-38 331 237
0.01531712 0.72799999 0.0038292799 1.0613303e-38 332 237
0.016593546 0.72799999 0.0038292799 1.0244162e-38 333 237
0.017869972 0.72799999 0.0038292799 1.0701886e-38 334 237
0.0191464 0.72799999 0.0038292799 1.0517136e-38 335 237
0.020422826 0.72799999 0.0038292799 9.5047651e-39 336 237
0.021758866 0.73000002 0.0038397999 9.2278194e-39 337 237
0.023038799 0.73000002 0.0038397999 8.6767981e-39 338 237
0.024352046 0.73100001 0.00384506 8.6767981e-39 339 237
0.025879199 0.73799998 0.0038818798 8.7700713e-39 340 237
0.027283618 0.741 0.0038976599 9.0466582e-39 341 237
0.028582839 0.741 0.0038976599 1.0609685e-38 342 237
0.030003037 0.74400002 0.0039134403 1.1716032e-38 343 237
0.031307522 0.74400002 0.0039134403 1.2541127e-38 344 237
0.032699663 0.74599999 0.0039239596 1.226418e-38 345 237
0.034053236 0.74699998 0.0039292197 1.4567984e-38 346 237
0.035362978 0.74699998 0.0039292197 1.7333855e-38 347 237
-0.02637013 0.75199997 0.0026370131 1.181332e-38 300 238
-0.025051624 0.75199997 0.0026370131 1.3381006e-38 301 238
-0.02379624 0.75400001 0.0026440267 1.439336e-38 302 238
-0.022474226 0.75400001 0.0026440267 1.4854337e-38 303 238
-0.021011947 0.74900001 0.0026264933 1.4486628e-38 304 238
-0.019409399 0.73799998 0.0025879198 1.4486628e-38 305 238
-0.018115439 0.73799998 0.0025879198 1.4762857e-38 306 238
-0.016775893 0.736 0.0025809065 1.4209685e-38 307 238
-0.015485439 0.736 0.0025809065 1.199844e-38 308 238
-0.014194986 0.736 0.0025809065 1.052331e-38 309 238
-0.012869466 0.73400003 0.0025738934 9.6931963e-39 310 238
-0.011566739 0.73299998 0.0025703865 1.0061979e-38 311 238
-0.010253493 0.73100001 0.0025633732 1.0611562e-38 312 238
-0.0089595336 0.73000002 0.0025598668 1.0611562e-38 313 238
-0.0076795998 0.73000002 0.0025598668 1.0244575e-38 314 238
-0.0063821329 0.72799999 0.0025528532 9.8757925e-39 315 238
-0.0051057064 0.72799999 0.0025528532 8.4968209e-39 316 238
-0.0038292799 0.72799999 0.0025528532 8.128037e-39 317 238
-0.0025528532 0.72799999 0.0025528532 7.9440058e-39 318 238
-0.0012764266 0.72799999 0.0025528532 9.0499947e-39 319 238
0 0.72799999 0.0025528532 1.134696e-38 320 238
0.0012764266 0.72799999 0.0025528532 1.1623186e-38 321 238
0.0025528532 0.72799999 0.0025528532 1.1350184e-38 322 238
0.0038240198 0.727 0.0025493465 1.144238e-38 323 238
0.0050986931 0.727 0.0025493465 1.1533849e-38 324 238
0.0063733663 0.727 0.0025493465 1.1441295e-38 325 238
0.0076480396 0.727 0.0025493465 1.0798079e-38 326 238
0.0089227129 0.727 0.0025493465 1.0613688e-38 327 238
0.010197386 0.727 0.0025493465 1.0794845e-38 328 238
0.01147206 0.727 0.0025493465 1.0610095e-38 329 238
0.012764266 0.72799999 0.0025528532 1.0428218e-38 330 238
0.014040692 0.72799999 0.0025528532 1.0705165e-38 331 238
0.01531712 0.72799999 0.0025528532 1.0611515e-38 332 238
0.016593546 0.72799999 0.0025528532 1.0243092e-38 333 238
0.017869972 0.72799999 0.0025528532 1.171353e-38 334 238
0.019199001 0.73000002 0.0025598668 1.171353e-38 335 238
0.020478934 0.73000002 0.0025598668 9.9632363e-39 336 238
0.021788673 0.73100001 0.0025633732 9.4100625e-39 337 238
0.023133477 0.73299998 0.0025703865 9.1352707e-39 338 238
0.024585238 0.73799998 0.0025879198 9.227825e-39 339 238
0.025914267 0.73900002 0.0025914267 9.3196675e-39 340 238
0.027320439 0.74199998 0.0026019465 1.0702602e-38 341 238
0.028621411 0.74199998 0.0026019465 1.171496e-38 342 238
0.030003037 0.74400002 0.00260896 1.2175937e-38 343 238
0.031391677 0.74599999 0.0026159731 1.1806078e-38 344 238
0.032743499 0.74699998 0.0026194798 1.1068513e-38 345 238
0.034144413 0.74900001 0.0026264933 1.4477235e-38 346 238
0.03545766 0.74900001 0.0026264933 1.7611886e-38 347 238
-0.025118252 0.75400001 0.0013220133 1.1350903e-38 301 239
-0.02379624 0.75400001 0.0013220133 1.319626e-38 302 239
-0.022474226 0.75400001 0.0013220133 1.4486999e-38 303 239
-0.021152213 0.75400001 0.0013220133 1.4761066e-38 304 239
-0.0194357 0.73900002 0.0012957134 1.4668871e-38 305 239
-0.018139986 0.73900002 0.0012957134 1.4578473e-38 306 239
-0.016821479 0.73799998 0.0012939599 1.4301886e-38 307 239
-0.015527519 0.73799998 0.0012939599 1.2917878e-38 308 239
-0.014194986 0.736 0.0012904532 1.1903368e-38 309 239
-0.012904533 0.736 0.0012904532 1.0521878e-38 310 239
-0.011582521 0.73400003 0.0012869467 1.0429682e-38 311 239
-0.010281546 0.73299998 0.0012851933 1.0611925e-38 312 239
-0.0089718066 0.73100001 0.0012816866 1.0243502e-38 313 239
-0.00769012 0.73100001 0.0012816866 1.0429685e-38 314 239
-0.0063996664 0.73000002 0.0012799334 1.1075055e-38 315 239
-0.0051197335 0.73000002 0.0012799334 1.0891021e-38 316 239
-0.0038397999 0.73000002 0.0012799334 1.1167247e-38 317 239
-0.0025598668 0.73000002 0.0012799334 1.1074689e-38 318 239
-0.0012799334 0.73000002 0.0012799334 1.0613711e-38 319 239
0 0.73000002 0.0012799334 9.0489016e-39 320 239
0.0012764266 0.72799999 0.0012764266 9.8786637e-39 321 239
0.0025528532 0.72799999 0.0012764266 1.1074689e-38 322 239
0.0038292799 0.72799999 0.0012764266 1.1166884e-38 323 239
0.0050986931 0.727 0.0012746733 1.0525105e-38 324 239
0.0063733663 0.727 0.0012746733 9.3265619e-39 325 239
0.0076585598 0.72799999 0.0012764266 9.5095113e-39 326 239
0.0089349858 0.72799999 0.0012764266 8.8641418e-39 327 239
0.010239467 0.73000002 0.0012799334 9.5087924e-39 328 239
0.011519399 0.73000002 0.0012799334 9.5087924e-39 329 239
0.012799333 0.73000002 0.0012799334 1.0334234e-38 330 239
0.014079267 0.73000002 0.0012799334 1.0610461e-38 331 239
0.0153592 0.73000002 0.0012799334 1.0701568e-38 332 239
0.016639132 0.73000002 0.0012799334 1.0332785e-38 333 239
0.017919067 0.73000002 0.0012799334 1.1989414e-38 334 239
0.019225299 0.73100001 0.0012816866 1.2081969e-38 335 239
0.020506985 0.73100001 0.0012816866 1.0239478e-38 336 239
0.021878093 0.73400003 0.0012869467 9.7785017e-39 337 239
0.023228159 0.736 0.0012904532 9.8724882e-39 338 239
0.024618553 0.73900002 0.0012957134 1.0794446e-38 339 239
0.025984399 0.741 0.0012992199 1.1988674e-38 340 239
0.027320439 0.74199998 0.0013009732 1.1988674e-38 341 239
0.02869856 0.74400002 0.00130448 1.2265263e-38 342 239
0.03008369 0.74599999 0.0013079866 1.2265263e-38 343 239
0.031433757 0.74699998 0.0013097399 1.1712808e-38 344 239
0.032831166 0.74900001 0.0013132467 1.0790852e-38 345 239
0.034189999 0.75 0.001315 1.4294641e-38 346 239
-0.025151566 0.755 -0 9.7821479e-39 301 240
-0.023827799 0.755 -0 1.1537112e-38 302 240
-0.022504034 0.755 -0 1.4026035e-38 303 240
-0.021180267 0.755 -0 1.4578476e-38 304 240
-0.0197776 0.75199997 -0 1.4394085e-38 305 240
-0.018385453 0.74900001 -0 1.4578476e-38 306 240
-0.016844273 0.73900002 -0 1.430153e-38 307 240
-0.01554856 0.73900002 -0 1.2459421e-38 308 240
-0.014233559 0.73799998 -0 1.1814052e-38 309 240
-0.012939599 0.73799998 -0 1.1442395e-38 310 240
-0.01161408 0.736 -0 1.1073614e-38 311 240
-0.010295574 0.73400003 -0 1.0981773e-38 312 240
-0.0090086265 0.73400003 -0 1.0612632e-38 313 240
-0.0077111595 0.73299998 -0 1.0431117e-38 314 240
-0.006408433 0.73100001 -0 1.0523313e-38 315 240
-0.0051267464 0.73100001 -0 1.1258727e-38 316 240
-0.00384506 0.73100001 -0 1.1996292e-38 317 240
-0.0025633732 0.73100001 -0 1.2823885e-38 318 240
-0.0012799334 0.73000002 -0 1.2362907e-38 319 240
0 0.73000002 -0 1.1259783e-38 320 240
0.0012799334 0.73000002 -0 1.1351979e-38 321 240
0.0025598668 0.73000002 -0 1.1444895e-38 322 240
0.0038397999 0.73000002 -0 1.1352698e-38 323 240
0.0051197335 0.73000002 -0 1.1903721e-38 324 240
0.0063996664 0.73000002 -0 1.0889928e-38 325 240
0.0076795998 0.73000002 -0 1.0706257e-38 326 240
0.0089595336 0.73000002 -0 1.0245277e-38 327 240
0.010253493 0.73100001 -0 9.8786469e-39 328 240
0.01153518 0.73100001 -0 9.6017013e-39 329 240
0.012816866 0.73100001 -0 1.0060161e-38 330 240
0.014098554 0.73100001 -0 9.9679657e-39 331 240
0.01538024 0.73100001 -0 1.0517897e-38 332 240
0.016661927 0.73100001 -0 1.0517897e-38 333 240
0.017943613 0.73100001 -0 1.2174527e-38 334 240
0.019277899 0.73299998 -0 1.2267082e-38 335 240
0.020563092 0.73299998 -0 1.0424605e-38 336 240
0.021997318 0.73799998 -0 1.0056183e-38 337 240
0.023322839 0.73900002 -0 1.0791943e-38 338 240
0.024685178 0.741 -0 1.1622063e-38 339 240
0.026019465 0.74199998 -0 1.2357464e-38 340 240
0.027320439 0.74199998 -0 1.1988321e-38 341 240
0.028775707 0.74599999 -0 1.1805372e-38 342 240
0.030124018 0.74699998 -0 1.1897569e-38 343 240
0.031517919 0.74900001 -0 1.1436947e-38 344 240
0.032874998 0.75 -0 1.0699382e-38 345 240
0.034189999 0.75 -0 1.4662698e-38 346 240
-0.026475333 0.755 -0.0013237667 1.1717534e-38 300 241
-0.025151566 0.755 -0.0013237667 9.1360568e-39 301 241
-0.023827799 0.755 -0.0013237667 1.0522611e-38 302 241
-0.022504034 0.755 -0.0013237667 1.3104088e-38 303 241
-0.021152213 0.75400001 -0.0013220133 1.4393731e-38 304 241
-0.0197776 0.75199997 -0.0013185065 1.4485927e-38 305 241
-0.018385453 0.74900001 -0.0013132467 1.4485924e-38 306 241
-0.017026618 0.74699998 -0.0013097399 1.4209337e-38 307 241
-0.01559064 0.741 -0.0012992199 1.2457986e-38 308 241
-0.014252847 0.73900002 -0.0012957134 1.1905171e-38 309 241
-0.012957133 0.73900002 -0.0012957134 1.1533875e-38 310 241
-0.011645639 0.73799998 -0.0012939599 1.144132e-38 311 241
-0.010323626 0.736 -0.0012904532 1.0798828e-38 312 241
-0.0090331733 0.736 -0.0012904532 1.0706273e-38 313 241
-0.0077216802 0.73400003 -0.0012869467 1.0888868e-38 314 241
-0.006434733 0.73400003 -0.0012869467 1.0981065e-38 315 241
-0.005140773 0.73299998 -0.0012851933 1.1257651e-38 316 241
-0.0038555798 0.73299998 -0.0012851933 1.1349846e-38 317 241
-0.0025633732 0.73100001 -0.0012816866 1.1627142e-38 318 241
-0.0012816866 0.73100001 -0.0012816866 1.1719339e-38 319 241
0 0.73100001 -0.0012816866 1.1169753e-38 320 241
0.0012816866 0.73100001 -0.0012816866 1.1169753e-38 321 241
0.0025633732 0.73100001 -0.0012816866 1.1353421e-38 322 241
0.00384506 0.73100001 -0.0012816866 1.1353421e-38 323 241
0.0051267464 0.73100001 -0.0012816866 1.1627487e-38 324 241
0.006408433 0.73100001 -0.0012816866 1.1258704e-38 325 241
0.00769012 0.73100001 -0.0012816866 1.0797729e-38 326 241
0.0089718066 0.73100001 -0.0012816866 1.0428948e-38 327 241
0.010281546 0.73299998 -0.0012851933 1.0335675e-38 328 241
0.011566739 0.73299998 -0.0012851933 1.0059089e-38 329 241
0.012851933 0.73299998 -0.0012851933 1.0334587e-38 330 241
0.014137126 0.73299998 -0.0012851933 1.0610814e-38 331 241
0.01538024 0.73100001 -0.0012816866 1.0701565e-38 332 241
0.016661927 0.73100001 -0.0012816866 1.0240587e-38 333 241
0.017992707 0.73299998 -0.0012851933 1.2082334e-38 334 241
0.019304199 0.73400003 -0.0012869467 1.217453e-38 335 241
0.020647252 0.736 -0.0012904532 1.1437315e-38 336 241
0.022027127 0.73900002 -0.0012957134 1.1529511e-38 337 241
0.023385961 0.741 -0.0012992199 1.1347271e-38 338 241
0.024718491 0.74199998 -0.0013009732 1.097849e-38 339 241
0.026019465 0.74199998 -0.0013009732 1.1802855e-38 340 241
0.027467718 0.74599999 -0.0013079866 1.1895051e-38 341 241
0.028814279 0.74699998 -0.0013097399 1.1804653e-38 342 241
0.030204674 0.74900001 -0.0013132467 1.1896849e-38 343 241
0.03156 0.75 -0.001315 1.1344748e-38 344 241
0.032962665 0.75199997 -0.0013185065 1.0607183e-38 345 241
-0.026475333 0.755 -0.0026475333 1.3004313e-38 300 242
-0.025151566 0.755 -0.0026475333 1.0238086e-38 301 242
-0.023827799 0.755 -0.0026475333 9.8754449e-39 302 242
-0.022504034 0.755 -0.0026475333 1.1811553e-38 303 242
-0.021152213 0.75400001 -0.0026440267 1.310516e-38 304 242
-0.0197776 0.75199997 -0.0026370131 1.3842725e-38 305 242
-0.018409999 0.75 -0.00263 1.4486646e-38 306 242
-0.017072206 0.74900001 -0.0026264933 1.4025669e-38 307 242
-0.015716879 0.74699998 -0.0026194798 1.162967e-38 308 242
-0.014407139 0.74699998 -0.0026194798 1.1169052e-38 309 242
-0.0129922 0.741 -0.0025984398 1.0981784e-38 310 242
-0.01166142 0.73900002 -0.0025914267 1.1074338e-38 311 242
-0.010365707 0.73900002 -0.0025914267 1.1074336e-38 312 242
-0.0090699932 0.73900002 -0.0025914267 1.0889944e-38 313 242
-0.0077427197 0.736 -0.0025809065 1.0889588e-38 314 242
-0.0064522666 0.736 -0.0025809065 1.0889588e-38 315 242
-0.0051477868 0.73400003 -0.0025738934 1.0889591e-38 316 242
-0.0038608401 0.73400003 -0.0025738934 1.1073983e-38 317 242
-0.0025738934 0.73400003 -0.0025738934 1.153531e-38 318 242
-0.0012869467 0.73400003 -0.0025738934 1.1719702e-38 319 242
0 0.73299998 -0.0025703865 1.2087393e-38 320 242
0.0012851933 0.73299998 -0.0025703865 1.2087393e-38 321 242
0.0025703865 0.73299998 -0.0025703865 1.2088102e-38 322 242
0.0038555798 0.73299998 -0.0025703865 1.2088102e-38 323 242
0.0051477868 0.73400003 -0.0025738934 1.2638755e-38 324 242
0.006434733 0.73400003 -0.0025738934 1.190119e-38 325 242
0.0077216802 0.73400003 -0.0025738934 1.0429301e-38 326 242
0.0090086265 0.73400003 -0.0025738934 9.9679629e-39 327 242
0.010295574 0.73400003 -0.0025738934 1.0885606e-38 328 242
0.011582521 0.73400003 -0.0025738934 1.0701215e-38 329 242
0.012869466 0.73400003 -0.0025738934 1.0610451e-38 330 242
0.014156413 0.73400003 -0.0025738934 1.0702647e-38 331 242
0.01544336 0.73400003 -0.0025738934 1.0976354e-38 332 242
0.016730307 0.73400003 -0.0025738934 1.0515735e-38 333 242
0.018066347 0.736 -0.0025809065 1.2173811e-38 334 242
0.0194357 0.73900002 -0.0025914267 1.2542235e-38 335 242
0.020787518 0.741 -0.0025984398 1.1897569e-38 336 242
0.022116546 0.74199998 -0.0026019465 1.1805372e-38 337 242
0.023417519 0.74199998 -0.0026019465 1.1528792e-38 338 242
0.02478512 0.74400002 -0.00260896 1.1067454e-38 339 242
0.026159734 0.74599999 -0.0026159731 1.1341527e-38 340 242
0.027504537 0.74699998 -0.0026194798 1.1894701e-38 341 242
0.028891427 0.74900001 -0.0026264933 1.1622063e-38 342 242
0.030325651 0.75199997 -0.0026370131 1.1622063e-38 343 242
0.031770397 0.755 -0.0026475333 1.1435865e-38 344 242
0.033181835 0.75700003 -0.0026545466 1.1067441e-38 345 242
-0.025151566 0.755 -0.0039712996 1.0975641e-38 301 243
-0.023827799 0.755 -0.0039712996 9.4148199e-39 302 243
-0.022504034 0.755 -0.0039712996 1.0336417e-38 303 243
-0.021152213 0.75400001 -0.00396604 1.144816e-38 304 243
-0.019830201 0.75400001 -0.00396604 1.3015126e-38 305 243
-0.018508185 0.75400001 -0.00396604 1.4302978e-38 306 243
-0.017095 0.75 -0.003945 1.3750163e-38 307 243
-0.015716879 0.74699998 -0.0039292197 1.0893542e-38 308 243
-0.014407139 0.74699998 -0.0039292197 1.0524399e-38 309 243
-0.013097399 0.74699998 -0.0039292197 1.0428613e-38 310 243
-0.01170876 0.74199998 -0.0039029196 1.0705559e-38 311 243
-0.010407786 0.74199998 -0.0039029196 1.0706279e-38 312 243
-0.0090945391 0.741 -0.0038976599 1.0706279e-38 313 243
-0.0077742799 0.73900002 -0.00388714 1.0889591e-38 314 243
-0.0064785667 0.73900002 -0.00388714 1.0981787e-38 315 243
-0.0051758396 0.73799998 -0.0038818798 1.0981784e-38 316 243
-0.0038818798 0.73799998 -0.0038818798 1.0981784e-38 317 243
-0.0025809065 0.736 -0.0038713599 1.1810808e-38 318 243
-0.0012904532 0.736 -0.0038713599 1.2179592e-38 319 243
0 0.736 -0.0038713599 1.1903718e-38 320 243
0.0012869467 0.73400003 -0.0038608401 1.1996272e-38 321 243
0.0025738934 0.73400003 -0.0038608401 1.2180661e-38 322 243
0.0038608401 0.73400003 -0.0038608401 1.2549443e-38 323 243
0.005161813 0.736 -0.0038713599 1.2916784e-38 324 243
0.0064522666 0.736 -0.0038713599 1.1810436e-38 325 243
0.0077427197 0.736 -0.0038713599 9.7853695e-39 326 243
0.0090331733 0.736 -0.0038713599 9.5091427e-39 327 243
0.010323626 0.736 -0.0038713599 1.1069997e-38 328 243
0.01161408 0.736 -0.0038713599 1.0885606e-38 329 243
0.012904533 0.736 -0.0038713599 1.0885962e-38 330 243
0.014233559 0.73799998 -0.0038818798 1.0978158e-38 331 243
0.015527519 0.73799998 -0.0038818798 1.0976354e-38 332 243
0.016821479 0.73799998 -0.0038818798 1.0515735e-38 333 243
0.018189078 0.741 -0.0038976599 1.2173808e-38 334 243
0.019567199 0.74400002 -0.0039134403 1.2542591e-38 335 243
0.02087168 0.74400002 -0.0039134403 1.1437315e-38 336 243
0.022235774 0.74599999 -0.0039239596 1.1068534e-38 337 243
0.023543758 0.74599999 -0.0039239596 1.088307e-38 338 243
0.024885058 0.74699998 -0.0039292197 1.042209e-38 339 243
0.026194798 0.74699998 -0.0039292197 1.042209e-38 340 243
0.027578179 0.74900001 -0.0039397399 1.1528439e-38 341 243
0.029007144 0.75199997 -0.0039555198 1.1989414e-38 342 243
0.030446632 0.755 -0.0039712996 1.1805022e-38 343 243
0.031770397 0.755 -0.0039712996 1.1527347e-38 344 243
0.033181835 0.75700003 -0.0039818203 1.2172717e-38 345 243
0.034509107 0.75700003 -0.0039818203 1.613423e-38 346 243
-0.025151566 0.755 -0.0052950666 1.1622077e-38 301 244
-0.023827799 0.755 -0.0052950666 1.0151656e-38 302 244
-0.022504034 0.755 -0.0052950666 1.0336049e-38 303 244
-0.021180267 0.755 -0.0052950666 1.0986103e-38 304 244
-0.0198565 0.755 -0.0052950666 1.2553787e-38 305 244
-0.018508185 0.75400001 -0.0052880533 1.4026038e-38 306 244
-0.017140586 0.75199997 -0.0052740262 1.356506e-38 307 244
-0.01575896 0.74900001 -0.0052529867 1.0984657e-38 308 244
-0.014407139 0.74699998 -0.0052389596 1.052368e-38 309 244
-0.013097399 0.74699998 -0.0052389596 1.0336415e-38 310 244
-0.011771879 0.74599999 -0.0052319462 1.0521165e-38 311 244
-0.01043584 0.74400002 -0.0052179201 1.0613004e-38 312 244
-0.0091313599 0.74400002 -0.0052179201 1.0613004e-38 313 244
-0.0077953199 0.741 -0.0051968796 1.0614079e-38 314 244
-0.0064960998 0.741 -0.0051968796 1.0798472e-38 315 244
-0.0051828534 0.73900002 -0.0051828534 1.1257648e-38 316 244
-0.00388714 0.73900002 -0.0051828534 1.0981421e-38 317 244
-0.0025879198 0.73799998 -0.0051758396 1.1534225e-38 318 244
-0.0012939599 0.73799998 -0.0051758396 1.2087399e-38 319 244
0 0.736 -0.005161813 1.2178863e-38 320 244
0.0012904532 0.736 -0.005161813 1.2271059e-38 321 244
0.0025809065 0.736 -0.005161813 1.218138e-38 322 244
0.0038713599 0.736 -0.005161813 1.2366131e-38 323 244
0.005161813 0.736 -0.005161813 1.2824232e-38 324 244
0.0064522666 0.736 -0.005161813 1.2086667e-38 325 244
0.0077427197 0.736 -0.005161813 1.1165786e-38 326 244
0.0090577193 0.73799998 -0.0051758396 1.1350178e-38 327 244
0.010351679 0.73799998 -0.0051758396 1.1713569e-38 328 244
0.011645639 0.73799998 -0.0051758396 1.0699776e-38 329 244
0.012939599 0.73799998 -0.0051758396 1.0517902e-38 330 244
0.014252847 0.73900002 -0.0051828534 1.097852e-38 331 244
0.01554856 0.73900002 -0.0051828534 1.0700129e-38 332 244
0.016912652 0.74199998 -0.0052038929 1.0607574e-38 333 244
0.018213626 0.74199998 -0.0052038929 1.2081979e-38 334 244
0.019567199 0.74400002 -0.0052179201 1.1989783e-38 335 244
0.020927785 0.74599999 -0.0052319462 1.0330975e-38 336 244
0.022235774 0.74599999 -0.0052319462 9.9618322e-39 337 244
0.023575317 0.74699998 -0.0052389596 9.5934196e-39 338 244
0.024885058 0.74699998 -0.0052389596 9.4093871e-39 339 244
0.026264934 0.74900001 -0.0052529867 9.4101045e-39 340 244
0.027578179 0.74900001 -0.0052529867 1.0977789e-38 341 244
0.029122867 0.755 -0.0052950666 1.2355679e-38 342 244
0.030607941 0.759 -0.0053231199 1.1710309e-38 343 244
0.031938717 0.759 -0.0053231199 1.1528063e-38 344 244
0.033269498 0.759 -0.0053231199 1.2910998e-38 345 244
0.034600276 0.759 -0.0053231199 1.6686317e-38 346 244
-0.02389092 0.75700003 -0.0066363667 1.1074323e-38 302 245
-0.022563647 0.75700003 -0.0066363667 1.0797376e-38 303 245
-0.021236373 0.75700003 -0.0066363667 1.0710239e-38 304 245
-0.019909101 0.75700003 -0.0066363667 1.1908782e-38 305 245
-0.018532733 0.755 -0.0066188332 1.3197359e-38 306 245
-0.017186172 0.75400001 -0.0066100666 1.3104805e-38 307 245
-0.015822079 0.75199997 -0.0065925326 1.1536393e-38 308 245
-0.014445714 0.74900001 -0.0065662335 1.1075055e-38 309 245
-0.013132467 0.74900001 -0.0065662335 9.968707e-39 310 245
-0.011787659 0.74699998 -0.0065486995 1.0153458e-38 311 245
-0.010463892 0.74599999 -0.0065399334 1.0704477e-38 312 245
-0.0091559067 0.74599999 -0.0065399334 1.0796673e-38 313 245
-0.0078479191 0.74599999 -0.0065399334 1.0705556e-38 314 245
-0.0065223998 0.74400002 -0.0065223998 1.0889588e-38 315 245
-0.0051968796 0.741 -0.0064960998 1.107362e-38 316 245
-0.0038976599 0.741 -0.0064960998 1.0888868e-38 317 245
-0.0025984398 0.741 -0.0064960998 1.1350197e-38 318 245
-0.0012957134 0.73900002 -0.0064785667 1.1719339e-38 319 245
0 0.73900002 -0.0064785667 1.1995198e-38 320 245
0.0012957134 0.73900002 -0.0064785667 1.2363979e-38 321 245
0.0025879198 0.73799998 -0.0064697997 1.2090264e-38 322 245
0.0038818798 0.73799998 -0.0064697997 1.2090264e-38 323 245
0.0051828534 0.73900002 -0.0064785667 1.282316e-38 324 245
0.0064697997 0.73799998 -0.0064697997 1.2085594e-38 325 245
0.0077637597 0.73799998 -0.0064697997 1.1902999e-38 326 245
0.0090699932 0.73900002 -0.0064785667 1.1810802e-38 327 245
0.010365707 0.73900002 -0.0064785667 1.1899035e-38 328 245
0.01169298 0.741 -0.0064960998 1.0700493e-38 329 245
0.0129922 0.741 -0.0064960998 1.0610095e-38 330 245
0.014310705 0.74199998 -0.0065048663 1.1163269e-38 331 245
0.015611678 0.74199998 -0.0065048663 1.0423902e-38 332 245
0.016958239 0.74400002 -0.0065223998 1.005548e-38 333 245
0.018311813 0.74599999 -0.0065399334 1.143913e-38 334 245
0.019646099 0.74699998 -0.0065486995 1.1070706e-38 335 245
0.020955838 0.74699998 -0.0065486995 9.3175544e-39 336 245
0.022265578 0.74699998 -0.0065486995 8.949132e-39 337 245
0.02363844 0.74900001 -0.0065662335 9.3157593e-39 338 245
0.024951685 0.74900001 -0.0065662335 9.407955e-39 339 245
0.0263 0.75 -0.006575 9.7774451e-39 340 245
0.027615 0.75 -0.006575 1.1529161e-38 341 245
0.029354304 0.76099998 -0.0066714329 1.2079097e-38 342 245
0.030728921 0.76200002 -0.0066801999 1.1341532e-38 343 245
0.032064959 0.76200002 -0.0066801999 1.2080517e-38 344 245
0.033401001 0.76200002 -0.0066801999 1.3832234e-38 345 245
-0.022921326 0.76899999 -0.0080898795 1.2363257e-38 303 246
-0.021573013 0.76899999 -0.0080898795 1.0896427e-38 304 246
-0.0199617 0.759 -0.0079846792 1.1173015e-38 305 246
-0.018581826 0.75700003 -0.0079636406 1.1633276e-38 306 246
-0.017208965 0.755 -0.0079425992 1.1725473e-38 307 246
-0.01586416 0.75400001 -0.00793208 1.2364356e-38 308 246
-0.014503572 0.75199997 -0.0079110395 1.1995213e-38 309 246
-0.01315 0.75 -0.00789 1.0521884e-38 310 246
-0.01181922 0.74900001 -0.0078794798 1.0429688e-38 311 246
-0.010505973 0.74900001 -0.0078794798 1.0705556e-38 312 246
-0.0091681797 0.74699998 -0.0078584393 1.0705556e-38 313 246
-0.0078479191 0.74599999 -0.0078479191 1.0705909e-38 314 246
-0.0065399334 0.74599999 -0.0078479191 1.0705909e-38 315 246
-0.0052179201 0.74400002 -0.0078268806 1.125513e-38 316 246
-0.0039134403 0.74400002 -0.0078268806 1.1347325e-38 317 246
-0.0026019465 0.74199998 -0.0078058392 1.153279e-38 318 246
-0.0013009732 0.74199998 -0.0078058392 1.1901931e-38 319 246
0 0.74199998 -0.0078058392 1.1903002e-38 320 246
0.0012992199 0.741 -0.0077953199 1.2363979e-38 321 246
0.0025984398 0.741 -0.0077953199 1.2272856e-38 322 246
0.0038976599 0.741 -0.0077953199 1.2549443e-38 323 246
0.0052038929 0.74199998 -0.0078058392 1.2823879e-38 324 246
0.0065048663 0.74199998 -0.0078058392 1.1440945e-38 325 246
0.0078058392 0.74199998 -0.0078058392 9.6935494e-39 326 246
0.009106813 0.74199998 -0.0078058392 9.6935494e-39 327 246
0.010407786 0.74199998 -0.0078058392 1.0152004e-38 328 246
0.01170876 0.74199998 -0.0078058392 1.0059808e-38 329 246
0.0130448 0.74400002 -0.0078268806 1.097852e-38 330 246
0.014387853 0.74599999 -0.0078479191 1.1255467e-38 331 246
0.015695838 0.74599999 -0.0078479191 1.0147675e-38 332 246
0.017026618 0.74699998 -0.0078584393 1.005548e-38 333 246
0.018336359 0.74699998 -0.0078584393 1.153061e-38 334 246
0.0196987 0.74900001 -0.0078794798 1.0516098e-38 335 246
0.021011947 0.74900001 -0.0078794798 8.6721878e-39 336 246
0.022325192 0.74900001 -0.0078794798 8.8565804e-39 337 246
0.023669999 0.75 -0.00789 9.5919833e-39 338 246
0.025051624 0.75199997 -0.0079110395 9.8682114e-39 339 246
0.026685731 0.76099998 -0.0080057196 1.0788359e-38 340 246
0.028056841 0.76200002 -0.0080162399 1.1986902e-38 341 246
0.029470026 0.764 -0.0080372803 1.1251485e-38 342 246
0.030890226 0.76599997 -0.0080583189 1.0882344e-38 343 246
0.032233275 0.76599997 -0.0080583189 1.3093579e-38 344 246
0.033707831 0.76899999 -0.0080898795 1.4753099e-38 345 246
-0.024490559 0.77600002 -0.009524107 1.365363e-38 302 247
-0.023040552 0.773 -0.0094872871 1.365363e-38 303 247
-0.021573013 0.76899999 -0.0094381925 1.2457992e-38 304 247
-0.0200406 0.76200002 -0.0093522798 1.2181406e-38 305 247
-0.01863092 0.759 -0.00931546 1.1081541e-38 306 247
-0.017254554 0.75700003 -0.0092909131 1.1173737e-38 307 247
-0.015885198 0.755 -0.0092663663 1.2272523e-38 308 247
-0.014542146 0.75400001 -0.0092540924 1.1996295e-38 309 247
-0.013185065 0.75199997 -0.0092295464 1.0888868e-38 310 247
-0.011835 0.75 -0.0092049995 1.0981065e-38 311 247
-0.01052 0.75 -0.0092049995 1.0798828e-38 312 247
-0.0091927266 0.74900001 -0.0091927266 1.0798828e-38 313 247
-0.0078794798 0.74900001 -0.0091927266 1.0981421e-38 314 247
-0.0065486995 0.74699998 -0.0091681797 1.0889224e-38 315 247
-0.0052389596 0.74699998 -0.0091681797 1.107218e-38 316 247
-0.0039292197 0.74699998 -0.0091681797 1.1256932e-38 317 247
-0.0026159731 0.74599999 -0.0091559067 1.1533872e-38 318 247
-0.00130448 0.74400002 -0.0091313599 1.1717903e-38 319 247
0 0.74400002 -0.0091313599 1.2363623e-38 320 247
0.00130448 0.74400002 -0.0091313599 1.2548374e-38 321 247
0.00260896 0.74400002 -0.0091313599 1.2549443e-38 322 247
0.0039134403 0.74400002 -0.0091313599 1.2641639e-38 323 247
0.0052038929 0.74199998 -0.009106813 1.2916434e-38 324 247
0.0065048663 0.74199998 -0.009106813 1.1072521e-38 325 247
0.0078268806 0.74400002 -0.0091313599 8.7705211e-39 326 247
0.0091313599 0.74400002 -0.0091313599 9.5080861e-39 327 247
0.01043584 0.74400002 -0.0091313599 1.0058739e-38 328 247
0.011740319 0.74400002 -0.0091313599 1.0058739e-38 329 247
0.013079867 0.74599999 -0.0091559067 1.0795208e-38 330 247
0.014407139 0.74699998 -0.0091681797 1.0979601e-38 331 247
0.015716879 0.74699998 -0.0091681797 1.0148038e-38 332 247
0.017026618 0.74699998 -0.0091681797 1.0055842e-38 333 247
0.018385453 0.74900001 -0.0091927266 1.0977439e-38 334 247
0.0196987 0.74900001 -0.0091927266 1.0055124e-38 335 247
0.021011947 0.74900001 -0.0091927266 8.9473327e-39 336 247
0.022355 0.75 -0.0092049995 9.3157565e-39 337 247
0.023733119 0.75199997 -0.0092295464 9.5005037e-39 338 247
0.025351444 0.76099998 -0.0093400059 9.6848964e-39 339 247
0.0267208 0.76200002 -0.0093522798 1.0606486e-38 340 247
0.028130481 0.764 -0.0093768267 1.1436246e-38 341 247
0.029547172 0.76599997 -0.0094013726 1.1069243e-38 342 247
0.030890226 0.76599997 -0.0094013726 1.1069243e-38 343 247
0.03227536 0.76700002 -0.0094136465 1.3922965e-38 344 247
-0.023040552 0.773 -0.010842613 1.4576286e-38 303 248
-0.021629119 0.77100003 -0.01081456 1.3560375e-38 304 248
-0.020093199 0.764 -0.010716373 1.2730613e-38 305 248
-0.01870456 0.76200002 -0.01068832 1.0987901e-38 306 248
-0.017300138 0.759 -0.01064624 1.0619118e-38 307 248
-0.015927281 0.75700003 -0.010618187 1.1442042e-38 308 248
-0.014561433 0.755 -0.010590133 1.1349846e-38 309 248
-0.013220133 0.75400001 -0.010576107 1.125621e-38 310 248
-0.011866559 0.75199997 -0.010548052 1.125621e-38 311 248
-0.01052 0.75 -0.01052 1.0889944e-38 312 248
-0.0091927266 0.74900001 -0.010505973 1.098214e-38 313 248
-0.0078794798 0.74900001 -0.010505973 1.0981418e-38 314 248
-0.0065662335 0.74900001 -0.010505973 1.0889221e-38 315 248
-0.0052529867 0.74900001 -0.010505973 1.1072534e-38 316 248
-0.0039397399 0.74900001 -0.010505973 1.1349481e-38 317 248
-0.0026194798 0.74699998 -0.010477919 1.1534225e-38 318 248
-0.0013097399 0.74699998 -0.010477919 1.1902649e-38 319 248
0 0.74699998 -0.010477919 1.3101178e-38 320 248
0.0013097399 0.74699998 -0.010477919 1.3008982e-38 321 248
0.0026159731 0.74599999 -0.010463892 1.2366128e-38 322 248
0.0039239596 0.74599999 -0.010463892 1.255052e-38 323 248
0.0052319462 0.74599999 -0.010463892 1.2825314e-38 324 248
0.0065399334 0.74599999 -0.010463892 1.0889206e-38 325 248
0.0078479191 0.74599999 -0.010463892 9.1382148e-39 326 248
0.0091559067 0.74599999 -0.010463892 1.0059811e-38 327 248
0.010463892 0.74599999 -0.010463892 1.0242404e-38 328 248
0.011787659 0.74699998 -0.010477919 1.03346e-38 329 248
0.013097399 0.74699998 -0.010477919 1.0703015e-38 330 248
0.014445714 0.74900001 -0.010505973 1.0703015e-38 331 248
0.01575896 0.74900001 -0.010505973 9.5048253e-39 332 248
0.017072206 0.74900001 -0.010505973 9.9654447e-39 333 248
0.018385453 0.74900001 -0.010505973 1.0885237e-38 334 248
0.0196987 0.74900001 -0.010505973 1.0424258e-38 335 248
0.02104 0.75 -0.01052 9.8678443e-39 336 248
0.022355 0.75 -0.01052 9.7756487e-39 337 248
0.023827799 0.755 -0.010590133 9.7756459e-39 338 248
0.025451386 0.764 -0.010716373 9.6834502e-39 339 248
0.026861066 0.76599997 -0.010744425 1.0146577e-38 340 248
0.028204117 0.76599997 -0.010744425 1.1990489e-38 341 248
0.029585747 0.76700002 -0.010758453 1.2175937e-38 342 248
0.030930554 0.76700002 -0.010758453 1.2083741e-38 343 248
-0.020145798 0.76599997 -0.012087479 1.3376689e-38 305 249
-0.018753653 0.764 -0.01205592 1.0065579e-38 306 249
-0.01736852 0.76200002 -0.01202436 9.7886317e-39 307 249
-0.016011439 0.76099998 -0.012008579 1.0430767e-38 308 249
-0.014600007 0.75700003 -0.01194546 1.0153821e-38 309 249
-0.013237666 0.755 -0.011913899 1.0335696e-38 310 249
-0.011913899 0.755 -0.011913899 1.0335696e-38 311 249
-0.010576107 0.75400001 -0.01189812 1.0428969e-38 312 249
-0.0092295464 0.75199997 -0.011866559 1.0981784e-38 313 249
-0.0079110395 0.75199997 -0.011866559 1.0706273e-38 314 249
-0.0065925326 0.75199997 -0.011866559 1.0614076e-38 315 249
-0.0052740262 0.75199997 -0.011866559 1.1164731e-38 316 249
-0.003945 0.75 -0.011835 1.1441676e-38 317 249
-0.0026264933 0.74900001 -0.01181922 1.1442748e-38 318 249
-0.0013132467 0.74900001 -0.01181922 1.1627139e-38 319 249
0 0.74900001 -0.01181922 1.1903721e-38 320 249
0.0013132467 0.74900001 -0.01181922 1.254909e-38 321 249
0.0026194798 0.74699998 -0.011787659 1.218246e-38 322 249
0.0039292197 0.74699998 -0.011787659 1.2459046e-38 323 249
0.0052389596 0.74699998 -0.011787659 1.3008626e-38 324 249
0.0065486995 0.74699998 -0.011787659 1.0795931e-38 325 249
0.0078584393 0.74699998 -0.011787659 9.1389309e-39 326 249
0.0091927266 0.74900001 -0.01181922 9.9686915e-39 327 249
0.010505973 0.74900001 -0.01181922 1.0242404e-38 328 249
0.01181922 0.74900001 -0.01181922 1.0242404e-38 329 249
0.01315 0.75 -0.011835 1.03346e-38 330 249
0.014465 0.75 -0.011835 1.0242404e-38 331 249
0.01578 0.75 -0.011835 8.8623398e-39 332 249
0.017095 0.75 -0.011835 9.2311237e-39 333 249
0.018409999 0.75 -0.011835 1.0608649e-38 334 249
0.019724999 0.75 -0.011835 1.0239868e-38 335 249
0.02104 0.75 -0.011835 9.9607602e-39 336 249
0.022772292 0.764 -0.01205592 9.499782e-39 337 249
0.024111839 0.764 -0.01205592 9.3164656e-39 338 249
0.025518013 0.76599997 -0.012087479 9.6852495e-39 339 249
0.026896132 0.76700002 -0.01210326 1.1340079e-38 340 249
0.02824094 0.76700002 -0.01210326 1.318399e-38 341 249
0.02966289 0.76899999 -0.012134819 1.2543994e-38 342 249
0.031091858 0.77100003 -0.01216638 1.2543994e-38 343 249
-0.020277301 0.77100003 -0.013518199 1.402348e-38 305 250
-0.018876385 0.76899999 -0.013483133 1.0155604e-38 306 250
-0.017482487 0.76700002 -0.013448066 9.048896e-39 307 250
-0.01603248 0.76200002 -0.0133604 1.0061626e-38 308 250
-0.014677152 0.76099998 -0.013342866 9.6006475e-39 309 250
-0.0133078 0.759 -0.0133078 9.3222684e-39 310 250
-0.01197702 0.759 -0.0133078 9.414464e-39 311 250
-0.010590133 0.755 -0.013237666 9.6002972e-39 312 250
-0.0092295464 0.75199997 -0.013185065 1.0706645e-38 313 250
-0.0079110395 0.75199997 -0.013185065 1.1258374e-38 314 250
-0.0066100666 0.75400001 -0.013220133 1.0613004e-38 315 250
-0.0052880533 0.75400001 -0.013220133 1.1257285e-38 316 250
-0.00396604 0.75400001 -0.013220133 1.2087046e-38 317 250
-0.0026370131 0.75199997 -0.013185065 1.2179592e-38 318 250
-0.0013185065 0.75199997 -0.013185065 1.19952e-38 319 250
0 0.75199997 -0.013185065 1.171969e-38 320 250
0.001315 0.75 -0.01315 1.2180666e-38 321 250
0.00263 0.75 -0.01315 1.2365056e-38 322 250
0.003945 0.75 -0.01315 1.2641642e-38 323 250
0.00526 0.75 -0.01315 1.2824232e-38 324 250
0.006575 0.75 -0.01315 1.1441298e-38 325 250
0.00789 0.75 -0.01315 1.0611896e-38 326 250
0.0092049995 0.75 -0.01315 1.0888124e-38 327 250
0.01052 0.75 -0.01315 1.0519347e-38 328 250
0.011866559 0.75199997 -0.013185065 9.9661734e-39 329 250
0.013185065 0.75199997 -0.013185065 9.8743449e-39 330 250
0.014503572 0.75199997 -0.013185065 9.7821479e-39 331 250
0.015822079 0.75199997 -0.013185065 8.8619838e-39 332 250
0.017140586 0.75199997 -0.013185065 9.0467352e-39 333 250
0.018508185 0.75400001 -0.013220133 9.7799787e-39 334 250
0.019830201 0.75400001 -0.013220133 9.4115549e-39 335 250
0.021152213 0.75400001 -0.013220133 9.4994317e-39 336 250
0.022772292 0.764 -0.013395466 9.2228448e-39 337 250
0.024174958 0.76599997 -0.013430533 8.9484061e-39 338 250
0.025551327 0.76700002 -0.013448066 1.0239145e-38 339 250
0.026896132 0.76700002 -0.013448066 1.1435865e-38 340 250
0.028314579 0.76899999 -0.013483133 1.235818e-38 341 250
0.02966289 0.76899999 -0.013483133 1.2177357e-38 342 250
-0.018925481 0.77100003 -0.01487002 1.3653627e-38 306 251
-0.017482487 0.76700002 -0.014792874 1.2178497e-38 307 251
-0.016074561 0.764 -0.014735013 1.1165082e-38 308 251
-0.014735013 0.764 -0.014735013 1.061191e-38 309 251
-0.0133604 0.76200002 -0.01469644 1.0059108e-38 310 251
-0.012008579 0.76099998 -0.014677152 9.9669119e-39 311 251
-0.01064624 0.759 -0.014638579 9.4151843e-39 312 251
-0.0092909131 0.75700003 -0.014600007 1.0060554e-38 313 251
-0.0079425992 0.755 -0.014561433 1.0886717e-38 314 251
-0.0066188332 0.755 -0.014561433 1.0426098e-38 315 251
-0.0052950666 0.755 -0.014561433 1.0616232e-38 316 251
-0.0039712996 0.755 -0.014561433 1.2091362e-38 317 251
-0.0026440267 0.75400001 -0.014542146 1.3008626e-38 318 251
-0.0013220133 0.75400001 -0.014542146 1.2916431e-38 319 251
0 0.75400001 -0.014542146 1.2549441e-38 320 251
0.0013220133 0.75400001 -0.014542146 1.273419e-38 321 251
0.0026370131 0.75199997 -0.014503572 1.2825667e-38 322 251
0.0039555198 0.75199997 -0.014503572 1.2733472e-38 323 251
0.0052740262 0.75199997 -0.014503572 1.3008614e-38 324 251
0.0065925326 0.75199997 -0.014503572 1.2823864e-38 325 251
0.0079110395 0.75199997 -0.014503572 1.3096493e-38 326 251
0.0092295464 0.75199997 -0.014503572 1.2635155e-38 327 251
0.010548052 0.75199997 -0.014503572 1.1070003e-38 328 251
0.01189812 0.75400001 -0.014542146 1.0055492e-38 329 251
0.013220133 0.75400001 -0.014542146 9.1385805e-39 330 251
0.014542146 0.75400001 -0.014542146 9.2307762e-39 331 251
0.01586416 0.75400001 -0.014542146 9.3208082e-39 332 251
0.017186172 0.75400001 -0.014542146 9.3208082e-39 333 251
0.018532733 0.755 -0.014561433 9.4122738e-39 334 251
0.0199617 0.759 -0.014638579 8.951297e-39 335 251
0.02137664 0.76200002 -0.01469644 9.1324443e-39 336 251
0.022772292 0.764 -0.014735013 9.5934224e-39 337 251
0.024174958 0.76599997 -0.014773586 1.0330972e-38 338 251
0.025551327 0.76700002 -0.014792874 1.1344764e-38 339 251
0.026896132 0.76700002 -0.014792874 1.0979193e-38 340 251
0.028314579 0.76899999 -0.014831445 1.1163224e-38 341 251
0.02966289 0.76899999 -0.014831445 1.1901846e-38 342 251
-0.01757366 0.77100003 -0.016221842 1.4023831e-38 307 252
-0.016221842 0.77100003 -0.016221842 1.217851e-38 308 252
-0.014773586 0.76599997 -0.016116638 1.153314e-38 309 252
-0.0133604 0.76200002 -0.01603248 1.125548e-38 310 252
-0.01202436 0.76200002 -0.01603248 1.0702306e-38 311 252
-0.010674292 0.76099998 -0.016011439 8.9563529e-39 312 252
-0.00931546 0.759 -0.015969358 9.6017223e-39 313 252
-0.0079846792 0.759 -0.015969358 1.0334262e-38 314 252
-0.0066538998 0.759 -0.015969358 9.9658399e-39 315 252
-0.0052950666 0.755 -0.015885198 1.0061628e-38 316 252
-0.0039712996 0.755 -0.015885198 1.1444563e-38 317 252
-0.0026475333 0.755 -0.015885198 1.2915715e-38 318 252
-0.0013237667 0.755 -0.015885198 1.3284137e-38 319 252
0 0.755 -0.015885198 1.3560348e-38 320 252
0.0013237667 0.755 -0.015885198 1.3652903e-38 321 252
0.0026475333 0.755 -0.015885198 1.3284119e-38 322 252
0.0039712996 0.755 -0.015885198 1.3191923e-38 323 252
0.0052950666 0.755 -0.015885198 1.3375591e-38 324 252
0.0066188332 0.755 -0.015885198 1.3467787e-38 325 252
0.0079425992 0.755 -0.015885198 1.4108838e-38 326 252
0.0092540924 0.75400001 -0.01586416 1.2910294e-38 327 252
0.010576107 0.75400001 -0.01586416 1.0518621e-38 328 252
0.011913899 0.755 -0.015885198 9.5044694e-39 329 252
0.013237666 0.755 -0.015885198 8.9531131e-39 330 252
0.014561433 0.755 -0.015885198 8.8609175e-39 331 252
0.015885198 0.755 -0.015885198 9.0435081e-39 332 252
0.017208965 0.755 -0.015885198 9.0435081e-39 333 252
0.01863092 0.759 -0.015969358 9.4122738e-39 334 252
0.0199617 0.759 -0.015969358 9.0434926e-39 335 252
0.02137664 0.76200002 -0.01603248 9.2275112e-39 336 252
0.022772292 0.764 -0.016074561 1.0149826e-38 337 252
0.024174958 0.76599997 -0.016116638 1.1805728e-38 338 252
0.025551327 0.76700002 -0.01613768 1.1713532e-38 339 252
0.026896132 0.76700002 -0.01613768 1.0797653e-38 340 252
0.02824094 0.76700002 -0.01613768 1.0705458e-38 341 252
-0.01757366 0.77100003 -0.01757366 1.1360573e-38 307 253
-0.016179759 0.76899999 -0.017528072 1.2456522e-38 308 253
-0.014792874 0.76700002 -0.017482487 1.1811152e-38 309 253
-0.013395466 0.764 -0.017414106 1.1990884e-38 310 253
-0.01205592 0.764 -0.017414106 1.1622102e-38 311 253
-0.01068832 0.76200002 -0.01736852 1.0061623e-38 312 253
-0.0093400059 0.76099998 -0.017345725 1.0061623e-38 313 253
-0.0079846792 0.759 -0.017300138 1.0428969e-38 314 253
-0.0066538998 0.759 -0.017300138 1.0060187e-38 315 253
-0.0053231199 0.759 -0.017300138 9.7828808e-39 316 253
-0.0039923396 0.759 -0.017300138 1.0151303e-38 317 253
-0.0026545466 0.75700003 -0.017254554 1.006054e-38 318 253
-0.0013272733 0.75700003 -0.017254554 9.783594e-39 319 253
0 0.759 -0.017300138 9.9658217e-39 320 253
0.00133078 0.759 -0.017300138 9.8736246e-39 321 253
0.0026545466 0.75700003 -0.017254554 9.7814262e-39 322 253
0.0039818203 0.75700003 -0.017254554 9.7814262e-39 323 253
0.0053090933 0.75700003 -0.017254554 1.0056927e-38 324 253
0.0066363667 0.75700003 -0.017254554 9.7799815e-39 325 253
0.0079636406 0.75700003 -0.017254554 9.7792612e-39 326 253
0.0092909131 0.75700003 -0.017254554 1.0055489e-38 327 253
0.010590133 0.755 -0.017208965 8.8619895e-39 328 253
0.011913899 0.755 -0.017208965 8.0322302e-39 329 253
0.013272733 0.75700003 -0.017254554 9.1331898e-39 330 253
0.014600007 0.75700003 -0.017254554 9.0409927e-39 331 253
0.015927281 0.75700003 -0.017254554 8.9484285e-39 332 253
0.017300138 0.759 -0.017300138 9.5016023e-39 333 253
0.018680012 0.76099998 -0.017345725 9.8728834e-39 334 253
0.0200406 0.76200002 -0.01736852 1.0610448e-38 335 253
0.021432746 0.764 -0.017414106 1.1347271e-38 336 253
0.022831906 0.76599997 -0.017459691 1.1531663e-38 337 253
0.024206521 0.76700002 -0.017482487 1.1714586e-38 338 253
0.025617953 0.76899999 -0.017528072 1.0700436e-38 339 253
0.026966266 0.76899999 -0.017528072 9.419035e-39 340 253
0.028314579 0.76899999 -0.017528072 1.1170752e-38 341 253
-0.016179759 0.76899999 -0.018876385 1.1907276e-38 308 254
-0.014831445 0.76899999 -0.018876385 1.181508e-38 309 254
-0.013448066 0.76700002 -0.018827293 1.172004e-38 310 254
-0.01210326 0.76700002 -0.018827293 1.1350897e-38 311 254
-0.010744425 0.76599997 -0.018802745 1.098177e-38 312 254
-0.0093522798 0.76200002 -0.01870456 1.0797379e-38 313 254
-0.0080162399 0.76200002 -0.01870456 1.1163287e-38 314 254
