# .PCD v.7 - Point Cloud Data file format
FIELDS x y z rgb imX imY
SIZE 4 4 4 4 4 4
TYPE F F F F F F
COUNT 1 1 1 1 1 1
WIDTH 845
HEIGHT 1
VIEWPOINT 0 0 0 1 0 0 0
POINTS 845
DATA ascii
0.016884599 0.64200002 0.099056318 1.8255438e-38 335 152
0.017982185 0.64099997 0.098902017 1.8438032e-38 336 152
0.019106071 0.64099997 0.098902017 1.8530227e-38 337 152
0.020229958 0.64099997 0.098902017 1.9080867e-38 338 152
0.02138716 0.64200002 0.099056318 1.6867812e-38 339 152
0.022512799 0.64200002 0.099056318 1.5115004e-38 340 152
-0.0055931332 0.63800001 0.097320519 2.0371975e-38 315 153
-0.0044745067 0.63800001 0.097320519 1.9178116e-38 316 153
-0.00335588 0.63800001 0.097320519 1.8532747e-38 317 153
-0.0022372534 0.63800001 0.097320519 1.8715707e-38 318 153
-0.0011221332 0.63999999 0.097625598 1.8531675e-38 319 153
0 0.63999999 0.097625598 1.8532751e-38 320 153
0.0011221332 0.63999999 0.097625598 1.8532751e-38 321 153
0.0022442664 0.63999999 0.097625598 1.8532751e-38 322 153
0.0033663998 0.63999999 0.097625598 1.8624947e-38 323 153
0.0044885329 0.63999999 0.097625598 1.8715707e-38 324 153
0.0056194332 0.64099997 0.097778134 1.8715707e-38 325 153
0.0067433193 0.64099997 0.097778134 1.8532751e-38 326 153
0.0078672068 0.64099997 0.097778134 1.8532751e-38 327 153
0.0089910924 0.64099997 0.097778134 1.8716059e-38 328 153
0.01013076 0.64200002 0.097930677 1.8716059e-38 329 153
0.011238866 0.64099997 0.097778134 1.8715696e-38 330 153
0.012362752 0.64099997 0.097778134 1.8715696e-38 331 153
0.01350768 0.64200002 0.097930677 1.8532381e-38 332 153
0.01463332 0.64200002 0.097930677 1.8440185e-38 333 153
0.01575896 0.64200002 0.097930677 1.8622779e-38 334 153
0.016858298 0.64099997 0.097778134 1.8622779e-38 335 153
0.017982185 0.64099997 0.097778134 1.853058e-38 336 153
0.019106071 0.64099997 0.097778134 1.8622776e-38 337 153
0.020229958 0.64099997 0.097778134 1.8991551e-38 338 153
0.021353846 0.64099997 0.097778134 1.6963248e-38 339 153
0.022477733 0.64099997 0.097778134 1.5761095e-38 340 153
-0.0055931332 0.63800001 0.096201889 2.0741483e-38 315 154
-0.0044745067 0.63800001 0.096201889 1.8902252e-38 316 154
-0.00335588 0.63800001 0.096201889 1.834908e-38 317 154
-0.0022372534 0.63800001 0.096201889 1.8716063e-38 318 154
-0.0011221332 0.63999999 0.096503459 1.8808259e-38 319 154
0 0.63999999 0.096503459 1.853347e-38 320 154
0.0011221332 0.63999999 0.096503459 1.853347e-38 321 154
0.0022442664 0.63999999 0.096503459 1.8624591e-38 322 154
0.0033663998 0.63999999 0.096503459 1.8624591e-38 323 154
0.0044885329 0.63999999 0.096503459 1.871571e-38 324 154
0.0056106662 0.63999999 0.096503459 1.871571e-38 325 154
0.0067327996 0.63999999 0.096503459 1.8715707e-38 326 154
0.0078549329 0.63999999 0.096503459 1.8715707e-38 327 154
0.0089770658 0.63999999 0.096503459 1.8716059e-38 328 154
0.010114979 0.64099997 0.096654251 1.8716059e-38 329 154
0.011221332 0.63999999 0.096503459 1.8716059e-38 330 154
0.012343466 0.63999999 0.096503459 1.8532028e-38 331 154
0.013486639 0.64099997 0.096654251 1.8532028e-38 332 154
0.014610525 0.64099997 0.096654251 1.8532028e-38 333 154
0.015734414 0.64099997 0.096654251 1.8623144e-38 334 154
0.016858298 0.64099997 0.096654251 1.8530949e-38 335 154
0.017954132 0.63999999 0.096503459 1.853023e-38 336 154
0.019016653 0.63800001 0.096201889 1.853023e-38 337 154
0.02013528 0.63800001 0.096201889 1.8713895e-38 338 154
0.021253906 0.63800001 0.096201889 1.7607548e-38 339 154
0.022372533 0.63800001 0.096201889 1.6039133e-38 340 154
-0.0067012399 0.63700002 0.094934233 1.7056542e-38 314 155
-0.0055843666 0.63700002 0.094934233 2.0191193e-38 315 155
-0.0044674934 0.63700002 0.094934233 1.9270316e-38 316 155
-0.0033506199 0.63700002 0.094934233 1.8717142e-38 317 155
-0.0022337467 0.63700002 0.094934233 1.8624947e-38 318 155
-0.0011168733 0.63700002 0.094934233 1.8624947e-38 319 155
0 0.63700002 0.094934233 1.8624591e-38 320 155
0.0011168733 0.63700002 0.094934233 1.8624591e-38 321 155
0.0022337467 0.63700002 0.094934233 1.8807906e-38 322 155
0.00335588 0.63800001 0.095083259 1.8807906e-38 323 155
0.0044745067 0.63800001 0.095083259 1.8807906e-38 324 155
0.0055931332 0.63800001 0.095083259 1.8807906e-38 325 155
0.0067117601 0.63800001 0.095083259 1.8807903e-38 326 155
0.0078181131 0.63700002 0.094934233 1.8807903e-38 327 155
0.0089349868 0.63700002 0.094934233 1.8808256e-38 328 155
0.01005186 0.63700002 0.094934233 1.8716059e-38 329 155
0.011168733 0.63700002 0.094934233 1.8807892e-38 330 155
0.012343466 0.63999999 0.095381327 1.8807892e-38 331 155
0.013465599 0.63999999 0.095381327 1.8899008e-38 332 155
0.014587732 0.63999999 0.095381327 1.8899008e-38 333 155
0.015709866 0.63999999 0.095381327 1.8714621e-38 334 155
0.016858298 0.64099997 0.095530361 1.8622426e-38 335 155
0.017954132 0.63999999 0.095381327 1.853023e-38 336 155
0.019016653 0.63800001 0.095083259 1.8345839e-38 337 155
0.02013528 0.63800001 0.095083259 1.8345839e-38 338 155
0.021253906 0.63800001 0.095083259 1.7700469e-38 339 155
0.022372533 0.63800001 0.095083259 1.6041298e-38 340 155
-0.0078181131 0.63700002 0.093817361 1.5578525e-38 313 156
-0.0067012399 0.63700002 0.093817361 1.6874317e-38 314 156
-0.0055843666 0.63700002 0.093817361 1.9732383e-38 315 156
-0.0044674934 0.63700002 0.093817361 1.9362158e-38 316 156
-0.0033506199 0.63700002 0.093817361 1.8716789e-38 317 156
-0.0022337467 0.63700002 0.093817361 1.8533114e-38 318 156
-0.0011168733 0.63700002 0.093817361 1.8533114e-38 319 156
0 0.63700002 0.093817361 1.8807906e-38 320 156
0.0011168733 0.63700002 0.093817361 1.8807906e-38 321 156
0.0022337467 0.63700002 0.093817361 1.8992297e-38 322 156
0.0033506199 0.63700002 0.093817361 1.8900101e-38 323 156
0.0044674934 0.63700002 0.093817361 1.8900101e-38 324 156
0.0055843666 0.63700002 0.093817361 1.8807906e-38 325 156
0.0067012399 0.63700002 0.093817361 1.8624947e-38 326 156
0.0078181131 0.63700002 0.093817361 1.8717142e-38 327 156
0.0089349868 0.63700002 0.093817361 1.8899733e-38 328 156
0.01005186 0.63700002 0.093817361 1.8899733e-38 329 156
0.011168733 0.63700002 0.093817361 1.8716059e-38 330 156
0.012285607 0.63700002 0.093817361 1.8532028e-38 331 156
0.01342352 0.63800001 0.093964644 1.8715696e-38 332 156
0.014542148 0.63800001 0.093964644 1.8715696e-38 333 156
0.015660774 0.63800001 0.093964644 1.8623144e-38 334 156
0.016831998 0.63999999 0.094259195 1.8530949e-38 335 156
0.017954132 0.63999999 0.094259195 1.8346562e-38 336 156
0.019016653 0.63800001 0.093964644 1.8162171e-38 337 156
0.02013528 0.63800001 0.093964644 1.8254363e-38 338 156
0.021320533 0.63999999 0.094259195 1.7516798e-38 339 156
0.022442665 0.63999999 0.094259195 1.5949819e-38 340 156
-0.0089490134 0.63800001 0.092846014 1.4471464e-38 312 157
-0.0078181131 0.63700002 0.092700489 1.6223541e-38 313 157
-0.0067012399 0.63700002 0.092700489 1.6784649e-38 314 157
-0.0055843666 0.63700002 0.092700489 1.9642354e-38 315 157
-0.0044674934 0.63700002 0.092700489 1.9271764e-38 316 157
-0.0033506199 0.63700002 0.092700489 1.853384e-38 317 157
-0.0022337467 0.63700002 0.092700489 1.8349802e-38 318 157
-0.0011168733 0.63700002 0.092700489 1.8349802e-38 319 157
0 0.63700002 0.092700489 1.8900457e-38 320 157
0.0011168733 0.63700002 0.092700489 1.8900457e-38 321 157
0.0022337467 0.63700002 0.092700489 1.8991578e-38 322 157
0.0033506199 0.63700002 0.092700489 1.8991578e-38 323 157
0.0044674934 0.63700002 0.092700489 1.8900101e-38 324 157
0.0055843666 0.63700002 0.092700489 1.8992297e-38 325 157
0.0067012399 0.63700002 0.092700489 1.8900457e-38 326 157
0.0078058392 0.63599998 0.092554957 1.8900457e-38 327 157
0.0089209592 0.63599998 0.092554957 1.8899736e-38 328 157
0.01005186 0.63700002 0.092700489 1.8899736e-38 329 157
0.011151199 0.63599998 0.092554957 1.8716063e-38 330 157
0.012266319 0.63599998 0.092554957 1.8716063e-38 331 157
0.01340248 0.63700002 0.092700489 1.880754e-38 332 157
0.014519353 0.63700002 0.092700489 1.880754e-38 333 157
0.015636226 0.63700002 0.092700489 1.8531675e-38 334 157
0.016779399 0.63800001 0.092846014 1.8347283e-38 335 157
0.017898027 0.63800001 0.092846014 1.8346565e-38 336 157
0.018986847 0.63700002 0.092700489 1.8254369e-38 337 157
0.020103721 0.63700002 0.092700489 1.8346565e-38 338 157
0.021320533 0.63999999 0.093137063 1.7147661e-38 339 157
0.022442665 0.63999999 0.093137063 1.5122942e-38 340 157
-0.007830387 0.63800001 0.091727383 1.6500854e-38 313 158
-0.0067117601 0.63800001 0.091727383 1.6694621e-38 314 158
-0.0055931332 0.63800001 0.091727383 1.927574e-38 315 158
-0.0044674934 0.63700002 0.09158361 1.8905866e-38 316 158
-0.0033506199 0.63700002 0.09158361 1.8260497e-38 317 158
-0.0022302398 0.63599998 0.091439828 1.8349799e-38 318 158
-0.0011151199 0.63599998 0.091439828 1.8441994e-38 319 158
0 0.63599998 0.091439828 1.8899738e-38 320 158
0.0011151199 0.63599998 0.091439828 1.8899738e-38 321 158
0.0022302398 0.63599998 0.091439828 1.8900101e-38 322 158
0.0033453598 0.63599998 0.091439828 1.8900101e-38 323 158
0.0044604796 0.63599998 0.091439828 1.8900101e-38 324 158
0.0055755996 0.63599998 0.091439828 1.8992297e-38 325 158
0.0066907196 0.63599998 0.091439828 1.8900457e-38 326 158
0.0078058392 0.63599998 0.091439828 1.8900457e-38 327 158
0.0089209592 0.63599998 0.091439828 1.8624591e-38 328 158
0.010036079 0.63599998 0.091439828 1.8624591e-38 329 158
0.011151199 0.63599998 0.091439828 1.8715707e-38 330 158
0.012266319 0.63599998 0.091439828 1.8715707e-38 331 158
0.013381439 0.63599998 0.091439828 1.8715707e-38 332 158
0.014496559 0.63599998 0.091439828 1.8715707e-38 333 158
0.015611678 0.63599998 0.091439828 1.8531675e-38 334 158
0.0167531 0.63700002 0.09158361 1.8347283e-38 335 158
0.017869974 0.63700002 0.09158361 1.8346562e-38 336 158
0.018957037 0.63599998 0.091439828 1.8346562e-38 337 158
0.0200406 0.63499999 0.091296062 1.8163615e-38 338 158
0.021153966 0.63499999 0.091296062 1.6411538e-38 339 158
0.022442665 0.63999999 0.092014931 1.466233e-38 340 158
-0.0067117601 0.63800001 0.090608761 1.6511322e-38 314 159
-0.0055931332 0.63800001 0.090608761 1.8908048e-38 315 159
-0.0044674934 0.63700002 0.090466738 1.8632172e-38 316 159
-0.0033506199 0.63700002 0.090466738 1.8263388e-38 317 159
-0.0022302398 0.63599998 0.090324715 1.853384e-38 318 159
-0.0011151199 0.63599998 0.090324715 1.8349448e-38 319 159
0 0.63599998 0.090324715 1.8716789e-38 320 159
0.0011151199 0.63599998 0.090324715 1.8532398e-38 321 159
0.0022302398 0.63599998 0.090324715 1.8900457e-38 322 159
0.0033453598 0.63599998 0.090324715 1.8900457e-38 323 159
0.0044604796 0.63599998 0.090324715 1.8717142e-38 324 159
0.0055755996 0.63599998 0.090324715 1.8809338e-38 325 159
0.0066907196 0.63599998 0.090324715 1.8717142e-38 326 159
0.0078058392 0.63599998 0.090324715 1.8717142e-38 327 159
0.0089209592 0.63599998 0.090324715 1.8624591e-38 328 159
0.0100203 0.63499999 0.090182692 1.8624591e-38 329 159
0.011133666 0.63499999 0.090182692 1.8715707e-38 330 159
0.012247032 0.63499999 0.090182692 1.8715707e-38 331 159
0.0133604 0.63499999 0.090182692 1.8715707e-38 332 159
0.014473766 0.63499999 0.090182692 1.8531675e-38 333 159
0.015587131 0.63499999 0.090182692 1.8531675e-38 334 159
0.016700499 0.63499999 0.090182692 1.8439479e-38 335 159
0.017813865 0.63499999 0.090182692 1.8530949e-38 336 159
0.018927233 0.63499999 0.090182692 1.8530949e-38 337 159
0.0200406 0.63499999 0.090182692 1.7887026e-38 338 159
0.021054026 0.63200003 0.089756638 1.5674329e-38 339 159
0.022162134 0.63200003 0.089756638 1.3925486e-38 340 159
-0.0067433193 0.64099997 0.089910932 1.605323e-38 314 160
-0.0056106662 0.63999999 0.08977066 1.7804947e-38 315 160
-0.0044674934 0.63700002 0.089349866 1.771455e-38 316 160
-0.0033506199 0.63700002 0.089349866 1.771455e-38 317 160
-0.0022302398 0.63599998 0.089209594 1.8904789e-38 318 160
-0.0011151199 0.63599998 0.089209594 1.8351615e-38 319 160
0 0.63599998 0.089209594 1.8532395e-38 320 160
0.0011151199 0.63599998 0.089209594 1.8440198e-38 321 160
0.0022302398 0.63599998 0.089209594 1.8624947e-38 322 160
0.0033453598 0.63599998 0.089209594 1.8717142e-38 323 160
0.0044604796 0.63599998 0.089209594 1.8625665e-38 324 160
0.0055755996 0.63599998 0.089209594 1.8625665e-38 325 160
0.0066907196 0.63599998 0.089209594 1.853347e-38 326 160
0.0078058392 0.63599998 0.089209594 1.8625665e-38 327 160
0.0089069325 0.63499999 0.089069329 1.8624947e-38 328 160
0.0100203 0.63499999 0.089069329 1.8624947e-38 329 160
0.011116133 0.634 0.088929065 1.8715707e-38 330 160
0.012227747 0.634 0.088929065 1.8715707e-38 331 160
0.0133604 0.63499999 0.089069329 1.8531675e-38 332 160
0.014473766 0.63499999 0.089069329 1.8531675e-38 333 160
0.015587131 0.63499999 0.089069329 1.8532031e-38 334 160
0.016700499 0.63499999 0.089069329 1.8439476e-38 335 160
0.017813865 0.63499999 0.089069329 1.8347283e-38 336 160
0.018927233 0.63499999 0.089069329 1.7701914e-38 337 160
0.0200406 0.63499999 0.089069329 1.6138195e-38 338 160
0.021054026 0.63200003 0.088648535 1.4294641e-38 339 160
0.022162134 0.63200003 0.088648535 1.3832213e-38 340 160
-0.0067433193 0.64099997 0.088787034 1.5684808e-38 314 161
-0.0056106662 0.63999999 0.088648528 1.7159578e-38 315 161
-0.0044745067 0.63800001 0.088371508 1.6519972e-38 316 161
-0.0033506199 0.63700002 0.088232994 1.6980591e-38 317 161
-0.0022302398 0.63599998 0.088094473 1.8816208e-38 318 161
-0.0011151199 0.63599998 0.088094473 1.8447427e-38 319 161
0 0.63599998 0.088094473 1.8626757e-38 320 161
0.0011151199 0.63599998 0.088094473 1.8442366e-38 321 161
0.0022302398 0.63599998 0.088094473 1.8532398e-38 322 161
0.0033453598 0.63599998 0.088094473 1.8716789e-38 323 161
0.0044604796 0.63599998 0.088094473 1.8624593e-38 324 161
0.0055755996 0.63599998 0.088094473 1.8624593e-38 325 161
0.0066907196 0.63599998 0.088094473 1.8715707e-38 326 161
0.0078058392 0.63599998 0.088094473 1.8807903e-38 327 161
0.0089069325 0.63499999 0.087955967 1.8624947e-38 328 161
0.010004519 0.634 0.087817445 1.8624947e-38 329 161
0.011116133 0.634 0.087817445 1.8715707e-38 330 161
0.012227747 0.634 0.087817445 1.8531675e-38 331 161
0.0133604 0.63499999 0.087955967 1.8714987e-38 332 161
0.014473766 0.63499999 0.087955967 1.8714987e-38 333 161
0.015587131 0.63499999 0.087955967 1.8716063e-38 334 161
0.016700499 0.63499999 0.087955967 1.8716063e-38 335 161
0.017813865 0.63499999 0.087955967 1.8072136e-38 336 161
0.018957037 0.63599998 0.088094473 1.6597006e-38 337 161
0.020072158 0.63599998 0.088094473 1.4939289e-38 338 161
0.021187279 0.63599998 0.088094473 1.3832581e-38 339 161
-0.0067433193 0.64099997 0.087663151 1.5867764e-38 314 162
-0.0056106662 0.63999999 0.087526396 1.7158503e-38 315 162
-0.0044745067 0.63800001 0.087252878 1.6334153e-38 316 162
-0.0033506199 0.63700002 0.087116122 1.6702934e-38 317 162
-0.0022337467 0.63700002 0.087116122 1.780567e-38 318 162
-0.0011151199 0.63599998 0.086979352 1.8082256e-38 319 162
0 0.63599998 0.086979352 1.8814042e-38 320 162
0.0011151199 0.63599998 0.086979352 1.8353064e-38 321 162
0.0022302398 0.63599998 0.086979352 1.8810072e-38 322 162
0.0033453598 0.63599998 0.086979352 1.8626041e-38 323 162
0.0044604796 0.63599998 0.086979352 1.8716792e-38 324 162
0.0055755996 0.63599998 0.086979352 1.8716792e-38 325 162
0.0066907196 0.63599998 0.086979352 1.8991934e-38 326 162
0.0078058392 0.63599998 0.086979352 1.8899738e-38 327 162
0.0089069325 0.63499999 0.086842597 1.8807903e-38 328 162
0.010004519 0.634 0.086705834 1.8807903e-38 329 162
0.011116133 0.634 0.086705834 1.8624591e-38 330 162
0.012227747 0.634 0.086705834 1.8624591e-38 331 162
0.013339359 0.634 0.086705834 1.8624591e-38 332 162
0.014473766 0.63499999 0.086842597 1.8532395e-38 333 162
0.015587131 0.63499999 0.086842597 1.8439848e-38 334 162
0.016700499 0.63499999 0.086842597 1.7978871e-38 335 162
0.017813865 0.63499999 0.086842597 1.6230397e-38 336 162
0.018957037 0.63599998 0.086979352 1.4939658e-38 337 162
0.020072158 0.63599998 0.086979352 1.4109171e-38 338 162
0.021187279 0.63599998 0.086979352 1.3832584e-38 339 162
-0.0067433193 0.64099997 0.086539268 1.595996e-38 314 163
-0.0056106662 0.63999999 0.086404264 1.7066306e-38 315 163
-0.0044745067 0.63800001 0.086134247 1.614869e-38 316 163
-0.0033506199 0.63700002 0.08599925 1.6425275e-38 317 163
-0.0022337467 0.63700002 0.08599925 1.6518903e-38 318 163
-0.0011151199 0.63599998 0.085864238 1.7164268e-38 319 163
0 0.63599998 0.085864238 1.8448875e-38 320 163
0.0011151199 0.63599998 0.085864238 1.8448875e-38 321 163
0.0022302398 0.63599998 0.085864238 1.9181748e-38 322 163
0.0033453598 0.63599998 0.085864238 1.8812966e-38 323 163
0.0044604796 0.63599998 0.085864238 1.8811155e-38 324 163
0.0055755996 0.63599998 0.085864238 1.8626404e-38 325 163
0.0066907196 0.63599998 0.085864238 1.8809706e-38 326 163
0.0077935657 0.63499999 0.085729234 1.8717511e-38 327 163
0.0089069325 0.63499999 0.085729234 1.8534196e-38 328 163
0.010004519 0.634 0.085594222 1.8442e-38 329 163
0.011116133 0.634 0.085594222 1.8442363e-38 330 163
0.012227747 0.634 0.085594222 1.8442363e-38 331 163
0.013339359 0.634 0.085594222 1.8534196e-38 332 163
0.014473766 0.63499999 0.085729234 1.8349804e-38 333 163
0.015587131 0.63499999 0.085729234 1.7611883e-38 334 163
0.016700499 0.63499999 0.085729234 1.641334e-38 335 163
0.017813865 0.63499999 0.085729234 1.4755266e-38 336 163
0.018957037 0.63599998 0.085864238 1.383331e-38 337 163
0.020072158 0.63599998 0.085864238 1.3648197e-38 338 163
0.021187279 0.63599998 0.085864238 1.3648197e-38 339 163
-0.00675384 0.64200002 0.085548639 1.5685174e-38 314 164
-0.0056194332 0.64099997 0.085415386 1.6791161e-38 315 164
-0.0044885329 0.63999999 0.085282132 1.587318e-38 316 164
-0.00335588 0.63800001 0.085015625 1.6149408e-38 317 164
-0.0022337467 0.63700002 0.084882379 1.5966096e-38 318 164
-0.0011168733 0.63700002 0.084882379 1.6058292e-38 319 164
0 0.63599998 0.084749117 1.6702568e-38 320 164
0.0011151199 0.63599998 0.084749117 1.6886961e-38 321 164
0.0022302398 0.63599998 0.084749117 1.7803873e-38 322 164
0.0033453598 0.63599998 0.084749117 1.7896068e-38 323 164
0.0044604796 0.63599998 0.084749117 1.8262313e-38 324 164
0.0055755996 0.63599998 0.084749117 1.8262313e-38 325 164
0.0066907196 0.63599998 0.084749117 1.8811874e-38 326 164
0.0077935657 0.63499999 0.084615864 1.8627124e-38 327 164
0.0089069325 0.63499999 0.084615864 1.8443448e-38 328 164
0.010004519 0.634 0.08448261 1.8350893e-38 329 164
0.011116133 0.634 0.08448261 1.7708045e-38 330 164
0.012227747 0.634 0.08448261 1.7431456e-38 331 164
0.013339359 0.634 0.08448261 1.6785365e-38 332 164
0.014473766 0.63499999 0.084615864 1.6232192e-38 333 164
0.015587131 0.63499999 0.084615864 1.5860535e-38 334 164
0.016726799 0.63599998 0.084749117 1.4938939e-38 335 164
0.017841918 0.63599998 0.084749117 1.3834033e-38 336 164
0.018957037 0.63599998 0.084749117 1.3465251e-38 337 164
0.020103721 0.63700002 0.084882379 1.36482e-38 338 164
0.021220595 0.63700002 0.084882379 1.36482e-38 339 164
-0.00675384 0.64200002 0.084422998 1.5869568e-38 314 165
-0.0056194332 0.64099997 0.084291495 1.6607133e-38 315 165
-0.0044955462 0.64099997 0.084291495 1.5873901e-38 316 165
-0.0033663998 0.63999999 0.08416 1.5966096e-38 317 165
-0.0022372534 0.63800001 0.083897002 1.6057216e-38 318 165
-0.0011168733 0.63700002 0.083765499 1.5873183e-38 319 165
0 0.63700002 0.083765499 1.605649e-38 320 165
0.0011168733 0.63700002 0.083765499 1.6241241e-38 321 165
0.0022302398 0.63599998 0.083633989 1.6884806e-38 322 165
0.0033453598 0.63599998 0.083633989 1.7069556e-38 323 165
0.0044604796 0.63599998 0.083633989 1.7987541e-38 324 165
0.0055755996 0.63599998 0.083633989 1.7987541e-38 325 165
0.0066907196 0.63599998 0.083633989 1.835343e-38 326 165
0.0078058392 0.63599998 0.083633989 1.7985007e-38 327 165
0.0089069325 0.63499999 0.083502494 1.807612e-38 328 165
0.010004519 0.634 0.083370999 1.7799893e-38 329 165
0.011116133 0.634 0.083370999 1.6971574e-38 330 165
0.012227747 0.634 0.083370999 1.6418402e-38 331 165
0.0133604 0.63499999 0.083502494 1.5496441e-38 332 165
0.014473766 0.63499999 0.083502494 1.4758876e-38 333 165
0.015611678 0.63599998 0.083633989 1.42961e-38 334 165
0.016726799 0.63599998 0.083633989 1.3835481e-38 335 165
0.017841918 0.63599998 0.083633989 1.3282304e-38 336 165
0.018986847 0.63700002 0.083765499 1.3097913e-38 337 165
0.020103721 0.63700002 0.083765499 1.3648203e-38 338 165
0.021220595 0.63700002 0.083765499 1.3555648e-38 339 165
-0.0079408465 0.64700001 0.083946094 1.6321536e-38 313 166
-0.00679592 0.64600003 0.083816342 1.6329474e-38 314 166
-0.0056369668 0.64300001 0.083427109 1.6790092e-38 315 166
-0.00450256 0.64200002 0.083297364 1.5781704e-38 316 166
-0.0033716597 0.64099997 0.083167605 1.6058292e-38 317 166
-0.0022442664 0.63999999 0.083037868 1.6240885e-38 318 166
-0.0011186267 0.63800001 0.082778372 1.614869e-38 319 166
0 0.63700002 0.082648627 1.6240885e-38 320 166
0.0011168733 0.63700002 0.082648627 1.6056493e-38 321 166
0.0022337467 0.63700002 0.082648627 1.5963575e-38 322 166
0.0033506199 0.63700002 0.082648627 1.5686988e-38 323 166
0.0044604796 0.63599998 0.082518876 1.5869931e-38 324 166
0.0055755996 0.63599998 0.082518876 1.5777735e-38 325 166
0.0066907196 0.63599998 0.082518876 1.6236545e-38 326 166
0.0078058392 0.63599998 0.082518876 1.5775567e-38 327 166
0.0089209592 0.63599998 0.082518876 1.5775204e-38 328 166
0.0100203 0.63499999 0.082389124 1.5498259e-38 329 166
0.011133666 0.63499999 0.082389124 1.512875e-38 330 166
0.012247032 0.63499999 0.082389124 1.4668131e-38 331 166
0.0133604 0.63499999 0.082389124 1.411531e-38 332 166
0.014496559 0.63599998 0.082518876 1.4022756e-38 333 166
0.015611678 0.63599998 0.082518876 1.3561055e-38 334 166
0.0167531 0.63700002 0.082648627 1.3377024e-38 335 166
0.017898027 0.63800001 0.082778372 1.3649285e-38 336 166
0.019076265 0.63999999 0.083037868 1.3465254e-38 337 166
0.020229958 0.64099997 0.083167605 1.36482e-38 338 166
-0.0079408465 0.64700001 0.082811691 1.5311347e-38 313 167
-0.00679592 0.64600003 0.08268369 1.632984e-38 314 167
-0.0056632664 0.64600003 0.08268369 1.6606427e-38 315 167
-0.0045095733 0.64300001 0.082299709 1.5964297e-38 316 167
-0.00337692 0.64200002 0.082171716 1.6056493e-38 317 167
-0.0022477731 0.64099997 0.082043722 1.6148692e-38 318 167
-0.0011221332 0.63999999 0.081915729 1.6148692e-38 319 167
0 0.63800001 0.081659749 1.6057213e-38 320 167
0.0011186267 0.63800001 0.081659749 1.5780985e-38 321 167
0.0022337467 0.63700002 0.081531756 1.5779184e-38 322 167
0.0033506199 0.63700002 0.081531756 1.5502596e-38 323 167
0.0044674934 0.63700002 0.081531756 1.531748e-38 324 167
0.0055755996 0.63599998 0.081403755 1.5409676e-38 325 167
0.0066907196 0.63599998 0.081403755 1.5592625e-38 326 167
0.0078058392 0.63599998 0.081403755 1.5223842e-38 327 167
0.0089209592 0.63599998 0.081403755 1.5223119e-38 328 167
0.010036079 0.63599998 0.081403755 1.4762141e-38 329 167
0.011151199 0.63599998 0.081403755 1.4577381e-38 330 167
0.012266319 0.63599998 0.081403755 1.4300434e-38 331 167
0.01340248 0.63700002 0.081531756 1.4022759e-38 332 167
0.014519353 0.63700002 0.081531756 1.3930563e-38 333 167
0.015660774 0.63800001 0.081659749 1.3743648e-38 334 167
0.016831998 0.63999999 0.081915729 1.3559617e-38 335 167
0.017954132 0.63999999 0.081915729 1.3649282e-38 336 167
0.019106071 0.64099997 0.082043722 1.3465251e-38 337 167
0.020261521 0.64200002 0.082171716 1.36482e-38 338 167
-0.0091173323 0.64999998 0.082055993 1.0519344e-38 312 168
-0.0079531204 0.648 0.081803516 1.420717e-38 313 168
-0.0068064397 0.64700001 0.08167728 1.5778112e-38 314 168
-0.0056720334 0.64700001 0.08167728 1.6607513e-38 315 168
-0.0045306133 0.64600003 0.081551038 1.6423835e-38 316 168
-0.00337692 0.64200002 0.081046082 1.6239442e-38 317 168
-0.00225128 0.64200002 0.081046082 1.6056493e-38 318 168
-0.0011238866 0.64099997 0.080919832 1.6056493e-38 319 168
0 0.63999999 0.080793597 1.6056493e-38 320 168
0.0011221332 0.63999999 0.080793597 1.5872101e-38 321 168
0.0022372534 0.63800001 0.080541119 1.5779906e-38 322 168
0.00335588 0.63800001 0.080541119 1.550332e-38 323 168
0.0044674934 0.63700002 0.080414884 1.5501877e-38 324 168
0.0055843666 0.63700002 0.080414884 1.5317127e-38 325 168
0.0067012399 0.63700002 0.080414884 1.540716e-38 326 168
0.0078181131 0.63700002 0.080414884 1.5038379e-38 327 168
0.0089349868 0.63700002 0.080414884 1.5038732e-38 328 168
0.01005186 0.63700002 0.080414884 1.4946537e-38 329 168
0.011168733 0.63700002 0.080414884 1.4761775e-38 330 168
0.012304893 0.63800001 0.080541119 1.4577025e-38 331 168
0.01342352 0.63800001 0.080541119 1.4114954e-38 332 168
0.014587732 0.63999999 0.080793597 1.3930563e-38 333 168
0.015709866 0.63999999 0.080793597 1.3467419e-38 334 168
0.016858298 0.64099997 0.080919832 1.3283026e-38 335 168
0.017982185 0.64099997 0.080919832 1.3648563e-38 336 168
0.019135879 0.64200002 0.081046082 1.3556367e-38 337 168
0.020293079 0.64300001 0.081172317 1.3556723e-38 338 168
0.021653665 0.64999998 0.082055993 1.3464528e-38 339 168
0.022863466 0.65200001 0.082308479 1.3463809e-38 340 168
-0.0091173323 0.64999998 0.08091633 1.1252593e-38 312 169
-0.0079653924 0.64899999 0.080791838 1.3557484e-38 313 169
-0.0068169599 0.648 0.080667354 1.4949072e-38 314 169
-0.0056720334 0.64700001 0.08054287 1.6792621e-38 315 169
-0.0045306133 0.64600003 0.080418386 1.6608948e-38 316 169
-0.0033874398 0.64399999 0.08016941 1.6332002e-38 317 169
-0.00225128 0.64200002 0.079920441 1.5873178e-38 318 169
-0.00112564 0.64200002 0.079920441 1.5780982e-38 319 169
0 0.64099997 0.079795949 1.5504039e-38 320 169
0.0011221332 0.63999999 0.079671465 1.5411843e-38 321 169
0.0022442664 0.63999999 0.079671465 1.5319646e-38 322 169
0.0033663998 0.63999999 0.079671465 1.5135615e-38 323 169
0.0044745067 0.63800001 0.079422489 1.5133815e-38 324 169
0.0055931332 0.63800001 0.079422489 1.4949422e-38 325 169
0.0067117601 0.63800001 0.079422489 1.513165e-38 326 169
0.0078549329 0.63999999 0.079671465 1.5039454e-38 327 169
0.0089770658 0.63999999 0.079671465 1.4855057e-38 328 169
0.01006764 0.63800001 0.079422489 1.4578829e-38 329 169
0.011186266 0.63800001 0.079422489 1.4945085e-38 330 169
0.012343466 0.63999999 0.079671465 1.4576661e-38 331 169
0.013465599 0.63999999 0.079671465 1.4298267e-38 332 169
0.014610525 0.64099997 0.079795949 1.3837649e-38 333 169
0.015734414 0.64099997 0.079795949 1.3557815e-38 334 169
0.016884599 0.64200002 0.079920441 1.3557815e-38 335 169
0.01801024 0.64200002 0.079920441 1.3741115e-38 336 169
0.019195493 0.64399999 0.08016941 1.3741115e-38 337 169
0.020387759 0.64600003 0.080418386 1.3924783e-38 338 169
0.021653665 0.64999998 0.08091633 1.3463806e-38 339 169
0.022863466 0.65200001 0.081165306 1.3096464e-38 340 169
0.024006641 0.65200001 0.081165306 1.3741833e-38 341 169
-0.0091453865 0.65200001 0.080022126 1.2264578e-38 312 170
-0.0079653924 0.64899999 0.079653934 1.2356773e-38 313 170
-0.0068274797 0.64899999 0.079653934 1.301476e-38 314 170
-0.0056807999 0.648 0.0795312 1.6241607e-38 315 170
-0.0045376266 0.64700001 0.079408467 1.6885892e-38 316 170
-0.00339796 0.64600003 0.079285733 1.6424562e-38 317 170
-0.0022653067 0.64600003 0.079285733 1.5873178e-38 318 170
-0.0011273933 0.64300001 0.078917533 1.5873178e-38 319 170
0 0.64200002 0.0787948 1.5504392e-38 320 170
0.00112564 0.64200002 0.0787948 1.4951218e-38 321 170
0.0022477731 0.64099997 0.078672059 1.5226732e-38 322 170
0.0033716597 0.64099997 0.078672059 1.5134536e-38 323 170
0.0044885329 0.63999999 0.078549333 1.4949419e-38 324 170
0.0056106662 0.63999999 0.078549333 1.4673192e-38 325 170
0.0067327996 0.63999999 0.078549333 1.4856136e-38 326 170
0.0078672068 0.64099997 0.078672059 1.476394e-38 327 170
0.0089770658 0.63999999 0.078549333 1.4763213e-38 328 170
0.0100992 0.63999999 0.078549333 1.4486628e-38 329 170
0.011238866 0.64099997 0.078672059 1.448446e-38 330 170
0.012362752 0.64099997 0.078672059 1.4300069e-38 331 170
0.013486639 0.64099997 0.078672059 1.4022393e-38 332 170
0.01463332 0.64200002 0.0787948 1.3561055e-38 333 170
0.01575896 0.64200002 0.0787948 1.3834033e-38 334 170
0.016910899 0.64300001 0.078917533 1.3926229e-38 335 170
0.018038293 0.64300001 0.078917533 1.3833666e-38 336 170
0.019255107 0.64600003 0.079285733 1.3741112e-38 337 170
0.02041932 0.64700001 0.079408467 1.3832228e-38 338 170
0.021653665 0.64999998 0.079776667 1.3279413e-38 339 170
0.022863466 0.65200001 0.080022126 1.3003552e-38 340 170
-0.0091453865 0.65200001 0.078878954 1.2818102e-38 312 171
-0.0079776663 0.64999998 0.078636996 1.0605767e-38 313 171
-0.0068274797 0.64899999 0.078516014 1.0251039e-38 314 171
-0.0056895665 0.64899999 0.078516014 1.4400203e-38 315 171
-0.00454464 0.648 0.078395039 1.6425638e-38 316 171
-0.0034032199 0.64700001 0.078274064 1.6701862e-38 317 171
-0.0022653067 0.64600003 0.078153081 1.6240885e-38 318 171
-0.0011326533 0.64600003 0.078153081 1.614869e-38 319 171
0 0.64399999 0.077911116 1.6147965e-38 320 171
0.0011273933 0.64300001 0.077790141 1.5686988e-38 321 171
0.00225128 0.64200002 0.077669159 1.5594435e-38 322 171
0.00337692 0.64200002 0.077669159 1.5318209e-38 323 171
0.00450256 0.64200002 0.077669159 1.5040896e-38 324 171
0.0056281998 0.64200002 0.077669159 1.49487e-38 325 171
0.00675384 0.64200002 0.077669159 1.4581347e-38 326 171
0.0078672068 0.64099997 0.077548169 1.43044e-38 327 171
0.0089910924 0.64099997 0.077548169 1.4487347e-38 328 171
0.010114979 0.64099997 0.077548169 1.421112e-38 329 171
0.0112564 0.64200002 0.077669159 1.4117119e-38 330 171
0.01238204 0.64200002 0.077669159 1.3932728e-38 331 171
0.01350768 0.64200002 0.077669159 1.4022393e-38 332 171
0.01463332 0.64200002 0.077669159 1.3745447e-38 333 171
0.015783506 0.64300001 0.077790141 1.4294654e-38 334 171
0.016910899 0.64300001 0.077790141 1.3926232e-38 335 171
0.018038293 0.64300001 0.077790141 1.4016622e-38 336 171
0.019284913 0.64700001 0.078274064 1.3832231e-38 337 171
0.02041932 0.64700001 0.078274064 1.3739319e-38 338 171
-0.0091173323 0.64999998 0.077497326 1.4565127e-38 312 172
-0.0079776663 0.64999998 0.077497326 1.2444988e-38 313 172
-0.0068274797 0.64899999 0.077378102 1.0057646e-38 314 172
-0.0056895665 0.64899999 0.077378102 1.3468886e-38 315 172
-0.00454464 0.648 0.077258877 1.4675373e-38 316 172
-0.0034032199 0.64700001 0.077139653 1.6335237e-38 317 172
-0.0022653067 0.64600003 0.077020429 1.6701503e-38 318 172
-0.0011326533 0.64600003 0.077020429 1.6516756e-38 319 172
0 0.64399999 0.076781973 1.6057216e-38 320 172
0.0011291467 0.64399999 0.076781973 1.5688433e-38 321 172
0.0022547867 0.64300001 0.076662742 1.577955e-38 322 172
0.0033821799 0.64300001 0.076662742 1.5411126e-38 323 172
0.0045095733 0.64300001 0.076662742 1.5409678e-38 324 172
0.0056369668 0.64300001 0.076662742 1.5133093e-38 325 172
0.0067643598 0.64300001 0.076662742 1.5132363e-38 326 172
0.0078917528 0.64300001 0.076662742 1.4856136e-38 327 172
0.00900512 0.64200002 0.076543517 1.4854687e-38 328 172
0.01013076 0.64200002 0.076543517 1.4670296e-38 329 172
0.011273934 0.64300001 0.076662742 1.4577014e-38 330 172
0.012401327 0.64300001 0.076662742 1.4300069e-38 331 172
0.01352872 0.64300001 0.076662742 1.4390099e-38 332 172
0.014656113 0.64300001 0.076662742 1.4205708e-38 333 172
0.015808053 0.64399999 0.076781973 1.4203905e-38 334 172
0.016989801 0.64600003 0.077020429 1.3835481e-38 335 172
0.018122453 0.64600003 0.077020429 1.3925513e-38 336 172
0.019284913 0.64700001 0.077139653 1.355637e-38 337 172
0.020450879 0.648 0.077258877 1.3095392e-38 338 172
-0.0091173323 0.64999998 0.076357663 1.7051522e-38 312 173
-0.0079776663 0.64999998 0.076357663 1.7789087e-38 313 173
-0.0068379994 0.64999998 0.076357663 1.437896e-38 314 173
-0.0056895665 0.64899999 0.076240189 1.0875885e-38 315 173
-0.00454464 0.648 0.076122716 9.7954686e-39 316 173
-0.0034032199 0.64700001 0.07600525 1.3483654e-38 317 173
-0.0022688133 0.64700001 0.07600525 1.660895e-38 318 173
-0.0011344067 0.64700001 0.07600525 1.6793339e-38 319 173
0 0.64600003 0.075887777 1.633452e-38 320 173
0.0011291467 0.64399999 0.075652823 1.5965743e-38 321 173
0.0022582933 0.64399999 0.075652823 1.6057216e-38 322 173
0.0033874398 0.64399999 0.075652823 1.5688433e-38 323 173
0.0045165867 0.64399999 0.075652823 1.5961777e-38 324 173
0.0056457333 0.64399999 0.075652823 1.5685189e-38 325 173
0.0067748795 0.64399999 0.075652823 1.6050726e-38 326 173
0.0079040267 0.64399999 0.075652823 1.5774498e-38 327 173
0.0090331733 0.64399999 0.075652823 1.5314946e-38 328 173
0.01016232 0.64399999 0.075652823 1.5130554e-38 329 173
0.011291467 0.64399999 0.075652823 1.5312781e-38 330 173
0.012420613 0.64399999 0.075652823 1.4943639e-38 331 173
0.013549759 0.64399999 0.075652823 1.4300422e-38 332 173
0.014678906 0.64399999 0.075652823 1.3655052e-38 333 173
0.015857147 0.64600003 0.075887777 1.3652887e-38 334 173
0.016989801 0.64600003 0.075887777 1.3468137e-38 335 173
0.018122453 0.64600003 0.075887777 1.3373058e-38 336 173
0.019284913 0.64700001 0.07600525 1.2174515e-38 337 173
-0.0056895665 0.64899999 0.075102277 1.115028e-38 315 174
-0.00454464 0.648 0.074986562 7.7602942e-39 316 174
-0.0034032199 0.64700001 0.07487084 1.1909096e-38 317 174
-0.0022688133 0.64700001 0.07487084 1.4763603e-38 318 174
-0.0011344067 0.64700001 0.07487084 1.6423484e-38 319 174
0 0.64600003 0.074755117 1.6608592e-38 320 174
0.0011326533 0.64600003 0.074755117 1.6516397e-38 321 174
0.0022653067 0.64600003 0.074755117 1.6700064e-38 322 174
0.00339796 0.64600003 0.074755117 1.6423837e-38 323 174
0.0045306133 0.64600003 0.074755117 1.6054695e-38 324 174
0.0056457333 0.64399999 0.074523672 1.5778468e-38 325 174
0.0067748795 0.64399999 0.074523672 1.6235839e-38 326 174
0.0079040267 0.64399999 0.074523672 1.5682665e-38 327 174
0.0090331733 0.64399999 0.074523672 1.5682653e-38 328 174
0.01016232 0.64399999 0.074523672 1.5406066e-38 329 174
0.011326533 0.64600003 0.074755117 1.4853242e-38 330 174
0.012459187 0.64600003 0.074755117 1.4761047e-38 331 174
0.01359184 0.64600003 0.074755117 1.4482296e-38 332 174
0.014724494 0.64600003 0.074755117 1.4113154e-38 333 174
0.015857147 0.64600003 0.074755117 1.3283026e-38 334 174
0.016989801 0.64600003 0.074755117 1.2914245e-38 335 174
0.018122453 0.64600003 0.074755117 1.1808246e-38 336 174
0.019284913 0.64700001 0.07487084 1.1624215e-38 337 174
-0.0022688133 0.64700001 0.073736429 1.0614064e-38 318 175
-0.0011344067 0.64700001 0.073736429 1.2642368e-38 319 175
0 0.64700001 0.073736429 1.4487373e-38 320 175
0.0011326533 0.64600003 0.073622465 1.5409328e-38 321 175
0.0022653067 0.64600003 0.073622465 1.6514231e-38 322 175
0.00339796 0.64600003 0.073622465 1.6883013e-38 323 175
0.0045306133 0.64600003 0.073622465 1.6790815e-38 324 175
0.0056632664 0.64600003 0.073622465 1.6422033e-38 325 175
0.00679592 0.64600003 0.073622465 1.6328391e-38 326 175
0.0079285735 0.64600003 0.073622465 1.595961e-38 327 175
0.0090612266 0.64600003 0.073622465 1.586812e-38 328 175
0.01019388 0.64600003 0.073622465 1.5407142e-38 329 175
0.011326533 0.64600003 0.073622465 1.512875e-38 330 175
0.012459187 0.64600003 0.073622465 1.4760327e-38 331 175
0.01359184 0.64600003 0.073622465 1.4849277e-38 332 175
0.014724494 0.64600003 0.073622465 1.411171e-38 333 175
0.015857147 0.64600003 0.073622465 1.2635856e-38 334 175
0.016989801 0.64600003 0.073622465 1.1437313e-38 335 175
0.018122453 0.64600003 0.073622465 9.1399706e-39 336 175
0 0.64700001 0.072602026 1.1532424e-38 320 176
0.0011344067 0.64700001 0.072602026 1.263877e-38 321 176
0.0022688133 0.64700001 0.072602026 1.3929509e-38 322 176
0.0034032199 0.64700001 0.072602026 1.4759271e-38 323 176
0.0045376266 0.64700001 0.072602026 1.4394082e-38 324 176
0.0056720334 0.64700001 0.072602026 1.4486277e-38 325 176
0.0068064397 0.64700001 0.072602026 1.4944732e-38 326 176
0.0079408465 0.64700001 0.072602026 1.4944732e-38 327 176
0.0090752533 0.64700001 0.072602026 1.4759971e-38 328 176
0.01020966 0.64700001 0.072602026 1.4483384e-38 329 176
0.011344067 0.64700001 0.072602026 1.4296106e-38 330 176
0.012459187 0.64600003 0.072489813 1.3558182e-38 331 176
0.01359184 0.64600003 0.072489813 1.3002843e-38 332 176
0.014747286 0.64700001 0.072602026 1.2357474e-38 333 176
0.015881693 0.64700001 0.072602026 1.0518233e-38 334 176
0.0170161 0.64700001 0.072602026 1.0518233e-38 335 176
0 0.648 0.071578078 1.0145154e-38 320 177
0.00113616 0.648 0.071578078 9.8685674e-39 321 177
0.00227232 0.648 0.071578078 9.8703778e-39 322 177
0.00340848 0.648 0.071578078 1.070014e-38 323 177
0.00454464 0.648 0.071578078 1.0428948e-38 324 177
0.0056807999 0.648 0.071578078 1.098212e-38 325 177
0.0068169599 0.648 0.071578078 1.21785e-38 326 177
0.0079531204 0.648 0.071578078 1.2362891e-38 327 177
0.0090752533 0.64700001 0.071467623 1.2269247e-38 328 177
0.01020966 0.64700001 0.071467623 1.2084855e-38 329 177
0.011344067 0.64700001 0.071467623 1.2081963e-38 330 177
0.012478473 0.64700001 0.071467623 1.1160005e-38 331 177
0.013612879 0.64700001 0.071467623 1.0789425e-38 332 177
0.014747286 0.64700001 0.071467623 1.0697229e-38 333 177
0.0068169599 0.648 0.070441917 1.2174164e-38 326 178
0.0079531204 0.648 0.070441917 1.1989414e-38 327 178
0.0090892799 0.648 0.070441917 1.2081969e-38 328 178
0.01020966 0.64700001 0.070333213 1.2081969e-38 329 178
0.011344067 0.64700001 0.070333213 1.2265634e-38 330 178
0.012478473 0.64700001 0.070333213 1.2450025e-38 331 178
0.013612879 0.64700001 0.070333213 1.3461651e-38 332 178
0.014770079 0.648 0.070441917 1.410702e-38 333 178
-0.03686383 0.84100002 0.035389278 1.8069623e-38 295 216
-0.038338386 0.84100002 0.033914726 1.8069623e-38 294 217
-0.03686383 0.84100002 0.033914726 1.7977069e-38 295 217
-0.035389278 0.84100002 0.033914726 1.7885955e-38 296 217
-0.038429558 0.84299999 0.032517318 1.8070343e-38 294 218
-0.03686383 0.84100002 0.032440174 1.7793757e-38 295 218
-0.035389278 0.84100002 0.032440174 1.7885952e-38 296 218
-0.036951501 0.84299999 0.031039257 1.7977069e-38 295 219
0.029357811 0.72799999 0.0191464 1.1438351e-38 343 225
0.030718399 0.73000002 0.019199001 1.0245158e-38 344 225
-0.024252106 0.72799999 0.017869972 1.2453234e-38 301 226
-0.022975679 0.72799999 0.017869972 1.089413e-38 302 226
-0.021699252 0.72799999 0.017869972 1.0801574e-38 303 226
-0.020422826 0.72799999 0.017869972 1.0433122e-38 304 226
-0.019014901 0.72299999 0.017747238 1.0617874e-38 305 226
-0.017747238 0.72299999 0.017747238 1.0802297e-38 306 226
0.028081384 0.72799999 0.017869972 1.0979857e-38 342 226
0.029357811 0.72799999 0.017869972 1.0702912e-38 343 226
0.030718399 0.73000002 0.017919067 1.0428456e-38 344 226
0.032042164 0.73100001 0.017943613 1.098163e-38 345 226
-0.025528532 0.72799999 0.016593546 1.4110976e-38 300 227
-0.024252106 0.72799999 0.016593546 1.2728042e-38 301 227
-0.022975679 0.72799999 0.016593546 1.0709045e-38 302 227
-0.021699252 0.72799999 0.016593546 1.0801241e-38 303 227
-0.020422826 0.72799999 0.016593546 1.0618958e-38 304 227
-0.019014901 0.72299999 0.01647958 1.0250177e-38 305 227
-0.017722692 0.722 0.016456785 1.0434196e-38 306 227
-0.016456785 0.722 0.016456785 1.0526392e-38 307 227
-0.015190879 0.722 0.016456785 1.107744e-38 308 227
0.025353199 0.72299999 0.01647958 1.125683e-38 340 227
0.026620859 0.72299999 0.01647958 9.9660907e-39 341 227
0.028042812 0.727 0.016570752 1.0059325e-38 342 227
0.029357811 0.72799999 0.016593546 1.0428106e-38 343 227
0.030634239 0.72799999 0.016593546 1.1070953e-38 344 227
0.032042164 0.73100001 0.016661927 1.1439734e-38 345 227
-0.02869856 0.74400002 0.015653761 1.5860918e-38 298 228
-0.027209979 0.73900002 0.01554856 1.4938601e-38 299 228
-0.025528532 0.72799999 0.01531712 1.4387936e-38 300 228
-0.024252106 0.72799999 0.01531712 1.282025e-38 301 228
-0.022975679 0.72799999 0.01531712 1.1167881e-38 302 228
-0.021699252 0.72799999 0.01531712 1.1444107e-38 303 228
-0.020422826 0.72799999 0.01531712 1.0895552e-38 304 228
-0.0190675 0.72500002 0.015254001 1.0802997e-38 305 228
-0.017722692 0.722 0.015190879 1.0067892e-38 306 228
-0.016456785 0.722 0.015190879 9.5147185e-39 307 228
-0.015190879 0.722 0.015190879 9.8838765e-39 308 228
-0.0138864 0.72000003 0.0151488 1.043705e-38 309 228
-0.012624 0.72000003 0.0151488 1.0802297e-38 310 228
-0.011361601 0.72000003 0.0151488 1.0617905e-38 311 228
0.024085538 0.72299999 0.015211919 1.0981685e-38 339 228
0.025353199 0.72299999 0.015211919 1.0429202e-38 340 228
0.026620859 0.72299999 0.015211919 1.0152255e-38 341 228
0.028042812 0.727 0.015296079 1.0795445e-38 342 228
0.029357811 0.72799999 0.01531712 1.0795445e-38 343 228
0.030634239 0.72799999 0.01531712 1.1530858e-38 344 228
0.032042164 0.73100001 0.01538024 1.1991836e-38 345 228
0.033323854 0.73100001 0.01538024 1.3828934e-38 346 228
-0.02869856 0.74400002 0.01434928 1.604351e-38 298 229
-0.027209979 0.73900002 0.014252847 1.521339e-38 299 229
-0.025914267 0.73900002 0.014252847 1.4112788e-38 300 229
-0.024252106 0.72799999 0.014040692 1.2637656e-38 301 229
-0.022975679 0.72799999 0.014040692 1.1168597e-38 302 229
-0.021699252 0.72799999 0.014040692 1.1168597e-38 303 229
-0.020422826 0.72799999 0.014040692 1.0897e-38 304 229
-0.0191464 0.72799999 0.014040692 1.0897e-38 305 229
-0.017845426 0.727 0.014021406 1.0619281e-38 306 229
-0.01647958 0.72299999 0.01394426 1.0250138e-38 307 229
-0.015190879 0.722 0.013924973 9.5168709e-39 308 229
-0.0138864 0.72000003 0.0138864 9.4246752e-39 309 229
-0.012624 0.72000003 0.0138864 8.8743937e-39 310 229
-0.011361601 0.72000003 0.0138864 8.6900025e-39 311 229
-0.010127253 0.722 0.013924973 9.4243684e-39 312 229
-0.0088367993 0.72000003 0.0138864 1.0161933e-38 313 229
-0.0075743999 0.72000003 0.0138864 1.1443376e-38 314 229
0.020282559 0.72299999 0.01394426 1.1350082e-38 336 229
0.021550218 0.72299999 0.01394426 1.0796908e-38 337 229
0.02281788 0.72299999 0.01394426 9.7877755e-39 338 229
0.024085538 0.72299999 0.01394426 9.7877755e-39 339 229
0.025353199 0.72299999 0.01394426 1.0612501e-38 340 229
0.026694499 0.72500002 0.013982833 1.0704697e-38 341 229
0.028042812 0.727 0.014021406 1.0703598e-38 342 229
0.029357811 0.72799999 0.014040692 1.0703598e-38 343 229
0.030718399 0.73000002 0.014079267 1.2082959e-38 344 229
0.031998333 0.73000002 0.014079267 1.2912719e-38 345 229
0.033278264 0.73000002 0.014079267 1.4566884e-38 346 229
-0.02869856 0.74400002 0.0130448 1.6043507e-38 298 230
-0.027209979 0.73900002 0.012957133 1.512155e-38 299 230
-0.025914267 0.73900002 0.012957133 1.4020595e-38 300 230
-0.024318734 0.73000002 0.012799333 1.2822052e-38 301 230
-0.022975679 0.72799999 0.012764266 1.080054e-38 302 230
-0.021699252 0.72799999 0.012764266 1.0432116e-38 303 230
-0.020478934 0.73000002 0.012799333 1.0621855e-38 304 230
-0.0191464 0.72799999 0.012764266 1.0714051e-38 305 230
-0.017869972 0.72799999 0.012764266 1.0621442e-38 306 230
-0.016570752 0.727 0.012746733 9.9760722e-39 307 230
-0.015211919 0.72299999 0.012676599 9.2427853e-39 308 230
-0.013924973 0.722 0.012659066 8.9658383e-39 309 230
-0.012659066 0.722 0.012659066 8.8732587e-39 310 230
-0.01139316 0.722 0.012659066 8.8732587e-39 311 230
-0.010127253 0.722 0.012659066 9.2420678e-39 312 230
-0.0088367993 0.72000003 0.012624 9.6104916e-39 313 230
-0.0075743999 0.72000003 0.012624 9.8839214e-39 314 230
-0.0063032326 0.71899998 0.012606465 1.0067953e-38 315 230
-0.0050425865 0.71899998 0.012606465 1.0707972e-38 316 230
-0.0037714199 0.71700001 0.0125714 1.0707972e-38 317 230
-0.0025107733 0.71600002 0.012553867 1.1532717e-38 318 230
-0.0012553866 0.71600002 0.012553867 1.1532717e-38 319 230
0 0.71600002 0.012553867 1.1716032e-38 320 230
0.017722692 0.722 0.012659066 1.1442297e-38 334 230
0.0189886 0.722 0.012659066 1.0981319e-38 335 230
0.020282559 0.72299999 0.012676599 1.0706482e-38 336 230
0.021550218 0.72299999 0.012676599 1.0153667e-38 337 230
0.02281788 0.72299999 0.012676599 1.0154721e-38 338 230
0.024085538 0.72299999 0.012676599 1.0246917e-38 339 230
0.025353199 0.72299999 0.012676599 1.0796867e-38 340 230
0.026694499 0.72500002 0.012711667 1.0796867e-38 341 230
0.028042812 0.727 0.012746733 1.1346451e-38 342 230
0.029357811 0.72799999 0.012764266 1.1622678e-38 343 230
0.030718399 0.73000002 0.012799333 1.2726546e-38 344 230
0.031998333 0.73000002 0.012799333 1.3371916e-38 345 230
0.033278264 0.73000002 0.012799333 1.5027875e-38 346 230
-0.030244999 0.75 0.011835 1.705656e-38 297 231
-0.028775707 0.74599999 0.011771879 1.5952027e-38 298 231
-0.027394081 0.74400002 0.011740319 1.5122267e-38 299 231
-0.025984399 0.741 0.01169298 1.3837643e-38 300 231
-0.024318734 0.73000002 0.011519399 1.2639459e-38 301 231
-0.023038799 0.73000002 0.011519399 1.1075332e-38 302 231
-0.021758866 0.73000002 0.011519399 1.0522158e-38 303 231
-0.020478934 0.73000002 0.011519399 1.0160881e-38 304 231
-0.019199001 0.73000002 0.011519399 1.0529303e-38 305 231
-0.017869972 0.72799999 0.01148784 1.0529612e-38 306 231
-0.016570752 0.727 0.01147206 1.0068994e-38 307 231
-0.015296079 0.727 0.01147206 9.5179275e-39 308 231
-0.013982833 0.72500002 0.0114405 9.1487848e-39 309 231
-0.012676599 0.72299999 0.01140894 8.7824868e-39 310 231
-0.01139316 0.722 0.01139316 8.7824868e-39 311 231
-0.010127253 0.722 0.01139316 9.2427433e-39 312 231
-0.0088367993 0.72000003 0.011361601 8.9665165e-39 313 231
-0.0075743999 0.72000003 0.011361601 9.1484191e-39 314 231
-0.0063032326 0.71899998 0.01134582 9.3331691e-39 315 231
-0.0050425865 0.71899998 0.01134582 9.7909649e-39 316 231
-0.0037714199 0.71700001 0.01131426 1.0067192e-38 317 231
-0.0025107733 0.71600002 0.01129848 1.0523538e-38 318 231
-0.0012553866 0.71600002 0.01129848 1.0707931e-38 319 231
0 0.71600002 0.01129848 1.0615388e-38 320 231
0.0012553866 0.71600002 0.01129848 1.0615388e-38 321 231
0.012606465 0.71899998 0.01134582 1.2270258e-38 330 231
0.013867113 0.71899998 0.01134582 1.2362455e-38 331 231
0.01512776 0.71899998 0.01134582 1.2270246e-38 332 231
0.016456785 0.722 0.01139316 1.1901103e-38 333 231
0.017722692 0.722 0.01139316 1.0429918e-38 334 231
0.0189886 0.722 0.01139316 1.0337722e-38 335 231
0.020282559 0.72299999 0.01140894 1.0522807e-38 336 231
0.021550218 0.72299999 0.01140894 1.0338057e-38 337 231
0.02281788 0.72299999 0.01140894 1.0796851e-38 338 231
0.024152167 0.72500002 0.0114405 1.0796851e-38 339 231
0.025423333 0.72500002 0.0114405 1.153047e-38 340 231
0.026694499 0.72500002 0.0114405 1.1622665e-38 341 231
0.028042812 0.727 0.01147206 1.1714176e-38 342 231
0.029438468 0.73000002 0.011519399 1.2267349e-38 343 231
0.030718399 0.73000002 0.011519399 1.2452136e-38 344 231
0.031998333 0.73000002 0.011519399 1.2728362e-38 345 231
0.033278264 0.73000002 0.011519399 1.5027872e-38 346 231
-0.030244999 0.75 0.01052 1.705656e-38 297 232
-0.028814279 0.74699998 0.010477919 1.6044583e-38 298 232
-0.027504537 0.74699998 0.010477919 1.5122267e-38 299 232
-0.026089599 0.74400002 0.01043584 1.4205708e-38 300 232
-0.024451986 0.73400003 0.010295574 1.2914969e-38 301 232
-0.023133477 0.73299998 0.010281546 1.1258297e-38 302 232
-0.021848286 0.73299998 0.010281546 1.0705123e-38 303 232
-0.020506985 0.73100001 0.010253493 9.8810796e-39 304 232
-0.019199001 0.73000002 0.010239467 9.9736339e-39 305 232
-0.017919067 0.73000002 0.010239467 1.0069735e-38 306 232
-0.016593546 0.72799999 0.010211413 9.9775393e-39 307 232
-0.015296079 0.727 0.010197386 9.4275325e-39 308 232
-0.013982833 0.72500002 0.010169334 8.7821631e-39 309 232
-0.012676599 0.72299999 0.01014128 8.416221e-39 310 232
-0.01140894 0.72299999 0.01014128 8.323668e-39 311 232
-0.010127253 0.722 0.010127253 8.5995389e-39 312 232
-0.0088613462 0.722 0.010127253 8.9686801e-39 313 232
-0.0075743999 0.72000003 0.010099201 1.0067134e-38 314 232
-0.0063032326 0.71899998 0.010085173 9.9749385e-39 315 232
-0.0050425865 0.71899998 0.010085173 9.5157779e-39 316 232
-0.0037714199 0.71700001 0.01005712 9.6079735e-39 317 232
-0.0025107733 0.71600002 0.010043093 1.0065377e-38 318 232
-0.0012553866 0.71600002 0.010043093 9.9731813e-39 319 232
0 0.71600002 0.010043093 1.0065027e-38 320 232
0.0012553866 0.71600002 0.010043093 9.9724722e-39 321 232
0.0025142799 0.71700001 0.01005712 9.8806592e-39 322 232
0.0087999795 0.71700001 0.01005712 8.5017058e-39 327 232
0.01005712 0.71700001 0.01005712 8.2283587e-39 328 232
