# .PCD v.7 - Point Cloud Data file format
FIELDS x y z rgb imX imY
SIZE 4 4 4 4 4 4
TYPE F F F F F F
COUNT 1 1 1 1 1 1
WIDTH 827
HEIGHT 1
VIEWPOINT 0 0 0 1 0 0 0
POINTS 827
DATA ascii
0.0012045399 0.68699998 -0.0084317802 7.7404897e-39 321 247
0.0024090798 0.68699998 -0.0084317802 7.8344803e-39 322 247
0.0036188802 0.68800002 -0.0084440531 8.664241e-39 323 247
0.0048391996 0.69 -0.0084686 1.0320871e-38 324 247
0.0060577663 0.69099998 -0.008480873 9.7676991e-39 325 247
0.0072903596 0.69300002 -0.0085054198 9.3999886e-39 326 247
0.0085176928 0.69400001 -0.0085176928 9.8609667e-39 327 247
0.0097345067 0.69400001 -0.0085176928 9.5858064e-39 328 247
0.01099866 0.69700003 -0.0085545136 8.8482413e-39 329 247
0.012238266 0.69800001 -0.0085667865 1.1518671e-38 330 247
0.013462093 0.69800001 -0.0085667865 1.4561485e-38 331 247
-0.054465543 0.70599997 -0.0099028256 1.6404691e-38 276 248
-0.053001512 0.70300001 -0.0098607466 1.6312496e-38 277 248
-0.051621638 0.70099998 -0.0098326923 1.2443895e-38 278 248
-0.050320663 0.69999999 -0.0098186666 1.0230841e-38 279 248
-0.048953064 0.69800001 -0.0097906133 8.2090236e-39 280 248
-0.047455717 0.69400001 -0.0097345067 9.7763493e-39 281 248
-0.04617228 0.69300002 -0.0097204801 1.1250037e-38 282 248
-0.044827472 0.69099998 -0.0096924258 1.1342233e-38 283 248
-0.043615919 0.69099998 -0.0096924258 1.1433703e-38 284 248
-0.042220265 0.68800002 -0.0096503468 1.1433703e-38 285 248
-0.040954359 0.68699998 -0.0096363192 1.0605037e-38 286 248
-0.039749816 0.68699998 -0.0096363192 8.023559e-39 287 248
-0.03848917 0.68599999 -0.0096222926 7.2870897e-39 288 248
-0.037177678 0.68400002 -0.0095942402 7.2870897e-39 289 248
-0.035925802 0.68300003 -0.0095802136 7.2863667e-39 290 248
-0.034728274 0.68300003 -0.0095802136 7.3785637e-39 291 248
-0.03348165 0.68199998 -0.009566186 7.9310074e-39 292 248
-0.032285877 0.68199998 -0.009566186 8.2079544e-39 293 248
-0.031090107 0.68199998 -0.009566186 8.2983452e-39 294 248
-0.029806666 0.68000001 -0.0095381327 8.2983452e-39 295 248
-0.028614398 0.68000001 -0.0095381327 8.666406e-39 296 248
-0.027422134 0.68000001 -0.0095381327 9.2195784e-39 297 248
-0.026191294 0.67900002 -0.009524107 9.5894371e-39 298 248
-0.025000781 0.67900002 -0.009524107 9.6816327e-39 299 248
-0.023810266 0.67900002 -0.009524107 9.7741815e-39 300 248
-0.022619752 0.67900002 -0.009524107 1.0050768e-38 301 248
-0.021429239 0.67900002 -0.009524107 1.032699e-38 302 248
-0.020268533 0.68000001 -0.0095381327 1.0234794e-38 303 248
-0.019076265 0.68000001 -0.0095381327 9.8649324e-39 304 248
-0.017883999 0.68000001 -0.0095381327 9.0351717e-39 305 248
-0.016691733 0.68000001 -0.0095381327 8.6642382e-39 306 248
-0.015499466 0.68000001 -0.0095381327 8.479847e-39 307 248
-0.014307199 0.68000001 -0.0095381327 8.6635222e-39 308 248
-0.013114933 0.68000001 -0.0095381327 8.6635222e-39 309 248
-0.011957732 0.68199998 -0.009566186 8.6635222e-39 310 248
-0.010761959 0.68199998 -0.009566186 8.6635222e-39 311 248
-0.009566186 0.68199998 -0.009566186 8.6620858e-39 312 248
-0.0083704125 0.68199998 -0.009566186 8.5698902e-39 313 248
-0.0071851597 0.68300003 -0.0095802136 8.5723985e-39 314 248
-0.0059876335 0.68300003 -0.0095802136 9.1252122e-39 315 248
-0.0047901068 0.68300003 -0.0095802136 8.6627921e-39 316 248
-0.00359784 0.68400002 -0.0095942402 7.7411959e-39 317 248
-0.0023985601 0.68400002 -0.0095942402 7.922004e-39 318 248
-0.0012027866 0.68599999 -0.0096222926 7.6457759e-39 319 248
0 0.68599999 -0.0096222926 7.4603098e-39 320 248
0.0012045399 0.68699998 -0.0096363192 7.829091e-39 321 248
0.0024125867 0.68800002 -0.0096503468 7.6486472e-39 322 248
0.0036188802 0.68800002 -0.0096503468 8.754636e-39 323 248
0.0048391996 0.69 -0.0096783992 1.0228673e-38 324 248
0.0060753003 0.69300002 -0.0097204801 9.768055e-39 325 248
0.0073008798 0.69400001 -0.0097345067 9.3992655e-39 326 248
0.0085422397 0.69599998 -0.0097625591 9.7680494e-39 327 248
0.0097625591 0.69599998 -0.0097625591 9.5858064e-39 328 248
0.01101444 0.69800001 -0.0097906133 9.0326326e-39 329 248
0.012238266 0.69800001 -0.0097906133 1.1519747e-38 330 248
0.013462093 0.69800001 -0.0097906133 1.4562203e-38 331 248
-0.057021905 0.70700002 -0.011156459 1.6495437e-38 274 249
-0.055782299 0.70700002 -0.011156459 1.6495437e-38 275 249
-0.054465543 0.70599997 -0.011140679 1.6588354e-38 276 249
-0.053076904 0.704 -0.011109119 1.6496158e-38 277 249
-0.051768921 0.70300001 -0.01109334 1.2443895e-38 278 249
-0.050392549 0.70099998 -0.011061779 9.8624171e-39 279 249
-0.049093332 0.69999999 -0.011045999 6.4587528e-39 280 249
-0.047455717 0.69400001 -0.01095132 8.0260771e-39 281 249
-0.04617228 0.69300002 -0.010935539 1.0605034e-38 282 249
-0.044957221 0.69300002 -0.010935539 1.0974176e-38 283 249
-0.043615919 0.69099998 -0.01090398 1.1250035e-38 284 249
-0.042220265 0.68800002 -0.010856641 1.1065643e-38 285 249
-0.041013971 0.68800002 -0.010856641 1.0604315e-38 286 249
-0.039749816 0.68699998 -0.010840859 8.3916198e-39 287 249
-0.03848917 0.68599999 -0.010825079 7.2863667e-39 288 249
-0.037286382 0.68599999 -0.010825079 7.2863667e-39 289 249
-0.035978399 0.68400002 -0.01079352 7.7455469e-39 290 249
-0.034728274 0.68300003 -0.01077774 7.8377426e-39 291 249
-0.033530746 0.68300003 -0.01077774 8.3912639e-39 292 249
-0.032285877 0.68199998 -0.010761959 8.4834595e-39 293 249
-0.031090107 0.68199998 -0.010761959 8.8490008e-39 294 249
-0.029894331 0.68199998 -0.010761959 8.7568052e-39 295 249
-0.028614398 0.68000001 -0.0107304 8.6656858e-39 296 249
-0.027422134 0.68000001 -0.0107304 9.3110552e-39 297 249
-0.026229866 0.68000001 -0.0107304 9.6827075e-39 298 249
-0.025037598 0.68000001 -0.0107304 9.7749046e-39 299 249
-0.023810266 0.67900002 -0.010714619 1.0050768e-38 300 249
-0.022619752 0.67900002 -0.010714619 1.0050768e-38 301 249
-0.0214608 0.68000001 -0.0107304 1.041739e-38 302 249
-0.020328145 0.68199998 -0.010761959 1.0601421e-38 303 249
-0.019132372 0.68199998 -0.010761959 1.0047882e-38 304 249
-0.017936599 0.68199998 -0.010761959 9.4025123e-39 305 249
-0.016740825 0.68199998 -0.010761959 8.5716782e-39 306 249
-0.015545053 0.68199998 -0.010761959 8.4791239e-39 307 249
-0.01434928 0.68199998 -0.010761959 8.3883772e-39 308 249
-0.013153506 0.68199998 -0.010761959 8.2961816e-39 309 249
-0.011957732 0.68199998 -0.010761959 8.8468372e-39 310 249
-0.010761959 0.68199998 -0.010761959 8.8468372e-39 311 249
-0.009566186 0.68199998 -0.010761959 8.4794938e-39 312 249
-0.0083826864 0.68300003 -0.01077774 8.11107e-39 313 249
-0.0071851597 0.68300003 -0.01077774 8.3887275e-39 314 249
-0.0059876335 0.68300003 -0.01077774 8.7575086e-39 315 249
-0.0047971201 0.68400002 -0.01079352 7.7415588e-39 316 249
-0.00360836 0.68599999 -0.010825079 6.6355714e-39 317 249
-0.0024055731 0.68599999 -0.010825079 6.7270636e-39 318 249
-0.0012027866 0.68599999 -0.010825079 6.634868e-39 319 249
0 0.68699998 -0.010840859 6.7256273e-39 320 249
0.0012062934 0.68800002 -0.010856641 7.0025743e-39 321 249
0.0024125867 0.68800002 -0.010856641 7.2809506e-39 322 249
0.0036293997 0.69 -0.010888199 8.4794938e-39 323 249
0.0048462129 0.69099998 -0.01090398 1.0320871e-38 324 249
0.0060753003 0.69300002 -0.010935539 9.7676991e-39 325 249
0.0073008798 0.69400001 -0.01095132 9.3999886e-39 326 249
0.0085422397 0.69599998 -0.010982879 9.6765755e-39 327 249
0.0097765867 0.69700003 -0.01099866 9.3103013e-39 328 249
0.01101444 0.69800001 -0.01101444 8.5723761e-39 329 249
0.012238266 0.69800001 -0.01101444 1.115169e-38 330 249
0.013462093 0.69800001 -0.01101444 1.4470733e-38 331 249
-0.058014292 0.704 -0.012343466 1.6496158e-38 273 250
-0.056779943 0.704 -0.012343466 1.6587991e-38 274 250
-0.055782299 0.70700002 -0.012396066 1.6495437e-38 275 250
-0.054465543 0.70599997 -0.012378532 1.6587635e-38 276 250
-0.053076904 0.704 -0.012343466 1.6679831e-38 277 250
-0.051842559 0.704 -0.012343466 1.2719401e-38 278 250
-0.050392549 0.70099998 -0.012290866 9.5851085e-39 279 250
-0.049163464 0.70099998 -0.012290866 4.7988769e-39 280 250
-0.047455717 0.69400001 -0.012168133 6.550954e-39 281 250
-0.04617228 0.69300002 -0.012150601 9.4086584e-39 282 250
-0.044957221 0.69300002 -0.012150601 1.0330975e-38 283 250
-0.043552797 0.69 -0.012097999 1.1157486e-38 284 250
-0.042220265 0.68800002 -0.012062933 1.0973093e-38 285 250
-0.040954359 0.68699998 -0.012045399 1.0695066e-38 286 250
-0.039749816 0.68699998 -0.012045399 8.9433488e-39 287 250
-0.03848917 0.68599999 -0.012027865 7.7458945e-39 288 250
-0.037286382 0.68599999 -0.012027865 7.8380901e-39 289 250
-0.035978399 0.68400002 -0.0119928 8.1136008e-39 290 250
-0.03477912 0.68400002 -0.0119928 8.2983508e-39 291 250
-0.033530746 0.68300003 -0.011975267 8.4827406e-39 292 250
-0.032333218 0.68300003 -0.011975267 8.3905436e-39 293 250
-0.031090107 0.68199998 -0.011957732 8.3905436e-39 294 250
-0.029894331 0.68199998 -0.011957732 8.298348e-39 295 250
-0.02869856 0.68199998 -0.011957732 8.3912639e-39 296 250
-0.027422134 0.68000001 -0.011922667 8.7604051e-39 297 250
-0.026229866 0.68000001 -0.011922667 9.4061249e-39 298 250
-0.025037598 0.68000001 -0.011922667 9.6823516e-39 299 250
-0.023845334 0.68000001 -0.011922667 9.8663785e-39 300 250
-0.022653066 0.68000001 -0.011922667 1.0142964e-38 301 250
-0.021523919 0.68199998 -0.011957732 1.0692895e-38 302 250
-0.020328145 0.68199998 -0.011957732 1.0692895e-38 303 250
-0.019132372 0.68199998 -0.011957732 1.0048598e-38 304 250
-0.017936599 0.68199998 -0.011957732 9.3110327e-39 305 250
-0.016740825 0.68199998 -0.011957732 8.2965305e-39 306 250
-0.015545053 0.68199998 -0.011957732 8.2043349e-39 307 250
-0.01434928 0.68199998 -0.011957732 8.2968976e-39 308 250
-0.013153506 0.68199998 -0.011957732 8.2968976e-39 309 250
-0.011975267 0.68300003 -0.011975267 8.5720454e-39 310 250
-0.010761959 0.68199998 -0.011957732 8.5720454e-39 311 250
-0.009566186 0.68199998 -0.011957732 8.3872968e-39 312 250
-0.0083826864 0.68300003 -0.011975267 7.92632e-39 313 250
-0.0071851597 0.68300003 -0.011975267 8.3876499e-39 314 250
-0.0059964 0.68400002 -0.0119928 8.6642382e-39 315 250
-0.0047971201 0.68400002 -0.0119928 7.8344803e-39 316 250
-0.00360836 0.68599999 -0.012027865 6.4515445e-39 317 250
-0.0024055731 0.68599999 -0.012027865 6.4508354e-39 318 250
-0.0012045399 0.68699998 -0.012045399 6.4508354e-39 319 250
0 0.68800002 -0.012062933 6.5426709e-39 320 250
0.0012062934 0.68800002 -0.012062933 6.9110947e-39 321 250
0.0024195998 0.69 -0.012097999 7.0979943e-39 322 250
0.0036346598 0.69099998 -0.012115533 8.2961788e-39 323 250
0.00486024 0.69300002 -0.012150601 1.0137559e-38 324 250
0.0060753003 0.69300002 -0.012150601 9.6762223e-39 325 250
0.0073008798 0.69400001 -0.012168133 9.3095922e-39 326 250
0.0085422397 0.69599998 -0.0122032 9.4939821e-39 327 250
0.0097765867 0.69700003 -0.012220734 9.1259156e-39 328 250
0.01101444 0.69800001 -0.012238266 8.1121238e-39 329 250
0.012238266 0.69800001 -0.012238266 1.1059857e-38 330 250
-0.058014292 0.704 -0.013577812 1.6495437e-38 273 251
-0.056779943 0.704 -0.013577812 1.6587988e-38 274 251
-0.055545598 0.704 -0.013577812 1.6587988e-38 275 251
-0.054311249 0.704 -0.013577812 1.6312127e-38 276 251
-0.053076904 0.704 -0.013577812 1.6588354e-38 277 251
-0.051842559 0.704 -0.013577812 1.3362971e-38 278 251
-0.050536323 0.70300001 -0.013558527 1.0320874e-38 279 251
-0.049303733 0.70300001 -0.013558527 5.166586e-39 280 251
-0.047934376 0.70099998 -0.013519952 5.9963481e-39 281 251
-0.04617228 0.69300002 -0.01336566 8.4870749e-39 282 251
-0.044957221 0.69300002 -0.01336566 9.685618e-39 283 251
-0.043552797 0.69 -0.0133078 1.051392e-38 284 251
-0.042220265 0.68800002 -0.013269227 1.032917e-38 285 251
-0.040954359 0.68699998 -0.013249939 1.0327005e-38 286 251
-0.039749816 0.68699998 -0.013249939 9.4046899e-39 287 251
-0.03848917 0.68599999 -0.013230653 8.5752922e-39 288 251
-0.037286382 0.68599999 -0.013230653 8.2983452e-39 289 251
-0.036083598 0.68599999 -0.013230653 8.3905436e-39 290 251
-0.03477912 0.68400002 -0.01319208 8.3905436e-39 291 251
-0.033579841 0.68400002 -0.01319208 8.3905464e-39 292 251
-0.032333218 0.68300003 -0.013172794 8.1136008e-39 293 251
-0.031135695 0.68300003 -0.013172794 8.0224842e-39 294 251
-0.029938167 0.68300003 -0.013172794 8.2072341e-39 295 251
-0.02869856 0.68199998 -0.013153506 8.3005032e-39 296 251
-0.027502786 0.68199998 -0.013153506 8.3005032e-39 297 251
-0.026307013 0.68199998 -0.013153506 8.6692787e-39 298 251
-0.025037598 0.68000001 -0.013114933 9.683432e-39 299 251
-0.023845334 0.68000001 -0.013114933 1.014404e-38 300 251
-0.022653066 0.68000001 -0.013114933 1.0051845e-38 301 251
-0.021523919 0.68199998 -0.013153506 1.0510299e-38 302 251
-0.020328145 0.68199998 -0.013153506 1.0510299e-38 303 251
-0.019132372 0.68199998 -0.013153506 9.8656485e-39 304 251
-0.017936599 0.68199998 -0.013153506 8.9440523e-39 305 251
-0.016740825 0.68199998 -0.013153506 8.0217457e-39 306 251
-0.015545053 0.68199998 -0.013153506 7.8369943e-39 307 251
-0.01434928 0.68199998 -0.013153506 8.1128665e-39 308 251
-0.013153506 0.68199998 -0.013153506 8.2968976e-39 309 251
-0.011975267 0.68300003 -0.013172794 8.2965347e-39 310 251
-0.01077774 0.68300003 -0.013172794 8.2965347e-39 311 251
-0.0095802136 0.68300003 -0.013172794 8.3869339e-39 312 251
-0.0083826864 0.68300003 -0.013172794 8.2021839e-39 313 251
-0.0071851597 0.68300003 -0.013172794 8.4798428e-39 314 251
-0.0059964 0.68400002 -0.01319208 8.8489854e-39 315 251
-0.0048111463 0.68599999 -0.013230653 7.6511681e-39 316 251
-0.00360836 0.68599999 -0.013230653 6.3604293e-39 317 251
-0.0024090798 0.68699998 -0.013249939 6.4508354e-39 318 251
-0.0012045399 0.68699998 -0.013249939 6.4508354e-39 319 251
0 0.68800002 -0.013269227 6.4508354e-39 320 251
0.0012062934 0.68800002 -0.013269227 6.7277825e-39 321 251
0.0024195998 0.69 -0.0133078 7.2813066e-39 322 251
0.0036346598 0.69099998 -0.013327086 8.5720454e-39 323 251
0.00486024 0.69300002 -0.01336566 1.0137912e-38 324 251
0.0060840664 0.69400001 -0.013384946 9.8609667e-39 325 251
0.0073008798 0.69400001 -0.013384946 9.2184714e-39 326 251
0.0085545136 0.69700003 -0.013442807 9.310667e-39 327 251
0.0097906133 0.69800001 -0.013462093 8.9418873e-39 328 251
0.01101444 0.69800001 -0.013462093 8.1121266e-39 329 251
0.012238266 0.69800001 -0.013462093 1.0968744e-38 330 251
-0.058014292 0.704 -0.014812159 1.6587988e-38 273 252
-0.056779943 0.704 -0.014812159 1.6587988e-38 274 252
-0.055545598 0.704 -0.014812159 1.6495793e-38 275 252
-0.054311249 0.704 -0.014812159 1.649544e-38 276 252
-0.053076904 0.704 -0.014812159 1.649544e-38 277 252
-0.051842559 0.704 -0.014812159 1.345517e-38 278 252
-0.050608214 0.704 -0.014812159 1.0873692e-38 279 252
-0.049303733 0.70300001 -0.014791119 5.717969e-39 280 252
-0.047934376 0.70099998 -0.014749039 6.1789471e-39 281 252
-0.046238903 0.69400001 -0.01460176 7.1055851e-39 282 252
-0.044957221 0.69300002 -0.014580719 8.4888783e-39 283 252
-0.043615919 0.69099998 -0.014538639 1.0328817e-38 284 252
-0.042342998 0.69 -0.014517599 1.0144426e-38 285 252
-0.041013971 0.68800002 -0.014475521 9.8689009e-39 286 252
-0.039749816 0.68699998 -0.014454478 9.4997596e-39 287 252
-0.038545277 0.68699998 -0.014454478 9.404327e-39 288 252
-0.037286382 0.68599999 -0.01443344 8.8511532e-39 289 252
-0.036083598 0.68599999 -0.01443344 8.4827434e-39 290 252
-0.034880809 0.68599999 -0.01443344 8.2983508e-39 291 252
-0.033579841 0.68400002 -0.01439136 8.1154015e-39 292 252
-0.032380559 0.68400002 -0.01439136 8.0232058e-39 293 252
-0.03118128 0.68400002 -0.01439136 7.7469763e-39 294 252
-0.029938167 0.68300003 -0.014370319 8.023203e-39 295 252
-0.028740639 0.68300003 -0.014370319 8.1154015e-39 296 252
-0.027502786 0.68199998 -0.01434928 8.0232058e-39 297 252
-0.026307013 0.68199998 -0.01434928 8.0246394e-39 298 252
-0.025111238 0.68199998 -0.01434928 8.8540399e-39 299 252
-0.023915464 0.68199998 -0.01434928 1.0602147e-38 300 252
-0.022719691 0.68199998 -0.01434928 1.032556e-38 301 252
-0.02155548 0.68300003 -0.014370319 1.023551e-38 302 252
-0.020328145 0.68199998 -0.01434928 1.023551e-38 303 252
-0.019132372 0.68199998 -0.01434928 1.0048595e-38 304 252
-0.017962901 0.68300003 -0.014370319 9.4032256e-39 305 252
-0.016740825 0.68199998 -0.01434928 8.5705992e-39 306 252
-0.015545053 0.68199998 -0.01434928 8.5705992e-39 307 252
-0.01434928 0.68199998 -0.01434928 8.2969004e-39 308 252
-0.013172794 0.68300003 -0.014370319 8.1128693e-39 309 252
-0.011975267 0.68300003 -0.014370319 8.479847e-39 310 252
-0.01077774 0.68300003 -0.014370319 8.5720426e-39 311 252
-0.0095802136 0.68300003 -0.014370319 8.2965347e-39 312 252
-0.0083949603 0.68400002 -0.01439136 8.0195877e-39 313 252
-0.0071956799 0.68400002 -0.01439136 8.1132182e-39 314 252
-0.0060139326 0.68599999 -0.01443344 8.5741964e-39 315 252
-0.0048111463 0.68599999 -0.01443344 7.467853e-39 316 252
-0.0036136196 0.68699998 -0.014454478 6.2689497e-39 317 252
-0.0024090798 0.68699998 -0.014454478 6.5426681e-39 318 252
-0.0012062934 0.68800002 -0.014475521 6.5426681e-39 319 252
0 0.68800002 -0.014475521 6.5433884e-39 320 252
0.0012097999 0.69 -0.014517599 6.8199753e-39 321 252
0.0024195998 0.69 -0.014517599 7.0979943e-39 322 252
0.0036346598 0.69099998 -0.014538639 8.2961788e-39 323 252
0.00486024 0.69300002 -0.014580719 9.9528092e-39 324 252
0.0060840664 0.69400001 -0.01460176 9.768418e-39 325 252
0.0073219193 0.69599998 -0.014643839 9.2177623e-39 326 252
0.0085667865 0.69800001 -0.01468592 9.1255653e-39 327 252
0.0097906133 0.69800001 -0.01468592 8.7575058e-39 328 252
0.011045999 0.69999999 -0.014727999 8.0199408e-39 329 252
0.012273333 0.69999999 -0.014727999 1.1060586e-38 330 252
-0.056779943 0.704 -0.016046507 1.6679105e-38 274 253
-0.055545598 0.704 -0.016046507 1.6679105e-38 275 253
-0.054311249 0.704 -0.016046507 1.6219932e-38 276 253
-0.053076904 0.704 -0.016046507 1.6219932e-38 277 253
-0.051842559 0.704 -0.016046507 1.3180381e-38 278 253
-0.050608214 0.704 -0.016046507 1.0691099e-38 279 253
-0.049303733 0.70300001 -0.016023712 5.3491822e-39 280 253
-0.047934376 0.70099998 -0.015978126 5.6257705e-39 281 253
-0.046505414 0.69800001 -0.015909746 6.5488156e-39 282 253
-0.045151837 0.69599998 -0.015864158 8.1165001e-39 283 253
-0.043742158 0.69300002 -0.015795778 9.224993e-39 284 253
-0.042342998 0.69 -0.015727401 9.3171886e-39 285 253
-0.041013971 0.68800002 -0.015681813 9.4082955e-39 286 253
-0.039749816 0.68699998 -0.015659019 9.2235455e-39 287 253
-0.038545277 0.68699998 -0.015659019 8.9451635e-39 288 253
-0.037340738 0.68699998 -0.015659019 8.5763796e-39 289 253
-0.036083598 0.68599999 -0.015636226 8.3901905e-39 290 253
-0.034880809 0.68599999 -0.015636226 8.4827462e-39 291 253
-0.033678025 0.68599999 -0.015636226 8.1154015e-39 292 253
-0.032475237 0.68599999 -0.015636226 8.0232058e-39 293 253
-0.03118128 0.68400002 -0.01559064 7.7469791e-39 294 253
-0.029982001 0.68400002 -0.01559064 7.6544247e-39 295 253
-0.02878272 0.68400002 -0.01559064 7.9310102e-39 296 253
-0.027543113 0.68300003 -0.015567848 8.1154015e-39 297 253
-0.026345588 0.68300003 -0.015567848 8.666406e-39 298 253
-0.025111238 0.68199998 -0.015545053 8.574209e-39 299 253
-0.023915464 0.68199998 -0.015545053 8.2086579e-39 300 253
-0.022719691 0.68199998 -0.015545053 9.3146453e-39 301 253
-0.02155548 0.68300003 -0.015567848 1.0050768e-38 302 253
-0.020357953 0.68300003 -0.015567848 1.0050768e-38 303 253
-0.019160427 0.68300003 -0.015567848 9.6816229e-39 304 253
-0.017962901 0.68300003 -0.015567848 8.9436992e-39 305 253
-0.016765373 0.68300003 -0.015567848 7.0061616e-39 306 253
-0.015567848 0.68300003 -0.015567848 7.651531e-39 307 253
-0.014370319 0.68300003 -0.015567848 8.2961816e-39 308 253
-0.013172794 0.68300003 -0.015567848 8.3883772e-39 309 253
-0.0119928 0.68400002 -0.01559064 8.4798498e-39 310 253
-0.01077774 0.68300003 -0.015567848 8.4798498e-39 311 253
-0.0095802136 0.68300003 -0.015567848 8.1117861e-39 312 253
-0.0083949603 0.68400002 -0.01559064 8.0195905e-39 313 253
-0.0072167199 0.68599999 -0.015636226 8.2025398e-39 314 253
-0.0060226996 0.68699998 -0.015659019 8.4791267e-39 315 253
-0.0048181596 0.68699998 -0.015659019 7.2831072e-39 316 253
-0.0036136196 0.68699998 -0.015659019 6.2685966e-39 317 253
-0.0024125867 0.68800002 -0.015681813 6.6348652e-39 318 253
-0.0012062934 0.68800002 -0.015681813 6.7270608e-39 319 253
0 0.69 -0.015727401 6.5433856e-39 320 253
0.0012097999 0.69 -0.015727401 6.9125269e-39 321 253
0.0024231065 0.69099998 -0.015750192 7.649366e-39 322 253
0.0036451798 0.69300002 -0.015795778 8.4791267e-39 323 253
0.0048672534 0.69400001 -0.015818574 9.2181182e-39 324 253
0.0060840664 0.69400001 -0.015818574 9.1259212e-39 325 253
0.0073219193 0.69599998 -0.015864158 8.9415342e-39 326 253
0.0085667865 0.69800001 -0.015909746 8.8493385e-39 327 253
0.0097906133 0.69800001 -0.015909746 8.8493413e-39 328 253
0.011045999 0.69999999 -0.015955333 8.2039719e-39 329 253
0.012273333 0.69999999 -0.015955333 1.0968746e-38 330 253
-0.055703394 0.70599997 -0.017329946 1.6495074e-38 275 254
-0.054465543 0.70599997 -0.017329946 1.6403244e-38 276 254
-0.053076904 0.704 -0.017280852 1.649544e-38 277 254
-0.051842559 0.704 -0.017280852 1.3732114e-38 278 254
-0.050608214 0.704 -0.017280852 1.1426863e-38 279 254
-0.049303733 0.70300001 -0.017256306 5.9009127e-39 280 254
-0.047934376 0.70099998 -0.017207211 5.9931083e-39 281 254
-0.046505414 0.69800001 -0.017133573 6.180389e-39 282 254
-0.045151837 0.69599998 -0.017084479 7.932106e-39 283 254
-0.043742158 0.69300002 -0.01701084 9.1327974e-39 284 254
-0.042404365 0.69099998 -0.016961746 9.0406018e-39 285 254
-0.041133199 0.69 -0.0169372 8.9487565e-39 286 254
-0.039807681 0.68800002 -0.016888106 8.6721696e-39 287 254
-0.038601387 0.68800002 -0.016888106 9.0355599e-39 288 254
-0.037340738 0.68699998 -0.01686356 8.5749419e-39 289 254
-0.036136195 0.68699998 -0.01686356 8.3909163e-39 290 254
-0.034931656 0.68699998 -0.01686356 8.2065251e-39 291 254
-0.033678025 0.68599999 -0.016839013 8.3909107e-39 292 254
-0.032475237 0.68599999 -0.016839013 8.3909107e-39 293 254
-0.031272452 0.68599999 -0.016839013 8.6653354e-39 294 254
-0.030069664 0.68599999 -0.016839013 8.5731398e-39 295 254
-0.02878272 0.68400002 -0.016789921 8.4816602e-39 296 254
-0.027583439 0.68400002 -0.016789921 9.2192253e-39 297 254
-0.02638416 0.68400002 -0.016789921 9.7709613e-39 298 254
-0.02514806 0.68300003 -0.016765373 8.8490036e-39 299 254
-0.023950534 0.68300003 -0.016765373 8.6664088e-39 300 254
-0.022753006 0.68300003 -0.016765373 9.5883651e-39 301 254
-0.02155548 0.68300003 -0.016765373 9.8663785e-39 302 254
-0.020357953 0.68300003 -0.016765373 1.0142964e-38 303 254
-0.019160427 0.68300003 -0.016765373 1.0048601e-38 304 254
-0.017962901 0.68300003 -0.016765373 9.4032312e-39 305 254
-0.016765373 0.68300003 -0.016765373 8.5723929e-39 306 254
-0.015567848 0.68300003 -0.016765373 8.5723929e-39 307 254
-0.014370319 0.68300003 -0.016765373 8.7567898e-39 308 254
-0.013172794 0.68300003 -0.016765373 8.4798428e-39 309 254
-0.0119928 0.68400002 -0.016789921 8.3872968e-39 310 254
-0.01079352 0.68400002 -0.016789921 8.3872968e-39 311 254
-0.0095942402 0.68400002 -0.016789921 8.0192373e-39 312 254
-0.0084195063 0.68599999 -0.016839013 7.5586179e-39 313 254
-0.0072167199 0.68599999 -0.016839013 8.0188688e-39 314 254
-0.0060226996 0.68699998 -0.01686356 8.0188688e-39 315 254
-0.0048181596 0.68699998 -0.01686356 7.925227e-39 316 254
-0.0036188802 0.68800002 -0.016888106 7.3720533e-39 317 254
-0.0024125867 0.68800002 -0.016888106 7.2787856e-39 318 254
-0.0012097999 0.69 -0.0169372 7.2787856e-39 319 254
0 0.69 -0.0169372 6.8203284e-39 320 254
0.0012115532 0.69099998 -0.016961746 7.0969139e-39 321 254
0.0024231065 0.69099998 -0.016961746 7.1901871e-39 322 254
0.0036451798 0.69300002 -0.01701084 8.0195877e-39 323 254
0.0048672534 0.69400001 -0.017035386 8.7575086e-39 324 254
0.0060840664 0.69400001 -0.017035386 8.8497043e-39 325 254
0.0073219193 0.69599998 -0.017084479 8.8497071e-39 326 254
0.0085667865 0.69800001 -0.017133573 8.6649571e-39 327 254
0.0098186666 0.69999999 -0.017182667 8.1139413e-39 328 254
0.011045999 0.69999999 -0.017182667 7.4685719e-39 329 254
0.012273333 0.69999999 -0.017182667 1.0876192e-38 330 254
-0.055703394 0.70599997 -0.018567799 1.6494718e-38 275 255
-0.054465543 0.70599997 -0.018567799 1.6310692e-38 276 255
-0.053076904 0.704 -0.018515198 1.6495442e-38 277 255
-0.051842559 0.704 -0.018515198 1.4100173e-38 278 255
-0.050608214 0.704 -0.018515198 1.188712e-38 279 255
-0.049303733 0.70300001 -0.018488899 6.9132597e-39 280 255
-0.047934376 0.70099998 -0.018436298 6.5448359e-39 281 255
-0.046638668 0.69999999 -0.018409999 7.0094238e-39 282 255
-0.045216713 0.69700003 -0.018331099 8.3001627e-39 283 255
-0.043805279 0.69400001 -0.0182522 8.3970302e-39 284 255
-0.042404365 0.69099998 -0.0181733 8.4892258e-39 285 255
-0.041192811 0.69099998 -0.0181733 8.8554874e-39 286 255
-0.0399234 0.69 -0.018146999 8.4867063e-39 287 255
-0.038601387 0.68800002 -0.0180944 8.3919925e-39 288 255
-0.037340738 0.68699998 -0.018068098 7.9306543e-39 289 255
-0.036136195 0.68699998 -0.018068098 8.1132505e-39 290 255
-0.034931656 0.68699998 -0.018068098 8.2054461e-39 291 255
-0.033678025 0.68599999 -0.018041799 8.5738587e-39 292 255
-0.032475237 0.68599999 -0.018041799 8.9430013e-39 293 255
-0.031272452 0.68599999 -0.018041799 8.7586045e-39 294 255
-0.030069664 0.68599999 -0.018041799 8.6664088e-39 295 255
-0.02886688 0.68599999 -0.018041799 8.7607554e-39 296 255
-0.027583439 0.68400002 -0.0179892 9.4983205e-39 297 255
-0.02638416 0.68400002 -0.0179892 9.6819859e-39 298 255
-0.02514806 0.68300003 -0.017962901 9.405399e-39 299 255
-0.023950534 0.68300003 -0.017962901 9.6794691e-39 300 255
-0.022753006 0.68300003 -0.017962901 1.0232642e-38 301 255
-0.02158704 0.68400002 -0.0179892 1.0050047e-38 302 255
-0.020357953 0.68300003 -0.017962901 1.0142242e-38 303 255
-0.019160427 0.68300003 -0.017962901 1.0049324e-38 304 255
-0.017962901 0.68300003 -0.017962901 9.6805411e-39 305 255
-0.016765373 0.68300003 -0.017962901 9.9549672e-39 306 255
-0.01559064 0.68400002 -0.0179892 9.6780202e-39 307 255
-0.01439136 0.68400002 -0.0179892 8.9429761e-39 308 255
-0.01319208 0.68400002 -0.0179892 8.1132154e-39 309 255
-0.0119928 0.68400002 -0.0179892 8.0188744e-39 310 255
-0.010825079 0.68599999 -0.018041799 8.0188744e-39 311 255
-0.0096222926 0.68599999 -0.018041799 7.8359223e-39 312 255
-0.0084195063 0.68599999 -0.018041799 7.651531e-39 313 255
-0.0072272392 0.68699998 -0.018068098 7.8344775e-39 314 255
-0.0060226996 0.68699998 -0.018068098 8.0188688e-39 315 255
-0.0048251734 0.68800002 -0.0180944 7.7422805e-39 316 255
-0.0036188802 0.68800002 -0.0180944 7.2813038e-39 317 255
-0.0024125867 0.68800002 -0.0180944 7.0969111e-39 318 255
-0.0012097999 0.69 -0.018146999 6.91288e-39 319 255
0 0.69 -0.018146999 6.8206843e-39 320 255
0.0012115532 0.69099998 -0.0181733 7.0969111e-39 321 255
0.00243012 0.69300002 -0.018225901 7.3745742e-39 322 255
0.0036504399 0.69400001 -0.0182522 8.0199436e-39 323 255
0.0048672534 0.69400001 -0.0182522 8.8497015e-39 324 255
0.0061015999 0.69599998 -0.018304799 8.8497015e-39 325 255
0.00733244 0.69700003 -0.018331099 8.4816448e-39 326 255
0.0085667865 0.69800001 -0.0183574 8.3894492e-39 327 255
0.0098186666 0.69999999 -0.018409999 8.0210254e-39 328 255
0.011045999 0.69999999 -0.018409999 7.2831016e-39 329 255
-0.054465543 0.70599997 -0.019805651 1.6310692e-38 276 256
-0.053076904 0.704 -0.019749546 1.6495442e-38 277 256
-0.051842559 0.704 -0.019749546 1.4191287e-38 278 256
-0.050608214 0.704 -0.019749546 1.1978952e-38 279 256
-0.049303733 0.70300001 -0.019721493 8.3880241e-39 280 256
-0.047934376 0.70099998 -0.019665385 8.0192401e-39 281 256
-0.046638668 0.69999999 -0.019637333 7.6551492e-39 282 256
-0.045281585 0.69800001 -0.019581227 8.3927142e-39 283 256
-0.043931518 0.69599998 -0.019525118 7.9367751e-39 284 256
-0.042527102 0.69300002 -0.01944096 8.3051975e-39 285 256
-0.041192811 0.69099998 -0.019384852 7.9367751e-39 286 256
-0.039981257 0.69099998 -0.019384852 7.1992101e-39 287 256
-0.038713597 0.69 -0.019356798 8.1150511e-39 288 256
-0.037395094 0.68800002 -0.019300694 7.74627e-39 289 256
-0.036136195 0.68699998 -0.019272638 7.9292193e-39 290 256
-0.034931656 0.68699998 -0.019272638 8.1132505e-39 291 256
-0.033727121 0.68699998 -0.019272638 8.6660585e-39 292 256
-0.032522578 0.68699998 -0.019272638 8.9426454e-39 293 256
-0.031272452 0.68599999 -0.019244585 8.9419167e-39 294 256
-0.030069664 0.68599999 -0.019244585 8.9419167e-39 295 256
-0.02886688 0.68599999 -0.019244585 9.1288191e-39 296 256
-0.027664091 0.68599999 -0.019244585 9.6816327e-39 297 256
-0.02638416 0.68400002 -0.01918848 1.0050047e-38 298 256
-0.025184879 0.68400002 -0.01918848 9.9578497e-39 299 256
-0.023950534 0.68300003 -0.019160427 1.0324836e-38 300 256
-0.022753006 0.68300003 -0.019160427 1.0324836e-38 301 256
-0.02158704 0.68400002 -0.01918848 1.0417387e-38 302 256
-0.020387759 0.68400002 -0.01918848 1.0601418e-38 303 256
-0.01918848 0.68400002 -0.01918848 1.0325189e-38 304 256
-0.0179892 0.68400002 -0.01918848 1.0232992e-38 305 256
-0.016789921 0.68400002 -0.01918848 1.0508854e-38 306 256
-0.01559064 0.68400002 -0.01918848 1.014043e-38 307 256
-0.01439136 0.68400002 -0.01918848 9.3103167e-39 308 256
-0.013230653 0.68599999 -0.019244585 8.4801959e-39 309 256
-0.012027865 0.68599999 -0.019244585 7.6508122e-39 310 256
-0.010825079 0.68599999 -0.019244585 7.6508122e-39 311 256
-0.0096222926 0.68599999 -0.019244585 7.1923577e-39 312 256
-0.0084317802 0.68699998 -0.019272638 7.1001607e-39 313 256
-0.0072272392 0.68699998 -0.019272638 7.4674999e-39 314 256
-0.0060314666 0.68800002 -0.019300694 7.7437267e-39 315 256
-0.0048251734 0.68800002 -0.019300694 7.6511653e-39 316 256
-0.0036188802 0.68800002 -0.019300694 7.0979915e-39 317 256
-0.0024195998 0.69 -0.019356798 7.0961922e-39 318 256
-0.0012115532 0.69099998 -0.019384852 6.911801e-39 319 256
0 0.69099998 -0.019384852 6.7281356e-39 320 256
0.00121506 0.69300002 -0.01944096 6.9125269e-39 321 256
0.00243012 0.69300002 -0.01944096 7.0979943e-39 322 256
0.0036504399 0.69400001 -0.019469013 8.0195905e-39 323 256
0.0048672534 0.69400001 -0.019469013 8.8497043e-39 324 256
0.0061015999 0.69599998 -0.019525118 8.7575086e-39 325 256
0.00733244 0.69700003 -0.019553173 8.3883772e-39 326 256
0.0085667865 0.69800001 -0.019581227 8.1117889e-39 327 256
0.0098186666 0.69999999 -0.019637333 7.5607675e-39 328 256
0.011045999 0.69999999 -0.019637333 6.9153981e-39 329 256
0.012343466 0.704 -0.019749546 1.1336806e-38 330 256
-0.054311249 0.704 -0.020983893 1.6311048e-38 276 257
-0.053076904 0.704 -0.020983893 1.6587635e-38 277 257
-0.051842559 0.704 -0.020983893 1.4376032e-38 278 257
-0.050608214 0.704 -0.020983893 1.1794554e-38 279 257
-0.049303733 0.70300001 -0.020954086 9.3096132e-39 280 257
-0.047934376 0.70099998 -0.020894472 9.3096132e-39 281 257
-0.046638668 0.69999999 -0.020864666 8.2093964e-39 282 257
-0.045281585 0.69800001 -0.020805053 8.4859818e-39 283 257
-0.043994639 0.69700003 -0.020775247 7.8445767e-39 284 257
-0.042588469 0.69400001 -0.020685827 7.9367723e-39 285 257
-0.041312039 0.69300002 -0.020656019 7.2932064e-39 286 257
-0.039981257 0.69099998 -0.020596405 6.5552826e-39 287 257
-0.038713597 0.69 -0.020566599 7.654796e-39 288 257
-0.037503798 0.69 -0.020566599 7.1938179e-39 289 257
-0.0361888 0.68800002 -0.020506985 7.3767672e-39 290 257
-0.03498251 0.68800002 -0.020506985 7.745191e-39 291 257
-0.033727121 0.68699998 -0.020477179 8.5745859e-39 292 257
-0.032522578 0.68699998 -0.020477179 8.8511714e-39 293 257
-0.031318039 0.68699998 -0.020477179 8.4813071e-39 294 257
-0.030113498 0.68699998 -0.020477179 8.7582541e-39 295 257
-0.028908957 0.68699998 -0.020477179 9.5887211e-39 296 257
-0.027664091 0.68599999 -0.020447372 1.004934e-38 297 257
-0.026461305 0.68599999 -0.020447372 1.0142598e-38 298 257
-0.025184879 0.68400002 -0.020387759 1.0234794e-38 299 257
-0.0239856 0.68400002 -0.020387759 1.0693251e-38 300 257
-0.022786319 0.68400002 -0.020387759 1.0693251e-38 301 257
-0.02158704 0.68400002 -0.020387759 1.0876561e-38 302 257
-0.020387759 0.68400002 -0.020387759 1.0876561e-38 303 257
-0.01918848 0.68400002 -0.020387759 1.0600334e-38 304 257
-0.0179892 0.68400002 -0.020387759 1.0508137e-38 305 257
-0.016789921 0.68400002 -0.020387759 1.041666e-38 306 257
-0.015636226 0.68599999 -0.020447372 1.0140075e-38 307 257
-0.01443344 0.68599999 -0.020447372 9.4925541e-39 308 257
-0.013230653 0.68599999 -0.020447372 8.7549877e-39 309 257
-0.012027865 0.68599999 -0.020447372 7.7419274e-39 310 257
-0.010825079 0.68599999 -0.020447372 7.7419274e-39 311 257
-0.0096222926 0.68599999 -0.020447372 7.1912773e-39 312 257
-0.0084317802 0.68699998 -0.020477179 7.0068875e-39 313 257
-0.0072272392 0.68699998 -0.020477179 7.1001579e-39 314 257
-0.0060314666 0.68800002 -0.020506985 7.1923549e-39 315 257
-0.0048251734 0.68800002 -0.020506985 7.3742211e-39 316 257
-0.0036293997 0.69 -0.020566599 6.8210473e-39 317 257
-0.0024231065 0.69099998 -0.020596405 6.910729e-39 318 257
-0.0012115532 0.69099998 -0.020596405 6.7263363e-39 319 257
0 0.69300002 -0.020656019 6.8181774e-39 320 257
0.00121506 0.69300002 -0.020656019 7.0029274e-39 321 257
0.0024336267 0.69400001 -0.020685827 7.2813066e-39 322 257
0.0036504399 0.69400001 -0.020685827 8.1110672e-39 323 257
0.0048672534 0.69400001 -0.020685827 8.4816448e-39 324 257
0.0061015999 0.69599998 -0.020745439 8.1132224e-39 325 257
0.00733244 0.69700003 -0.020775247 8.2936662e-39 326 257
0.0085667865 0.69800001 -0.020805053 8.1089162e-39 327 257
0.0098326923 0.70099998 -0.020894472 7.7433581e-39 328 257
0.011109119 0.704 -0.020983893 7.6511625e-39 329 257
0.012343466 0.704 -0.020983893 1.1795979e-38 330 257
0.0138864 0.72000003 -0.021460801 1.5299414e-38 331 257
0.0151488 0.72000003 -0.021460801 1.6309604e-38 332 257
-0.053076904 0.704 -0.022218239 1.6495437e-38 277 258
-0.051842559 0.704 -0.022218239 1.4652976e-38 278 258
-0.050608214 0.704 -0.022218239 1.2808703e-38 279 258
-0.049303733 0.70300001 -0.02218668 9.8609849e-39 280 258
-0.047934376 0.70099998 -0.022123558 9.9531806e-39 281 258
-0.046638668 0.69999999 -0.022091998 8.3945107e-39 282 258
-0.045281585 0.69800001 -0.02202888 8.4867063e-39 283 258
-0.043994639 0.69700003 -0.02199732 7.6609113e-39 284 258
-0.042711195 0.69599998 -0.021965759 7.6609113e-39 285 258
-0.041312039 0.69300002 -0.021871079 7.3839671e-39 286 258
-0.039981257 0.69099998 -0.021807959 6.6464021e-39 287 258
-0.038769703 0.69099998 -0.021807959 7.0083518e-39 288 258
-0.037503798 0.69 -0.021776399 6.3629824e-39 289 258
-0.036293998 0.69 -0.021776399 6.6370512e-39 290 258
-0.03498251 0.68800002 -0.021713281 6.9136381e-39 291 258
-0.033727121 0.68699998 -0.021681719 7.9270641e-39 292 258
-0.032522578 0.68699998 -0.021681719 8.3880423e-39 293 258
-0.031318039 0.68699998 -0.021681719 8.017815e-39 294 258
-0.030113498 0.68699998 -0.021681719 8.8479344e-39 295 258
-0.028908957 0.68699998 -0.021681719 1.0417403e-38 296 258
-0.027704418 0.68699998 -0.021681719 1.069399e-38 297 258
-0.026461305 0.68599999 -0.021650158 1.0878361e-38 298 258
-0.025258519 0.68599999 -0.021650158 1.0878361e-38 299 258
-0.0239856 0.68400002 -0.02158704 1.1244267e-38 300 258
-0.022786319 0.68400002 -0.02158704 1.1429018e-38 301 258
-0.021650158 0.68599999 -0.021650158 1.1245703e-38 302 258
-0.020447372 0.68599999 -0.021650158 1.1153506e-38 303 258
-0.019244585 0.68599999 -0.021650158 1.1060589e-38 304 258
-0.018041799 0.68599999 -0.021650158 1.0968393e-38 305 258
-0.016839013 0.68599999 -0.021650158 1.1244976e-38 306 258
-0.015636226 0.68599999 -0.021650158 1.0876195e-38 307 258
-0.01443344 0.68599999 -0.021650158 9.8606136e-39 308 258
-0.013249939 0.68699998 -0.021681719 8.8468204e-39 309 258
-0.012045399 0.68699998 -0.021681719 8.0181555e-39 310 258
-0.010840859 0.68699998 -0.021681719 7.7412085e-39 311 258
-0.0096363192 0.68699998 -0.021681719 7.1909214e-39 312 258
-0.0084317802 0.68699998 -0.021681719 7.0068903e-39 313 258
-0.0072377604 0.68800002 -0.021713281 7.0076064e-39 314 258
-0.0060314666 0.68800002 -0.021713281 7.1001607e-39 315 258
-0.0048251734 0.68800002 -0.021713281 7.1905529e-39 316 258
-0.0036293997 0.69 -0.021776399 6.6377378e-39 317 258
-0.0024231065 0.69099998 -0.021807959 6.6359372e-39 318 258
-0.0012115532 0.69099998 -0.021807959 6.5437415e-39 319 258
0 0.69300002 -0.021871079 6.7274139e-39 320 258
0.00121506 0.69300002 -0.021871079 6.7274139e-39 321 258
0.0024336267 0.69400001 -0.021902639 7.096195e-39 322 258
0.0036504399 0.69400001 -0.021902639 7.9259571e-39 323 258
0.0048812795 0.69599998 -0.021965759 8.112142e-39 324 258
0.0061103669 0.69700003 -0.02199732 7.8355565e-39 325 258
0.0073429602 0.69800001 -0.02202888 7.738689e-39 326 258
0.0085913334 0.69999999 -0.022091998 7.738689e-39 327 258
0.0098747732 0.704 -0.022218239 7.8351824e-39 328 258
0.011109119 0.704 -0.022218239 8.9415314e-39 329 258
0.012343466 0.704 -0.022218239 1.2623576e-38 330 258
0.0138864 0.72000003 -0.022723202 1.5481641e-38 331 258
0.0151488 0.72000003 -0.022723202 1.6493272e-38 332 258
0.0164112 0.72000003 -0.022723202 1.6493272e-38 333 258
0.017722692 0.722 -0.022786319 1.6493269e-38 334 258
0.0189886 0.722 -0.022786319 1.6493269e-38 335 258
-0.051842559 0.704 -0.023452586 1.5021754e-38 278 259
-0.050608214 0.704 -0.023452586 1.3731015e-38 279 259
-0.049373865 0.704 -0.023452586 9.6769538e-39 280 259
-0.047934376 0.70099998 -0.023352645 1.0137573e-38 281 259
-0.046638668 0.69999999 -0.023319334 9.4983401e-39 282 259
-0.045281585 0.69800001 -0.023252707 9.3135887e-39 283 259
-0.043931518 0.69599998 -0.023186078 7.9357031e-39 284 259
-0.042711195 0.69599998 -0.023186078 7.5665605e-39 285 259
-0.041371655 0.69400001 -0.023119451 7.3814504e-39 286 259
-0.04009698 0.69300002 -0.02308614 6.736081e-39 287 259
-0.038769703 0.69099998 -0.023019511 7.0987496e-39 288 259
-0.03755815 0.69099998 -0.023019511 6.4533802e-39 289 259
-0.036293998 0.69 -0.022986198 6.6363309e-39 290 259
-0.03498251 0.68800002 -0.022919573 6.9125591e-39 291 259
-0.033776212 0.68800002 -0.022919573 7.0987524e-39 292 259
-0.032522578 0.68699998 -0.022886258 7.0987524e-39 293 259
-0.031318039 0.68699998 -0.022886258 6.0856781e-39 294 259
-0.030113498 0.68699998 -0.022886258 6.7310475e-39 295 259
-0.028908957 0.68699998 -0.022886258 8.8511658e-39 296 259
-0.027704418 0.68699998 -0.022886258 9.7734823e-39 297 259
-0.026499879 0.68699998 -0.022886258 1.0418106e-38 298 259
-0.025258519 0.68599999 -0.022852944 1.0418106e-38 299 259
-0.024055731 0.68599999 -0.022852944 1.0601418e-38 300 259
-0.022852944 0.68599999 -0.022852944 1.0878364e-38 301 259
-0.021681719 0.68699998 -0.022886258 1.115315e-38 302 259
-0.020477179 0.68699998 -0.022886258 1.1060955e-38 303 259
-0.019272638 0.68699998 -0.022886258 1.096839e-38 304 259
-0.018041799 0.68599999 -0.022852944 1.0783999e-38 305 259
-0.016839013 0.68599999 -0.022852944 1.0600687e-38 306 259
-0.015659019 0.68699998 -0.022886258 1.0231544e-38 307 259
-0.014454478 0.68699998 -0.022886258 8.6653102e-39 308 259
-0.013249939 0.68699998 -0.022886258 8.0199408e-39 309 259
-0.012045399 0.68699998 -0.022886258 7.1909214e-39 310 259
-0.010840859 0.68699998 -0.022886258 7.0068903e-39 311 259
-0.0096363192 0.68699998 -0.022886258 6.4562402e-39 312 259
-0.0084440531 0.68800002 -0.022919573 6.3636859e-39 313 259
-0.0072377604 0.68800002 -0.022919573 6.4562402e-39 314 259
-0.0060314666 0.68800002 -0.022919573 6.732467e-39 315 259
-0.0048391996 0.69 -0.022986198 6.6391812e-39 316 259
-0.0036293997 0.69 -0.022986198 6.3625929e-39 317 259
-0.0024231065 0.69099998 -0.023019511 6.2700287e-39 318 259
-0.00121506 0.69300002 -0.02308614 6.1778331e-39 319 259
0 0.69300002 -0.02308614 6.7263335e-39 320 259
0.0012168133 0.69400001 -0.023119451 6.6341379e-39 321 259
0.0024336267 0.69400001 -0.023119451 7.0961922e-39 322 259
0.0036504399 0.69400001 -0.023119451 8.0181499e-39 323 259
0.0048812795 0.69599998 -0.023186078 8.6620704e-39 324 259
0.0061103669 0.69700003 -0.023219392 7.8323097e-39 325 259
0.0073429602 0.69800001 -0.023252707 6.3575552e-39 326 259
0.0085913334 0.69999999 -0.023319334 6.633782e-39 327 259
0.0098747732 0.704 -0.023452586 7.3734868e-39 328 259
0.011109119 0.704 -0.023452586 9.7705718e-39 329 259
0.012553867 0.71600002 -0.023852346 1.2993788e-38 330 259
0.013809253 0.71600002 -0.023852346 1.5298319e-38 331 259
0.015085679 0.71700001 -0.02388566 1.6310313e-38 332 259
0.016342819 0.71700001 -0.02388566 1.6217758e-38 333 259
0.017649053 0.71899998 -0.023952285 1.6401073e-38 334 259
0.018935999 0.72000003 -0.0239856 1.6401073e-38 335 259
0.020198401 0.72000003 -0.0239856 1.6309234e-38 336 259
-0.050751984 0.70599997 -0.024757065 1.428347e-38 279 260
-0.049373865 0.704 -0.024686933 9.6773041e-39 280 260
-0.047934376 0.70099998 -0.024581732 1.0045727e-38 281 260
-0.046638668 0.69999999 -0.024546666 1.05114e-38 282 260
-0.045281585 0.69800001 -0.024476532 1.0419205e-38 283 260
-0.043931518 0.69599998 -0.0244064 8.0271743e-39 284 260
-0.042711195 0.69599998 -0.0244064 5.9063161e-39 285 260
-0.041371655 0.69400001 -0.024336265 6.9165276e-39 286 260
-0.04009698 0.69300002 -0.024301201 7.0087232e-39 287 260
-0.038769703 0.69099998 -0.024231065 7.1009062e-39 288 260
-0.03755815 0.69099998 -0.024231065 6.9161562e-39 289 260
-0.036293998 0.69 -0.024195999 6.9168625e-39 290 260
-0.035084199 0.69 -0.024195999 6.9168625e-39 291 260
-0.033776212 0.68800002 -0.024125867 7.2845688e-39 292 260
-0.032569919 0.68800002 -0.024125867 7.0076218e-39 293 260
-0.031318039 0.68699998 -0.024090799 6.0863941e-39 294 260
-0.030113498 0.68699998 -0.024090799 5.6254174e-39 295 260
-0.028908957 0.68699998 -0.024090799 5.0725995e-39 296 260
-0.027704418 0.68699998 -0.024090799 4.7956525e-39 297 260
-0.026499879 0.68699998 -0.024090799 5.2548132e-39 298 260
-0.025295338 0.68699998 -0.024090799 5.2548132e-39 299 260
-0.024055731 0.68599999 -0.024055731 5.2562495e-39 300 260
-0.022852944 0.68599999 -0.024055731 5.4402806e-39 301 260
-0.021681719 0.68699998 -0.024090799 5.8069052e-39 302 260
-0.020477179 0.68699998 -0.024090799 5.8991008e-39 303 260
-0.019272638 0.68699998 -0.024090799 5.621788e-39 304 260
-0.018068098 0.68699998 -0.024090799 5.4373968e-39 305 260
-0.01686356 0.68699998 -0.024090799 5.4370408e-39 306 260
-0.015659019 0.68699998 -0.024090799 5.5292365e-39 307 260
-0.014454478 0.68699998 -0.024090799 5.4402834e-39 308 260
-0.013249939 0.68699998 -0.024090799 5.901263e-39 309 260
-0.012045399 0.68699998 -0.024090799 5.9941831e-39 310 260
-0.010856641 0.68800002 -0.024125867 6.3626055e-39 311 260
-0.0096503468 0.68800002 -0.024125867 6.3618866e-39 312 260
-0.0084440531 0.68800002 -0.024125867 6.269691e-39 313 260
-0.0072377604 0.68800002 -0.024125867 6.54448e-39 314 260
-0.0060314666 0.68800002 -0.024125867 6.6370344e-39 315 260
-0.0048391996 0.69 -0.024195999 6.2700441e-39 316 260
-0.0036293997 0.69 -0.024195999 5.7168703e-39 317 260
-0.0024231065 0.69099998 -0.024231065 6.0824131e-39 318 260
-0.00121506 0.69300002 -0.024301201 6.0824131e-39 319 260
0 0.69300002 -0.024301201 6.5408675e-39 320 260
0.0012168133 0.69400001 -0.024336265 7.3709869e-39 321 260
0.0024336267 0.69400001 -0.024336265 7.7411931e-39 322 260
0.0036504399 0.69400001 -0.024336265 8.6627893e-39 323 260
0.0048812795 0.69599998 -0.0244064 8.8496889e-39 324 260
0.006119133 0.69800001 -0.024476532 7.8351768e-39 325 260
0.0073639993 0.69999999 -0.024546666 7.2776926e-39 326 260
0.0086036054 0.70099998 -0.024581732 6.9089115e-39 327 260
0.0098747732 0.704 -0.024686933 8.3854695e-39 328 260
0.011109119 0.704 -0.024686933 1.0874393e-38 329 260
0.012448666 0.70999998 -0.024897331 1.3178545e-38 330 260
0.013751393 0.713 -0.025002534 1.5206849e-38 331 260
0.01506464 0.71600002 -0.025107734 1.6309957e-38 332 260
0.016320027 0.71600002 -0.025107734 1.6125565e-38 333 260
0.017649053 0.71899998 -0.025212931 1.6400708e-38 334 260
0.018935999 0.72000003 -0.025248 1.6308512e-38 335 260
-0.050895758 0.708 -0.026068559 1.4284542e-38 279 261
-0.04951413 0.70599997 -0.025994917 1.1799593e-38 280 261
-0.048139516 0.704 -0.02592128 1.0877996e-38 281 261
-0.046638668 0.69999999 -0.025773998 1.2444615e-38 282 261
-0.045281585 0.69800001 -0.025700359 1.1891441e-38 283 261
-0.043931518 0.69599998 -0.025626717 9.9560771e-39 284 261
-0.042711195 0.69599998 -0.025626717 6.9132625e-39 285 261
-0.041371655 0.69400001 -0.025553079 5.3527794e-39 286 261
-0.04009698 0.69300002 -0.02551626 6.9197449e-39 287 261
-0.03888192 0.69300002 -0.02551626 7.4700292e-39 288 261
-0.03755815 0.69099998 -0.025442619 7.3778336e-39 289 261
-0.036346599 0.69099998 -0.025442619 7.6529786e-39 290 261
-0.035084199 0.69 -0.025405798 7.6529786e-39 291 261
-0.0338744 0.69 -0.025405798 7.3778336e-39 292 261
-0.032569919 0.68800002 -0.02533216 7.1016069e-39 293 261
-0.031363625 0.68800002 -0.02533216 7.0090581e-39 294 261
-0.030157333 0.68800002 -0.02533216 6.8246654e-39 295 261
-0.028908957 0.68699998 -0.025295338 6.6391994e-39 296 261
-0.027704418 0.68699998 -0.025295338 6.731395e-39 297 261
-0.026499879 0.68699998 -0.025295338 7.4646412e-39 298 261
-0.025295338 0.68699998 -0.025295338 6.7270762e-39 299 261
-0.024090799 0.68699998 -0.025295338 5.8991134e-39 300 261
-0.022886258 0.68699998 -0.025295338 5.991309e-39 301 261
-0.021681719 0.68699998 -0.025295338 6.3593727e-39 302 261
-0.020477179 0.68699998 -0.025295338 6.2671771e-39 303 261
-0.019272638 0.68699998 -0.025295338 6.266454e-39 304 261
-0.018068098 0.68699998 -0.025295338 6.266454e-39 305 261
-0.01686356 0.68699998 -0.025295338 6.4501334e-39 306 261
-0.015659019 0.68699998 -0.025295338 6.6348834e-39 307 261
-0.014454478 0.68699998 -0.025295338 6.7295971e-39 308 261
-0.013269227 0.68800002 -0.02533216 6.7295971e-39 309 261
-0.012062933 0.68800002 -0.02533216 6.5451989e-39 310 261
-0.010856641 0.68800002 -0.02533216 6.3611678e-39 311 261
-0.0096503468 0.68800002 -0.02533216 6.1764234e-39 312 261
-0.0084440531 0.68800002 -0.02533216 5.9920321e-39 313 261
-0.0072377604 0.68800002 -0.02533216 5.8998323e-39 314 261
-0.0060489997 0.69 -0.025405798 6.3611706e-39 315 261
-0.0048391996 0.69 -0.025405798 6.8206942e-39 316 261
-0.0036346598 0.69099998 -0.025442619 6.7284985e-39 317 261
-0.0024231065 0.69099998 -0.025442619 6.911445e-39 318 261
-0.00121506 0.69300002 -0.02551626 7.0036407e-39 319 261
0 0.69300002 -0.02551626 7.0969083e-39 320 261
0.0012168133 0.69400001 -0.025553079 7.3738553e-39 321 261
0.0024336267 0.69400001 -0.025553079 7.7440672e-39 322 261
0.0036504399 0.69400001 -0.025553079 8.3894366e-39 323 261
0.0048812795 0.69599998 -0.025626717 9.8605982e-39 324 261
0.006119133 0.69800001 -0.025700359 9.8605982e-39 325 261
0.0073745195 0.70099998 -0.025810819 8.6638487e-39 326 261
0.0086404262 0.704 -0.02592128 8.8482413e-39 327 261
0.0098747732 0.704 -0.02592128 1.0136459e-38 328 261
0.011140679 0.70599997 -0.025994917 1.1335002e-38 329 261
0.012448666 0.70999998 -0.026142199 1.2719006e-38 330 261
0.013751393 0.713 -0.026252659 1.4471083e-38 331 261
0.01506464 0.71600002 -0.026363119 1.5850058e-38 332 261
0.016320027 0.71600002 -0.026363119 1.5757502e-38 333 261
0.017599959 0.71700001 -0.02639994 1.6216682e-38 334 261
0.018857099 0.71700001 -0.02639994 1.6216682e-38 335 261
-0.050895758 0.708 -0.027309919 1.382393e-38 279 262
-0.04951413 0.70599997 -0.027232772 1.281482e-38 280 262
-0.048139516 0.704 -0.027155625 1.2446397e-38 281 262
-0.046705291 0.70099998 -0.027039904 1.2721555e-38 282 262
-0.045281585 0.69800001 -0.026924185 1.2352412e-38 283 262
-0.043994639 0.69700003 -0.026885614 1.1338267e-38 284 262
-0.042711195 0.69599998 -0.026847038 8.3876471e-39 285 262
-0.041371655 0.69400001 -0.026769891 6.5495051e-39 286 262
-0.04009698 0.69300002 -0.02673132 7.7480483e-39 287 262
-0.03888192 0.69300002 -0.02673132 7.9310102e-39 288 262
-0.03755815 0.69099998 -0.026654173 7.6544247e-39 289 262
-0.036346599 0.69099998 -0.026654173 7.7455413e-39 290 262
-0.035135046 0.69099998 -0.026654173 7.7455413e-39 291 262
-0.0338744 0.69 -0.026615599 7.3789168e-39 292 262
-0.032569919 0.68800002 -0.026538454 7.3789168e-39 293 262
-0.031363625 0.68800002 -0.026538454 7.286717e-39 294 262
