# .PCD v.7 - Point Cloud Data file format
FIELDS x y z rgb imX imY
SIZE 4 4 4 4 4 4
TYPE F F F F F F
COUNT 1 1 1 1 1 1
WIDTH 835
HEIGHT 1
VIEWPOINT 0 0 0 1 0 0 0
POINTS 835
DATA ascii
-0.0024090798 0.68699998 0.025295338 8.3907566e-39 318 219
-0.0012062934 0.68800002 0.02533216 8.7595405e-39 319 219
0 0.69 0.025405798 9.035054e-39 320 219
0.0012115532 0.69099998 0.025442619 9.1272496e-39 321 219
0.0024231065 0.69099998 0.025442619 9.9533978e-39 322 219
0.0036451798 0.69300002 0.02551626 1.0229983e-38 323 219
0.0048672534 0.69400001 0.025553079 1.0414026e-38 324 219
0.0061015999 0.69599998 0.025626717 1.0506221e-38 325 219
0.00733244 0.69700003 0.025663542 1.013677e-38 326 219
-0.056296028 0.69800001 0.024476532 1.5675422e-38 274 220
-0.054993302 0.69700003 0.024441468 1.3554921e-38 275 220
-0.053771228 0.69700003 0.024441468 1.1524826e-38 276 220
-0.052473757 0.69599998 0.0244064 9.9574994e-39 277 220
-0.051106159 0.69400001 0.024336265 1.0508151e-38 278 220
-0.049817458 0.69300002 0.024301201 1.0692901e-38 279 220
-0.048602402 0.69300002 0.024301201 9.2285229e-39 280 220
-0.047250576 0.69099998 0.024231065 8.0299797e-39 281 220
-0.045972396 0.69 0.024195999 7.2898811e-39 282 220
-0.044567976 0.68699998 0.024090799 6.1831734e-39 283 220
-0.043300316 0.68599999 0.024055731 5.7204002e-39 284 220
-0.041974798 0.68400002 0.0239856 5.5363691e-39 285 220
-0.040715907 0.68300003 0.023950534 5.0825586e-39 286 220
-0.039518382 0.68300003 0.023950534 6.188546e-39 287 220
-0.038264744 0.68199998 0.023915464 6.1860125e-39 288 220
-0.037068974 0.68199998 0.023915464 6.1860125e-39 289 220
-0.035873197 0.68199998 0.023915464 6.4625965e-39 290 220
-0.034575731 0.68000001 0.023845334 6.4625965e-39 291 220
-0.033383466 0.68000001 0.023845334 6.0952391e-39 292 220
-0.032191198 0.68000001 0.023845334 5.5420668e-39 293 220
-0.030953348 0.67900002 0.023810266 4.9006462e-39 294 220
-0.029762832 0.67900002 0.023810266 5.0846787e-39 295 220
-0.028572321 0.67900002 0.023810266 5.6356903e-39 296 220
-0.027381808 0.67900002 0.023810266 5.8200816e-39 297 220
-0.026191294 0.67900002 0.023810266 6.0959398e-39 298 220
-0.025000781 0.67900002 0.023810266 6.1884942e-39 299 220
-0.023810266 0.67900002 0.023810266 5.7282391e-39 300 220
-0.022619752 0.67900002 0.023810266 5.0828795e-39 301 220
-0.0214608 0.68000001 0.023845334 4.9892503e-39 302 220
-0.020268533 0.68000001 0.023845334 4.8970561e-39 303 220
-0.019076265 0.68000001 0.023845334 5.1711361e-39 304 220
-0.017883999 0.68000001 0.023845334 5.2636904e-39 305 220
-0.016691733 0.68000001 0.023845334 5.4469999e-39 306 220
-0.015499466 0.68000001 0.023845334 5.4469999e-39 307 220
-0.014307199 0.68000001 0.023845334 5.7246517e-39 308 220
-0.013153506 0.68199998 0.023915464 6.0008757e-39 309 220
-0.011957732 0.68199998 0.023915464 6.1852642e-39 310 220
-0.010761959 0.68199998 0.023915464 6.1852642e-39 311 220
-0.009566186 0.68199998 0.023915464 6.6448004e-39 312 220
-0.0083826864 0.68300003 0.023950534 6.6448004e-39 313 220
-0.0071851597 0.68300003 0.023950534 7.1050541e-39 314 220
-0.0059964 0.68400002 0.0239856 7.197607e-39 315 220
-0.0048111463 0.68599999 0.024055731 7.8400968e-39 316 220
-0.00360836 0.68599999 0.024055731 8.2088737e-39 317 220
-0.0024125867 0.68800002 0.024125867 8.575501e-39 318 220
-0.0012062934 0.68800002 0.024125867 8.7598936e-39 319 220
0 0.69 0.024195999 9.3105493e-39 320 220
0.0012115532 0.69099998 0.024231065 9.4027449e-39 321 220
0.0024231065 0.69099998 0.024231065 1.0137434e-38 322 220
0.0036451798 0.69300002 0.024301201 1.0506218e-38 323 220
0.0048672534 0.69400001 0.024336265 1.0415134e-38 324 220
0.0061015999 0.69599998 0.0244064 1.050733e-38 325 220
0.00733244 0.69700003 0.024441468 1.0875084e-38 326 220
-0.056296028 0.69800001 0.023252707 1.5766899e-38 274 221
-0.054993302 0.69700003 0.023219392 1.3646398e-38 275 221
-0.053771228 0.69700003 0.023219392 1.1250756e-38 276 221
-0.052549154 0.69700003 0.023219392 1.0144409e-38 277 221
-0.051253434 0.69599998 0.023186078 1.097128e-38 278 221
-0.049889345 0.69400001 0.023119451 1.1063476e-38 279 221
-0.048602402 0.69300002 0.02308614 1.0607129e-38 280 221
-0.047250576 0.69099998 0.023019511 8.6710205e-39 281 221
-0.045972396 0.69 0.022986198 6.092763e-39 282 221
-0.044567976 0.68699998 0.022886258 5.9083718e-39 283 221
-0.043363437 0.68699998 0.022886258 5.4459461e-39 284 221
-0.041974798 0.68400002 0.022786319 6.2757068e-39 285 221
-0.040715907 0.68300003 0.022753006 5.7286118e-39 286 221
-0.039518382 0.68300003 0.022753006 6.2817856e-39 287 221
-0.038264744 0.68199998 0.022719691 6.741312e-39 288 221
-0.037068974 0.68199998 0.022719691 6.5572809e-39 289 221
-0.035873197 0.68199998 0.022719691 7.1086526e-39 290 221
-0.034677424 0.68199998 0.022719691 7.3852409e-39 291 221
-0.03348165 0.68199998 0.022719691 7.6614606e-39 292 221
-0.032191198 0.68000001 0.022653066 7.292318e-39 293 221
-0.030998932 0.68000001 0.022653066 7.0160912e-39 294 221
-0.029806666 0.68000001 0.022653066 6.9235369e-39 295 221
-0.028614398 0.68000001 0.022653066 6.5561935e-39 296 221
-0.027422134 0.68000001 0.022653066 6.5561935e-39 297 221
-0.026229866 0.68000001 0.022653066 6.3739574e-39 298 221
-0.025037598 0.68000001 0.022653066 6.3739574e-39 299 221
-0.023845334 0.68000001 0.022653066 6.4650754e-39 300 221
-0.022653066 0.68000001 0.022653066 6.0962985e-39 301 221
-0.021523919 0.68199998 0.022719691 6.1856229e-39 302 221
-0.020328145 0.68199998 0.022719691 6.0008757e-39 303 221
-0.019132372 0.68199998 0.022719691 6.3675002e-39 304 221
-0.017936599 0.68199998 0.022719691 6.3675002e-39 305 221
-0.016740825 0.68199998 0.022719691 6.5515299e-39 306 221
-0.015545053 0.68199998 0.022719691 6.5515299e-39 307 221
-0.01434928 0.68199998 0.022719691 6.4614881e-39 308 221
-0.013153506 0.68199998 0.022719691 6.5536823e-39 309 221
-0.011957732 0.68199998 0.022719691 6.6458766e-39 310 221
-0.010761959 0.68199998 0.022719691 6.830265e-39 311 221
-0.009566186 0.68199998 0.022719691 6.739147e-39 312 221
-0.0083826864 0.68300003 0.022753006 6.739147e-39 313 221
-0.0071851597 0.68300003 0.022753006 7.4731135e-39 314 221
-0.0059964 0.68400002 0.022786319 7.657502e-39 315 221
-0.0048111463 0.68599999 0.022852944 8.2081562e-39 316 221
-0.00360836 0.68599999 0.022852944 8.6687686e-39 317 221
-0.0024090798 0.68699998 0.022886258 9.2194229e-39 318 221
-0.0012062934 0.68800002 0.022919573 9.2194229e-39 319 221
0 0.69 0.022986198 9.2190725e-39 320 221
0.0012115532 0.69099998 0.023019511 9.4034638e-39 321 221
0.0024231065 0.69099998 0.023019511 9.7722687e-39 322 221
0.0036346598 0.69099998 0.023019511 1.0048495e-38 323 221
0.0048672534 0.69400001 0.023119451 9.8641463e-39 324 221
0.0060840664 0.69400001 0.023119451 9.9563419e-39 325 221
0.00733244 0.69700003 0.023219392 9.0394695e-39 326 221
-0.0550722 0.69800001 0.02202888 1.392119e-38 275 222
-0.053771228 0.69700003 0.02199732 1.0789781e-38 276 222
-0.052549154 0.69700003 0.02199732 9.8674659e-39 277 222
-0.051253434 0.69599998 0.021965759 1.0971653e-38 278 222
-0.049889345 0.69400001 0.021902639 1.1340435e-38 279 222
-0.048602402 0.69300002 0.021871079 1.1066327e-38 280 222
-0.047250576 0.69099998 0.021807959 8.5770452e-39 281 222
-0.045972396 0.69 0.021776399 4.5254373e-39 282 222
-0.044632856 0.68800002 0.021713281 4.5254373e-39 283 222
-0.043363437 0.68699998 0.021681719 5.1697123e-39 284 222
-0.042097531 0.68599999 0.021650158 6.8292337e-39 285 222
-0.040715907 0.68300003 0.02155548 6.3743512e-39 286 222
-0.039518382 0.68300003 0.02155548 6.4665468e-39 287 222
-0.038320854 0.68300003 0.02155548 6.7409855e-39 288 222
-0.037123326 0.68300003 0.02155548 6.9250166e-39 289 222
-0.035873197 0.68199998 0.021523919 7.7529822e-39 290 222
-0.034677424 0.68199998 0.021523919 8.6752973e-39 291 222
-0.03348165 0.68199998 0.021523919 9.7801749e-39 292 222
-0.032191198 0.68000001 0.0214608 9.1348054e-39 293 222
-0.030998932 0.68000001 0.0214608 8.7660033e-39 294 222
-0.029806666 0.68000001 0.0214608 8.3972222e-39 295 222
-0.028614398 0.68000001 0.0214608 7.5699712e-39 296 222
-0.027422134 0.68000001 0.0214608 7.2933886e-39 297 222
-0.026229866 0.68000001 0.0214608 6.5587046e-39 298 222
-0.025037598 0.68000001 0.0214608 6.5587046e-39 299 222
-0.023845334 0.68000001 0.0214608 6.4672278e-39 300 222
-0.022653066 0.68000001 0.0214608 6.0984509e-39 301 222
-0.021523919 0.68199998 0.021523919 6.5540411e-39 302 222
-0.020328145 0.68199998 0.021523919 6.4618468e-39 303 222
-0.019132372 0.68199998 0.021523919 6.6451605e-39 304 222
-0.017936599 0.68199998 0.021523919 6.8291916e-39 305 222
-0.016740825 0.68199998 0.021523919 6.5543998e-39 306 222
-0.015545053 0.68199998 0.021523919 6.646594e-39 307 222
-0.01434928 0.68199998 0.021523919 6.4636405e-39 308 222
-0.013153506 0.68199998 0.021523919 6.6476702e-39 309 222
-0.011957732 0.68199998 0.021523919 6.739147e-39 310 222
-0.010761959 0.68199998 0.021523919 6.739147e-39 311 222
-0.0095802136 0.68300003 0.02155548 7.0150122e-39 312 222
-0.0083826864 0.68300003 0.02155548 7.0150122e-39 313 222
-0.0071851597 0.68300003 0.02155548 7.5645903e-39 314 222
-0.0059964 0.68400002 0.02158704 7.9333672e-39 315 222
-0.0048111463 0.68599999 0.021650158 8.2999931e-39 316 222
-0.00360836 0.68599999 0.021650158 8.7606125e-39 317 222
-0.0024090798 0.68699998 0.021681719 9.1276e-39 318 222
-0.0012062934 0.68800002 0.021713281 9.0354043e-39 319 222
0 0.69 0.021776399 9.3101962e-39 320 222
0.0012115532 0.69099998 0.021807959 9.9555656e-39 321 222
0.0024231065 0.69099998 0.021807959 9.9570327e-39 322 222
0.0036346598 0.69099998 0.021807959 1.0049228e-38 323 222
0.0048672534 0.69400001 0.021902639 9.679762e-39 324 222
0.0060840664 0.69400001 0.021902639 9.3106194e-39 325 222
0.00733244 0.69700003 0.02199732 6.5544867e-39 326 222
-0.0550722 0.69800001 0.020805053 1.4656957e-38 275 223
-0.053848371 0.69800001 0.020805053 9.8685449e-39 276 223
-0.052624546 0.69800001 0.020805053 7.3796231e-39 277 223
-0.051327083 0.69700003 0.020775247 8.9458726e-39 278 223
-0.050033119 0.69599998 0.020745439 1.005186e-38 279 223
-0.048672531 0.69400001 0.020685827 1.0879435e-38 280 223
-0.047387339 0.69300002 0.020656019 1.0050033e-38 281 223
-0.046039023 0.69099998 0.020596405 7.747988e-39 282 223
-0.044632856 0.68800002 0.020506985 6.5494448e-39 283 223
-0.043363437 0.68699998 0.020477179 6.8270813e-39 284 223
-0.042097531 0.68599999 0.020447372 7.6568433e-39 285 223
-0.040775519 0.68400002 0.020387759 7.0172151e-39 286 223
-0.03957624 0.68400002 0.020387759 7.0172151e-39 287 223
-0.038320854 0.68300003 0.020357953 7.199105e-39 288 223
-0.037123326 0.68300003 0.020357953 7.1069094e-39 289 223
-0.035873197 0.68199998 0.020328145 8.2125339e-39 290 223
-0.034677424 0.68199998 0.020328145 9.5032727e-39 291 223
-0.03348165 0.68199998 0.020328145 9.6879792e-39 292 223
-0.032285877 0.68199998 0.020328145 9.2270011e-39 293 223
-0.031090107 0.68199998 0.020328145 8.7677886e-39 294 223
-0.029806666 0.68000001 0.020268533 8.2146162e-39 295 223
-0.028614398 0.68000001 0.020268533 7.7547184e-39 296 223
-0.027422134 0.68000001 0.020268533 7.4781358e-39 297 223
-0.026229866 0.68000001 0.020268533 6.926764e-39 298 223
-0.025037598 0.68000001 0.020268533 6.8345698e-39 299 223
-0.023845334 0.68000001 0.020268533 6.5587046e-39 300 223
-0.022653066 0.68000001 0.020268533 6.3743161e-39 301 223
-0.021523919 0.68199998 0.020328145 6.6462353e-39 302 223
-0.020328145 0.68199998 0.020328145 6.6462353e-39 303 223
-0.019132372 0.68199998 0.020328145 7.1968895e-39 304 223
-0.017936599 0.68199998 0.020328145 7.1043366e-39 305 223
-0.016740825 0.68199998 0.020328145 6.9224593e-39 306 223
-0.015545053 0.68199998 0.020328145 6.9224593e-39 307 223
-0.01434928 0.68199998 0.020328145 6.7395057e-39 308 223
-0.013153506 0.68199998 0.020328145 6.7395057e-39 309 223
-0.011957732 0.68199998 0.020328145 6.922818e-39 310 223
-0.01077774 0.68300003 0.020357953 6.922818e-39 311 223
-0.0095802136 0.68300003 0.020357953 7.0142948e-39 312 223
-0.0083826864 0.68300003 0.020357953 7.1983245e-39 313 223
-0.0071956799 0.68400002 0.020387759 7.5645903e-39 314 223
-0.0059964 0.68400002 0.020387759 7.74862e-39 315 223
-0.0048111463 0.68599999 0.020447372 8.2074443e-39 316 223
-0.00360836 0.68599999 0.020447372 8.5758681e-39 317 223
-0.0024090798 0.68699998 0.020477179 8.9428584e-39 318 223
-0.0012062934 0.68800002 0.020506985 9.035054e-39 319 223
0 0.69 0.020566599 9.4949616e-39 320 223
0.0012115532 0.69099998 0.020596405 1.0232528e-38 321 223
0.0024231065 0.69099998 0.020596405 1.0049241e-38 322 223
0.0036451798 0.69300002 0.020656019 9.8648497e-39 323 223
0.0048672534 0.69400001 0.020685827 9.2202244e-39 324 223
0.0060840664 0.69400001 0.020685827 8.667052e-39 325 223
0.0073219193 0.69599998 0.020745439 6.274653e-39 326 223
-0.058343921 0.708 0.01986176 1.5765818e-38 273 224
-0.057021905 0.70700002 0.019833706 1.594985e-38 274 224
-0.055545598 0.704 0.019749546 1.4659112e-38 275 224
-0.053848371 0.69800001 0.019581227 1.0789057e-38 276 224
-0.052624546 0.69800001 0.019581227 7.3778182e-39 277 224
-0.051327083 0.69700003 0.019553173 8.1139539e-39 278 224
-0.050033119 0.69599998 0.019525118 9.128466e-39 279 224
-0.048672531 0.69400001 0.019469013 9.5912392e-39 280 224
-0.047387339 0.69300002 0.01944096 1.0328804e-38 281 224
-0.046039023 0.69099998 0.019384852 1.051282e-38 282 224
-0.044632856 0.68800002 0.019300694 9.4990267e-39 283 224
-0.043363437 0.68699998 0.019272638 8.7610637e-39 284 224
-0.042097531 0.68599999 0.019244585 8.5766725e-39 285 224
-0.040775519 0.68400002 0.01918848 7.7515627e-39 286 224
-0.03957624 0.68400002 0.01918848 7.6593657e-39 287 224
-0.038320854 0.68300003 0.019160427 7.3824327e-39 288 224
-0.037123326 0.68300003 0.019160427 7.1054871e-39 289 224
-0.035873197 0.68199998 0.019132372 7.9359568e-39 290 224
-0.034677424 0.68199998 0.019132372 9.2266956e-39 291 224
-0.03348165 0.68199998 0.019132372 9.2281025e-39 292 224
-0.032285877 0.68199998 0.019132372 8.9511555e-39 293 224
-0.031090107 0.68199998 0.019132372 8.5827009e-39 294 224
-0.029894331 0.68199998 0.019132372 8.1220828e-39 295 224
-0.02869856 0.68199998 0.019132372 7.7543597e-39 296 224
-0.027422134 0.68000001 0.019076265 7.477777e-39 297 224
-0.026229866 0.68000001 0.019076265 7.110435e-39 298 224
-0.025037598 0.68000001 0.019076265 7.0178821e-39 299 224
-0.023845334 0.68000001 0.019076265 6.5587046e-39 300 224
-0.022653066 0.68000001 0.019076265 6.4665104e-39 301 224
-0.021523919 0.68199998 0.019132372 6.5561935e-39 302 224
-0.020328145 0.68199998 0.019132372 6.5561935e-39 303 224
-0.019132372 0.68199998 0.019132372 6.8309825e-39 304 224
-0.017936599 0.68199998 0.019132372 6.8309825e-39 305 224
-0.016740825 0.68199998 0.019132372 6.6476702e-39 306 224
-0.015545053 0.68199998 0.019132372 6.7398645e-39 307 224
-0.01434928 0.68199998 0.019132372 6.8317e-39 308 224
-0.013153506 0.68199998 0.019132372 6.8317e-39 309 224
-0.011975267 0.68300003 0.019160427 7.0142948e-39 310 224
-0.01077774 0.68300003 0.019160427 7.0142948e-39 311 224
-0.0095802136 0.68300003 0.019160427 7.197607e-39 312 224
-0.0083949603 0.68400002 0.01918848 7.29016e-39 313 224
-0.0071956799 0.68400002 0.01918848 7.8404555e-39 314 224
-0.0060139326 0.68599999 0.019244585 7.9326497e-39 315 224
-0.0048111463 0.68599999 0.019244585 8.4833054e-39 316 224
-0.0036136196 0.68699998 0.019272638 8.7598936e-39 317 224
-0.0024125867 0.68800002 0.019300694 9.2180033e-39 318 224
-0.0012062934 0.68800002 0.019300694 9.6786214e-39 319 224
0 0.69 0.019356798 9.6804416e-39 320 224
0.0012115532 0.69099998 0.019384852 1.0049226e-38 321 224
0.00243012 0.69300002 0.01944096 9.3138466e-39 322 224
0.0036451798 0.69300002 0.01944096 9.0372597e-39 323 224
0.0048672534 0.69400001 0.019469013 9.0376128e-39 324 224
0.0060840664 0.69400001 0.019469013 8.484439e-39 325 224
0.0073219193 0.69599998 0.019525118 6.6426942e-39 326 224
-0.058343921 0.708 0.0186204 1.585837e-38 273 225
-0.057021905 0.70700002 0.018594101 1.5951286e-38 274 225
-0.055545598 0.704 0.018515198 1.4752743e-38 275 225
-0.054234106 0.70300001 0.018488899 1.2907035e-38 276 225
-0.052775331 0.69999999 0.018409999 1.0694699e-38 277 225
-0.051400717 0.69800001 0.0183574 9.8642289e-39 278 225
-0.050105009 0.69700003 0.018331099 8.6656858e-39 279 225
-0.048812799 0.69599998 0.018304799 8.3937834e-39 280 225
-0.047455717 0.69400001 0.0182522 9.1313484e-39 281 225
-0.046039023 0.69099998 0.0181733 9.5930343e-39 282 225
-0.044632856 0.68800002 0.0180944 9.9618168e-39 283 225
-0.043363437 0.68699998 0.018068098 9.773422e-39 284 225
-0.042158898 0.68699998 0.018068098 9.1280526e-39 285 225
-0.040894743 0.68599999 0.018041799 8.1192662e-39 286 225
-0.039691959 0.68599999 0.018041799 7.934875e-39 287 225
-0.038376961 0.68400002 0.0179892 7.2906e-39 288 225
-0.037177678 0.68400002 0.0179892 7.1062087e-39 289 225
-0.035925802 0.68300003 0.017962901 7.6593601e-39 290 225
-0.034728274 0.68300003 0.017962901 8.3972853e-39 291 225
-0.033530746 0.68300003 0.017962901 8.7660299e-39 292 225
-0.032285877 0.68199998 0.017936599 8.6738329e-39 293 225
-0.031090107 0.68199998 0.017936599 8.5812659e-39 294 225
-0.029894331 0.68199998 0.017936599 8.304679e-39 295 225
-0.02869856 0.68199998 0.017936599 7.7543597e-39 296 225
-0.027502786 0.68199998 0.017936599 7.4774183e-39 297 225
-0.026307013 0.68199998 0.017936599 7.1100763e-39 298 225
-0.025111238 0.68199998 0.017936599 7.0178821e-39 299 225
-0.023915464 0.68199998 0.017936599 6.7427343e-39 300 225
-0.022719691 0.68199998 0.017936599 6.4665104e-39 301 225
-0.02155548 0.68300003 0.017962901 6.5576284e-39 302 225
-0.020357953 0.68300003 0.017962901 6.5576284e-39 303 225
-0.019160427 0.68300003 0.017962901 6.5569109e-39 304 225
-0.017962901 0.68300003 0.017962901 6.5569109e-39 305 225
-0.016765373 0.68300003 0.017962901 6.5569109e-39 306 225
-0.015567848 0.68300003 0.017962901 6.5569109e-39 307 225
-0.014370319 0.68300003 0.017962901 7.0150122e-39 308 225
-0.013172794 0.68300003 0.017962901 6.922818e-39 309 225
-0.011975267 0.68300003 0.017962901 7.197607e-39 310 225
-0.01077774 0.68300003 0.017962901 7.197607e-39 311 225
-0.0095942402 0.68400002 0.0179892 7.4731135e-39 312 225
-0.0084195063 0.68599999 0.018041799 7.4731135e-39 313 225
-0.0072167199 0.68599999 0.018041799 8.0248453e-39 314 225
-0.0060139326 0.68599999 0.018041799 8.4858235e-39 315 225
-0.0048181596 0.68699998 0.018068098 9.3127353e-39 316 225
-0.0036136196 0.68699998 0.018068098 9.4971266e-39 317 225
-0.0024125867 0.68800002 0.0180944 1.0047076e-38 318 225
-0.0012062934 0.68800002 0.0180944 1.0047076e-38 319 225
0 0.69 0.018146999 9.588616e-39 320 225
0.0012115532 0.69099998 0.0181733 9.4964203e-39 321 225
0.0024231065 0.69099998 0.0181733 8.027058e-39 322 225
0.0036346598 0.69099998 0.0181733 8.1192536e-39 323 225
0.00486024 0.69300002 0.018225901 1.0324036e-38 324 225
0.0060753003 0.69300002 0.018225901 9.6786662e-39 325 225
0.0073008798 0.69400001 0.0182522 6.460105e-39 326 225
-0.058591139 0.71100003 0.01745268 1.5766172e-38 273 226
-0.057102561 0.708 0.017379038 1.585837e-38 274 226
-0.055703394 0.70599997 0.017329946 1.4844219e-38 275 226
-0.054311249 0.704 0.017280852 1.2632969e-38 276 226
-0.053001512 0.70300001 0.017256306 1.1250035e-38 277 226
-0.051547997 0.69999999 0.017182667 1.1062053e-38 278 226
-0.050176892 0.69800001 0.017133573 9.4021718e-39 279 226
-0.048812799 0.69599998 0.017084479 8.4827406e-39 280 226
-0.047455717 0.69400001 0.017035386 9.12811e-39 281 226
-0.04617228 0.69300002 0.01701084 9.1317016e-39 282 226
-0.0447626 0.69 0.0169372 9.2238986e-39 283 226
-0.043426562 0.68800002 0.016888106 9.223488e-39 284 226
-0.042158898 0.68699998 0.01686356 8.5781186e-39 285 226
-0.040894743 0.68599999 0.016839013 8.7628392e-39 286 226
-0.039691959 0.68599999 0.016839013 8.1174712e-39 287 226
-0.03848917 0.68599999 0.016839013 7.5657477e-39 288 226
-0.037177678 0.68400002 0.016789921 7.4731934e-39 289 226
-0.035978399 0.68400002 0.016789921 7.10871e-39 290 226
-0.03477912 0.68400002 0.016789921 7.2009057e-39 291 226
-0.033530746 0.68300003 0.016765373 7.2941593e-39 292 226
-0.032333218 0.68300003 0.016765373 7.2019622e-39 293 226
-0.031135695 0.68300003 0.016765373 7.7525969e-39 294 226
-0.029938167 0.68300003 0.016765373 7.7525969e-39 295 226
-0.02869856 0.68199998 0.016740825 7.6618067e-39 296 226
-0.027502786 0.68199998 0.016740825 7.3852241e-39 297 226
-0.026307013 0.68199998 0.016740825 7.2933886e-39 298 226
-0.025111238 0.68199998 0.016740825 7.1093588e-39 299 226
-0.023915464 0.68199998 0.016740825 6.5594221e-39 300 226
-0.022719691 0.68199998 0.016740825 6.4672278e-39 301 226
-0.02155548 0.68300003 0.016765373 6.4665104e-39 302 226
-0.020357953 0.68300003 0.016765373 6.3743161e-39 303 226
-0.019160427 0.68300003 0.016765373 6.4650754e-39 304 226
-0.017962901 0.68300003 0.016765373 6.4650754e-39 305 226
-0.016765373 0.68300003 0.016765373 6.7402232e-39 306 226
-0.015567848 0.68300003 0.016765373 6.7402232e-39 307 226
-0.014370319 0.68300003 0.016765373 7.29016e-39 308 226
-0.013172794 0.68300003 0.016765373 7.197607e-39 309 226
-0.011975267 0.68300003 0.016765373 7.197607e-39 310 226
-0.01079352 0.68400002 0.016789921 7.197607e-39 311 226
-0.0096222926 0.68599999 0.016839013 7.2898012e-39 312 226
-0.0084195063 0.68599999 0.016839013 7.6582194e-39 313 226
-0.0072272392 0.68699998 0.01686356 8.8517544e-39 314 226
-0.0060226996 0.68699998 0.01686356 9.5893194e-39 315 226
-0.0048181596 0.68699998 0.01686356 1.0323332e-38 316 226
-0.0036188802 0.68800002 0.016888106 1.078431e-38 317 226
-0.0024125867 0.68800002 0.016888106 1.0324054e-38 318 226
-0.0012062934 0.68800002 0.016888106 9.8630771e-39 319 226
0 0.69 0.0169372 8.7624524e-39 320 226
0.0012115532 0.69099998 0.016961746 8.4858655e-39 321 226
0.0024231065 0.69099998 0.016961746 7.8419409e-39 322 226
0.0036346598 0.69099998 0.016961746 8.8560928e-39 323 226
0.00486024 0.69300002 0.01701084 1.0785752e-38 324 226
0.0060753003 0.69300002 0.01701084 1.0140383e-38 325 226
0.0073008798 0.69400001 0.017035386 7.5632282e-39 326 226
0.0086036054 0.70099998 0.017207211 8.853967e-39 327 226
-0.058508728 0.70999998 0.016183265 1.5766174e-38 273 227
-0.057021905 0.70700002 0.016114887 1.5765818e-38 274 227
-0.055703394 0.70599997 0.016092092 1.4752027e-38 275 227
-0.054311249 0.704 0.016046507 1.217307e-38 276 227
-0.053001512 0.70300001 0.016023712 1.0513188e-38 277 227
-0.051621638 0.70099998 0.015978126 1.1615946e-38 278 227
-0.050392549 0.70099998 0.015978126 1.1247163e-38 279 227
-0.048882935 0.69700003 0.015886955 9.866031e-39 280 227
-0.047455717 0.69400001 0.015818574 9.7738354e-39 281 227
-0.04617228 0.69300002 0.015795778 9.2235455e-39 282 227
-0.0447626 0.69 0.015727401 9.1313484e-39 283 227
-0.043426562 0.68800002 0.015681813 8.763977e-39 284 227
-0.042158898 0.68699998 0.015659019 9.0402038e-39 285 227
-0.040954359 0.68699998 0.015659019 8.6721121e-39 286 227
-0.039749816 0.68699998 0.015659019 7.1047864e-39 287 227
-0.03848917 0.68599999 0.015636226 7.5650387e-39 288 227
-0.037286382 0.68599999 0.015636226 7.472843e-39 289 227
-0.035978399 0.68400002 0.01559064 6.9246663e-39 290 227
-0.03477912 0.68400002 0.01559064 6.9246663e-39 291 227
-0.033530746 0.68300003 0.015567848 7.2930635e-39 292 227
-0.032333218 0.68300003 0.015567848 6.9242809e-39 293 227
-0.031135695 0.68300003 0.015567848 7.8430002e-39 294 227
-0.029938167 0.68300003 0.015567848 8.119227e-39 295 227
-0.028740639 0.68300003 0.015567848 7.6614578e-39 296 227
-0.027502786 0.68199998 0.015545053 7.4770666e-39 297 227
-0.026307013 0.68199998 0.015545053 7.0178821e-39 298 227
-0.025111238 0.68199998 0.015545053 6.9253291e-39 299 227
-0.023915464 0.68199998 0.015545053 6.4672278e-39 300 227
-0.022753006 0.68300003 0.015567848 6.4672278e-39 301 227
-0.02155548 0.68300003 0.015567848 6.6498226e-39 302 227
-0.020357953 0.68300003 0.015567848 6.5576284e-39 303 227
-0.019160427 0.68300003 0.015567848 6.4650754e-39 304 227
-0.017962901 0.68300003 0.015567848 6.4650754e-39 305 227
-0.016765373 0.68300003 0.015567848 6.7402232e-39 306 227
-0.015567848 0.68300003 0.015567848 6.648029e-39 307 227
-0.014370319 0.68300003 0.015567848 7.197607e-39 308 227
-0.013172794 0.68300003 0.015567848 7.197607e-39 309 227
-0.0119928 0.68400002 0.01559064 7.3809193e-39 310 227
-0.01079352 0.68400002 0.01559064 7.3809193e-39 311 227
-0.0096222926 0.68599999 0.015636226 7.2901796e-39 312 227
-0.0084195063 0.68599999 0.015636226 8.7649495e-39 313 227
-0.0072272392 0.68699998 0.015659019 1.0415528e-38 314 227
-0.0060226996 0.68699998 0.015659019 1.0968702e-38 315 227
-0.0048181596 0.68699998 0.015659019 1.0509891e-38 316 227
-0.0036188802 0.68800002 0.015681813 1.03255e-38 317 227
-0.0024125867 0.68800002 0.015681813 9.3106067e-39 318 227
-0.0012062934 0.68800002 0.015681813 8.5730417e-39 319 227
0 0.69 0.015727401 7.474938e-39 320 227
0.0012115532 0.69099998 0.015750192 7.9359147e-39 321 227
0.0024231065 0.69099998 0.015750192 8.3021973e-39 322 227
0.0036346598 0.69099998 0.015750192 9.2241522e-39 323 227
0.0048672534 0.69400001 0.015818574 9.9599544e-39 324 227
0.0060840664 0.69400001 0.015818574 9.8677588e-39 325 227
0.0073008798 0.69400001 0.015818574 9.7723416e-39 326 227
0.0086036054 0.70099998 0.015978126 1.023368e-38 327 227
0.0098607466 0.70300001 0.016023712 1.3000287e-38 328 227
-0.058508728 0.70999998 0.014938398 1.5489589e-38 273 228
-0.057021905 0.70700002 0.01487528 1.5489589e-38 274 228
-0.055703394 0.70599997 0.014854239 1.5028609e-38 275 228
-0.054311249 0.704 0.014812159 1.2356026e-38 276 228
-0.053001512 0.70300001 0.014791119 1.0051494e-38 277 228
-0.051621638 0.70099998 0.014749039 1.0512835e-38 278 228
-0.050392549 0.70099998 0.014749039 1.0697585e-38 279 228
-0.048882935 0.69700003 0.01466488 1.051247e-38 280 228
-0.047455717 0.69400001 0.01460176 1.0144046e-38 281 228
-0.04617228 0.69300002 0.014580719 9.6823558e-39 282 228
-0.044827472 0.69099998 0.014538639 9.4983233e-39 283 228
-0.043552797 0.69 0.014517599 9.2228028e-39 284 228
-0.042220265 0.68800002 0.014475521 9.4993897e-39 285 228
-0.040954359 0.68699998 0.014454478 9.8685071e-39 286 228
-0.039749816 0.68699998 0.014454478 7.7480062e-39 287 228
-0.038545277 0.68699998 0.014454478 6.9221902e-39 288 228
-0.037286382 0.68599999 0.01443344 6.8299946e-39 289 228
-0.036083598 0.68599999 0.01443344 6.8314015e-39 290 228
-0.034880809 0.68599999 0.01443344 6.7392044e-39 291 228
-0.033579841 0.68400002 0.01439136 6.6487927e-39 292 228
-0.032380559 0.68400002 0.01439136 6.6487927e-39 293 228
-0.03118128 0.68400002 0.01439136 7.3831109e-39 294 228
-0.029982001 0.68400002 0.01439136 7.6596978e-39 295 228
-0.028740639 0.68300003 0.014370319 7.6614606e-39 296 228
-0.027543113 0.68300003 0.014370319 7.384515e-39 297 228
-0.026345588 0.68300003 0.014370319 6.926764e-39 298 228
-0.02514806 0.68300003 0.014370319 6.7420169e-39 299 228
-0.023950534 0.68300003 0.014370319 6.4672278e-39 300 228
-0.022753006 0.68300003 0.014370319 6.3750336e-39 301 228
-0.02158704 0.68400002 0.01439136 6.5576284e-39 302 228
-0.020357953 0.68300003 0.014370319 6.4650754e-39 303 228
-0.019160427 0.68300003 0.014370319 6.4650754e-39 304 228
-0.0179892 0.68400002 0.01439136 6.4650754e-39 305 228
-0.016789921 0.68400002 0.01439136 6.922818e-39 306 228
-0.01559064 0.68400002 0.01439136 6.922818e-39 307 228
-0.01439136 0.68400002 0.01439136 7.3809193e-39 308 228
-0.01319208 0.68400002 0.01439136 7.3809193e-39 309 228
-0.012027865 0.68599999 0.01443344 7.2898012e-39 310 228
-0.010825079 0.68599999 0.01443344 7.4741897e-39 311 228
-0.0096222926 0.68599999 0.01443344 8.6688135e-39 312 228
-0.0084195063 0.68599999 0.01443344 1.0143945e-38 313 228
-0.0072272392 0.68699998 0.014454478 1.0784686e-38 314 228
-0.0060226996 0.68699998 0.014454478 1.0968717e-38 315 228
-0.0048181596 0.68699998 0.014454478 1.0691406e-38 316 228
-0.0036188802 0.68800002 0.014475521 9.8620051e-39 317 228
-0.0024125867 0.68800002 0.014475521 7.9326946e-39 318 228
-0.0012097999 0.69 0.014517599 7.2873251e-39 319 228
0 0.69099998 0.014538639 7.3830913e-39 320 228
0.00121506 0.69300002 0.014580719 7.7518738e-39 321 228
0.00243012 0.69300002 0.014580719 8.8532187e-39 322 228
0.0036504399 0.69400001 0.01460176 9.5907838e-39 323 228
0.0048672534 0.69400001 0.01460176 1.0141837e-38 324 228
0.0060840664 0.69400001 0.01460176 9.9570874e-39 325 228
0.0073745195 0.70099998 0.014749039 9.5876042e-39 326 228
0.0086036054 0.70099998 0.014749039 1.0417363e-38 327 228
0.0098607466 0.70300001 0.014791119 1.309213e-38 328 228
-0.058508728 0.70999998 0.013693533 1.5673623e-38 273 229
-0.057102561 0.708 0.013654959 1.5673623e-38 274 229
-0.055703394 0.70599997 0.013616386 1.5120449e-38 275 229
-0.054311249 0.704 0.013577812 1.2816287e-38 276 229
-0.053076904 0.704 0.013577812 1.0419201e-38 277 229
-0.051621638 0.70099998 0.013519952 1.0144057e-38 278 229
-0.050392549 0.70099998 0.013519952 1.0144057e-38 279 229
-0.048882935 0.69700003 0.013442807 1.0327008e-38 280 229
-0.047660861 0.69700003 0.013442807 1.0050062e-38 281 229
-0.04617228 0.69300002 0.01336566 9.6820055e-39 282 229
-0.044827472 0.69099998 0.013327086 9.497973e-39 283 229
-0.043552797 0.69 0.0133078 9.4061277e-39 284 229
-0.042220265 0.68800002 0.013269227 1.0051497e-38 285 229
-0.041013971 0.68800002 0.013269227 1.0603572e-38 286 229
-0.039749816 0.68699998 0.013249939 8.2064873e-39 287 229
-0.038545277 0.68699998 0.013249939 6.9225616e-39 288 229
-0.037286382 0.68599999 0.013230653 6.6459761e-39 289 229
-0.036083598 0.68599999 0.013230653 6.829626e-39 290 229
-0.034880809 0.68599999 0.013230653 6.9218217e-39 291 229
-0.033678025 0.68599999 0.013230653 6.8303295e-39 292 229
-0.032380559 0.68400002 0.01319208 6.9225251e-39 293 229
-0.03118128 0.68400002 0.01319208 7.3824046e-39 294 229
-0.029982001 0.68400002 0.01319208 7.6593503e-39 295 229
-0.02878272 0.68400002 0.01319208 7.385594e-39 296 229
-0.027543113 0.68300003 0.013172794 7.2012027e-39 297 229
-0.026345588 0.68300003 0.013172794 6.8352873e-39 298 229
-0.02514806 0.68300003 0.013172794 6.5587046e-39 299 229
-0.023950534 0.68300003 0.013172794 6.4672278e-39 300 229
-0.022786319 0.68400002 0.01319208 6.3750336e-39 301 229
-0.02158704 0.68400002 0.01319208 6.4665104e-39 302 229
-0.020387759 0.68400002 0.01319208 6.3743161e-39 303 229
-0.01918848 0.68400002 0.01319208 6.5569109e-39 304 229
-0.0179892 0.68400002 0.01319208 6.5569109e-39 305 229
-0.016789921 0.68400002 0.01319208 6.9224593e-39 306 229
-0.01559064 0.68400002 0.01319208 7.0146535e-39 307 229
-0.01443344 0.68599999 0.013230653 7.4731135e-39 308 229
-0.013230653 0.68599999 0.013230653 7.3809193e-39 309 229
-0.012027865 0.68599999 0.013230653 7.2894453e-39 310 229
-0.010825079 0.68599999 0.013230653 7.9348147e-39 311 229
-0.0096363192 0.68699998 0.013249939 9.7730296e-39 312 229
-0.0084317802 0.68699998 0.013249939 1.1063768e-38 313 229
-0.0072272392 0.68699998 0.013249939 1.0602106e-38 314 229
-0.0060226996 0.68699998 0.013249939 1.0141128e-38 315 229
-0.0048181596 0.68699998 0.013249939 9.4953694e-39 316 229
-0.0036188802 0.68800002 0.013269227 8.2968276e-39 317 229
-0.0024125867 0.68800002 0.013269227 6.8295714e-39 318 229
-0.0012115532 0.69099998 0.013327086 7.1057981e-39 319 229
0 0.69099998 0.013327086 7.4742079e-39 320 229
0.0012168133 0.69400001 0.013384946 7.9355462e-39 321 229
0.0024336267 0.69400001 0.013384946 9.0379687e-39 322 229
0.0036714801 0.69800001 0.013462093 9.6833381e-39 323 229
0.0048953067 0.69800001 0.013462093 9.9563699e-39 324 229
0.006119133 0.69800001 0.013462093 9.7719787e-39 325 229
0.0073429602 0.69800001 0.013462093 9.6783705e-39 326 229
0.0085913334 0.69999999 0.013500666 1.0415936e-38 327 229
0.0098747732 0.704 0.013577812 1.2906667e-38 328 229
-0.058591139 0.71100003 0.0124662 1.5673623e-38 273 230
-0.057263866 0.70999998 0.012448666 1.5490311e-38 274 230
-0.055782299 0.70700002 0.012396066 1.4844941e-38 275 230
-0.054311249 0.704 0.012343466 1.2632972e-38 276 230
-0.053076904 0.704 0.012343466 1.0789059e-38 277 230
-0.051621638 0.70099998 0.012290866 1.0512119e-38 278 230
-0.050392549 0.70099998 0.012290866 1.0143337e-38 279 230
-0.048882935 0.69700003 0.012220734 9.0384339e-39 280 230
-0.047660861 0.69700003 0.012220734 9.3150222e-39 281 230
-0.04617228 0.69300002 0.012150601 9.7734851e-39 282 230
-0.044827472 0.69099998 0.012115533 9.6809293e-39 283 230
-0.043615919 0.69099998 0.012115533 9.4968884e-39 284 230
-0.042342998 0.69 0.012097999 1.0142258e-38 285 230
-0.041013971 0.68800002 0.012062933 1.0512104e-38 286 230
-0.039807681 0.68800002 0.012062933 8.1146574e-39 287 230
-0.038545277 0.68699998 0.012045399 7.0144041e-39 288 230
-0.037340738 0.68699998 0.012045399 6.7381773e-39 289 230
-0.036083598 0.68599999 0.012027865 6.8292757e-39 290 230
-0.034880809 0.68599999 0.012027865 6.9214713e-39 291 230
-0.033678025 0.68599999 0.012027865 6.9221748e-39 292 230
-0.032380559 0.68400002 0.0119928 6.8299792e-39 293 230
-0.03118128 0.68400002 0.0119928 7.3820515e-39 294 230
-0.029982001 0.68400002 0.0119928 7.3820515e-39 295 230
-0.02878272 0.68400002 0.0119928 7.10937e-39 296 230
-0.027583439 0.68400002 0.0119928 6.9253375e-39 297 230
-0.02638416 0.68400002 0.0119928 6.5587046e-39 298 230
-0.025184879 0.68400002 0.0119928 6.5587046e-39 299 230
-0.0239856 0.68400002 0.0119928 6.4672278e-39 300 230
-0.022786319 0.68400002 0.0119928 6.4672278e-39 301 230
-0.02158704 0.68400002 0.0119928 6.4665104e-39 302 230
-0.020387759 0.68400002 0.0119928 6.3743161e-39 303 230
-0.01918848 0.68400002 0.0119928 6.5565522e-39 304 230
-0.018041799 0.68599999 0.012027865 6.464358e-39 305 230
-0.016839013 0.68599999 0.012027865 7.1983245e-39 306 230
-0.015636226 0.68599999 0.012027865 7.1983245e-39 307 230
-0.01443344 0.68599999 0.012027865 7.5653077e-39 308 230
-0.013230653 0.68599999 0.012027865 7.3809193e-39 309 230
-0.012027865 0.68599999 0.012027865 7.013234e-39 310 230
-0.010840859 0.68699998 0.012045399 8.3961684e-39 311 230
-0.0096363192 0.68699998 0.012045399 1.060209e-38 312 230
-0.0084317802 0.68699998 0.012045399 1.1247459e-38 313 230
-0.0072377604 0.68800002 0.012062933 1.0601386e-38 314 230
-0.0060314666 0.68800002 0.012062933 9.3106474e-39 315 230
-0.0048251734 0.68800002 0.012062933 7.8405115e-39 316 230
-0.0036451798 0.69300002 0.012150601 7.2873378e-39 317 230
-0.00243012 0.69300002 0.012150601 7.013234e-39 318 230
-0.00121506 0.69300002 0.012150601 7.1054296e-39 319 230
0 0.69300002 0.012150601 7.2898265e-39 320 230
0.0012168133 0.69400001 0.012168133 7.9351959e-39 321 230
0.0024406398 0.69599998 0.0122032 8.7617518e-39 322 230
0.0036714801 0.69800001 0.012238266 9.2227299e-39 323 230
0.0048953067 0.69800001 0.012238266 9.7719787e-39 324 230
0.006119133 0.69800001 0.012238266 9.8641743e-39 325 230
0.0073429602 0.69800001 0.012238266 1.0321945e-38 326 230
0.0085913334 0.69999999 0.012273333 9.7687711e-39 327 230
-0.058508728 0.70999998 0.011203799 1.5489589e-38 273 231
-0.057263866 0.70999998 0.011203799 1.5489589e-38 274 231
-0.055861197 0.708 0.01117224 1.5028609e-38 275 231
-0.054465543 0.70599997 0.011140679 1.2540776e-38 276 231
-0.053227689 0.70599997 0.011140679 1.0604668e-38 277 231
-0.051842559 0.704 0.011109119 1.0879826e-38 278 231
-0.050392549 0.70099998 0.011061779 1.0326652e-38 279 231
-0.048953064 0.69800001 0.01101444 9.313223e-39 280 231
-0.047729239 0.69800001 0.01101444 9.6820055e-39 281 231
-0.04617228 0.69300002 0.010935539 9.4054214e-39 282 231
-0.044957221 0.69300002 0.010935539 9.4054214e-39 283 231
-0.043615919 0.69099998 0.01090398 9.4057745e-39 284 231
-0.042342998 0.69 0.010888199 1.014334e-38 285 231
-0.041133199 0.69 0.010888199 1.0697214e-38 286 231
-0.039807681 0.68800002 0.010856641 7.8391495e-39 287 231
-0.038545277 0.68699998 0.010840859 6.9218525e-39 288 231
-0.037340738 0.68699998 0.010840859 6.7378214e-39 289 231
-0.036136195 0.68699998 0.010840859 6.921121e-39 290 231
-0.034931656 0.68699998 0.010840859 6.921121e-39 291 231
-0.033678025 0.68599999 0.010825079 6.8303477e-39 292 231
-0.032475237 0.68599999 0.010825079 6.7381521e-39 293 231
-0.031272452 0.68599999 0.010825079 6.8306812e-39 294 231
-0.030069664 0.68599999 0.010825079 6.8306812e-39 295 231
-0.02886688 0.68599999 0.010825079 6.7413092e-39 296 231
-0.027583439 0.68400002 0.01079352 6.5572781e-39 297 231
-0.02638416 0.68400002 0.01079352 6.5587046e-39 298 231
-0.025184879 0.68400002 0.01079352 6.5587046e-39 299 231
-0.0239856 0.68400002 0.01079352 6.5587046e-39 300 231
-0.022786319 0.68400002 0.01079352 6.4665104e-39 301 231
-0.021650158 0.68599999 0.010825079 6.5576284e-39 302 231
-0.020447372 0.68599999 0.010825079 6.4650754e-39 303 231
-0.019244585 0.68599999 0.010825079 6.6476702e-39 304 231
-0.018041799 0.68599999 0.010825079 6.6476702e-39 305 231
-0.016839013 0.68599999 0.010825079 7.013936e-39 306 231
-0.015636226 0.68599999 0.010825079 7.013936e-39 307 231
-0.014454478 0.68699998 0.010840859 7.3819955e-39 308 231
-0.013249939 0.68699998 0.010840859 7.197607e-39 309 231
-0.012045399 0.68699998 0.010840859 7.6557349e-39 310 231
-0.010840859 0.68699998 0.010840859 9.4070932e-39 311 231
-0.0096363192 0.68699998 0.010840859 1.1244955e-38 312 231
-0.0084440531 0.68800002 0.010856641 1.1429705e-38 313 231
-0.0072377604 0.68800002 0.010856641 1.0141835e-38 314 231
-0.0060314666 0.68800002 0.010856641 8.3897575e-39 315 231
-0.0048251734 0.68800002 0.010856641 6.8299399e-39 316 231
-0.0036451798 0.69300002 0.010935539 6.8299399e-39 317 231
-0.00243012 0.69300002 0.010935539 7.1968994e-39 318 231
-0.00121506 0.69300002 0.010935539 7.0128668e-39 319 231
0 0.69400001 0.01095132 7.7490025e-39 320 231
0.0012203199 0.69599998 0.010982879 8.3021763e-39 321 231
0.0024441467 0.69700003 0.01099866 9.2202118e-39 322 231
0.0036714801 0.69800001 0.01101444 9.5886356e-39 323 231
0.0048953067 0.69800001 0.01101444 1.0138961e-38 324 231
0.006119133 0.69800001 0.01101444 1.0415547e-38 325 231
0.0073639993 0.69999999 0.011045999 1.0414138e-38 326 231
0.0086281532 0.70300001 0.01109334 9.1233989e-39 327 231
-0.058508728 0.70999998 0.0099589331 1.5673979e-38 273 232
-0.057263866 0.70999998 0.0099589331 1.5305919e-38 274 232
-0.055861197 0.708 0.0099308798 1.5029332e-38 275 232
-0.054465543 0.70599997 0.0099028256 1.2540776e-38 276 232
-0.053227689 0.70599997 0.0099028256 1.0051494e-38 277 232
-0.051842559 0.704 0.0098747732 1.0512119e-38 278 232
-0.050392549 0.70099998 0.0098326923 1.0327728e-38 279 232
-0.048953064 0.69800001 0.0097906133 9.5908889e-39 280 232
-0.047729239 0.69800001 0.0097906133 9.3139418e-39 281 232
-0.046238903 0.69400001 0.0097345067 9.2213931e-39 282 232
-0.044957221 0.69300002 0.0097204801 9.3135887e-39 283 232
-0.043615919 0.69099998 0.0096924258 9.497973e-39 284 232
-0.042404365 0.69099998 0.0096924258 1.0419571e-38 285 232
-0.041133199 0.69 0.0096783992 1.1064923e-38 286 232
-0.039807681 0.68800002 0.0096503468 7.8380775e-39 287 232
-0.038545277 0.68699998 0.0096363192 6.737471e-39 288 232
-0.037340738 0.68699998 0.0096363192 6.9215022e-39 289 232
-0.036136195 0.68699998 0.0096363192 6.9211238e-39 290 232
-0.034931656 0.68699998 0.0096363192 6.9211238e-39 291 232
-0.033727121 0.68699998 0.0096363192 6.6466795e-39 292 232
-0.032475237 0.68599999 0.0096222926 6.5544839e-39 293 232
-0.031272452 0.68599999 0.0096222926 6.5555377e-39 294 232
-0.030069664 0.68599999 0.0096222926 6.4633406e-39 295 232
-0.02886688 0.68599999 0.0096222926 6.741312e-39 296 232
-0.027664091 0.68599999 0.0096222926 6.5572809e-39 297 232
-0.026461305 0.68599999 0.0096222926 6.5587046e-39 298 232
-0.025258519 0.68599999 0.0096222926 6.5587046e-39 299 232
-0.024055731 0.68599999 0.0096222926 6.6498226e-39 300 232
-0.022852944 0.68599999 0.0096222926 6.6498226e-39 301 232
-0.021681719 0.68699998 0.0096363192 6.5565522e-39 302 232
-0.020447372 0.68599999 0.0096222926 6.464358e-39 303 232
-0.019244585 0.68599999 0.0096222926 6.9213831e-39 304 232
-0.018068098 0.68699998 0.0096363192 6.9213831e-39 305 232
-0.01686356 0.68699998 0.0096363192 7.0135773e-39 306 232
-0.015659019 0.68699998 0.0096363192 7.29016e-39 307 232
-0.014454478 0.68699998 0.0096363192 7.4731205e-39 308 232
-0.013249939 0.68699998 0.0096363192 8.302521e-39 309 232
-0.012045399 0.68699998 0.0096363192 9.4957225e-39 310 232
-0.010840859 0.68699998 0.0096363192 1.0233288e-38 311 232
-0.0096503468 0.68800002 0.0096503468 1.0601389e-38 312 232
-0.0084440531 0.68800002 0.0096503468 1.0509193e-38 313 232
-0.0072377604 0.68800002 0.0096503468 9.0372625e-39 314 232
-0.0060314666 0.68800002 0.0096503468 7.1933513e-39 315 232
-0.0048251734 0.68800002 0.0096503468 7.0121648e-39 316 232
-0.0036451798 0.69300002 0.0097204801 7.2883915e-39 317 232
-0.00243012 0.69300002 0.0097204801 7.1050919e-39 318 232
-0.0012168133 0.69400001 0.0097345067 7.3820389e-39 319 232
0 0.69599998 0.0097625591 8.2092997e-39 320 232
0.0012203199 0.69599998 0.0097625591 8.7624734e-39 321 232
0.0024476533 0.69800001 0.0097906133 1.0323701e-38 322 232
0.0036819996 0.69999999 0.0098186666 1.0508093e-38 323 232
0.0049093333 0.69999999 0.0098186666 1.0416629e-38 324 232
0.0061454331 0.70099998 0.0098326923 1.0416629e-38 325 232
0.0073745195 0.70099998 0.0098326923 9.4025067e-39 326 232
0.0086281532 0.70300001 0.0098607466 8.2043222e-39 327 232
-0.058591139 0.71100003 0.0087263398 1.5489945e-38 273 233
-0.057263866 0.70999998 0.0087140659 1.567326e-38 274 233
-0.055861197 0.708 0.008689519 1.548851e-38 275 233
-0.054465543 0.70599997 0.0086649731 1.3093228e-38 276 233
-0.053227689 0.70599997 0.0086649731 1.0511751e-38 277 233
-0.051842559 0.704 0.0086404262 1.1062772e-38 278 233
-0.050536323 0.70300001 0.0086281532 1.1062772e-38 279 233
-0.049093332 0.69999999 0.0085913334 9.8645947e-39 280 233
-0.047729239 0.69800001 0.0085667865 9.8645947e-39 281 233
-0.046238903 0.69400001 0.0085176928 9.4054214e-39 282 233
-0.044957221 0.69300002 0.0085054198 9.4054214e-39 283 233
-0.043742158 0.69300002 0.0085054198 9.1313456e-39 284 233
-0.042404365 0.69099998 0.008480873 1.0238053e-38 285 233
-0.041192811 0.69099998 0.008480873 1.106529e-38 286 233
-0.0399234 0.69 0.0084686 8.0228345e-39 287 233
-0.038601387 0.68800002 0.0084440531 7.1040984e-39 288 233
-0.037340738 0.68699998 0.0084317802 7.2884896e-39 289 233
-0.036136195 0.68699998 0.0084317802 7.1055081e-39 290 233
-0.034931656 0.68699998 0.0084317802 7.1055081e-39 291 233
-0.033727121 0.68699998 0.0084317802 6.8303477e-39 292 233
-0.032522578 0.68699998 0.0084317802 6.7381521e-39 293 233
-0.031272452 0.68599999 0.0084195063 6.7377667e-39 294 233
-0.030069664 0.68599999 0.0084195063 6.7377667e-39 295 233
-0.02886688 0.68599999 0.0084195063 6.4657985e-39 296 233
-0.027664091 0.68599999 0.0084195063 6.3736029e-39 297 233
-0.026461305 0.68599999 0.0084195063 6.4665104e-39 298 233
-0.025258519 0.68599999 0.0084195063 6.5587046e-39 299 233
-0.024055731 0.68599999 0.0084195063 6.6498226e-39 300 233
-0.022852944 0.68599999 0.0084195063 6.5576284e-39 301 233
-0.021681719 0.68699998 0.0084317802 6.6473115e-39 302 233
-0.020477179 0.68699998 0.0084317802 6.4632818e-39 303 233
-0.019272638 0.68699998 0.0084317802 7.0121424e-39 304 233
-0.018068098 0.68699998 0.0084317802 7.1043366e-39 305 233
-0.01686356 0.68699998 0.0084317802 7.197607e-39 306 233
-0.015659019 0.68699998 0.0084317802 7.197607e-39 307 233
-0.014454478 0.68699998 0.0084317802 7.8408492e-39 308 233
-0.013249939 0.68699998 0.0084317802 9.039391e-39 309 233
-0.012045399 0.68699998 0.0084317802 1.0693209e-38 310 233
-0.010840859 0.68699998 0.0084317802 1.0877602e-38 311 233
-0.0096503468 0.68800002 0.0084440531 1.0691781e-38 312 233
-0.0084440531 0.68800002 0.0084440531 1.004677e-38 313 233
-0.0072377604 0.68800002 0.0084440531 8.3003981e-39 314 233
-0.0060489997 0.69 0.0084686 7.6550287e-39 315 233
-0.0048391996 0.69 0.0084686 8.299284e-39 316 233
-0.0036451798 0.69300002 0.0085054198 8.6680666e-39 317 233
-0.00243012 0.69300002 0.0085054198 8.6673883e-39 318 233
-0.0012168133 0.69400001 0.0085176928 9.1283665e-39 319 233
0 0.69599998 0.0085422397 8.944376e-39 320 233
0.0012220733 0.69700003 0.0085545136 9.221323e-39 321 233
0.0024546667 0.69999999 0.0085913334 1.0139332e-38 322 233
0.0036819996 0.69999999 0.0085913334 1.041592e-38 323 233
0.0049093333 0.69999999 0.0085913334 1.0967297e-38 324 233
0.0061454331 0.70099998 0.0086036054 1.0044982e-38 325 233
0.0073745195 0.70099998 0.0086036054 7.4685691e-39 326 233
0.0086036054 0.70099998 0.0086036054 7.3763735e-39 327 233
-0.057263866 0.70999998 0.0074691991 1.5306998e-38 274 234
-0.055861197 0.708 0.0074481601 1.5030053e-38 275 234
-0.054542694 0.70700002 0.0074376399 1.3460935e-38 276 234
-0.053227689 0.70599997 0.0074271196 1.1801053e-38 277 234
-0.051842559 0.704 0.0074060797 1.170742e-38 278 234
-0.050608214 0.704 0.0074060797 1.1154605e-38 279 234
-0.049163464 0.70099998 0.0073745195 9.0369892e-39 280 234
-0.047729239 0.69800001 0.0073429602 9.3135761e-39 281 234
-0.046438783 0.69700003 0.00733244 9.3139418e-39 282 234
-0.045022093 0.69400001 0.0073008798 9.4061375e-39 283 234
-0.043742158 0.69300002 0.0072903596 9.6820027e-39 284 234
-0.042404365 0.69099998 0.0072693196 1.0419568e-38 285 234
-0.041192811 0.69099998 0.0072693196 1.0881625e-38 286 234
-0.039981257 0.69099998 0.0072693196 8.3001472e-39 287 234
-0.038713597 0.69 0.0072587994 7.7487517e-39 288 234
-0.037395094 0.68800002 0.0072377604 7.6561973e-39 289 234
-0.0361888 0.68800002 0.0072377604 7.2898993e-39 290 234
-0.034931656 0.68699998 0.0072272392 7.1977037e-39 291 234
-0.033727121 0.68699998 0.0072272392 6.9225433e-39 292 234
-0.032522578 0.68699998 0.0072272392 6.8303477e-39 293 234
-0.031318039 0.68699998 0.0072272392 6.7388555e-39 294 234
-0.030113498 0.68699998 0.0072272392 6.5544643e-39 295 234
-0.028908957 0.68699998 0.0072272392 6.7398869e-39 296 234
-0.027664091 0.68599999 0.0072167199 6.6476913e-39 297 234
-0.026461305 0.68599999 0.0072167199 6.7412994e-39 298 234
-0.025258519 0.68599999 0.0072167199 6.7412994e-39 299 234
-0.024055731 0.68599999 0.0072167199 6.5572697e-39 300 234
-0.022852944 0.68599999 0.0072167199 6.4650754e-39 301 234
-0.021681719 0.68699998 0.0072272392 6.8295476e-39 302 234
-0.020477179 0.68699998 0.0072272392 6.6455178e-39 303 234
-0.019272638 0.68699998 0.0072272392 7.011785e-39 304 234
-0.018068098 0.68699998 0.0072272392 7.1961763e-39 305 234
-0.01686356 0.68699998 0.0072272392 7.1969022e-39 306 234
-0.015659019 0.68699998 0.0072272392 7.8422716e-39 307 234
-0.014454478 0.68699998 0.0072272392 8.944348e-39 308 234
-0.013249939 0.68699998 0.0072272392 1.0142891e-38 309 234
-0.012045399 0.68699998 0.0072272392 1.0601753e-38 310 234
-0.010840859 0.68699998 0.0072272392 1.0509556e-38 311 234
-0.0096503468 0.68800002 0.0072377604 1.041557e-38 312 234
-0.0084440531 0.68800002 0.0072377604 1.0138983e-38 313 234
-0.0072377604 0.68800002 0.0072377604 8.6685024e-39 314 234
-0.0060489997 0.69 0.0072587994 8.9447291e-39 315 234
-0.0048391996 0.69 0.0072587994 9.0376324e-39 316 234
-0.0036451798 0.69300002 0.0072903596 9.2220237e-39 317 234
-0.00243012 0.69300002 0.0072903596 1.004677e-38 318 234
-0.0012168133 0.69400001 0.0073008798 1.004677e-38 319 234
0 0.69700003 0.00733244 9.0358724e-39 320 234
0.0012238267 0.69800001 0.0073429602 8.7596442e-39 321 234
0.0024546667 0.69999999 0.0073639993 9.4950583e-39 322 234
0.0036819996 0.69999999 0.0073639993 1.050921e-38 323 234
0.0049163462 0.70099998 0.0073745195 1.0691083e-38 324 234
0.0061454331 0.70099998 0.0073745195 7.7404644e-39 325 234
0.0073745195 0.70099998 0.0073745195 4.7988587e-39 326 234
0.0086036054 0.70099998 0.0073745195 6.1821519e-39 327 234
-0.056018997 0.70999998 0.0062243328 1.5121532e-38 275 235
-0.054542694 0.70700002 0.0061980332 1.3000678e-38 276 235
-0.053227689 0.70599997 0.0061892662 1.1340798e-38 277 235
-0.051842559 0.704 0.0061717331 1.1432628e-38 278 235
-0.050608214 0.704 0.0061717331 1.1340432e-38 279 235
-0.049163464 0.70099998 0.0061454331 1.097093e-38 280 235
-0.047729239 0.69800001 0.006119133 1.032556e-38 281 235
-0.046438783 0.69700003 0.0061103669 9.4986904e-39 282 235
-0.045022093 0.69400001 0.0060840664 9.3142978e-39 283 235
-0.043742158 0.69300002 0.0060753003 9.4968912e-39 284 235
-0.042527102 0.69300002 0.0060753003 1.0234456e-38 285 235
