# .PCD v.7 - Point Cloud Data file format
FIELDS x y z rgb imX imY
SIZE 4 4 4 4 4 4
TYPE F F F F F F
COUNT 1 1 1 1 1 1
WIDTH 850
HEIGHT 1
VIEWPOINT 0 0 0 1 0 0 0
POINTS 850
DATA ascii
0.0228284 0.62 0.076094665 1.5775552e-38 341 170
0.023876892 0.61900002 0.075971931 1.5958864e-38 342 170
0.024962207 0.61900002 0.075971931 1.5498246e-38 343 170
0.02604752 0.61900002 0.075971931 1.5313129e-38 344 170
0.027132833 0.61900002 0.075971931 1.5589356e-38 345 170
0.028218146 0.61900002 0.075971931 1.5772305e-38 346 170
0.029303461 0.61900002 0.075971931 1.5311328e-38 347 170
0.030388774 0.61900002 0.075971931 1.5678672e-38 348 170
0.031474087 0.61900002 0.075971931 1.5678672e-38 349 170
0.032612 0.62 0.076094665 1.5861614e-38 350 170
0.033699065 0.62 0.076094665 1.5769418e-38 351 170
0.034842238 0.62099999 0.076217398 1.5860888e-38 352 170
0.035988916 0.62199998 0.076340124 1.5584661e-38 353 170
0.037079491 0.62199998 0.076340124 1.5582506e-38 354 170
0.038231432 0.62300003 0.076462865 1.5029332e-38 355 170
0.03938688 0.62400001 0.076585598 1.5401362e-38 356 170
0.011010934 0.62800002 0.07597544 1.6329091e-38 330 171
0.012092739 0.62699997 0.07585445 1.6606038e-38 331 171
0.01315 0.625 0.0756125 1.6882265e-38 332 171
0.01422304 0.62400001 0.075491518 1.7158853e-38 333 171
0.01531712 0.62400001 0.075491518 1.697626e-38 334 171
0.0163849 0.62300003 0.075370543 1.697626e-38 335 171
0.017449172 0.62199998 0.075249553 1.6883697e-38 336 171
0.018509939 0.62099999 0.075128578 1.6791502e-38 337 171
0.019598758 0.62099999 0.075128578 1.6974092e-38 338 171
0.020654265 0.62 0.075007595 1.6697505e-38 339 171
0.021741332 0.62 0.075007595 1.6237249e-38 340 171
0.0228284 0.62 0.075007595 1.6329445e-38 341 171
0.023915466 0.62 0.075007595 1.6694631e-38 342 171
0.024962207 0.61900002 0.07488662 1.6326208e-38 343 171
0.02604752 0.61900002 0.07488662 1.6049615e-38 344 171
0.027132833 0.61900002 0.07488662 1.6141811e-38 345 171
0.028218146 0.61900002 0.07488662 1.6049252e-38 346 171
0.029303461 0.61900002 0.07488662 1.5864501e-38 347 171
0.030437866 0.62 0.075007595 1.6324041e-38 348 171
0.03152493 0.62 0.075007595 1.6139648e-38 349 171
0.032612 0.62 0.075007595 1.6412987e-38 350 171
0.033753417 0.62099999 0.075128578 1.6320791e-38 351 171
0.034898344 0.62199998 0.075249553 1.5953084e-38 352 171
0.035988916 0.62199998 0.075249553 1.5768693e-38 353 171
0.037139107 0.62300003 0.075370543 1.5583225e-38 354 171
0.038231432 0.62300003 0.075370543 1.5214803e-38 355 171
0.03938688 0.62400001 0.075491518 1.5124772e-38 356 171
0.011010934 0.62800002 0.074874349 1.6514206e-38 330 172
0.012092739 0.62699997 0.074755117 1.6791151e-38 331 172
0.01315 0.625 0.074516661 1.6514932e-38 332 172
0.01422304 0.62400001 0.074397437 1.6607486e-38 333 172
0.01531712 0.62400001 0.074397437 1.6608199e-38 334 172
0.0163849 0.62300003 0.074278213 1.6700396e-38 335 172
0.017449172 0.62199998 0.074158981 1.7159572e-38 336 172
0.018539745 0.62199998 0.074158981 1.6975541e-38 337 172
0.019630319 0.62199998 0.074158981 1.669895e-38 338 172
0.020687578 0.62099999 0.074039757 1.669895e-38 339 172
0.021776399 0.62099999 0.074039757 1.7066288e-38 340 172
0.022865219 0.62099999 0.074039757 1.6881897e-38 341 172
0.023954039 0.62099999 0.074039757 1.68801e-38 342 172
0.025002534 0.62 0.073920533 1.6511319e-38 343 172
0.026089599 0.62 0.073920533 1.6511319e-38 344 172
0.027176665 0.62 0.073920533 1.6603515e-38 345 172
0.028263735 0.62 0.073920533 1.6509517e-38 346 172
0.029350799 0.62 0.073920533 1.6325126e-38 347 172
0.03048696 0.62099999 0.074039757 1.6416956e-38 348 172
0.031575777 0.62099999 0.074039757 1.6232564e-38 349 172
0.032664597 0.62099999 0.074039757 1.6230397e-38 350 172
0.033807773 0.62199998 0.074158981 1.6045647e-38 351 172
0.034898344 0.62199998 0.074158981 1.6135677e-38 352 172
0.036046781 0.62300003 0.074278213 1.5951286e-38 353 172
0.037139107 0.62300003 0.074278213 1.5215522e-38 354 172
0.038231432 0.62300003 0.074278213 1.5122967e-38 355 172
0.03938688 0.62400001 0.074397437 1.4756711e-38 356 172
0.012092739 0.62699997 0.073655777 1.7252855e-38 331 173
0.01315 0.625 0.07342083 1.7528363e-38 332 173
0.01422304 0.62400001 0.073303364 1.6975191e-38 333 173
0.01531712 0.62400001 0.073303364 1.6791514e-38 334 173
0.0163849 0.62300003 0.073185883 1.6607483e-38 335 173
0.017449172 0.62199998 0.07306841 1.6698603e-38 336 173
0.018539745 0.62199998 0.07306841 1.6606048e-38 337 173
0.019630319 0.62199998 0.07306841 1.6697878e-38 338 173
0.020720892 0.62199998 0.07306841 1.6697878e-38 339 173
0.021811465 0.62199998 0.07306841 1.6423442e-38 340 173
0.022902038 0.62199998 0.07306841 1.6331247e-38 341 173
0.023954039 0.62099999 0.072950937 1.651312e-38 342 173
0.02504286 0.62099999 0.072950937 1.6420924e-38 343 173
0.026131678 0.62099999 0.072950937 1.6419842e-38 344 173
0.027220499 0.62099999 0.072950937 1.6235811e-38 345 173
0.028309319 0.62099999 0.072950937 1.6234725e-38 346 173
0.02939814 0.62099999 0.072950937 1.5958498e-38 347 173
0.03048696 0.62099999 0.072950937 1.5956698e-38 348 173
0.031575777 0.62099999 0.072950937 1.5956698e-38 349 173
0.032664597 0.62099999 0.072950937 1.6046728e-38 350 173
0.033807773 0.62199998 0.07306841 1.5862337e-38 351 173
0.034898344 0.62199998 0.07306841 1.6137479e-38 352 173
0.036046781 0.62300003 0.073185883 1.6229675e-38 353 173
0.037139107 0.62300003 0.073185883 1.5951283e-38 354 173
0.038231432 0.62300003 0.073185883 1.5305914e-38 355 173
0.039323762 0.62300003 0.073185883 1.3743633e-38 356 173
0.01315 0.625 0.072324999 1.65153e-38 332 174
0.01422304 0.62400001 0.072209284 1.6976278e-38 333 174
0.01531712 0.62400001 0.072209284 1.697591e-38 334 174
0.0163849 0.62300003 0.072093561 1.6791517e-38 335 174
0.017477227 0.62300003 0.072093561 1.6607483e-38 336 174
0.018539745 0.62199998 0.071977831 1.6515288e-38 337 174
0.019630319 0.62199998 0.071977831 1.6607836e-38 338 174
0.020720892 0.62199998 0.071977831 1.6515641e-38 339 174
0.021811465 0.62199998 0.071977831 1.6515635e-38 340 174
0.022902038 0.62199998 0.071977831 1.6423439e-38 341 174
0.023992613 0.62199998 0.071977831 1.6696432e-38 342 174
0.02504286 0.62099999 0.071862116 1.6604236e-38 343 174
0.026131678 0.62099999 0.071862116 1.6602436e-38 344 174
0.027220499 0.62099999 0.071862116 1.6418405e-38 345 174
0.028309319 0.62099999 0.071862116 1.650987e-38 346 174
0.02939814 0.62099999 0.071862116 1.6417674e-38 347 174
0.03048696 0.62099999 0.071862116 1.6141442e-38 348 174
0.031575777 0.62099999 0.071862116 1.5957049e-38 349 174
0.032664597 0.62099999 0.071862116 1.5955605e-38 350 174
0.033807773 0.62199998 0.071977831 1.5863409e-38 351 174
0.034898344 0.62199998 0.071977831 1.6597008e-38 352 174
0.036046781 0.62300003 0.072093561 1.5582857e-38 353 174
0.037139107 0.62300003 0.072093561 1.4567982e-38 354 174
0.038231432 0.62300003 0.072093561 1.3092851e-38 355 174
0.01531712 0.62400001 0.071115203 1.6790798e-38 334 175
0.0163849 0.62300003 0.071001239 1.7343972e-38 335 175
0.017477227 0.62300003 0.071001239 1.761983e-38 336 175
0.018569553 0.62300003 0.071001239 1.7435799e-38 337 175
0.019630319 0.62199998 0.070887268 1.7436871e-38 338 175
0.020720892 0.62199998 0.070887268 1.7344675e-38 339 175
0.021811465 0.62199998 0.070887268 1.7159207e-38 340 175
0.022902038 0.62199998 0.070887268 1.706701e-38 341 175
0.023992613 0.62199998 0.070887268 1.715741e-38 342 175
0.02504286 0.62099999 0.070773296 1.6788629e-38 343 175
0.026131678 0.62099999 0.070773296 1.6787186e-38 344 175
0.027264331 0.62199998 0.070887268 1.6694631e-38 345 175
0.028309319 0.62099999 0.070773296 1.6970127e-38 346 175
0.02939814 0.62099999 0.070773296 1.6877931e-38 347 175
0.030536054 0.62199998 0.070887268 1.6969758e-38 348 175
0.031626627 0.62199998 0.070887268 1.669317e-38 349 175
0.032717198 0.62199998 0.070887268 1.6506255e-38 350 175
0.033807773 0.62199998 0.070887268 1.5584659e-38 351 175
0.034954455 0.62300003 0.071001239 1.4844926e-38 352 175
0.036046781 0.62300003 0.071001239 1.2171252e-38 353 175
0.037139107 0.62300003 0.071001239 9.1295183e-39 354 175
0.01531712 0.62400001 0.070021123 1.2732034e-38 334 176
0.0163849 0.62300003 0.069908909 1.4299718e-38 335 176
0.017477227 0.62300003 0.069908909 1.5130551e-38 336 176
0.018569553 0.62300003 0.069908909 1.577592e-38 337 176
0.019661881 0.62300003 0.069908909 1.6236893e-38 338 176
0.020720892 0.62199998 0.069796689 1.6329447e-38 339 176
0.021811465 0.62199998 0.069796689 1.642164e-38 340 176
0.022902038 0.62199998 0.069796689 1.6606033e-38 341 176
0.023992613 0.62199998 0.069796689 1.6971577e-38 342 176
0.025083186 0.62199998 0.069796689 1.6602436e-38 343 176
0.026173757 0.62199998 0.069796689 1.6509154e-38 344 176
0.027264331 0.62199998 0.069796689 1.6324763e-38 345 176
0.028354904 0.62199998 0.069796689 1.6230759e-38 346 176
0.029445477 0.62199998 0.069796689 1.5677944e-38 347 176
0.030536054 0.62199998 0.069796689 1.5767971e-38 348 176
0.031626627 0.62199998 0.069796689 1.5030406e-38 349 176
0.032717198 0.62199998 0.069796689 1.3829695e-38 350 176
0.033807773 0.62199998 0.069796689 1.2262369e-38 351 176
0.034954455 0.62300003 0.069908909 1.2164418e-38 352 176
0.036104642 0.62400001 0.070021123 9.9513645e-39 353 176
0.0164112 0.62400001 0.068927035 9.0441989e-39 335 177
0.017477227 0.62300003 0.06881658 9.7853695e-39 336 177
0.018569553 0.62300003 0.06881658 1.1076108e-38 337 177
0.019661881 0.62300003 0.06881658 1.2917137e-38 338 177
0.020754207 0.62300003 0.06881658 1.3746898e-38 339 177
0.021846535 0.62300003 0.06881658 1.4300066e-38 340 177
0.022938859 0.62300003 0.06881658 1.4577011e-38 341 177
0.024031186 0.62300003 0.06881658 1.5126583e-38 342 177
0.025123514 0.62300003 0.06881658 1.4850356e-38 343 177
0.02621584 0.62300003 0.06881658 1.5032575e-38 344 177
0.027264331 0.62199998 0.06870611 1.4663794e-38 345 177
0.028354904 0.62199998 0.06870611 1.4293923e-38 346 177
0.029445477 0.62199998 0.06870611 1.3187215e-38 347 177
0.030536054 0.62199998 0.06870611 1.2357084e-38 348 177
0.031626627 0.62199998 0.06870611 1.0697564e-38 349 177
0.032717198 0.62199998 0.06870611 8.760024e-39 350 177
0.018599359 0.62400001 0.067832954 6.2797719e-39 337 178
0.019661881 0.62300003 0.067724258 7.1055851e-39 338 178
0.020754207 0.62300003 0.067724258 7.1981409e-39 339 178
0.021846535 0.62300003 0.067724258 8.1211692e-39 340 178
0.022975679 0.62400001 0.067832954 8.7665386e-39 341 178
0.024031186 0.62300003 0.067724258 8.6754094e-39 342 178
0.025123514 0.62300003 0.067724258 8.8598006e-39 343 178
0.02621584 0.62300003 0.067724258 9.6827075e-39 344 178
0.027308168 0.62300003 0.067724258 9.0373381e-39 345 178
0.028400492 0.62300003 0.067724258 8.4837958e-39 346 178
0.029492822 0.62300003 0.067724258 8.1146546e-39 347 178
0.030536054 0.62199998 0.067615546 7.0147838e-39 348 178
0.031626627 0.62199998 0.067615546 7.5679576e-39 349 178
0.019661881 0.62300003 0.066631928 5.9088188e-39 338 179
0.020754207 0.62300003 0.066631928 5.540395e-39 339 179
0.021881601 0.62400001 0.066738874 5.3574485e-39 340 179
0.022975679 0.62400001 0.066738874 5.6336766e-39 341 179
0.02406976 0.62400001 0.066738874 6.1843295e-39 342 179
0.025163841 0.62400001 0.066738874 6.3690795e-39 343 179
0.026257919 0.62400001 0.066738874 6.5520232e-39 344 179
0.027352 0.62400001 0.066738874 6.5520232e-39 345 179
0.02844608 0.62400001 0.066738874 6.2772286e-39 346 179
0.029492822 0.62300003 0.066631928 6.5541742e-39 347 179
0.030585146 0.62300003 0.066631928 7.1077137e-39 348 179
0.021881601 0.62400001 0.065644801 1.383331e-38 340 180
0.022975679 0.62400001 0.065644801 1.3925507e-38 341 180
0.02406976 0.62400001 0.065644801 1.401518e-38 342 180
0.025163841 0.62400001 0.065644801 1.3738595e-38 343 180
0.0263 0.625 0.065749995 1.3463803e-38 344 180
0.027395833 0.625 0.065749995 1.3556358e-38 345 180
0.028582839 0.62699997 0.065960392 1.3741468e-38 346 180
0.022975679 0.62400001 0.06455072 1.5677944e-38 341 181
0.02406976 0.62400001 0.06455072 1.5399916e-38 342 181
0.025163841 0.62400001 0.06455072 1.4846743e-38 343 181
0.049486078 0.67199999 -0.011782399 7.0215156e-39 362 250
0.050588924 0.671 -0.011764866 7.1137113e-39 363 250
0.051765412 0.671 -0.011764866 7.3902785e-39 364 250
0.048235953 0.671 -0.012941353 7.1119162e-39 361 251
0.049412437 0.671 -0.012941353 7.2970109e-39 362 251
0.050588924 0.671 -0.012941353 7.5735964e-39 363 251
0.051765412 0.671 -0.012941353 7.7586883e-39 364 251
0.053020798 0.67199999 -0.012960639 7.9434397e-39 365 251
0.054360349 0.67400002 -0.012999214 8.954712e-39 366 251
-0.0011922666 0.68000001 -0.014307199 1.0063208e-38 319 252
0 0.68000001 -0.014307199 1.0613876e-38 320 252
0.048235953 0.671 -0.01411784 7.6629222e-39 361 252
0.049412437 0.671 -0.01411784 7.849442e-39 362 252
0.050664317 0.67199999 -0.01413888 8.0338333e-39 363 252
0.051842555 0.67199999 -0.01413888 8.3104174e-39 364 252
0.053020798 0.67199999 -0.01413888 8.4948086e-39 365 252
0.054360349 0.67400002 -0.01418096 8.4040577e-39 366 252
0.055706903 0.676 -0.014223038 7.9434397e-39 367 252
-0.0023845332 0.68000001 -0.015499466 1.0247958e-38 318 253
-0.0011922666 0.68000001 -0.015499466 1.0247958e-38 319 253
0 0.67900002 -0.015476674 1.0433791e-38 320 253
0.0011887599 0.67799997 -0.015453878 9.9728128e-39 321 253
0.0023775198 0.67799997 -0.015453878 1.0062494e-38 322 253
0.0035294599 0.671 -0.015294326 9.7855474e-39 323 253
0.0046989331 0.67000002 -0.015271533 8.9593601e-39 324 253
0.0058736666 0.67000002 -0.015271533 8.590579e-39 325 253
0.0070483997 0.67000002 -0.015271533 8.86644e-39 326 253
0.0081985854 0.66799998 -0.015225946 7.8526524e-39 327 253
0.0093698129 0.66799998 -0.015225946 7.3913323e-39 328 253
0.01054104 0.66799998 -0.015225946 7.2991367e-39 329 253
0.020734919 0.65700001 -0.01497522 7.1184589e-39 338 253
0.021820232 0.65499997 -0.014929632 6.4730895e-39 339 253
0.022968665 0.65499997 -0.014929632 6.4741601e-39 340 253
0.049486078 0.67199999 -0.01531712 8.1274554e-39 362 253
0.050664317 0.67199999 -0.01531712 8.2196511e-39 363 253
0.051842555 0.67199999 -0.01531712 8.6788271e-39 364 253
0.053178601 0.67400002 -0.015362706 8.6788271e-39 365 253
0.054441001 0.67500001 -0.0153855 8.4948114e-39 366 253
0.055706903 0.676 -0.015408293 8.7713997e-39 367 253
-0.0023845332 0.68000001 -0.016691733 1.0433785e-38 318 254
-0.0011905134 0.67900002 -0.016667187 1.0065362e-38 319 254
0 0.676 -0.016593546 9.8820338e-39 320 254
0.0011852533 0.676 -0.016593546 9.6980027e-39 321 254
0.0023564799 0.67199999 -0.01649536 9.7891025e-39 322 254
0.0035294599 0.671 -0.016470812 9.6047113e-39 323 254
0.0046989331 0.67000002 -0.016446266 9.145524e-39 324 254
0.0058736666 0.67000002 -0.016446266 9.145524e-39 325 254
0.0070273597 0.66799998 -0.016397171 8.9607768e-39 326 254
0.0081985854 0.66799998 -0.016397171 8.4076114e-39 327 254
0.0093698129 0.66799998 -0.016397171 7.854446e-39 328 254
0.01054104 0.66799998 -0.016397171 7.854446e-39 329 254
0.011712266 0.66799998 -0.016397171 8.2185594e-39 330 254
0.012864206 0.667 -0.016372627 8.1263652e-39 331 254
0.014033679 0.667 -0.016372627 7.4831944e-39 332 254
0.020734919 0.65700001 -0.01612716 8.5903309e-39 338 254
0.021820232 0.65499997 -0.016078066 8.8665577e-39 339 254
0.022968665 0.65499997 -0.016078066 8.9576813e-39 340 254
0.032499783 0.662 -0.016249891 9.3264316e-39 348 254
0.033609647 0.66100001 -0.016225345 9.694854e-39 349 254
0.0347686 0.66100001 -0.016225345 1.0062548e-38 350 254
0.049486078 0.67199999 -0.01649536 8.9536162e-39 362 254
0.050965894 0.676 -0.016593546 8.9536162e-39 363 254
0.052151144 0.676 -0.016593546 8.5877077e-39 364 254
0.053336397 0.676 -0.016593546 8.5877077e-39 365 254
0.054521654 0.676 -0.016593546 8.7699662e-39 366 254
0.055871718 0.67799997 -0.016642639 9.600087e-39 367 254
-0.0011905134 0.67900002 -0.017857701 9.8816835e-39 319 255
0 0.676 -0.017778801 9.698353e-39 320 255
0.0011817467 0.67400002 -0.0177262 9.6061574e-39 321 255
0.0023564799 0.67199999 -0.017673599 9.2388028e-39 322 255
0.0035294599 0.671 -0.0176473 9.0544116e-39 323 255
0.0046989331 0.67000002 -0.017620999 8.9625705e-39 324 255
0.0058736666 0.67000002 -0.017620999 8.9625705e-39 325 255
0.0070273597 0.66799998 -0.017568398 8.9625705e-39 326 255
0.0081985854 0.66799998 -0.017568398 8.9625705e-39 327 255
0.0093698129 0.66799998 -0.017568398 9.2359245e-39 328 255
0.01054104 0.66799998 -0.017568398 8.8671476e-39 329 255
0.011712266 0.66799998 -0.017568398 8.2221468e-39 330 255
0.012864206 0.667 -0.0175421 7.8533699e-39 331 255
0.014012639 0.66600001 -0.017515799 7.2094578e-39 332 255
0.015111978 0.66299999 -0.017436899 8.2239699e-39 333 255
0.016274439 0.66299999 -0.017436899 1.0430232e-38 334 255
0.0174632 0.66399997 -0.0174632 1.0153646e-38 335 255
0.018627413 0.66399997 -0.0174632 9.0512895e-39 336 255
0.019732011 0.662 -0.017410601 9.4197118e-39 337 255
0.02076648 0.65799999 -0.017305398 9.8789146e-39 338 255
0.021886859 0.65700001 -0.0172791 1.0432088e-38 339 255
0.023038799 0.65700001 -0.0172791 1.0706161e-38 340 255
0.024374841 0.662 -0.017410601 1.0982388e-38 341 255
0.025535546 0.662 -0.017410601 1.0982744e-38 342 255
0.026655925 0.66100001 -0.0173843 1.107494e-38 343 255
0.02781488 0.66100001 -0.0173843 1.0611065e-38 344 255
0.028973831 0.66100001 -0.0173843 9.9656956e-39 345 255
0.030132787 0.66100001 -0.0173843 9.1416816e-39 346 255
0.031339079 0.662 -0.017410601 9.3264316e-39 347 255
0.032499783 0.662 -0.017410601 9.6019395e-39 348 255
0.033609647 0.66100001 -0.0173843 9.8781663e-39 349 255
0.0347686 0.66100001 -0.0173843 1.0152943e-38 350 255
0.036036257 0.66299999 -0.017436899 9.9685514e-39 351 255
0.037198719 0.66299999 -0.017436899 9.3252952e-39 352 255
0.038419038 0.66399997 -0.0174632 7.8498049e-39 353 255
0.039583251 0.66399997 -0.0174632 8.4011542e-39 354 255
0.040747464 0.66399997 -0.0174632 8.4933485e-39 355 255
0.04830784 0.67199999 -0.017673599 9.504269e-39 361 255
0.049486078 0.67199999 -0.017673599 8.8628527e-39 362 255
0.050664317 0.67199999 -0.017673599 8.770657e-39 363 255
0.052305438 0.67799997 -0.0178314 8.7713759e-39 364 255
0.053494196 0.67799997 -0.0178314 8.8635715e-39 365 255
0.054682959 0.67799997 -0.0178314 8.6774174e-39 366 255
0.055954125 0.67900002 -0.017857701 1.0337299e-38 367 255
0.057144642 0.67900002 -0.017857701 1.4935269e-38 368 255
-0.0011922666 0.68000001 -0.019076265 9.9735134e-39 319 256
0 0.67900002 -0.019048214 9.5153827e-39 320 256
0.0011817467 0.67400002 -0.018907947 9.3313516e-39 321 256
0.0023564799 0.67199999 -0.018851839 9.1473176e-39 322 256
0.0035294599 0.671 -0.018823786 9.0551234e-39 323 256
0.0047059464 0.671 -0.018823786 9.2387944e-39 324 256
0.0058736666 0.67000002 -0.018795732 9.2387944e-39 325 256
0.0070483997 0.67000002 -0.018795732 9.0554821e-39 326 256
0.0082231332 0.67000002 -0.018795732 9.0554821e-39 327 256
0.0093698129 0.66799998 -0.018739626 9.3302712e-39 328 256
0.01054104 0.66799998 -0.018739626 9.3302712e-39 329 256
0.011712266 0.66799998 -0.018739626 9.5121485e-39 330 256
0.012864206 0.667 -0.018711573 9.4199543e-39 331 256
0.014012639 0.66600001 -0.018683519 9.1430325e-39 332 256
0.015111978 0.66299999 -0.018599359 9.2352295e-39 333 256
0.016274439 0.66299999 -0.018599359 1.153369e-38 334 256
0.0174632 0.66399997 -0.018627413 1.153369e-38 335 256
0.018627413 0.66399997 -0.018627413 1.0061113e-38 336 256
0.019732011 0.662 -0.018571306 1.0061113e-38 337 256
0.02086116 0.66100001 -0.018543253 1.0155116e-38 338 256
0.022020113 0.66100001 -0.018543253 1.0339507e-38 339 256
0.023179067 0.66100001 -0.018543253 1.0062562e-38 340 256
0.024374841 0.662 -0.018571306 1.0062562e-38 341 256
0.025535546 0.662 -0.018571306 1.0429902e-38 342 256
0.026655925 0.66100001 -0.018543253 1.0706488e-38 343 256
0.02781488 0.66100001 -0.018543253 1.0611403e-38 344 256
0.028973831 0.66100001 -0.018543253 1.0150425e-38 345 256
0.030132787 0.66100001 -0.018543253 1.0061103e-38 346 256
0.031339079 0.662 -0.018571306 1.0153299e-38 347 256
0.032499783 0.662 -0.018571306 1.0336614e-38 348 256
0.033660494 0.662 -0.018571306 1.0428809e-38 349 256
0.034821201 0.662 -0.018571306 1.0611384e-38 350 256
0.036036257 0.66299999 -0.018599359 1.0519189e-38 351 256
0.037198719 0.66299999 -0.018599359 9.8759284e-39 352 256
0.038419038 0.66399997 -0.018627413 9.5993415e-39 353 256
0.039583251 0.66399997 -0.018627413 9.8737508e-39 354 256
0.040747464 0.66399997 -0.018627413 9.689721e-39 355 256
0.042037919 0.66600001 -0.018683519 9.04759e-39 356 256
0.04327051 0.667 -0.018711573 9.04759e-39 357 256
0.044506609 0.66799998 -0.018739626 9.2305436e-39 358 256
0.045677837 0.66799998 -0.018739626 9.2305436e-39 359 256
0.047129598 0.67199999 -0.018851839 9.2298275e-39 360 256
0.04830784 0.67199999 -0.018851839 9.3223819e-39 361 256
0.049486078 0.67199999 -0.018851839 8.8628499e-39 362 256
0.050664317 0.67199999 -0.018851839 8.8628499e-39 363 256
0.052305438 0.67799997 -0.019020159 9.0468866e-39 364 256
0.053494196 0.67799997 -0.019020159 8.7703011e-39 365 256
0.054682959 0.67799997 -0.019020159 8.3093608e-39 366 256
0.055871718 0.67799997 -0.019020159 1.0522056e-38 367 256
0.057228796 0.68000001 -0.019076265 1.5212577e-38 368 256
-0.0023845332 0.68000001 -0.020268533 1.0619602e-38 318 257
-0.0011922666 0.68000001 -0.020268533 9.9742323e-39 319 257
0 0.68000001 -0.020268533 9.5160946e-39 320 257
0.0011852533 0.676 -0.020149305 9.1473176e-39 321 257
0.0023634934 0.67400002 -0.020089693 9.3309886e-39 322 257
0.00353472 0.67199999 -0.020030079 9.3309886e-39 323 257
0.0047059464 0.671 -0.020000271 9.3309886e-39 324 257
0.0058824331 0.671 -0.020000271 9.3309886e-39 325 257
0.0070483997 0.67000002 -0.019970467 9.3309886e-39 326 257
0.0082231332 0.67000002 -0.019970467 9.3309886e-39 327 257
0.0093698129 0.66799998 -0.019910853 9.3309886e-39 328 257
0.01054104 0.66799998 -0.019910853 9.4231829e-39 329 257
0.011712266 0.66799998 -0.019910853 9.9731196e-39 330 257
0.012864206 0.667 -0.019881045 1.015787e-38 331 257
0.014012639 0.66600001 -0.019851239 1.0339056e-38 332 257
0.015134773 0.66399997 -0.019791625 1.0246859e-38 333 257
0.016298985 0.66399997 -0.019791625 1.2085776e-38 334 257
0.0174632 0.66399997 -0.019791625 1.1993579e-38 335 257
0.018627413 0.66399997 -0.019791625 1.0428418e-38 336 257
0.019761819 0.66299999 -0.019761819 1.0244027e-38 337 257
0.020892721 0.662 -0.019732011 1.0613882e-38 338 257
0.022020113 0.66100001 -0.019702207 1.0613882e-38 339 257
0.023179067 0.66100001 -0.019702207 1.0337652e-38 340 257
0.024374841 0.662 -0.019732011 1.0337652e-38 341 257
0.025535546 0.662 -0.019732011 1.0888658e-38 342 257
0.026696252 0.662 -0.019732011 1.0980854e-38 343 257
0.02781488 0.66100001 -0.019702207 1.125455e-38 344 257
0.028973831 0.66100001 -0.019702207 1.1161995e-38 345 257
0.030132787 0.66100001 -0.019702207 1.0979772e-38 346 257
0.031339079 0.662 -0.019732011 1.1071967e-38 347 257
0.032499783 0.662 -0.019732011 1.1071267e-38 348 257
0.033660494 0.662 -0.019732011 1.1071267e-38 349 257
0.034821201 0.662 -0.019732011 1.1071605e-38 350 257
0.036036257 0.66299999 -0.019761819 1.0794657e-38 351 257
0.037198719 0.66299999 -0.019761819 1.0886812e-38 352 257
0.038419038 0.66399997 -0.019791625 1.0702781e-38 353 257
0.039583251 0.66399997 -0.019791625 1.0611305e-38 354 257
0.040747464 0.66399997 -0.019791625 1.0426916e-38 355 257
0.042037919 0.66600001 -0.019851239 9.691156e-39 356 257
0.04327051 0.667 -0.019881045 9.414932e-39 357 257
0.044506609 0.66799998 -0.019910853 9.3223791e-39 358 257
0.0458146 0.67000002 -0.019970467 9.3223791e-39 359 257
0.047059465 0.671 -0.020000271 9.1387109e-39 360 257
0.04830784 0.67199999 -0.020030079 9.0465152e-39 361 257
0.049486078 0.67199999 -0.020030079 8.7717262e-39 362 257
0.050890498 0.67500001 -0.020119499 8.8639218e-39 363 257
0.052305438 0.67799997 -0.020208918 9.1383633e-39 364 257
0.053573098 0.67900002 -0.020238725 8.8614177e-39 365 257
0.054763615 0.67900002 -0.020238725 8.033134e-39 366 257
0.056036532 0.68000001 -0.020268533 1.107523e-38 367 257
0.057228796 0.68000001 -0.020268533 1.5488806e-38 368 257
0.058421064 0.68000001 -0.020268533 1.8992239e-38 369 257
-0.0023845332 0.68000001 -0.0214608 1.0620333e-38 318 258
-0.0011922666 0.68000001 -0.0214608 9.8827681e-39 319 258
0 0.68000001 -0.0214608 9.3324376e-39 320 258
0.0011852533 0.676 -0.021334561 9.0562094e-39 321 258
0.0023669999 0.67500001 -0.021303 9.2391559e-39 322 258
0.00353472 0.67199999 -0.021208318 9.2391559e-39 323 258
0.0047129598 0.67199999 -0.021208318 9.3306299e-39 324 258
0.0058824331 0.671 -0.021176759 9.2384357e-39 325 258
0.0070589199 0.671 -0.021176759 9.3309886e-39 326 258
0.0082231332 0.67000002 -0.0211452 9.3309886e-39 327 258
0.0093698129 0.66799998 -0.021082079 9.4228241e-39 328 258
0.01054104 0.66799998 -0.021082079 9.4228241e-39 329 258
0.011712266 0.66799998 -0.021082079 9.8805667e-39 330 258
0.012864206 0.667 -0.021050518 9.8805667e-39 331 258
0.014012639 0.66600001 -0.02101896 1.0245414e-38 332 258
0.01518036 0.66600001 -0.02101896 1.015286e-38 333 258
0.016348081 0.66600001 -0.02101896 1.1717337e-38 334 258
0.0174632 0.66399997 -0.020955838 1.208648e-38 335 258
0.018627413 0.66399997 -0.020955838 1.1441462e-38 336 258
0.019791625 0.66399997 -0.020955838 1.1256712e-38 337 258
0.020924279 0.66299999 -0.020924279 1.1165926e-38 338 258
0.022053426 0.662 -0.020892721 1.1165926e-38 339 258
0.023214132 0.662 -0.020892721 1.1441431e-38 340 258
0.024411658 0.66299999 -0.020924279 1.1810574e-38 341 258
0.025535546 0.662 -0.020892721 1.2544544e-38 342 258
0.026696252 0.662 -0.020892721 1.263674e-38 343 258
0.027856959 0.662 -0.020892721 1.3003352e-38 344 258
0.029017664 0.662 -0.020892721 1.2542374e-38 345 258
0.030178372 0.662 -0.020892721 1.2449828e-38 346 258
0.031386416 0.66299999 -0.020924279 1.2265078e-38 347 258
0.032548878 0.66299999 -0.020924279 1.1531128e-38 348 258
0.033711337 0.66299999 -0.020924279 1.1347097e-38 349 258
0.034873798 0.66299999 -0.020924279 1.1439269e-38 350 258
0.036090612 0.66399997 -0.020955838 1.1162683e-38 351 258
0.037254825 0.66399997 -0.020955838 1.0980082e-38 352 258
0.038419038 0.66399997 -0.020955838 1.0703858e-38 353 258
0.039702479 0.66600001 -0.02101896 1.0335798e-38 354 258
0.040870197 0.66600001 -0.02101896 1.0151051e-38 355 258
0.042101037 0.667 -0.021050518 9.6907972e-39 356 258
0.04327051 0.667 -0.021050518 9.5067675e-39 357 258
0.044506609 0.66799998 -0.021082079 9.5060571e-39 358 258
0.0458146 0.67000002 -0.0211452 9.4135027e-39 359 258
0.047059465 0.671 -0.021176759 8.8635603e-39 360 258
0.04830784 0.67199999 -0.021208318 8.7713661e-39 361 258
0.049486078 0.67199999 -0.021208318 8.7717262e-39 362 258
0.050890498 0.67500001 -0.021303 8.8639218e-39 363 258
0.052305438 0.67799997 -0.021397678 9.4138726e-39 364 258
0.053573098 0.67900002 -0.021429239 8.9532532e-39 365 258
0.054763615 0.67900002 -0.021429239 8.491957e-39 366 258
0.056036532 0.68000001 -0.0214608 1.2456369e-38 367 258
0.057228796 0.68000001 -0.0214608 1.5766117e-38 368 258
0.058421064 0.68000001 -0.0214608 1.8716378e-38 369 258
-0.0048181596 0.68699998 -0.022886258 1.2269129e-38 316 259
-0.0036136196 0.68699998 -0.022886258 1.2176933e-38 317 259
-0.0023915465 0.68199998 -0.022719691 1.0711078e-38 318 259
-0.0011957732 0.68199998 -0.022719691 1.0158263e-38 319 259
0 0.68199998 -0.022719691 9.6994124e-39 320 259
0.0011905134 0.67900002 -0.022619752 9.6072154e-39 321 259
0.0023669999 0.67500001 -0.022486499 9.7898088e-39 322 259
0.00354524 0.67400002 -0.022453187 9.7898088e-39 323 259
0.0047129598 0.67199999 -0.022386558 9.9727609e-39 324 259
0.0058911997 0.67199999 -0.022386558 9.8805667e-39 325 259
0.0070589199 0.671 -0.022353247 9.6061364e-39 326 259
0.0082354061 0.671 -0.022353247 9.6983306e-39 327 259
0.0093978662 0.67000002 -0.022319933 9.8820016e-39 328 259
0.01054104 0.66799998 -0.022253305 9.9741958e-39 329 259
0.011712266 0.66799998 -0.022253305 1.006352e-38 330 259
0.012864206 0.667 -0.022219993 9.2334134e-39 331 259
0.014012639 0.66600001 -0.02218668 9.9670422e-39 332 259
0.01518036 0.66600001 -0.02218668 1.0336185e-38 333 259
0.016348081 0.66600001 -0.02218668 1.1348913e-38 334 259
0.017515799 0.66600001 -0.02218668 1.1625141e-38 335 259
0.018627413 0.66399997 -0.022120051 1.1625812e-38 336 259
0.019791625 0.66399997 -0.022120051 1.1533617e-38 337 259
0.020955838 0.66399997 -0.022120051 1.16258e-38 338 259
0.022120051 0.66399997 -0.022120051 1.1810547e-38 339 259
0.023284266 0.66399997 -0.022120051 1.2177889e-38 340 259
0.024448479 0.66399997 -0.022120051 1.2546307e-38 341 259
0.025574118 0.66299999 -0.02208674 1.2912573e-38 342 259
0.026736578 0.66299999 -0.02208674 1.2728543e-38 343 259
0.027856959 0.662 -0.022053426 1.2912573e-38 344 259
0.029017664 0.662 -0.022053426 1.263599e-38 345 259
0.030178372 0.662 -0.022053426 1.2818585e-38 346 259
0.031386416 0.66299999 -0.02208674 1.2541644e-38 347 259
0.03259797 0.66399997 -0.022120051 1.2449091e-38 348 259
0.033762183 0.66399997 -0.022120051 1.2449091e-38 349 259
0.0349264 0.66399997 -0.022120051 1.1990272e-38 350 259
0.03619932 0.66600001 -0.02218668 1.1898078e-38 351 259
0.037367038 0.66600001 -0.02218668 1.1347423e-38 352 259
0.03853476 0.66600001 -0.02218668 1.1255229e-38 353 259
0.039702479 0.66600001 -0.02218668 1.088717e-38 354 259
0.040870197 0.66600001 -0.02218668 1.0610228e-38 355 259
0.042101037 0.667 -0.022219993 9.873392e-39 356 259
0.043335386 0.66799998 -0.022253305 9.6893623e-39 357 259
0.044506609 0.66799998 -0.022253305 9.4138558e-39 358 259
0.0458146 0.67000002 -0.022319933 9.4138558e-39 359 259
0.047059465 0.671 -0.022353247 8.863919e-39 360 259
0.04830784 0.67199999 -0.022386558 8.7717248e-39 361 259
0.049486078 0.67199999 -0.022386558 9.0468726e-39 362 259
0.050890498 0.67500001 -0.022486499 9.2312624e-39 363 259
0.052305438 0.67799997 -0.022586439 9.6893833e-39 364 259
0.053573098 0.67900002 -0.022619752 9.1362095e-39 365 259
0.054844268 0.68000001 -0.022653066 8.7663957e-39 366 259
0.056036532 0.68000001 -0.022653066 1.3283982e-38 367 259
0.057228796 0.68000001 -0.022653066 1.6318938e-38 368 259
0.058421064 0.68000001 -0.022653066 1.8900415e-38 369 259
-0.0060577663 0.69099998 -0.024231065 1.5395932e-38 315 260
-0.0048181596 0.68699998 -0.024090799 1.2729053e-38 316 260
-0.0036136196 0.68699998 -0.024090799 1.217588e-38 317 260
-0.0023985601 0.68400002 -0.0239856 1.0709672e-38 318 260
-0.0011975267 0.68300003 -0.023950534 1.0340889e-38 319 260
0 0.68199998 -0.023915464 9.6068791e-39 320 260
0.0011905134 0.67900002 -0.023810266 9.5146834e-39 321 260
0.0023705065 0.676 -0.023705067 1.0249011e-38 322 260
0.00354524 0.67400002 -0.023634933 1.0249011e-38 323 260
0.0047129598 0.67199999 -0.023564799 1.0064247e-38 324 260
0.0058911997 0.67199999 -0.023564799 9.9720519e-39 325 260
0.0070589199 0.671 -0.023529733 9.8809254e-39 326 260
0.0082354061 0.671 -0.023529733 9.7887312e-39 327 260
0.0093978662 0.67000002 -0.023494666 1.0064986e-38 328 260
0.0105726 0.67000002 -0.023494666 1.0249377e-38 329 260
0.011712266 0.66799998 -0.023424532 1.0430899e-38 330 260
0.012864206 0.667 -0.023389466 9.6011366e-39 331 260
0.014012639 0.66600001 -0.023354398 9.507485e-39 332 260
0.01518036 0.66600001 -0.023354398 1.006065e-38 333 260
0.016348081 0.66600001 -0.023354398 1.1442137e-38 334 260
0.017515799 0.66600001 -0.023354398 1.1442137e-38 335 260
0.018683519 0.66600001 -0.023354398 1.1626181e-38 336 260
0.019851239 0.66600001 -0.023354398 1.1533985e-38 337 260
0.020955838 0.66399997 -0.023284266 1.1716971e-38 338 260
0.022120051 0.66399997 -0.023284266 1.2546732e-38 339 260
0.023284266 0.66399997 -0.023284266 1.30056e-38 340 260
0.024448479 0.66399997 -0.023284266 1.3466578e-38 341 260
0.025574118 0.66299999 -0.0232492 1.2728655e-38 342 260
0.026736578 0.66299999 -0.0232492 1.1807059e-38 343 260
0.027899038 0.66299999 -0.0232492 1.2085804e-38 344 260
0.029061496 0.66299999 -0.0232492 1.2731173e-38 345 260
0.030223956 0.66299999 -0.0232492 1.3557701e-38 346 260
0.031433757 0.66399997 -0.023284266 1.2912332e-38 347 260
0.03259797 0.66399997 -0.023284266 1.2910841e-38 348 260
0.03386388 0.66600001 -0.023354398 1.2265472e-38 349 260
0.035031598 0.66600001 -0.023354398 1.1897723e-38 350 260
0.03619932 0.66600001 -0.023354398 1.1713692e-38 351 260
0.037423145 0.667 -0.023389466 1.097974e-38 352 260
0.038592618 0.667 -0.023389466 1.1255968e-38 353 260
0.039762091 0.667 -0.023389466 1.0979036e-38 354 260
0.040931564 0.667 -0.023389466 1.0794645e-38 355 260
0.042101037 0.667 -0.023389466 1.0332219e-38 356 260
0.043335386 0.66799998 -0.023424532 1.0055631e-38 357 260
0.044639867 0.67000002 -0.023494666 9.2319785e-39 358 260
0.045882981 0.671 -0.023529733 9.1394255e-39 359 260
0.047129598 0.67199999 -0.023564799 8.863919e-39 360 260
0.04830784 0.67199999 -0.023564799 8.863919e-39 361 260
0.049633358 0.67400002 -0.023634933 9.3220259e-39 362 260
0.050965894 0.676 -0.023705067 9.4142216e-39 363 260
0.052305438 0.67799997 -0.023775198 1.0056371e-38 364 260
0.053573098 0.67900002 -0.023810266 9.5957514e-39 365 260
0.054844268 0.68000001 -0.023845334 9.2281025e-39 366 260
0.056036532 0.68000001 -0.023845334 1.3745688e-38 367 260
0.057228796 0.68000001 -0.023845334 1.6870683e-38 368 260
-0.0060577663 0.69099998 -0.025442619 1.6133862e-38 315 261
-0.0048251734 0.68800002 -0.02533216 1.3740707e-38 316 261
-0.0036136196 0.68699998 -0.025295338 1.2542165e-38 317 261
-0.0023985601 0.68400002 -0.025184879 1.1351096e-38 318 261
-0.0011975267 0.68300003 -0.02514806 1.1258542e-38 319 261
0 0.68199998 -0.025111238 1.1810221e-38 320 261
0.0011905134 0.67900002 -0.025000781 1.1625828e-38 321 261
0.0023705065 0.676 -0.024890319 1.1258838e-38 322 261
0.0035505001 0.67500001 -0.0248535 1.1074806e-38 323 261
0.0047269869 0.67400002 -0.024816679 1.0064247e-38 324 261
0.0058911997 0.67199999 -0.024743039 9.8798562e-39 325 261
0.0070589199 0.671 -0.024706218 9.6040078e-39 326 261
0.0082354061 0.671 -0.024706218 1.0249377e-38 327 261
0.0094118929 0.671 -0.024706218 1.0434179e-38 328 261
0.0105726 0.67000002 -0.024669399 1.1079548e-38 329 261
0.011712266 0.66799998 -0.02459576 1.1995762e-38 330 261
0.012864206 0.667 -0.024558939 1.1534786e-38 331 261
0.014033679 0.667 -0.024558939 1.1441107e-38 332 261
0.015203152 0.667 -0.024558939 1.1164519e-38 333 261
0.016372627 0.667 -0.024558939 1.0982255e-38 334 261
0.017515799 0.66600001 -0.02452212 1.1074809e-38 335 261
0.018683519 0.66600001 -0.02452212 1.1535097e-38 336 261
0.019851239 0.66600001 -0.02452212 1.208827e-38 337 261
0.02101896 0.66600001 -0.02452212 1.2730826e-38 338 261
0.022120051 0.66399997 -0.024448479 1.3376195e-38 339 261
0.023284266 0.66399997 -0.024448479 1.401838e-38 340 261
0.024448479 0.66399997 -0.024448479 1.4295327e-38 341 261
0.025612691 0.66399997 -0.024448479 1.2729799e-38 342 261
0.026776904 0.66399997 -0.024448479 1.0608939e-38 343 261
0.027899038 0.66299999 -0.024411658 1.1074589e-38 344 261
0.029061496 0.66299999 -0.024411658 1.2641916e-38 345 261
0.030223956 0.66299999 -0.024411658 1.365031e-38 346 261
0.031433757 0.66399997 -0.024448479 1.3373363e-38 347 261
0.032696161 0.66600001 -0.02452212 1.3555905e-38 348 261
0.03386388 0.66600001 -0.02452212 1.2817981e-38 349 261
0.035031598 0.66600001 -0.02452212 1.3001592e-38 350 261
0.036253672 0.667 -0.024558939 1.2725365e-38 351 261
0.037423145 0.667 -0.024558939 1.1899583e-38 352 261
0.038592618 0.667 -0.024558939 1.2268365e-38 353 261
0.039762091 0.667 -0.024558939 1.2082933e-38 354 261
0.040992931 0.66799998 -0.02459576 1.1806706e-38 355 261
0.042164158 0.66799998 -0.02459576 1.1989257e-38 356 261
0.043465134 0.67000002 -0.024669399 1.1436084e-38 357 261
0.044639867 0.67000002 -0.024669399 1.0424765e-38 358 261
0.045882981 0.671 -0.024706218 9.9637926e-39 359 261
0.047129598 0.67199999 -0.024743039 9.0465138e-39 360 261
0.04830784 0.67199999 -0.024743039 9.414932e-39 361 261
0.049633358 0.67400002 -0.024816679 1.0056724e-38 362 261
0.050965894 0.676 -0.024890319 1.0056724e-38 363 261
0.052305438 0.67799997 -0.024963958 9.8712733e-39 364 261
0.053573098 0.67900002 -0.025000781 1.0056023e-38 365 261
0.054844268 0.68000001 -0.025037598 1.0333024e-38 366 261
0.056036532 0.68000001 -0.025037598 1.4481468e-38 367 261
0.057228796 0.68000001 -0.025037598 1.7055799e-38 368 261
-0.0060577663 0.69099998 -0.026654173 1.696255e-38 315 262
-0.0048251734 0.68800002 -0.026538454 1.4477923e-38 316 262
-0.0036136196 0.68699998 -0.026499879 1.2172672e-38 317 262
-0.0023985601 0.68400002 -0.02638416 1.153336e-38 318 262
-0.00119928 0.68400002 -0.02638416 1.2086533e-38 319 262
0 0.68199998 -0.026307013 1.3005555e-38 320 262
0.0011905134 0.67900002 -0.026191294 1.226799e-38 321 262
0.0023810267 0.67900002 -0.026191294 1.098333e-38 322 262
0.0035557596 0.676 -0.026075572 1.0891134e-38 323 262
0.0047339997 0.67500001 -0.026037 9.8816513e-39 324 262
0.0059087332 0.67400002 -0.025998428 9.5128688e-39 325 262
0.0070694401 0.67199999 -0.025921278 9.8817256e-39 326 262
0.0082354061 0.671 -0.025882706 1.2094779e-38 327 262
0.0094118929 0.671 -0.025882706 1.3287298e-38 328 262
0.01058838 0.671 -0.025882706 1.3656441e-38 329 262
0.011747333 0.67000002 -0.025844134 1.4114198e-38 330 262
0.012883492 0.66799998 -0.025766984 1.3929446e-38 331 262
0.014054719 0.66799998 -0.025766984 1.3928708e-38 332 262
0.015225946 0.66799998 -0.025766984 1.3283338e-38 333 262
0.016397171 0.66799998 -0.025766984 1.2178766e-38 334 262
0.0175421 0.667 -0.025728412 1.2363157e-38 335 262
0.018711573 0.667 -0.025728412 1.2733385e-38 336 262
0.019881045 0.667 -0.025728412 1.3563147e-38 337 262
0.02101896 0.66600001 -0.02568984 1.4204942e-38 338 262
0.02218668 0.66600001 -0.02568984 1.4204942e-38 339 262
0.023354398 0.66600001 -0.02568984 1.4387185e-38 340 262
0.02452212 0.66600001 -0.02568984 1.4294989e-38 341 262
0.025612691 0.66399997 -0.025612691 1.2086243e-38 342 262
0.026776904 0.66399997 -0.025612691 1.0057939e-38 343 262
0.027941117 0.66399997 -0.025612691 1.0614707e-38 344 262
0.02910533 0.66399997 -0.025612691 1.2366424e-38 345 262
0.030269546 0.66399997 -0.025612691 1.3374462e-38 346 262
0.031528439 0.66600001 -0.02568984 1.3374462e-38 347 262
0.032696161 0.66600001 -0.02568984 1.3925468e-38 348 262
0.033914726 0.667 -0.025728412 1.3648521e-38 349 262
0.035084199 0.667 -0.025728412 1.3557032e-38 350 262
0.036253672 0.667 -0.025728412 1.3557032e-38 351 262
0.037479252 0.66799998 -0.025766984 1.337301e-38 352 262
0.038650475 0.66799998 -0.025766984 1.3557762e-38 353 262
0.039821707 0.66799998 -0.025766984 1.3464858e-38 354 262
0.040992931 0.66799998 -0.025766984 1.3372663e-38 355 262
0.042164158 0.66799998 -0.025766984 1.3738903e-38 356 262
0.043465134 0.67000002 -0.025844134 1.3001338e-38 357 262
0.044706494 0.671 -0.025882706 1.1527583e-38 358 262
0.045882981 0.671 -0.025882706 1.0605266e-38 359 262
0.047129598 0.67199999 -0.025921278 9.8737928e-39 360 262
0.048451614 0.67400002 -0.025998428 1.015074e-38 361 262
0.049633358 0.67400002 -0.025998428 1.0884355e-38 362 262
0.050965894 0.676 -0.026075572 1.0238985e-38 363 262
0.052305438 0.67799997 -0.026152719 9.3181023e-39 364 262
0.053573098 0.67900002 -0.026191294 1.0332613e-38 365 262
0.054844268 0.68000001 -0.026229866 1.1621611e-38 366 262
0.056036532 0.68000001 -0.026229866 1.503285e-38 367 262
0.057228796 0.68000001 -0.026229866 1.7239839e-38 368 262
-0.0073008798 0.69400001 -0.027986705 1.8622438e-38 314 263
-0.0060577663 0.69099998 -0.027865725 1.6594134e-38 315 263
-0.0048251734 0.68800002 -0.027744746 1.47556e-38 316 263
-0.0036136196 0.68699998 -0.027704418 1.2727296e-38 317 263
-0.0023985601 0.68400002 -0.027583439 1.1898919e-38 318 263
-0.00119928 0.68400002 -0.027583439 1.2452091e-38 319 263
0 0.68300003 -0.027543113 1.2730415e-38 320 263
0.0011922666 0.68000001 -0.027422134 1.199285e-38 321 263
0.0023810267 0.67900002 -0.027381808 1.0339406e-38 322 263
0.0035557596 0.676 -0.027260827 1.0339406e-38 323 263
0.0047339997 0.67500001 -0.027220501 9.6983713e-39 324 263
0.0059174998 0.67500001 -0.027220501 1.0159349e-38 325 263
0.0070694401 0.67199999 -0.027099518 1.1445502e-38 326 263
0.00824768 0.67199999 -0.027099518 1.3566001e-38 327 263
0.0094118929 0.671 -0.027059194 1.4205687e-38 328 263
0.01058838 0.671 -0.027059194 1.4113491e-38 329 263
0.011747333 0.67000002 -0.027018867 1.411386e-38 330 263
0.012883492 0.66799998 -0.026938211 1.411386e-38 331 263
0.014054719 0.66799998 -0.026938211 1.4112045e-38 332 263
0.015225946 0.66799998 -0.026938211 1.3743264e-38 333 263
0.016397171 0.66799998 -0.026938211 1.2546496e-38 334 263
0.0175421 0.667 -0.026897885 1.2362105e-38 335 263
0.018711573 0.667 -0.026897885 1.2271705e-38 336 263
0.019881045 0.667 -0.026897885 1.23639e-38 337 263
0.021050518 0.667 -0.026897885 1.1995846e-38 338 263
0.022219993 0.667 -0.026897885 1.1626704e-38 339 263
0.023389466 0.667 -0.026897885 1.1440873e-38 340 263
0.02452212 0.66600001 -0.026857559 1.0610754e-38 341 263
0.02568984 0.66600001 -0.026857559 8.9595016e-39 342 263
0.026857559 0.66600001 -0.026857559 8.9595016e-39 343 263
0.028025279 0.66600001 -0.026857559 9.4172358e-39 344 263
0.029192999 0.66600001 -0.026857559 9.7860183e-39 345 263
0.030360719 0.66600001 -0.026857559 1.0522136e-38 346 263
0.031528439 0.66600001 -0.026857559 1.0983473e-38 347 263
0.032745253 0.667 -0.026897885 1.1351178e-38 348 263
0.033914726 0.667 -0.026897885 1.1351178e-38 349 263
0.035084199 0.667 -0.026897885 1.1442297e-38 350 263
0.036308024 0.66799998 -0.026938211 1.1442297e-38 351 263
0.037479252 0.66799998 -0.026938211 1.1625622e-38 352 263
0.038650475 0.66799998 -0.026938211 1.1809653e-38 353 263
0.039821707 0.66799998 -0.026938211 1.2177009e-38 354 263
0.040992931 0.66799998 -0.026938211 1.2361402e-38 355 263
0.042164158 0.66799998 -0.026938211 1.3187918e-38 356 263
0.043465134 0.67000002 -0.027018867 1.3187918e-38 357 263
0.044706494 0.671 -0.027059194 1.2909492e-38 358 263
0.045951359 0.67199999 -0.027099518 1.18957e-38 359 263
0.047269866 0.67400002 -0.027180174 1.1896754e-38 360 263
0.048451614 0.67400002 -0.027180174 1.1804558e-38 361 263
0.049706999 0.67500001 -0.027220501 1.1895658e-38 362 263
0.051116679 0.67799997 -0.027341479 1.1158093e-38 363 263
0.052305438 0.67799997 -0.027341479 1.0330127e-38 364 263
0.053573098 0.67900002 -0.027381808 1.1897454e-38 365 263
0.055005573 0.68199998 -0.027502786 1.3369035e-38 366 263
0.056201346 0.68199998 -0.027502786 1.5857958e-38 367 263
0.05739712 0.68199998 -0.027502786 1.7423154e-38 368 263
0.058592889 0.68199998 -0.027502786 1.8898643e-38 369 263
-0.0085176928 0.69400001 -0.029203519 1.9818451e-38 313 264
-0.0073008798 0.69400001 -0.029203519 1.8714993e-38 314 264
-0.0060577663 0.69099998 -0.029077278 1.6133515e-38 315 264
-0.0048391996 0.69 -0.029035198 1.5030759e-38 316 264
-0.0036188802 0.68800002 -0.028951041 1.4016607e-38 317 264
-0.0024055731 0.68599999 -0.02886688 1.2266993e-38 318 264
-0.00119928 0.68400002 -0.02878272 1.1806374e-38 319 264
0 0.68300003 -0.028740639 1.1902827e-38 320 264
0.0011957732 0.68199998 -0.02869856 1.1441488e-38 321 264
0.0023845332 0.68000001 -0.028614398 1.0246509e-38 322 264
0.0035715401 0.67900002 -0.028572321 1.0430901e-38 323 264
0.0047410131 0.676 -0.028446076 1.0709694e-38 324 264
0.0059262668 0.676 -0.028446076 1.163165e-38 325 264
0.0071010003 0.67500001 -0.028404001 1.2916726e-38 326 264
0.00824768 0.67199999 -0.02827776 1.4207465e-38 327 264
0.0094259195 0.67199999 -0.02827776 1.4481569e-38 328 264
0.01058838 0.671 -0.028235679 1.4389373e-38 329 264
0.011764866 0.671 -0.028235679 1.4206056e-38 330 264
0.012922067 0.67000002 -0.028193599 1.3837633e-38 331 264
0.014096799 0.67000002 -0.028193599 1.3559225e-38 332 264
0.015271533 0.67000002 -0.028193599 1.3006051e-38 333 264
0.016397171 0.66799998 -0.028109439 1.1994029e-38 334 264
0.017568398 0.66799998 -0.028109439 1.1256464e-38 335 264
0.018711573 0.667 -0.028067358 1.0521397e-38 336 264
0.019881045 0.667 -0.028067358 9.7838322e-39 337 264
0.021050518 0.667 -0.028067358 8.5888764e-39 338 264
0.022219993 0.667 -0.028067358 7.8513113e-39 339 264
0.023389466 0.667 -0.028067358 6.7460386e-39 340 264
0.02452212 0.66600001 -0.028025279 5.7322468e-39 341 264
0.02568984 0.66600001 -0.028025279 6.5659871e-39 342 264
0.026857559 0.66600001 -0.028025279 9.0552677e-39 343 264
0.028025279 0.66600001 -0.028025279 9.9674948e-39 344 264
0.029192999 0.66600001 -0.028025279 8.2161366e-39 345 264
0.030406304 0.667 -0.028067358 7.5753929e-39 346 264
0.03157578 0.667 -0.028067358 8.3129579e-39 347 264
0.032745253 0.667 -0.028067358 8.7739333e-39 348 264
0.033914726 0.667 -0.028067358 8.8661289e-39 349 264
0.035136797 0.66799998 -0.028109439 9.3256833e-39 350 264
0.036308024 0.66799998 -0.028109439 9.2334877e-39 351 264
0.037479252 0.66799998 -0.028109439 9.3239233e-39 352 264
0.038650475 0.66799998 -0.028109439 9.2317277e-39 353 264
0.039821707 0.66799998 -0.028109439 9.3243241e-39 354 264
0.041115668 0.67000002 -0.028193599 1.024592e-38 355 264
0.042290401 0.67000002 -0.028193599 1.1808231e-38 356 264
0.043465134 0.67000002 -0.028193599 1.2361404e-38 357 264
0.044706494 0.671 -0.028235679 1.2911336e-38 358 264
0.045951359 0.67199999 -0.02827776 1.2542193e-38 359 264
0.047339998 0.67500001 -0.028404001 1.2816242e-38 360 264
0.048523501 0.67500001 -0.028404001 1.2540015e-38 361 264
0.049780637 0.676 -0.028446076 1.2815505e-38 362 264
0.051116679 0.67799997 -0.028530238 1.2538917e-38 363 264
0.052305438 0.67799997 -0.028530238 1.2171573e-38 364 264
0.053573098 0.67900002 -0.028572321 1.3186085e-38 365 264
0.055005573 0.68199998 -0.02869856 1.4381773e-38 366 264
0.056201346 0.68199998 -0.02869856 1.6041654e-38 367 264
0.05739712 0.68199998 -0.02869856 1.7515352e-38 368 264
0.058592889 0.68199998 -0.02869856 1.8898287e-38 369 264
-0.0085176928 0.69400001 -0.030420333 1.9542584e-38 313 265
-0.0073008798 0.69400001 -0.030420333 1.8530243e-38 314 265
-0.0060753003 0.69300002 -0.0303765 1.6133515e-38 315 265
-0.0048391996 0.69 -0.030244999 1.5398468e-38 316 265
-0.0036293997 0.69 -0.030244999 1.4753099e-38 317 265
-0.0024125867 0.68800002 -0.030157333 1.2820899e-38 318 265
-0.0012045399 0.68699998 -0.030113498 1.1898584e-38 319 265
0 0.68599999 -0.030069664 9.8788599e-39 320 265
0.0011975267 0.68300003 -0.029938167 1.0339479e-38 321 265
0.0023915465 0.68199998 -0.029894331 1.1169611e-38 322 265
0.0035767998 0.68000001 -0.029806666 1.1999373e-38 323 265
0.0047620535 0.67900002 -0.029762832 1.3560994e-38 324 265
0.0059262668 0.676 -0.029631332 1.4206364e-38 325 265
0.0071115191 0.676 -0.029631332 1.4204611e-38 326 265
0.0082844999 0.67500001 -0.0295875 1.4481198e-38 327 265
0.0094539737 0.67400002 -0.029543666 1.4205339e-38 328 265
0.010604159 0.67199999 -0.029455997 1.355997e-38 329 265
0.011782399 0.67199999 -0.029455997 1.2729108e-38 330 265
0.012941353 0.671 -0.029412165 1.0977391e-38 331 265
0.01411784 0.671 -0.029412165 9.1381097e-39 332 265
0.015271533 0.67000002 -0.029368332 8.5849359e-39 333 265
0.016446266 0.67000002 -0.029368332 7.9445636e-39 334 265
0.017568398 0.66799998 -0.029280664 8.0367592e-39 335 265
0.018711573 0.667 -0.029236831 7.7619547e-39 336 265
0.019881045 0.667 -0.029236831 7.3928121e-39 337 265
0.021050518 0.667 -0.029236831 6.9321899e-39 338 265
0.022219993 0.667 -0.029236831 6.3790175e-39 339 265
0.023389466 0.667 -0.029236831 5.1862603e-39 340 265
0.024558939 0.667 -0.029236831 6.8454215e-39 341 265
0.02568984 0.66600001 -0.029192999 1.0797651e-38 342 265
0.026857559 0.66600001 -0.029192999 1.2549368e-38 343 265
0.028067358 0.667 -0.029236831 1.3189325e-38 344 265
0.029236831 0.667 -0.029236831 1.1529804e-38 345 265
0.030406304 0.667 -0.029236831 9.0469258e-39 346 265
0.03157578 0.667 -0.029236831 8.4015564e-39 347 265
0.032745253 0.667 -0.029236831 8.4969582e-39 348 265
0.033914726 0.667 -0.029236831 8.4969582e-39 349 265
0.035136797 0.66799998 -0.029280664 9.1401808e-39 350 265
0.036308024 0.66799998 -0.029280664 8.7713997e-39 351 265
0.037479252 0.66799998 -0.029280664 8.1282163e-39 352 265
0.038650475 0.66799998 -0.029280664 7.6672382e-39 353 265
0.039940935 0.67000002 -0.029368332 7.391408e-39 354 265
0.041115668 0.67000002 -0.029368332 7.391408e-39 355 265
0.042290401 0.67000002 -0.029368332 7.2088538e-39 356 265
0.043530006 0.671 -0.029412165 8.407397e-39 357 265
