# .PCD v.7 - Point Cloud Data file format
FIELDS x y z rgb imX imY
SIZE 4 4 4 4 4 4
TYPE F F F F F F
COUNT 1 1 1 1 1 1
WIDTH 851
HEIGHT 1
VIEWPOINT 0 0 0 1 0 0 0
POINTS 851
DATA ascii
-0.00225128 0.64200002 0.081046082 1.559731e-38 318 168
-0.00112564 0.64200002 0.081046082 1.5320724e-38 319 168
0 0.64099997 0.080919832 1.5686632e-38 320 168
0.0011238866 0.64099997 0.080919832 1.5686632e-38 321 168
0.0022442664 0.63999999 0.080793597 1.5686632e-38 322 168
0.00335588 0.63800001 0.080541119 1.5779187e-38 323 168
0.0044745067 0.63800001 0.080541119 1.5686986e-38 324 168
0.0055931332 0.63800001 0.080541119 1.5594789e-38 325 168
0.0067117601 0.63800001 0.080541119 1.5684821e-38 326 168
0.007830387 0.63800001 0.080541119 1.5500429e-38 327 168
0.0089490134 0.63800001 0.080541119 1.5590823e-38 328 168
0.01005186 0.63700002 0.080414884 1.5314596e-38 329 168
0.011168733 0.63700002 0.080414884 1.466994e-38 330 168
0.012304893 0.63800001 0.080541119 1.4117125e-38 331 168
0.013465599 0.63999999 0.080793597 1.3838367e-38 332 168
0.014610525 0.64099997 0.080919832 1.3561782e-38 333 168
0.01575896 0.64200002 0.081046082 1.4110986e-38 334 168
0.016884599 0.64200002 0.081046082 1.3650368e-38 335 168
0.018038293 0.64300001 0.081172317 1.392443e-38 336 168
0.019165685 0.64300001 0.081172317 1.3648203e-38 337 168
0.020293079 0.64300001 0.081172317 1.3830796e-38 338 168
0.021453787 0.64399999 0.08129856 1.3646045e-38 339 168
0.022582933 0.64399999 0.08129856 1.3186865e-38 340 168
0.02371208 0.64399999 0.08129856 1.4477603e-38 341 168
-0.0068274797 0.64899999 0.080791838 1.6053623e-38 314 169
-0.0056895665 0.64899999 0.080791838 1.7252158e-38 315 169
-0.0045376266 0.64700001 0.08054287 1.6426354e-38 316 169
-0.0033874398 0.64399999 0.08016941 1.6057213e-38 317 169
-0.0022547867 0.64300001 0.080044925 1.5781698e-38 318 169
-0.0011273933 0.64300001 0.080044925 1.5597307e-38 319 169
0 0.64200002 0.079920441 1.5686988e-38 320 169
0.00112564 0.64200002 0.079920441 1.5686988e-38 321 169
0.0022477731 0.64099997 0.079795949 1.550332e-38 322 169
0.0033663998 0.63999999 0.079671465 1.5411123e-38 323 169
0.0044885329 0.63999999 0.079671465 1.5686268e-38 324 169
0.0056106662 0.63999999 0.079671465 1.5501877e-38 325 169
0.0067327996 0.63999999 0.079671465 1.5408957e-38 326 169
0.0078549329 0.63999999 0.079671465 1.5132368e-38 327 169
0.0089770658 0.63999999 0.079671465 1.5131647e-38 328 169
0.0100992 0.63999999 0.079671465 1.485506e-38 329 169
0.011221332 0.63999999 0.079671465 1.4760341e-38 330 169
0.012343466 0.63999999 0.079671465 1.4207167e-38 331 169
0.013486639 0.64099997 0.079795949 1.3837649e-38 332 169
0.01463332 0.64200002 0.079920441 1.3652897e-38 333 169
0.01575896 0.64200002 0.079920441 1.4018427e-38 334 169
0.016910899 0.64300001 0.080044925 1.3833677e-38 335 169
0.018038293 0.64300001 0.080044925 1.4015904e-38 336 169
0.019195493 0.64399999 0.08016941 1.3831512e-38 337 169
0.02032464 0.64399999 0.08016941 1.3830796e-38 338 169
0.021520413 0.64600003 0.080418386 1.3461654e-38 339 169
0.022653066 0.64600003 0.080418386 1.2543294e-38 340 169
-0.0068274797 0.64899999 0.079653934 1.4211501e-38 314 170
-0.0056895665 0.64899999 0.079653934 1.6792979e-38 315 170
-0.00454464 0.648 0.0795312 1.6886609e-38 316 170
-0.00339796 0.64600003 0.079285733 1.6333444e-38 317 170
-0.0022653067 0.64600003 0.079285733 1.6058648e-38 318 170
-0.0011291467 0.64399999 0.079040259 1.5873898e-38 319 170
0 0.64300001 0.078917533 1.5779903e-38 320 170
0.0011273933 0.64300001 0.078917533 1.5503676e-38 321 170
0.00225128 0.64200002 0.0787948 1.550332e-38 322 170
0.0033716597 0.64099997 0.078672059 1.5411123e-38 323 170
0.0044955462 0.64099997 0.078672059 1.5684833e-38 324 170
0.0056194332 0.64099997 0.078672059 1.5408606e-38 325 170
0.0067433193 0.64099997 0.078672059 1.5500076e-38 326 170
0.0078672068 0.64099997 0.078672059 1.5039098e-38 327 170
0.0089910924 0.64099997 0.078672059 1.4855057e-38 328 170
0.010114979 0.64099997 0.078672059 1.4486633e-38 329 170
0.011238866 0.64099997 0.078672059 1.4391914e-38 330 170
0.012362752 0.64099997 0.078672059 1.4022773e-38 331 170
0.01350768 0.64200002 0.0787948 1.4020239e-38 332 170
0.014656113 0.64300001 0.078917533 1.3928042e-38 333 170
0.015808053 0.64399999 0.079040259 1.4018424e-38 334 170
0.016989801 0.64600003 0.079285733 1.3834033e-38 335 170
0.018122453 0.64600003 0.079285733 1.4016978e-38 336 170
0.019255107 0.64600003 0.079285733 1.3832228e-38 337 170
0.020387759 0.64600003 0.079285733 1.3556002e-38 338 170
0.021520413 0.64600003 0.079285733 1.2818437e-38 339 170
0.022653066 0.64600003 0.079285733 1.2082672e-38 340 170
-0.0068379994 0.64999998 0.078636996 1.0252838e-38 314 171
-0.0056895665 0.64899999 0.078516014 1.4401282e-38 315 171
-0.00454464 0.648 0.078395039 1.6517832e-38 316 171
-0.0034032199 0.64700001 0.078274064 1.6794415e-38 317 171
-0.0022653067 0.64600003 0.078153081 1.6517471e-38 318 171
-0.0011326533 0.64600003 0.078153081 1.614869e-38 319 171
0 0.64399999 0.077911116 1.5780985e-38 320 171
0.0011291467 0.64399999 0.077911116 1.5688789e-38 321 171
0.0022547867 0.64300001 0.077790141 1.5871027e-38 322 171
0.0033821799 0.64300001 0.077790141 1.5594438e-38 323 171
0.00450256 0.64200002 0.077669159 1.5593717e-38 324 171
0.0056281998 0.64200002 0.077669159 1.531713e-38 325 171
0.00675384 0.64200002 0.077669159 1.5040896e-38 326 171
0.0078794798 0.64200002 0.077669159 1.4672113e-38 327 171
0.00900512 0.64200002 0.077669159 1.4761785e-38 328 171
0.01013076 0.64200002 0.077669159 1.4577394e-38 329 171
0.0112564 0.64200002 0.077669159 1.4299718e-38 330 171
0.01238204 0.64200002 0.077669159 1.4022773e-38 331 171
0.01352872 0.64300001 0.077790141 1.4112791e-38 332 171
0.014678906 0.64399999 0.077911116 1.3928039e-38 333 171
0.015857147 0.64600003 0.078153081 1.3742561e-38 334 171
0.016989801 0.64600003 0.078153081 1.3650365e-38 335 171
0.018122453 0.64600003 0.078153081 1.383331e-38 336 171
0.019255107 0.64600003 0.078153081 1.3371973e-38 337 171
0.020387759 0.64600003 0.078153081 1.2543294e-38 338 171
0.021520413 0.64600003 0.078153081 1.2174512e-38 339 171
0.022653066 0.64600003 0.078153081 1.2818083e-38 340 171
-0.0068379994 0.64999998 0.077497326 8.7719266e-39 314 172
-0.005698333 0.64999998 0.077497326 1.3196958e-38 315 172
-0.0045516533 0.64899999 0.077378102 1.5134912e-38 316 172
-0.0034032199 0.64700001 0.077139653 1.6701862e-38 317 172
-0.0022688133 0.64700001 0.077139653 1.6518191e-38 318 172
-0.0011344067 0.64700001 0.077139653 1.624125e-38 319 172
0 0.64600003 0.077020429 1.605686e-38 320 172
0.0011326533 0.64600003 0.077020429 1.605686e-38 321 172
0.0022582933 0.64399999 0.076781973 1.6239455e-38 322 172
0.0033874398 0.64399999 0.076781973 1.5871032e-38 323 172
0.0045165867 0.64399999 0.076781973 1.5685912e-38 324 172
0.0056457333 0.64399999 0.076781973 1.5409325e-38 325 172
0.0067643598 0.64300001 0.076662742 1.5041616e-38 326 172
0.0078917528 0.64300001 0.076662742 1.4488442e-38 327 172
0.0090191467 0.64300001 0.076662742 1.4854337e-38 328 172
0.01014654 0.64300001 0.076662742 1.439336e-38 329 172
0.011291467 0.64399999 0.076781973 1.4575582e-38 330 172
0.012420613 0.64399999 0.076781973 1.4114604e-38 331 172
0.013549759 0.64399999 0.076781973 1.4205702e-38 332 172
0.014724494 0.64600003 0.077020429 1.383728e-38 333 172
0.015857147 0.64600003 0.077020429 1.3742561e-38 334 172
0.0170161 0.64700001 0.077139653 1.3742561e-38 335 172
0.018150507 0.64700001 0.077139653 1.383296e-38 336 172
0.019255107 0.64600003 0.077020429 1.2818449e-38 337 172
0.020387759 0.64600003 0.077020429 1.1712458e-38 338 172
0.021520413 0.64600003 0.077020429 1.2726609e-38 339 172
-0.005698333 0.64999998 0.076357663 1.0969502e-38 315 173
-0.0045516533 0.64899999 0.076240189 1.0436522e-38 316 173
-0.00340848 0.648 0.076122716 1.3294587e-38 317 173
-0.0022688133 0.64700001 0.07600525 1.5780996e-38 318 173
-0.0011344067 0.64700001 0.07600525 1.6426356e-38 319 173
0 0.64600003 0.075887777 1.6701503e-38 320 173
0.0011326533 0.64600003 0.075887777 1.6148336e-38 321 173
0.0022653067 0.64600003 0.075887777 1.6239452e-38 322 173
0.00339796 0.64600003 0.075887777 1.5871029e-38 323 173
0.0045306133 0.64600003 0.075887777 1.5502243e-38 324 173
0.0056632664 0.64600003 0.075887777 1.5133461e-38 325 173
0.00679592 0.64600003 0.075887777 1.4766104e-38 326 173
0.0079040267 0.64399999 0.075652823 1.4489517e-38 327 173
0.0090331733 0.64399999 0.075652823 1.5129479e-38 328 173
0.01016232 0.64399999 0.075652823 1.4852892e-38 329 173
0.011326533 0.64600003 0.075887777 1.5035116e-38 330 173
0.012459187 0.64600003 0.075887777 1.4665974e-38 331 173
0.01359184 0.64600003 0.075887777 1.393056e-38 332 173
0.014724494 0.64600003 0.075887777 1.3562138e-38 333 173
0.015857147 0.64600003 0.075887777 1.3650731e-38 334 173
0.0170161 0.64700001 0.07600525 1.3190111e-38 335 173
0.018150507 0.64700001 0.07600525 1.2175234e-38 336 173
0.019284913 0.64700001 0.07600525 1.1345473e-38 337 173
0.02041932 0.64700001 0.07600525 1.2907761e-38 338 173
-0.0045516533 0.64899999 0.075102277 8.2198262e-39 316 174
-0.0034137398 0.64899999 0.075102277 1.1354117e-38 317 174
-0.0022688133 0.64700001 0.07487084 1.3841279e-38 318 174
-0.0011344067 0.64700001 0.07487084 1.5869583e-38 319 174
0 0.64600003 0.074755117 1.6239086e-38 320 174
0.0011326533 0.64600003 0.074755117 1.6239086e-38 321 174
0.0022653067 0.64600003 0.074755117 1.6423481e-38 322 174
0.00339796 0.64600003 0.074755117 1.6239089e-38 323 174
0.0045306133 0.64600003 0.074755117 1.5594791e-38 324 174
0.0056632664 0.64600003 0.074755117 1.5318206e-38 325 174
0.00679592 0.64600003 0.074755117 1.5500425e-38 326 174
0.0079285735 0.64600003 0.074755117 1.5131644e-38 327 174
0.0090612266 0.64600003 0.074755117 1.5222751e-38 328 174
0.01019388 0.64600003 0.074755117 1.4945804e-38 329 174
0.011326533 0.64600003 0.074755117 1.4943636e-38 330 174
0.012459187 0.64600003 0.074755117 1.4943636e-38 331 174
0.01359184 0.64600003 0.074755117 1.4389017e-38 332 174
0.014747286 0.64700001 0.07487084 1.3835844e-38 333 174
0.015881693 0.64700001 0.07487084 1.3005714e-38 334 174
0.0170161 0.64700001 0.07487084 1.2175952e-38 335 174
0.018150507 0.64700001 0.07487084 1.0884482e-38 336 174
-0.00227232 0.648 0.073850393 1.0795928e-38 318 175
-0.0011344067 0.64700001 0.073736429 1.2178863e-38 319 175
0 0.64700001 0.073736429 1.365581e-38 320 175
0.0011326533 0.64600003 0.073622465 1.4854354e-38 321 175
0.0022653067 0.64600003 0.073622465 1.5684114e-38 322 175
0.00339796 0.64600003 0.073622465 1.596106e-38 323 175
0.0045306133 0.64600003 0.073622465 1.5961413e-38 324 175
0.0056632664 0.64600003 0.073622465 1.5868859e-38 325 175
0.0068064397 0.64700001 0.073736429 1.6143278e-38 326 175
0.0079285735 0.64600003 0.073622465 1.586705e-38 327 175
0.0090612266 0.64600003 0.073622465 1.5774123e-38 328 175
0.01020966 0.64700001 0.073736429 1.540534e-38 329 175
0.011344067 0.64700001 0.073736429 1.4851075e-38 330 175
0.012478473 0.64700001 0.073736429 1.4205705e-38 331 175
0.013612879 0.64700001 0.073736429 1.3742563e-38 332 175
0.014747286 0.64700001 0.073736429 1.2728051e-38 333 175
0.015881693 0.64700001 0.073736429 1.0518586e-38 334 175
0.0170161 0.64700001 0.073736429 9.8732169e-39 335 175
0 0.64700001 0.072602026 1.2175982e-38 320 176
0.0011344067 0.64700001 0.072602026 1.2913547e-38 321 176
0.0022688133 0.64700001 0.072602026 1.3466368e-38 322 176
0.0034032199 0.64700001 0.072602026 1.4019541e-38 323 176
0.0045376266 0.64700001 0.072602026 1.3837308e-38 324 176
0.0056720334 0.64700001 0.072602026 1.4022058e-38 325 176
0.0068064397 0.64700001 0.072602026 1.448051e-38 326 176
0.0079408465 0.64700001 0.072602026 1.4204283e-38 327 176
0.0090752533 0.64700001 0.072602026 1.4111357e-38 328 176
0.01020966 0.64700001 0.072602026 1.3558185e-38 329 176
0.011344067 0.64700001 0.072602026 1.2727338e-38 330 176
0.012478473 0.64700001 0.072602026 1.2081969e-38 331 176
0.013612879 0.64700001 0.072602026 1.1712104e-38 332 176
0.014747286 0.64700001 0.072602026 1.1619909e-38 333 176
0.00340848 0.648 0.071578078 1.134153e-38 323 177
0.00454464 0.648 0.071578078 1.0700123e-38 324 177
0.0056807999 0.648 0.071578078 1.0884514e-38 325 177
0.0068064397 0.64700001 0.071467623 1.0883791e-38 326 177
0.0079408465 0.64700001 0.071467623 1.06994e-38 327 177
0.0090892799 0.648 0.071578078 1.0330619e-38 328 177
0.01020966 0.64700001 0.071467623 1.0146226e-38 329 177
0.011344067 0.64700001 0.071467623 9.9600413e-39 330 177
0.012478473 0.64700001 0.071467623 9.9600413e-39 331 177
0.013612879 0.64700001 0.071467623 1.0328101e-38 332 177
0.0068064397 0.64700001 0.070333213 1.3184697e-38 326 178
0.0079408465 0.64700001 0.070333213 1.3092501e-38 327 178
-0.0024757064 0.70599997 0.024757065 1.3459138e-38 318 220
-0.0037398601 0.71100003 0.023685781 1.2909201e-38 317 221
-0.0024757064 0.70599997 0.023519212 1.3000328e-38 318 221
-0.0012378532 0.70599997 0.023519212 1.3184721e-38 319 221
-0.0050075199 0.71399999 0.022533838 1.3553496e-38 316 222
-0.0037398601 0.71100003 0.022439159 1.3369105e-38 317 222
-0.00248272 0.708 0.022344479 1.3092875e-38 318 222
-0.00124136 0.708 0.022344479 1.3000678e-38 319 222
-0.0062857 0.71700001 0.021371379 1.1440945e-38 315 223
-0.0050075199 0.71399999 0.021281958 1.3645695e-38 316 223
-0.0037398601 0.71100003 0.021192541 1.3369108e-38 317 223
-0.0024897333 0.70999998 0.021162732 1.2818086e-38 318 223
-0.0012448666 0.70999998 0.021162732 1.2725889e-38 319 223
0 0.70999998 0.021162732 1.2724814e-38 320 223
-0.0075954394 0.722 0.020254506 1.1255818e-38 314 224
-0.0062857 0.71700001 0.020114239 1.162424e-38 315 224
-0.0050075199 0.71399999 0.020030079 1.3185793e-38 316 224
-0.0037398601 0.71100003 0.01994592 1.3093597e-38 317 224
-0.0024897333 0.70999998 0.019917866 1.3001398e-38 318 224
-0.00124136 0.708 0.01986176 1.272517e-38 319 224
0 0.708 0.01986176 1.2541139e-38 320 224
-0.0075954394 0.722 0.0189886 1.1621714e-38 314 225
-0.0062857 0.71700001 0.018857099 1.2359279e-38 315 225
-0.0050075199 0.71399999 0.018778199 1.2910285e-38 316 225
-0.0037398601 0.71100003 0.0186993 1.281773e-38 317 225
-0.0024897333 0.70999998 0.018672999 1.272517e-38 318 225
-0.00124136 0.708 0.0186204 1.272517e-38 319 225
0 0.708 0.0186204 1.2633691e-38 320 225
-0.024218792 0.727 0.017845426 1.3473845e-38 301 226
-0.022944121 0.727 0.017845426 1.3471638e-38 302 226
-0.021669446 0.727 0.017845426 1.2826268e-38 303 226
-0.020394772 0.727 0.017845426 1.2183414e-38 304 226
-0.019120099 0.727 0.017845426 1.181463e-38 305 226
-0.017845426 0.727 0.017845426 1.1905067e-38 306 226
-0.0088736191 0.72299999 0.017747238 1.1893252e-38 313 226
-0.0076059597 0.72299999 0.017747238 1.2174517e-38 314 226
-0.0062857 0.71700001 0.017599959 1.2542941e-38 315 226
-0.0050075199 0.71399999 0.017526319 1.2635493e-38 316 226
-0.0037556398 0.71399999 0.017526319 1.2542938e-38 317 226
-0.0025037599 0.71399999 0.017526319 1.2818439e-38 318 226
0.025353199 0.72299999 0.017747238 1.1809647e-38 340 226
0.026620859 0.72299999 0.017747238 1.1164278e-38 341 226
0.02788852 0.72299999 0.017747238 9.8770873e-39 342 226
-0.024218792 0.727 0.016570752 1.3659324e-38 301 227
-0.022944121 0.727 0.016570752 1.4116301e-38 302 227
-0.021669446 0.727 0.016570752 1.3194345e-38 303 227
-0.020394772 0.727 0.016570752 1.2918814e-38 304 227
-0.019120099 0.727 0.016570752 1.2642227e-38 305 227
-0.017845426 0.727 0.016570752 1.1724622e-38 306 227
-0.016570752 0.727 0.016570752 1.1632427e-38 307 227
-0.015296079 0.727 0.016570752 1.1814672e-38 308 227
-0.013982833 0.72500002 0.016525166 1.1353694e-38 309 227
-0.012676599 0.72299999 0.01647958 1.1993679e-38 310 227
-0.01140894 0.72299999 0.01647958 1.217771e-38 311 227
-0.01014128 0.72299999 0.01647958 1.2909539e-38 312 227
-0.0088736191 0.72299999 0.01647958 1.2724789e-38 313 227
-0.0076059597 0.72299999 0.01647958 1.2634044e-38 314 227
-0.0063032326 0.71899998 0.016388407 1.2818437e-38 315 227
-0.0050285598 0.71700001 0.016342819 1.263549e-38 316 227
-0.0037714199 0.71700001 0.016342819 1.263549e-38 317 227
0.024052227 0.722 0.016456785 1.1346859e-38 339 227
0.025318133 0.722 0.016456785 9.5126137e-39 340 227
0.026620859 0.72299999 0.01647958 8.9594414e-39 341 227
0.02788852 0.72299999 0.01647958 9.5093515e-39 342 227
0.029236834 0.72500002 0.016525166 1.0062525e-38 343 227
-0.024252106 0.72799999 0.01531712 1.2461506e-38 301 228
-0.022975679 0.72799999 0.01531712 1.2922449e-38 302 228
-0.021699252 0.72799999 0.01531712 1.2645502e-38 303 228
-0.020394772 0.727 0.015296079 1.3562386e-38 304 228
-0.019120099 0.727 0.015296079 1.3285798e-38 305 228
-0.017845426 0.727 0.015296079 1.2552575e-38 306 228
-0.016570752 0.727 0.015296079 1.2552575e-38 307 228
-0.015296079 0.727 0.015296079 1.1356919e-38 308 228
-0.013982833 0.72500002 0.015254001 1.1172527e-38 309 228
-0.012676599 0.72299999 0.015211919 1.11693e-38 310 228
-0.01140894 0.72299999 0.015211919 1.1077105e-38 311 228
-0.01014128 0.72299999 0.015211919 1.1626706e-38 312 228
-0.0088736191 0.72299999 0.015211919 1.1442675e-38 313 228
-0.0075954394 0.722 0.015190879 1.2450373e-38 314 228
-0.0063120001 0.72000003 0.0151488 1.2542927e-38 315 228
-0.0050425865 0.71899998 0.01512776 1.2542218e-38 316 228
-0.0037714199 0.71700001 0.015085679 1.2726609e-38 317 228
-0.0025142799 0.71700001 0.015085679 1.2727688e-38 318 228
0.024052227 0.722 0.015190879 9.5108005e-39 339 228
0.025318133 0.722 0.015190879 9.6033072e-39 340 228
0.026620859 0.72299999 0.015211919 9.4185572e-39 341 228
0.02788852 0.72299999 0.015211919 9.9692423e-39 342 228
0.029236834 0.72500002 0.015254001 1.0522056e-38 343 228
-0.025598666 0.73000002 0.014079267 1.1721773e-38 300 229
-0.024318734 0.73000002 0.014079267 1.1260795e-38 301 229
-0.023038799 0.73000002 0.014079267 1.1358366e-38 302 229
-0.021699252 0.72799999 0.014040692 1.2464355e-38 303 229
-0.020422826 0.72799999 0.014040692 1.4022307e-38 304 229
-0.0191464 0.72799999 0.014040692 1.3561329e-38 305 229
-0.017869972 0.72799999 0.014040692 1.2918831e-38 306 229
-0.016593546 0.72799999 0.014040692 1.2734439e-38 307 229
-0.01531712 0.72799999 0.014040692 1.1357972e-38 308 229
-0.013982833 0.72500002 0.013982833 1.0804799e-38 309 229
-0.012676599 0.72299999 0.01394426 1.0252331e-38 310 229
-0.01140894 0.72299999 0.01394426 1.0252331e-38 311 229
-0.01014128 0.72299999 0.01394426 1.107744e-38 312 229
-0.0088736191 0.72299999 0.01394426 1.1169635e-38 313 229
-0.0075954394 0.722 0.013924973 1.2175919e-38 314 229
-0.0063120001 0.72000003 0.0138864 1.235995e-38 315 229
-0.0050425865 0.71899998 0.013867113 1.2359977e-38 316 229
-0.0037714199 0.71700001 0.013828539 1.2359977e-38 317 229
-0.0025142799 0.71700001 0.013828539 1.2267426e-38 318 229
0.02281788 0.72299999 0.01394426 9.2374099e-39 338 229
0.024085538 0.72299999 0.01394426 8.7767905e-39 339 229
0.025353199 0.72299999 0.01394426 9.5107584e-39 340 229
0.026694499 0.72500002 0.013982833 9.602954e-39 341 229
0.027965667 0.72500002 0.013982833 1.0336593e-38 342 229
0.029357811 0.72799999 0.014040692 1.0889766e-38 343 229
0.030718399 0.73000002 0.014079267 1.1991483e-38 344 229
-0.027209979 0.73900002 0.012957133 1.3925507e-38 299 230
-0.025703866 0.73299998 0.012851933 1.3100765e-38 300 230
-0.024418673 0.73299998 0.012851933 1.3284796e-38 301 230
-0.02307036 0.73100001 0.012816866 1.292104e-38 302 230
-0.021758866 0.73000002 0.012799333 1.3474213e-38 303 230
-0.020478934 0.73000002 0.012799333 1.4025207e-38 304 230
-0.0191464 0.72799999 0.012764266 1.3563868e-38 305 230
-0.017869972 0.72799999 0.012764266 1.3562389e-38 306 230
-0.016593546 0.72799999 0.012764266 1.3009215e-38 307 230
-0.01531712 0.72799999 0.012764266 1.1633075e-38 308 230
-0.013982833 0.72500002 0.012711667 1.0987706e-38 309 230
-0.012676599 0.72299999 0.012676599 1.0068596e-38 310 230
-0.01140894 0.72299999 0.012676599 1.0160791e-38 311 230
-0.01014128 0.72299999 0.012676599 1.0344486e-38 312 230
-0.0088736191 0.72299999 0.012676599 1.0344486e-38 313 230
-0.0075954394 0.722 0.012659066 9.9746849e-39 314 230
-0.0063120001 0.72000003 0.012624 1.0159076e-38 315 230
-0.0050496003 0.72000003 0.012624 1.0800893e-38 316 230
-0.0037714199 0.71700001 0.0125714 1.0893089e-38 317 230
-0.0025142799 0.71700001 0.0125714 1.144124e-38 318 230
0.015211919 0.72299999 0.012676599 1.1259328e-38 332 230
0.01647958 0.72299999 0.012676599 1.0982741e-38 333 230
0.017747238 0.72299999 0.012676599 9.9725045e-39 334 230
0.021669446 0.727 0.012746733 9.5114619e-39 337 230
0.02281788 0.72299999 0.012676599 9.6036421e-39 338 230
0.024085538 0.72299999 0.012676599 9.3266951e-39 339 230
0.025353199 0.72299999 0.012676599 9.2341785e-39 340 230
0.026694499 0.72500002 0.012711667 9.5104053e-39 341 230
0.027965667 0.72500002 0.012711667 1.0521005e-38 342 230
0.029357811 0.72799999 0.012764266 1.1166374e-38 343 230
0.030718399 0.73000002 0.012799333 1.1715993e-38 344 230
0.031998333 0.73000002 0.012799333 1.199258e-38 345 230
-0.027209979 0.73900002 0.01166142 1.4110273e-38 299 231
-0.025879199 0.73799998 0.011645639 1.3652534e-38 300 231
-0.024418673 0.73299998 0.011566739 1.4851077e-38 301 231
-0.023133477 0.73299998 0.011566739 1.402563e-38 302 231
-0.021788673 0.73100001 0.01153518 1.3656847e-38 303 231
-0.020506985 0.73100001 0.01153518 1.3934121e-38 304 231
-0.019199001 0.73000002 0.011519399 1.3657175e-38 305 231
-0.017919067 0.73000002 0.011519399 1.3562739e-38 306 231
-0.016593546 0.72799999 0.01148784 1.291737e-38 307 231
-0.01531712 0.72799999 0.01148784 1.1907807e-38 308 231
-0.014021406 0.727 0.01147206 1.1354633e-38 309 231
-0.012711667 0.72500002 0.0114405 1.062064e-38 310 231
-0.01140894 0.72299999 0.01140894 1.0528444e-38 311 231
-0.01014128 0.72299999 0.01140894 1.0070709e-38 312 231
-0.0088736191 0.72299999 0.01140894 9.6097307e-39 313 231
-0.0075954394 0.722 0.01139316 9.2413336e-39 314 231
-0.0063295332 0.722 0.01139316 9.2413336e-39 315 231
-0.0050496003 0.72000003 0.011361601 9.6083687e-39 316 231
-0.0037819401 0.71899998 0.01134582 9.8845954e-39 317 231
-0.0025212932 0.71899998 0.01134582 1.0616084e-38 318 231
-0.0012624001 0.72000003 0.011361601 1.0339858e-38 319 231
0.01140894 0.72299999 0.01140894 1.052317e-38 329 231
0.012676599 0.72299999 0.01140894 1.0431662e-38 330 231
0.01394426 0.72299999 0.01140894 1.024727e-38 331 231
0.015211919 0.72299999 0.01140894 9.696572e-39 332 231
0.01647958 0.72299999 0.01140894 9.3277909e-39 333 231
0.017747238 0.72299999 0.01140894 9.4214116e-39 334 231
0.019014901 0.72299999 0.01140894 9.4214116e-39 335 231
0.020394772 0.727 0.01147206 9.3284999e-39 336 231
0.021669446 0.727 0.01147206 9.1437499e-39 337 231
0.022944121 0.727 0.01147206 9.3252783e-39 338 231
0.024252106 0.72799999 0.01148784 9.1405284e-39 339 231
0.025528532 0.72799999 0.01148784 9.3242358e-39 340 231
0.026804959 0.72799999 0.01148784 9.9696052e-39 341 231
0.028158534 0.73000002 0.011519399 1.107205e-38 342 231
0.029438468 0.73000002 0.011519399 1.1625224e-38 343 231
0.03076048 0.73100001 0.01153518 1.1531987e-38 344 231
-0.027209979 0.73900002 0.010365707 1.2726629e-38 299 232
-0.025879199 0.73799998 0.010351679 1.3192289e-38 300 232
-0.024451986 0.73400003 0.010295574 1.4575582e-38 301 232
-0.023165042 0.73400003 0.010295574 1.3749416e-38 302 232
-0.021848286 0.73299998 0.010281546 1.3565023e-38 303 232
-0.020506985 0.73100001 0.010253493 1.2460803e-38 304 232
-0.019199001 0.73000002 0.010239467 1.2184576e-38 305 232
-0.017919067 0.73000002 0.010239467 1.3382326e-38 306 232
-0.016593546 0.72799999 0.010211413 1.2552926e-38 307 232
-0.01531712 0.72799999 0.010211413 1.2551028e-38 308 232
-0.014021406 0.727 0.010197386 1.1997854e-38 309 232
-0.012711667 0.72500002 0.010169334 1.1264556e-38 310 232
-0.01140894 0.72299999 0.01014128 1.0895421e-38 311 232
-0.01014128 0.72299999 0.01014128 9.8866651e-39 312 232
-0.0088736191 0.72299999 0.01014128 9.5178882e-39 313 232
-0.0075954394 0.722 0.010127253 9.3334998e-39 314 232
-0.0063295332 0.722 0.010127253 9.3334998e-39 315 232
-0.0050496003 0.72000003 0.010099201 9.4242857e-39 316 232
-0.0037819401 0.71899998 0.010085173 9.4242857e-39 317 232
-0.0025212932 0.71899998 0.010085173 1.0064655e-38 318 232
-0.0012624001 0.72000003 0.010099201 9.7880684e-39 319 232
0 0.72000003 0.010099201 1.0246901e-38 320 232
0.0012624001 0.72000003 0.010099201 1.0154706e-38 321 232
0.0025248001 0.72000003 0.010099201 9.9717716e-39 322 232
0.0037872 0.72000003 0.010099201 9.9717716e-39 323 232
0.0075954394 0.722 0.010127253 9.1477577e-39 326 232
0.0088613462 0.722 0.010127253 8.8711694e-39 327 232
0.010127253 0.722 0.010127253 9.7898634e-39 328 232
0.01139316 0.722 0.010127253 9.7898634e-39 329 232
0.012676599 0.72299999 0.01014128 9.8806017e-39 330 232
0.01394426 0.72299999 0.01014128 9.8806017e-39 331 232
0.015211919 0.72299999 0.01014128 9.7887494e-39 332 232
0.01647958 0.72299999 0.01014128 9.7887494e-39 333 232
0.017747238 0.72299999 0.01014128 9.6061574e-39 334 232
0.019014901 0.72299999 0.01014128 9.3295691e-39 335 232
0.020394772 0.727 0.010197386 9.4178215e-39 336 232
0.021669446 0.727 0.010197386 9.3256259e-39 337 232
0.022975679 0.72799999 0.010211413 9.4156859e-39 338 232
0.024252106 0.72799999 0.010211413 9.1394592e-39 339 232
0.025528532 0.72799999 0.010211413 9.9681885e-39 340 232
0.026878599 0.73000002 0.010239467 1.1258569e-38 341 232
0.028158534 0.73000002 0.010239467 1.1165337e-38 342 232
0.029438468 0.73000002 0.010239467 1.0981306e-38 343 232
-0.027173158 0.73799998 0.0090577193 1.2908872e-38 299 233
-0.025879199 0.73799998 0.0090577193 1.1813326e-38 300 233
-0.024585238 0.73799998 0.0090577193 1.3472849e-38 301 233
-0.023291279 0.73799998 0.0090577193 1.4117119e-38 302 233
-0.021878093 0.73400003 0.0090086265 1.4024924e-38 303 233
-0.020563092 0.73299998 0.0089963535 1.2092743e-38 304 233
-0.019225299 0.73100001 0.0089718066 1.1078591e-38 305 233
-0.017919067 0.73000002 0.0089595336 1.2278527e-38 306 233
-0.016639132 0.73000002 0.0089595336 1.246256e-38 307 233
-0.01531712 0.72799999 0.0089349858 1.2643619e-38 308 233
-0.014021406 0.727 0.0089227129 1.199825e-38 309 233
-0.012711667 0.72500002 0.0088981669 1.1815569e-38 310 233
-0.0114405 0.72500002 0.0088981669 1.1354598e-38 311 233
-0.01014128 0.72299999 0.0088736191 1.107945e-38 312 233
-0.0088736191 0.72299999 0.0088736191 1.0802509e-38 313 233
-0.0075954394 0.722 0.0088613462 1.0527361e-38 314 233
-0.0063295332 0.722 0.0088613462 1.0527361e-38 315 233
-0.0050496003 0.72000003 0.0088367993 1.0618122e-38 316 233
-0.0037872 0.72000003 0.0088367993 1.0249344e-38 317 233
-0.0025248001 0.72000003 0.0088367993 9.9724176e-39 318 233
-0.0012624001 0.72000003 0.0088367993 1.015681e-38 319 233
0 0.72000003 0.0088367993 8.962251e-39 320 233
0.0012624001 0.72000003 0.0088367993 9.054448e-39 321 233
0.0025248001 0.72000003 0.0088367993 8.6878095e-39 322 233
0.0037872 0.72000003 0.0088367993 8.6878095e-39 323 233
0.0050636264 0.722 0.0088613462 8.7796169e-39 324 233
0.0063295332 0.722 0.0088613462 8.7796169e-39 325 233
0.0075954394 0.722 0.0088613462 9.0547745e-39 326 233
0.0088613462 0.722 0.0088613462 9.0547745e-39 327 233
0.010127253 0.722 0.0088613462 8.229355e-39 328 233
0.01139316 0.722 0.0088613462 8.1371594e-39 329 233
0.012676599 0.72299999 0.0088736191 8.5949132e-39 330 233
0.01394426 0.72299999 0.0088736191 8.5949132e-39 331 233
0.015211919 0.72299999 0.0088736191 9.0551725e-39 332 233
0.016525166 0.72500002 0.0088981669 9.2395637e-39 333 233
0.017796334 0.72500002 0.0088981669 1.0432342e-38 334 233
0.0190675 0.72500002 0.0088981669 9.4181914e-39 335 233
0.020422826 0.72799999 0.0089349858 8.9572133e-39 336 233
0.021699252 0.72799999 0.0089349858 9.1416031e-39 337 233
0.022975679 0.72799999 0.0089349858 9.5078872e-39 338 233
0.024318734 0.73000002 0.0089595336 9.9685066e-39 339 233
0.025598666 0.73000002 0.0089595336 1.1163151e-38 340 233
0.026878599 0.73000002 0.0089595336 1.2085106e-38 341 233
0.028158534 0.73000002 0.0089595336 1.107207e-38 342 233
0.029801406 0.73900002 0.0090699932 1.1256461e-38 343 233
0.03109712 0.73900002 0.0090699932 1.1623817e-38 344 233
-0.027209979 0.73900002 0.0077742799 1.2723035e-38 299 234
-0.025914267 0.73900002 0.0077742799 8.8702557e-39 300 234
-0.024585238 0.73799998 0.0077637597 1.1820157e-38 301 234
-0.023291279 0.73799998 0.0077637597 1.4391917e-38 302 234
-0.021937706 0.736 0.0077427197 1.4299362e-38 303 234
-0.020591147 0.73400003 0.0077216802 1.3013256e-38 304 234
-0.019277899 0.73299998 0.0077111595 1.1630322e-38 305 234
-0.017943613 0.73100001 0.00769012 9.7017358e-39 306 234
-0.016639132 0.73000002 0.0076795998 1.0900279e-38 307 234
-0.0153592 0.73000002 0.0076795998 1.319651e-38 308 234
-0.014040692 0.72799999 0.0076585598 1.2920282e-38 309 234
-0.012746733 0.727 0.0076480396 1.2552135e-38 310 234
-0.0114405 0.72500002 0.0076270006 1.1169201e-38 311 234
-0.01014128 0.72299999 0.0076059597 1.0894728e-38 312 234
-0.0088736191 0.72299999 0.0076059597 1.0986924e-38 313 234
-0.0076059597 0.72299999 0.0076059597 1.1353933e-38 314 234
-0.0063295332 0.722 0.0075954394 1.1814552e-38 315 234
-0.0050636264 0.722 0.0075954394 1.236486e-38 316 234
-0.0037872 0.72000003 0.0075743999 1.1903883e-38 317 234
-0.0025248001 0.72000003 0.0075743999 1.0709264e-38 318 234
-0.0012659066 0.722 0.0075954394 1.0063894e-38 319 234
0 0.722 0.0075954394 8.5048279e-39 320 234
0.0012659066 0.722 0.0075954394 8.4126337e-39 321 234
0.0025318132 0.722 0.0075954394 8.1374859e-39 322 234
0.0037977197 0.722 0.0075954394 8.1374859e-39 323 234
0.0050636264 0.722 0.0075954394 8.4115575e-39 324 234
0.0063295332 0.722 0.0075954394 8.4115575e-39 325 234
0.0076059597 0.72299999 0.0076059597 8.2278865e-39 326 234
0.0088736191 0.72299999 0.0076059597 8.2278865e-39 327 234
0.01014128 0.72299999 0.0076059597 8.2275278e-39 328 234
0.01140894 0.72299999 0.0076059597 8.2275278e-39 329 234
0.012711667 0.72500002 0.0076270006 8.2246677e-39 330 234
0.013982833 0.72500002 0.0076270006 8.2246677e-39 331 234
0.015254001 0.72500002 0.0076270006 9.4232515e-39 332 234
0.016525166 0.72500002 0.0076270006 9.2388603e-39 333 234
0.017796334 0.72500002 0.0076270006 9.694449e-39 334 234
0.0190675 0.72500002 0.0076270006 9.2334723e-39 335 234
0.020422826 0.72799999 0.0076585598 9.7837524e-39 336 234
0.021699252 0.72799999 0.0076585598 9.7837524e-39 337 234
0.022975679 0.72799999 0.0076585598 1.0609958e-38 338 234
0.024318734 0.73000002 0.0076795998 1.1716306e-38 339 234
0.025633732 0.73100001 0.00769012 1.2174823e-38 340 234
0.026915418 0.73100001 0.00769012 1.1990432e-38 341 234
0.028467119 0.73799998 0.0077637597 1.1531621e-38 342 234
0.029801406 0.73900002 0.0077742799 1.1900404e-38 343 234
0.03109712 0.73900002 0.0077742799 1.1988656e-38 344 234
-0.027209979 0.73900002 0.0064785667 1.2541522e-38 299 235
-0.025914267 0.73900002 0.0064785667 8.8637887e-39 300 235
-0.024618553 0.73900002 0.0064785667 1.0707701e-38 301 235
-0.023322839 0.73900002 0.0064785667 1.3287737e-38 302 235
-0.021997318 0.73799998 0.0064697997 1.4117138e-38 303 235
-0.020647252 0.736 0.0064522666 1.3748668e-38 304 235
-0.019304199 0.73400003 0.006434733 1.2550483e-38 305 235
-0.017992707 0.73299998 0.0064259665 9.5155424e-39 306 235
-0.016661927 0.73100001 0.006408433 1.0529696e-38 307 235
-0.0153592 0.73000002 0.0063996664 1.1818635e-38 308 235
-0.014079267 0.73000002 0.0063996664 1.2279613e-38 309 235
-0.012746733 0.727 0.0063733663 1.3013531e-38 310 235
-0.0114405 0.72500002 0.0063558333 1.1999379e-38 311 235
-0.010169334 0.72500002 0.0063558333 1.1631978e-38 312 235
-0.0088981669 0.72500002 0.0063558333 1.1171e-38 313 235
-0.0076059597 0.72299999 0.0063382997 1.2181209e-38 314 235
-0.0063382997 0.72299999 0.0063382997 1.2458154e-38 315 235
-0.0050636264 0.722 0.0063295332 1.1722751e-38 316 235
-0.0037977197 0.722 0.0063295332 1.0985185e-38 317 235
-0.0025318132 0.722 0.0063295332 9.698353e-39 318 235
-0.0012659066 0.722 0.0063295332 9.4217647e-39 319 235
0 0.722 0.0063295332 8.7806931e-39 320 235
0.0012659066 0.722 0.0063295332 8.6884989e-39 321 235
0.0025318132 0.722 0.0063295332 8.3200807e-39 322 235
0.0037977197 0.722 0.0063295332 8.3200807e-39 323 235
0.0050636264 0.722 0.0063295332 7.9516625e-39 324 235
0.0063382997 0.72299999 0.0063382997 7.8594683e-39 325 235
0.0076059597 0.72299999 0.0063382997 7.6757973e-39 326 235
0.0088736191 0.72299999 0.0063382997 7.5836031e-39 327 235
0.010169334 0.72500002 0.0063558333 7.6750798e-39 328 235
0.0114405 0.72500002 0.0063558333 7.6750798e-39 329 235
0.012746733 0.727 0.0063733663 7.4896362e-39 330 235
0.014021406 0.727 0.0063733663 7.4896362e-39 331 235
0.015296079 0.727 0.0063733663 8.5927874e-39 332 235
0.016570752 0.727 0.0063733663 8.684983e-39 333 235
0.017845426 0.727 0.0063733663 9.1409235e-39 334 235
0.019120099 0.727 0.0063733663 9.1409235e-39 335 235
0.020422826 0.72799999 0.0063821329 1.0060339e-38 336 235
0.021758866 0.73000002 0.0063996664 1.0060339e-38 337 235
0.023038799 0.73000002 0.0063996664 1.1161352e-38 338 235
0.024352046 0.73100001 0.006408433 1.2544287e-38 339 235
0.025633732 0.73100001 0.006408433 1.2083726e-38 340 235
0.026989058 0.73299998 0.0064259665 1.1530552e-38 341 235
0.028505694 0.73900002 0.0064785667 1.1346527e-38 342 235
0.029882059 0.741 0.0064960998 1.1715309e-38 343 235
0.03118128 0.741 0.0064960998 1.2446407e-38 344 235
0.032480497 0.741 0.0064960998 1.216982e-38 345 235
-0.025984399 0.741 0.0051968796 1.0240239e-38 300 236
-0.023385961 0.741 0.0051968796 1.1353071e-38 302 236
-0.022027127 0.73900002 0.0051828534 1.3565766e-38 303 236
-0.020703359 0.73799998 0.0051758396 1.4485166e-38 304 236
-0.019304199 0.73400003 0.0051477868 1.3655406e-38 305 236
-0.018017253 0.73400003 0.0051477868 1.0618635e-38 306 236
-0.016707512 0.73299998 0.005140773 9.9732654e-39 307 236
-0.01538024 0.73100001 0.0051267464 9.5162431e-39 308 236
-0.014079267 0.73000002 0.0051197335 1.0991373e-38 309 236
-0.012764266 0.72799999 0.0051057064 1.3106507e-38 310 236
-0.01147206 0.727 0.0050986931 1.3106507e-38 311 236
-0.010197386 0.727 0.0050986931 1.2829155e-38 312 236
-0.0089227129 0.727 0.0050986931 1.1538416e-38 313 236
-0.0076270006 0.72500002 0.0050846669 1.2273407e-38 314 236
-0.0063558333 0.72500002 0.0050846669 1.199646e-38 315 236
-0.0050706398 0.72299999 0.0050706398 1.0711434e-38 316 236
-0.0038029798 0.72299999 0.0050706398 9.881315e-39 317 236
-0.0025353199 0.72299999 0.0050706398 8.8714524e-39 318 236
-0.0012676599 0.72299999 0.0050706398 8.8714524e-39 319 236
0 0.72299999 0.0050706398 8.5041104e-39 320 236
0.0012676599 0.72299999 0.0050706398 8.5041104e-39 321 236
0.0025353199 0.72299999 0.0050706398 8.3200807e-39 322 236
0.0038029798 0.72299999 0.0050706398 8.3200807e-39 323 236
0.0050706398 0.72299999 0.0050706398 8.0438568e-39 324 236
0.0063382997 0.72299999 0.0050706398 7.8591096e-39 325 236
0.0076270006 0.72500002 0.0050846669 7.8591096e-39 326 236
0.0088981669 0.72500002 0.0050846669 7.7669153e-39 327 236
0.010169334 0.72500002 0.0050846669 7.5832443e-39 328 236
0.0114405 0.72500002 0.0050846669 7.5832443e-39 329 236
0.012746733 0.727 0.0050986931 8.0409925e-39 330 236
0.014021406 0.727 0.0050986931 8.0409925e-39 331 236
0.015296079 0.727 0.0050986931 8.3147334e-39 332 236
0.016570752 0.727 0.0050986931 8.4991246e-39 333 236
0.017845426 0.727 0.0050986931 9.8755977e-39 334 236
0.0191464 0.72799999 0.0051057064 1.024438e-38 335 236
0.020422826 0.72799999 0.0051057064 1.0428062e-38 336 236
0.021758866 0.73000002 0.0051197335 1.0612454e-38 337 236
0.02307036 0.73100001 0.0051267464 1.1439031e-38 338 236
0.024451986 0.73400003 0.0051477868 1.20844e-38 339 236
0.025738932 0.73400003 0.0051477868 1.153164e-38 340 236
0.027209979 0.73900002 0.0051828534 1.070188e-38 341 236
0.028582839 0.741 0.0051968796 1.0791933e-38 342 236
0.029882059 0.741 0.0051968796 1.106816e-38 343 236
0.03118128 0.741 0.0051968796 1.216875e-38 344 236
0.032524332 0.74199998 0.0052038929 1.2814119e-38 345 236
0.033825304 0.74199998 0.0052038929 1.76054e-38 346 236
-0.026440267 0.75400001 0.00396604 1.2817032e-38 300 237
-0.025118252 0.75400001 0.00396604 1.1618489e-38 301 237
-0.022325192 0.74900001 0.0039397399 1.1258354e-38 303 237
-0.020787518 0.741 0.0038976599 1.3471756e-38 304 237
-0.019356798 0.736 0.0038713599 1.4024571e-38 305 237
-0.018066347 0.736 0.0038713599 1.3009623e-38 306 237
-0.016730307 0.73400003 0.0038608401 1.1534493e-38 307 237
-0.015422319 0.73299998 0.0038555798 9.791388e-39 308 237
-0.014137126 0.73299998 0.0038555798 1.0344562e-38 309 237
-0.012799333 0.73000002 0.0038397999 1.0256001e-38 310 237
-0.01148784 0.72799999 0.0038292799 1.1362349e-38 311 237
-0.010197386 0.727 0.0038240198 1.3840109e-38 312 237
-0.0089227129 0.727 0.0038240198 1.319474e-38 313 237
-0.0076480396 0.727 0.0038240198 1.2365603e-38 314 237
-0.0063558333 0.72500002 0.0038135003 1.0890473e-38 315 237
-0.0050846669 0.72500002 0.0038135003 9.6082888e-39 316 237
-0.0038029798 0.72299999 0.0038029798 9.1473176e-39 317 237
-0.0025353199 0.72299999 0.0038029798 8.8728874e-39 318 237
-0.0012676599 0.72299999 0.0038029798 8.6884989e-39 319 237
0 0.72500002 0.0038135003 8.1374859e-39 320 237
0.0012711667 0.72500002 0.0038135003 8.1374859e-39 321 237
0.0025423334 0.72500002 0.0038135003 8.5041104e-39 322 237
0.0038135003 0.72500002 0.0038135003 8.5041104e-39 323 237
0.0050846669 0.72500002 0.0038135003 8.4115575e-39 324 237
0.0063558333 0.72500002 0.0038135003 8.227169e-39 325 237
0.0076480396 0.727 0.0038240198 8.1346161e-39 326 237
0.0089227129 0.727 0.0038240198 7.8583921e-39 327 237
0.010197386 0.727 0.0038240198 7.5832443e-39 328 237
0.01147206 0.727 0.0038240198 7.4910501e-39 329 237
0.012764266 0.72799999 0.0038292799 8.0409869e-39 330 237
0.014040692 0.72799999 0.0038292799 8.1331811e-39 331 237
0.01531712 0.72799999 0.0038292799 8.8653834e-39 332 237
0.016593546 0.72799999 0.0038292799 9.4185572e-39 333 237
0.017869972 0.72799999 0.0038292799 1.1256377e-38 334 237
0.0191464 0.72799999 0.0038292799 1.1072346e-38 335 237
0.020422826 0.72799999 0.0038292799 1.042809e-38 336 237
0.021758866 0.73000002 0.0038397999 1.0981264e-38 337 237
0.023133477 0.73299998 0.0038555798 1.1807482e-38 338 237
0.024585238 0.73799998 0.0038818798 1.2084429e-38 339 237
0.025914267 0.73900002 0.00388714 1.1529142e-38 340 237
0.027283618 0.741 0.0038976599 9.408643e-39 341 237
0.028582839 0.741 0.0038976599 8.9494823e-39 342 237
0.029922385 0.74199998 0.0039029196 9.5026561e-39 343 237
0.031223357 0.74199998 0.0039029196 1.161954e-38 344 237
0.032524332 0.74199998 0.0039029196 1.2910279e-38 345 237
0.033825304 0.74199998 0.0039029196 1.7606479e-38 346 237
-0.026440267 0.75400001 0.0026440267 1.4753138e-38 300 238
-0.025118252 0.75400001 0.0026440267 1.3278006e-38 301 238
-0.023733119 0.75199997 0.0026370131 9.9661762e-39 302 238
-0.022325192 0.74900001 0.0026264933 8.3984918e-39 303 238
-0.020955838 0.74699998 0.0026194798 1.0890646e-38 304 238
-0.019567199 0.74400002 0.00260896 1.3564321e-38 305 238
-0.018115439 0.73799998 0.0025879198 1.4021299e-38 306 238
-0.016775893 0.736 0.0025809065 1.2545808e-38 307 238
-0.015485439 0.736 0.0025809065 1.0987057e-38 308 238
-0.014156413 0.73400003 0.0025738934 1.0249492e-38 309 238
-0.012851933 0.73299998 0.0025703865 8.504968e-39 310 238
-0.01153518 0.73100001 0.0025633732 1.0072295e-38 311 238
-0.010239467 0.73000002 0.0025598668 1.2645179e-38 312 238
-0.0089349858 0.72799999 0.0025528532 1.3106157e-38 313 238
-0.0076585598 0.72799999 0.0025528532 1.273548e-38 314 238
-0.0063821329 0.72799999 0.0025528532 1.0522426e-38 315 238
-0.0050986931 0.727 0.0025493465 9.2405881e-39 316 238
-0.0038135003 0.72500002 0.0025423334 9.2405881e-39 317 238
-0.0025423334 0.72500002 0.0025423334 9.3324236e-39 318 238
-0.0012711667 0.72500002 0.0025423334 9.1480351e-39 319 238
0 0.727 0.0025493465 9.3313474e-39 320 238
0.0012764266 0.72799999 0.0025528532 9.4235416e-39 321 238
0.0025528532 0.72799999 0.0025528532 9.5150184e-39 322 238
0.0038292799 0.72799999 0.0025528532 9.4228241e-39 323 238
0.0051057064 0.72799999 0.0025528532 9.0547647e-39 324 238
0.0063821329 0.72799999 0.0025528532 8.7778233e-39 325 238
0.0076585598 0.72799999 0.0025528532 8.4104813e-39 326 238
0.0089349858 0.72799999 0.0025528532 8.0417044e-39 327 238
0.010211413 0.72799999 0.0025528532 7.5832443e-39 328 238
0.01148784 0.72799999 0.0025528532 7.4910501e-39 329 238
0.012764266 0.72799999 0.0025528532 8.2239404e-39 330 238
0.014040692 0.72799999 0.0025528532 8.5008846e-39 331 238
0.01531712 0.72799999 0.0025528532 9.9699415e-39 332 238
0.016593546 0.72799999 0.0025528532 1.0707508e-38 333 238
0.017869972 0.72799999 0.0025528532 1.1072716e-38 334 238
0.019199001 0.73000002 0.0025598668 1.0980519e-38 335 238
0.020478934 0.73000002 0.0025598668 1.1163167e-38 336 238
0.021788673 0.73100001 0.0025633732 1.1900732e-38 337 238
0.023165042 0.73400003 0.0025738934 1.2082669e-38 338 238
0.024618553 0.73900002 0.0025914267 1.2174865e-38 339 238
0.025984399 0.741 0.0025984398 1.1343697e-38 340 238
0.027320439 0.74199998 0.0026019465 8.1168504e-39 341 238
0.028621411 0.74199998 0.0026019465 8.669671e-39 342 238
0.029922385 0.74199998 0.0026019465 9.5916273e-39 343 238
0.031307522 0.74400002 0.00260896 1.1527347e-38 344 238
0.032612 0.74400002 0.00260896 1.3371259e-38 345 238
0.033916477 0.74400002 0.00260896 1.7974908e-38 346 238
-0.026440267 0.75400001 0.0013220133 1.3836226e-38 300 239
-0.025118252 0.75400001 0.0013220133 1.3836226e-38 301 239
-0.023733119 0.75199997 0.0013185065 1.1530259e-38 302 239
-0.022414612 0.75199997 0.0013185065 9.3172041e-39 303 239
-0.021011947 0.74900001 0.0013132467 9.2264546e-39 304 239
-0.019646099 0.74699998 0.0013097399 9.9643783e-39 305 239
-0.018336359 0.74699998 0.0013097399 8.8619838e-39 306 239
-0.016821479 0.73799998 0.0012939599 8.6779527e-39 307 239
-0.015485439 0.736 0.0012904532 9.9729669e-39 308 239
-0.014194986 0.736 0.0012904532 1.0987117e-38 309 239
-0.012869466 0.73400003 0.0012869467 1.1171121e-38 310 239
-0.011566739 0.73299998 0.0012851933 1.0249164e-38 311 239
-0.010253493 0.73100001 0.0012816866 8.8759534e-39 312 239
-0.0089595336 0.73000002 0.0012799334 1.0351083e-38 313 239
-0.0076795998 0.73000002 0.0012799334 1.3010695e-38 314 239
-0.0063996664 0.73000002 0.0012799334 1.2089099e-38 315 239
-0.0051057064 0.72799999 0.0012764266 1.0803685e-38 316 239
-0.0038292799 0.72799999 0.0012764266 1.006612e-38 317 239
-0.0025528532 0.72799999 0.0012764266 9.7905697e-39 318 239
-0.0012764266 0.72799999 0.0012764266 9.8827653e-39 319 239
0 0.72799999 0.0012764266 1.0893296e-38 320 239
0.0012799334 0.73000002 0.0012799334 1.0709264e-38 321 239
0.0025598668 0.73000002 0.0012799334 1.0159317e-38 322 239
0.0038292799 0.72799999 0.0012764266 9.7901745e-39 323 239
0.0051057064 0.72799999 0.0012764266 9.4206717e-39 324 239
0.0063821329 0.72799999 0.0012764266 8.9597006e-39 325 239
0.0076795998 0.73000002 0.0012799334 8.1338986e-39 326 239
0.0089595336 0.73000002 0.0012799334 8.0417044e-39 327 239
0.010239467 0.73000002 0.0012799334 7.7665566e-39 328 239
0.011519399 0.73000002 0.0012799334 7.8587508e-39 329 239
0.012799333 0.73000002 0.0012799334 8.7753261e-39 330 239
0.014079267 0.73000002 0.0012799334 9.4206956e-39 331 239
0.0153592 0.73000002 0.0012799334 1.1717362e-38 332 239
0.016639132 0.73000002 0.0012799334 1.1440775e-38 333 239
0.017919067 0.73000002 0.0012799334 1.0703971e-38 334 239
0.019225299 0.73100001 0.0012816866 1.0980558e-38 335 239
0.020506985 0.73100001 0.0012816866 1.1531619e-38 336 239
0.021878093 0.73400003 0.0012869467 1.1624173e-38 337 239
0.023322839 0.73900002 0.0012957134 1.1712813e-38 338 239
0.024685178 0.741 0.0012992199 1.1805009e-38 339 239
0.026019465 0.74199998 0.0013009732 9.8700093e-39 340 239
0.027320439 0.74199998 0.0013009732 6.7357166e-39 341 239
0.028621411 0.74199998 0.0013009732 9.6830999e-39 342 239
0.029922385 0.74199998 0.0013009732 1.1803599e-38 343 239
0.031307522 0.74400002 0.00130448 1.272337e-38 344 239
0.032612 0.74400002 0.00130448 1.3829716e-38 345 239
-0.029817186 0.773 -0 1.4661294e-38 298 240
-0.028461859 0.773 -0 1.4200317e-38 299 240
-0.026440267 0.75400001 -0 1.3100822e-38 300 240
-0.025118252 0.75400001 -0 1.3746191e-38 301 240
-0.02379624 0.75400001 -0 1.2914263e-38 302 240
-0.022474226 0.75400001 -0 1.0978155e-38 303 240
-0.02104 0.75 -0 1.0147672e-38 304 240
-0.0196987 0.74900001 -0 9.8710841e-39 305 240
-0.018385453 0.74900001 -0 8.7647758e-39 306 240
-0.016844273 0.73900002 -0 6.8290263e-39 307 240
-0.015527519 0.73799998 -0 9.0507163e-39 308 240
-0.014233559 0.73799998 -0 1.006487e-38 309 240
-0.012904533 0.736 -0 1.2366462e-38 310 240
-0.011582521 0.73400003 -0 1.2089875e-38 311 240
-0.010281546 0.73299998 -0 1.0160934e-38 312 240
-0.0089718066 0.73100001 -0 1.1267282e-38 313 240
-0.00769012 0.73100001 -0 1.2735226e-38 314 240
-0.006408433 0.73100001 -0 1.2735226e-38 315 240
-0.0051197335 0.73000002 -0 1.2642285e-38 316 240
-0.0038397999 0.73000002 -0 1.2089111e-38 317 240
-0.0025598668 0.73000002 -0 1.1813193e-38 318 240
-0.0012799334 0.73000002 -0 1.1720997e-38 319 240
0 0.73000002 -0 1.135253e-38 320 240
0.0012816866 0.73100001 -0 1.1075583e-38 321 240
0.0025633732 0.73100001 -0 9.881315e-39 322 240
0.0038397999 0.73000002 -0 9.3284999e-39 323 240
0.0051197335 0.73000002 -0 8.5015993e-39 324 240
0.006408433 0.73100001 -0 8.3172109e-39 325 240
0.00769012 0.73100001 -0 8.1338986e-39 326 240
0.0089718066 0.73100001 -0 7.9495101e-39 327 240
0.010253493 0.73100001 -0 7.5828856e-39 328 240
0.01153518 0.73100001 -0 7.6750798e-39 329 240
0.012816866 0.73100001 -0 8.3161781e-39 330 240
0.014098554 0.73100001 -0 9.4225257e-39 331 240
0.01538024 0.73100001 -0 1.1534079e-38 332 240
0.016661927 0.73100001 -0 1.0981264e-38 333 240
0.017943613 0.73100001 -0 1.0243737e-38 334 240
0.019277899 0.73299998 -0 1.042777e-38 335 240
0.020591147 0.73400003 -0 1.0241631e-38 336 240
0.022027127 0.73900002 -0 1.0425662e-38 337 240
0.023385961 0.741 -0 1.0883072e-38 338 240
0.024685178 0.741 -0 9.9611161e-39 339 240
0.026019465 0.74199998 -0 8.9455321e-39 340 240
0.027320439 0.74199998 -0 9.0377277e-39 341 240
0.02869856 0.74400002 -0 1.0696882e-38 342 240
0.030003037 0.74400002 -0 1.2356405e-38 343 240
0.031307522 0.74400002 -0 1.2816284e-38 344 240
-0.031212838 0.77399999 -0.0013570799 1.6687779e-38 297 241
-0.029817186 0.773 -0.0013553266 1.5121916e-38 298 241
-0.028461859 0.773 -0.0013553266 1.3923373e-38 299 241
-0.027106533 0.773 -0.0013553266 1.2273579e-38 300 241
-0.025118252 0.75400001 -0.0013220133 1.2918949e-38 301 241
-0.02379624 0.75400001 -0.0013220133 1.2825292e-38 302 241
-0.022474226 0.75400001 -0.0013220133 1.181114e-38 303 241
-0.021096105 0.75199997 -0.0013185065 1.282025e-38 304 241
-0.019724999 0.75 -0.001315 1.2912445e-38 305 241
-0.018385453 0.74900001 -0.0013132467 1.1064983e-38 306 241
-0.016889861 0.741 -0.0012992199 8.4835057e-39 307 241
-0.01559064 0.741 -0.0012992199 7.577031e-39 308 241
-0.014252847 0.73900002 -0.0012957134 7.7614237e-39 309 241
-0.012939599 0.73799998 -0.0012939599 1.1075758e-38 310 241
-0.01161408 0.736 -0.0012904532 1.2827835e-38 311 241
-0.010323626 0.736 -0.0012904532 1.3655415e-38 312 241
-0.0090086265 0.73400003 -0.0012869467 1.3379189e-38 313 241
-0.0077111595 0.73299998 -0.0012851933 1.3379542e-38 314 241
-0.0064259665 0.73299998 -0.0012851933 1.3379542e-38 315 241
-0.0051267464 0.73100001 -0.0012816866 1.3930911e-38 316 241
-0.00384506 0.73100001 -0.0012816866 1.4023465e-38 317 241
-0.0025633732 0.73100001 -0.0012816866 1.4482254e-38 318 241
-0.0012816866 0.73100001 -0.0012816866 1.3652494e-38 319 241
0 0.73100001 -0.0012816866 1.1350037e-38 320 241
0.0012851933 0.73299998 -0.0012851933 1.0059298e-38 321 241
0.0025703865 0.73299998 -0.0012851933 7.4899739e-39 322 241
0.0038555798 0.73299998 -0.0012851933 7.3977797e-39 323 241
0.005140773 0.73299998 -0.0012851933 7.7665566e-39 324 241
0.0064259665 0.73299998 -0.0012851933 7.8587508e-39 325 241
0.0077111595 0.73299998 -0.0012851933 7.7665566e-39 326 241
0.0089963535 0.73299998 -0.0012851933 7.6743624e-39 327 241
0.010281546 0.73299998 -0.0012851933 7.3055855e-39 328 241
0.011566739 0.73299998 -0.0012851933 7.3977797e-39 329 241
0.012851933 0.73299998 -0.0012851933 8.1328981e-39 330 241
