# .PCD v.7 - Point Cloud Data file format
FIELDS x y z rgb imX imY
SIZE 4 4 4 4 4 4
TYPE F F F F F F
COUNT 1 1 1 1 1 1
WIDTH 849
HEIGHT 1
VIEWPOINT 0 0 0 1 0 0 0
POINTS 849
DATA ascii
0.033032801 0.62800002 0.080379814 1.595344e-38 350 167
0.034188248 0.62900001 0.0805078 1.5860885e-38 351 167
0.035347197 0.63 0.080635794 1.5860169e-38 352 167
0.036451798 0.63 0.080635794 1.5675778e-38 353 167
0.037675627 0.63200003 0.080891788 1.5124049e-38 354 167
0.038783733 0.63200003 0.080891788 1.5031853e-38 355 167
0.039891839 0.63200003 0.080891788 1.5863782e-38 356 167
0.01006764 0.63800001 0.080541119 1.4951922e-38 329 168
0.011168733 0.63700002 0.080414884 1.6698247e-38 330 168
0.012247032 0.63499999 0.080162399 1.6698247e-38 331 168
0.01329728 0.63200003 0.079783678 1.6422739e-38 332 168
0.014405387 0.63200003 0.079783678 1.6422739e-38 333 168
0.015488946 0.63099998 0.079657435 1.6606051e-38 334 168
0.016569 0.63 0.0795312 1.6790442e-38 335 168
0.017645547 0.62900001 0.079404958 1.6607486e-38 336 168
0.018748393 0.62900001 0.079404958 1.6514932e-38 337 168
0.019851239 0.62900001 0.079404958 1.6697881e-38 338 168
0.020920772 0.62800002 0.079278722 1.6881912e-38 339 168
0.022021867 0.62800002 0.079278722 1.688083e-38 340 168
0.023122961 0.62800002 0.079278722 1.6788276e-38 341 168
0.024185479 0.62699997 0.079152472 1.6420568e-38 342 168
0.025284817 0.62699997 0.079152472 1.6236177e-38 343 168
0.026384158 0.62699997 0.079152472 1.6326205e-38 344 168
0.027483499 0.62699997 0.079152472 1.6141813e-38 345 168
0.028582839 0.62699997 0.079152472 1.6324038e-38 346 168
0.029729521 0.62800002 0.079278722 1.6231841e-38 347 168
0.030830612 0.62800002 0.079278722 1.6322595e-38 348 168
0.031931706 0.62800002 0.079278722 1.6137845e-38 349 168
0.033085402 0.62900001 0.079404958 1.5862334e-38 350 168
0.0342426 0.63 0.0795312 1.5585746e-38 351 168
0.035347197 0.63 0.0795312 1.5768339e-38 352 168
0.036509659 0.63099998 0.079657435 1.5492113e-38 353 168
0.037675627 0.63200003 0.079783678 1.5399916e-38 354 168
0.038783733 0.63200003 0.079783678 1.5215166e-38 355 168
0.039891839 0.63200003 0.079783678 1.5586476e-38 356 168
0.01005186 0.63700002 0.079298005 1.3934882e-38 329 169
0.011133666 0.63499999 0.079049028 1.633054e-38 330 169
0.012227747 0.634 0.078924544 1.7160301e-38 331 169
0.01329728 0.63200003 0.078675576 1.6975194e-38 332 169
0.014405387 0.63200003 0.078675576 1.6790442e-38 333 169
0.015488946 0.63099998 0.078551084 1.6790442e-38 334 169
0.0165953 0.63099998 0.078551084 1.6698247e-38 335 169
0.017673599 0.63 0.0784266 1.6698603e-38 336 169
0.018778199 0.63 0.0784266 1.6606048e-38 337 169
0.019851239 0.62900001 0.078302108 1.6788998e-38 338 169
0.020954086 0.62900001 0.078302108 1.6788998e-38 339 169
0.022056932 0.62900001 0.078302108 1.6788995e-38 340 169
0.023122961 0.62800002 0.078177623 1.6512767e-38 341 169
0.024224052 0.62800002 0.078177623 1.6511685e-38 342 169
0.025325146 0.62800002 0.078177623 1.6419489e-38 343 169
0.026426241 0.62800002 0.078177623 1.6326925e-38 344 169
0.027527334 0.62800002 0.078177623 1.6050697e-38 345 169
0.028628428 0.62800002 0.078177623 1.6325479e-38 346 169
0.029729521 0.62800002 0.078177623 1.6049252e-38 347 169
0.030830612 0.62800002 0.078177623 1.6230762e-38 348 169
0.031982556 0.62900001 0.078302108 1.6046731e-38 349 169
0.033137999 0.63 0.0784266 1.6137845e-38 350 169
0.034296948 0.63099998 0.078551084 1.6045649e-38 351 169
0.035403304 0.63099998 0.078551084 1.6228597e-38 352 169
0.03656752 0.63200003 0.078675576 1.5583228e-38 353 169
0.037675627 0.63200003 0.078675576 1.4847106e-38 354 169
0.038783733 0.63200003 0.078675576 1.3741117e-38 355 169
0.039891839 0.63200003 0.078675576 1.402239e-38 356 169
0.01005186 0.63700002 0.078181133 1.226995e-38 329 170
0.011133666 0.63499999 0.077935666 1.4395154e-38 330 170
0.012227747 0.634 0.077812932 1.6792242e-38 331 170
0.01329728 0.63200003 0.077567466 1.762021e-38 332 170
0.014405387 0.63200003 0.077567466 1.7528013e-38 333 170
0.015513494 0.63200003 0.077567466 1.7251418e-38 334 170
0.0165953 0.63099998 0.077444725 1.6882994e-38 335 170
0.017701652 0.63099998 0.077444725 1.6515288e-38 336 170
0.018808005 0.63099998 0.077444725 1.6423092e-38 337 170
0.0198828 0.63 0.077321991 1.6697881e-38 338 170
0.020987399 0.63 0.077321991 1.6697881e-38 339 170
0.022092 0.63 0.077321991 1.6788998e-38 340 170
0.02315978 0.62900001 0.077199265 1.6512769e-38 341 170
0.024224052 0.62800002 0.077076539 1.6328375e-38 342 170
0.025325146 0.62800002 0.077076539 1.6143625e-38 343 170
0.026426241 0.62800002 0.077076539 1.6234731e-38 344 170
0.027527334 0.62800002 0.077076539 1.6234731e-38 345 170
0.028628428 0.62800002 0.077076539 1.6142167e-38 346 170
0.029729521 0.62800002 0.077076539 1.5957417e-38 347 170
0.030830612 0.62800002 0.077076539 1.6231845e-38 348 170
0.031982556 0.62900001 0.077199265 1.6139648e-38 349 170
0.033190601 0.63099998 0.077444725 1.6413709e-38 350 170
0.034296948 0.63099998 0.077444725 1.6505904e-38 351 170
0.035403304 0.63099998 0.077444725 1.6320422e-38 352 170
0.03656752 0.63200003 0.077567466 1.4937487e-38 353 170
0.037675627 0.63200003 0.077567466 1.2822025e-38 354 170
0.038783733 0.63200003 0.077567466 1.1807875e-38 355 170
0.039891839 0.63200003 0.077567466 1.3926951e-38 356 170
0.011081067 0.63200003 0.076459363 6.2015991e-39 330 171
0.012189173 0.63200003 0.076459363 9.7972287e-39 331 171
0.01329728 0.63200003 0.076459363 1.4305133e-38 332 171
0.014405387 0.63200003 0.076459363 1.5872099e-38 333 171
0.015513494 0.63200003 0.076459363 1.7068471e-38 334 171
0.0165953 0.63099998 0.076338373 1.7161025e-38 335 171
0.017701652 0.63099998 0.076338373 1.7160301e-38 336 171
0.018808005 0.63099998 0.076338373 1.697591e-38 337 171
0.019914359 0.63099998 0.076338373 1.7251052e-38 338 171
0.021020712 0.63099998 0.076338373 1.7158856e-38 339 171
0.022092 0.63 0.076217398 1.7158853e-38 340 171
0.023196599 0.63 0.076217398 1.6974461e-38 341 171
0.024262626 0.62900001 0.076096416 1.6881543e-38 342 171
0.025365472 0.62900001 0.076096416 1.6697152e-38 343 171
0.02646832 0.62900001 0.076096416 1.6604589e-38 344 171
0.027571166 0.62900001 0.076096416 1.6512394e-38 345 171
0.028674012 0.62900001 0.076096416 1.6511669e-38 346 171
0.029776858 0.62900001 0.076096416 1.605105e-38 347 171
0.030879704 0.62900001 0.076096416 1.6692817e-38 348 171
0.031982556 0.62900001 0.076096416 1.5955252e-38 349 171
0.033190601 0.63099998 0.076338373 1.5674702e-38 350 171
0.034296948 0.63099998 0.076338373 1.447616e-38 351 171
0.035403304 0.63099998 0.076338373 1.2999584e-38 352 171
0.03656752 0.63200003 0.076459363 9.3117586e-39 353 171
0.037794851 0.634 0.076701313 6.3816491e-39 354 171
0.038906466 0.634 0.076701313 8.9631268e-39 355 171
0.011081067 0.63200003 0.075351253 6.0971365e-39 330 172
0.012189173 0.63200003 0.075351253 5.5439641e-39 331 172
0.01329728 0.63200003 0.075351253 8.6858645e-39 332 172
0.014405387 0.63200003 0.075351253 1.2097103e-38 333 172
0.015513494 0.63200003 0.075351253 1.5591906e-38 334 172
0.0165953 0.63099998 0.075232022 1.6790448e-38 335 172
0.017701652 0.63099998 0.075232022 1.7711313e-38 336 172
0.018808005 0.63099998 0.075232022 1.7803508e-38 337 172
0.019914359 0.63099998 0.075232022 1.7986818e-38 338 172
0.021020712 0.63099998 0.075232022 1.7894622e-38 339 172
0.022092 0.63 0.075112797 1.7894619e-38 340 172
0.023196599 0.63 0.075112797 1.7894619e-38 341 172
0.024262626 0.62900001 0.074993573 1.7893174e-38 342 172
0.025365472 0.62900001 0.074993573 1.7524751e-38 343 172
0.02646832 0.62900001 0.074993573 1.7615499e-38 344 172
0.027571166 0.62900001 0.074993573 1.7523303e-38 345 172
0.028674012 0.62900001 0.074993573 1.7430016e-38 346 172
0.029776858 0.62900001 0.074993573 1.6968678e-38 347 172
0.030879704 0.62900001 0.074993573 1.687467e-38 348 172
0.031982556 0.62900001 0.074993573 1.5676128e-38 349 172
0.033190601 0.63099998 0.075232022 1.4567263e-38 350 172
0.034296948 0.63099998 0.075232022 1.1985785e-38 351 172
0.011081067 0.63200003 0.074243151 1.4286733e-38 330 173
0.012189173 0.63200003 0.074243151 1.0230125e-38 331 173
0.01329728 0.63200003 0.074243151 7.2932008e-39 332 173
0.014405387 0.63200003 0.074243151 7.6619833e-39 333 173
0.015513494 0.63200003 0.074243151 7.9360745e-39 334 173
0.0165953 0.63099998 0.07412567 9.4112046e-39 335 173
0.017701652 0.63099998 0.07412567 1.0062682e-38 336 173
0.018808005 0.63099998 0.07412567 1.0984639e-38 337 173
0.019914359 0.63099998 0.07412567 1.2458327e-38 338 173
0.020987399 0.63 0.074008197 1.3195892e-38 339 173
0.022092 0.63 0.074008197 1.4022773e-38 340 173
0.023196599 0.63 0.074008197 1.4115327e-38 341 173
0.024262626 0.62900001 0.073890723 1.4205355e-38 342 173
0.025365472 0.62900001 0.073890723 1.3836574e-38 343 173
0.02646832 0.62900001 0.073890723 1.3925523e-38 344 173
0.027571166 0.62900001 0.073890723 1.3372708e-38 345 173
0.028674012 0.62900001 0.073890723 1.2909555e-38 346 173
0.029776858 0.62900001 0.073890723 1.1618816e-38 347 173
0.030879704 0.62900001 0.073890723 1.0695769e-38 348 173
0.031982556 0.62900001 0.073890723 9.3128334e-39 349 173
0.033190601 0.63099998 0.07412567 8.7575114e-39 350 173
0.034296948 0.63099998 0.07412567 8.0195877e-39 351 173
0.012189173 0.63200003 0.073135041 1.1894701e-38 331 174
0.01329728 0.63200003 0.073135041 9.9618294e-39 332 174
0.014405387 0.63200003 0.073135041 8.3948638e-39 333 174
0.015513494 0.63200003 0.073135041 7.1062914e-39 334 174
0.0165953 0.63099998 0.073019318 7.4747152e-39 335 174
0.017701652 0.63099998 0.073019318 7.8456711e-39 336 174
0.018808005 0.63099998 0.073019318 7.8456711e-39 337 174
0.019914359 0.63099998 0.073019318 8.0333022e-39 338 174
0.020987399 0.63 0.072903596 8.9556186e-39 339 174
0.022092 0.63 0.072903596 1.033495e-38 340 174
0.023196599 0.63 0.072903596 1.033495e-38 341 174
0.024262626 0.62900001 0.072787881 1.0885959e-38 342 174
0.025365472 0.62900001 0.072787881 1.0701568e-38 343 174
0.02646832 0.62900001 0.072787881 9.9650762e-39 344 174
0.027571166 0.62900001 0.072787881 9.3197068e-39 345 174
0.028674012 0.62900001 0.072787881 9.1342169e-39 346 174
0.029729521 0.62800002 0.072672158 8.7657945e-39 347 174
0.030830612 0.62800002 0.072672158 9.3146453e-39 348 174
0.031982556 0.62900001 0.072787881 8.9462229e-39 349 174
0.033190601 0.63099998 0.073019318 8.6710808e-39 350 174
0.013339359 0.634 0.072254866 1.4294288e-38 332 175
0.014405387 0.63200003 0.072026931 1.3556723e-38 333 175
0.015513494 0.63200003 0.072026931 1.3001752e-38 334 175
0.0165953 0.63099998 0.071912967 1.2540773e-38 335 175
0.017701652 0.63099998 0.071912967 1.1895051e-38 336 175
0.018808005 0.63099998 0.071912967 1.0696866e-38 337 175
0.019914359 0.63099998 0.071912967 8.764368e-39 338 175
0.020987399 0.63 0.071799003 8.6721724e-39 339 175
0.022092 0.63 0.071799003 8.1200846e-39 340 175
0.02315978 0.62900001 0.071685031 7.5672695e-39 341 175
0.024224052 0.62800002 0.071571067 7.8427774e-39 342 175
0.025325146 0.62800002 0.071571067 7.9349731e-39 343 175
0.026426241 0.62800002 0.071571067 7.018409e-39 344 175
0.027571166 0.62900001 0.071685031 7.4793871e-39 345 175
0.028674012 0.62900001 0.071685031 8.3069842e-39 346 175
0.029729521 0.62800002 0.071571067 9.597723e-39 347 175
0.030830612 0.62800002 0.071571067 1.1525548e-38 348 175
0.014405387 0.63200003 0.070918828 1.4570879e-38 333 176
0.015513494 0.63200003 0.070918828 1.4293935e-38 334 176
0.0165953 0.63099998 0.070806608 1.4478326e-38 335 176
0.017701652 0.63099998 0.070806608 1.438793e-38 336 176
0.018808005 0.63099998 0.070806608 1.3742561e-38 337 176
0.019914359 0.63099998 0.070806608 1.2545814e-38 338 176
0.020987399 0.63 0.070694394 1.245326e-38 339 176
0.022056932 0.62900001 0.070582189 1.2636935e-38 340 176
0.02315978 0.62900001 0.070582189 1.2360348e-38 341 176
0.024224052 0.62800002 0.070469975 1.1714976e-38 342 176
0.025325146 0.62800002 0.070469975 1.1714976e-38 343 176
0.026426241 0.62800002 0.070469975 1.1623859e-38 344 176
0.027527334 0.62800002 0.070469975 1.199264e-38 345 176
0.028628428 0.62800002 0.070469975 1.2636935e-38 346 176
0.029729521 0.62800002 0.070469975 1.3005717e-38 347 176
0.015513494 0.63200003 0.069810718 1.4941107e-38 334 177
0.0165953 0.63099998 0.069700256 1.5862703e-38 335 177
0.017701652 0.63099998 0.069700256 1.660135e-38 336 177
0.018808005 0.63099998 0.069700256 1.6232208e-38 337 177
0.019914359 0.63099998 0.069700256 1.5586476e-38 338 177
0.020987399 0.63 0.069589794 1.5678672e-38 339 177
0.022056932 0.62900001 0.069479339 1.6230409e-38 340 177
0.023122961 0.62800002 0.069368884 1.6046378e-38 341 177
0.024185479 0.62699997 0.069258414 1.567687e-38 342 177
0.025284817 0.62699997 0.069258414 1.5123696e-38 343 177
0.026384158 0.62699997 0.069258414 1.5124772e-38 344 177
0.027483499 0.62699997 0.069258414 1.5401359e-38 345 177
0.028628428 0.62800002 0.069368884 1.5769786e-38 346 177
0.023086138 0.62699997 0.068159074 1.60471e-38 341 178
0.024108332 0.625 0.067941666 1.5586476e-38 342 178
0.025204165 0.625 0.067941666 1.5494279e-38 343 178
0.026384158 0.62699997 0.068159074 1.5586473e-38 344 178
0.027483499 0.62699997 0.068159074 1.5678669e-38 345 178
0.024108332 0.625 0.066845834 1.6046378e-38 342 179
0.025204165 0.625 0.066845834 1.5861987e-38 343 179
0.055005573 0.68199998 -0.005978866 1.2078264e-38 366 245
0.056201346 0.68199998 -0.005978866 1.3277167e-38 367 245
-0.0012045399 0.68699998 -0.0072272392 1.1346552e-38 319 246
0 0.68599999 -0.0072167199 1.1252864e-38 320 246
0.0012027866 0.68599999 -0.0072167199 9.5937013e-39 321 246
0.053888701 0.68300003 -0.0071851597 1.1803444e-38 365 246
0.055005573 0.68199998 -0.00717464 1.2447409e-38 366 246
0.056201346 0.68199998 -0.00717464 1.3092779e-38 367 246
-0.0036188802 0.68800002 -0.0084440531 1.217453e-38 317 247
-0.0024090798 0.68699998 -0.0084317802 1.1991218e-38 318 247
-0.0012027866 0.68599999 -0.0084195063 1.1991218e-38 319 247
0 0.68400002 -0.0083949603 1.1898275e-38 320 247
0.0011975267 0.68300003 -0.0083826864 1.1713883e-38 321 247
0.0023915465 0.68199998 -0.0083704125 1.0242289e-38 322 247
0.00358732 0.68199998 -0.0083704125 9.1359419e-39 323 247
0.051493648 0.68300003 -0.0083826864 9.3227868e-39 363 247
0.052614026 0.68199998 -0.0083704125 1.134354e-38 364 247
0.053809796 0.68199998 -0.0083704125 1.180416e-38 365 247
0.055086225 0.68300003 -0.0083826864 1.2265182e-38 366 247
0.056283753 0.68300003 -0.0083826864 1.3094944e-38 367 247
0.057481278 0.68300003 -0.0083826864 1.46569e-38 368 247
-0.0048391996 0.69 -0.0096783992 1.1436965e-38 316 248
-0.0036188802 0.68800002 -0.0096503468 1.2635508e-38 317 248
-0.0024090798 0.68699998 -0.0096363192 1.2819902e-38 318 248
-0.0012027866 0.68599999 -0.0096222926 1.2727348e-38 319 248
0 0.68400002 -0.0095942402 1.1161817e-38 320 248
0.0011975267 0.68300003 -0.0095802136 1.0793395e-38 321 248
0.0023915465 0.68199998 -0.009566186 1.125507e-38 322 248
0.0035767998 0.68000001 -0.0095381327 1.1347624e-38 323 248
0.0047690663 0.68000001 -0.0095381327 1.1164265e-38 324 248
0.023424532 0.66799998 -0.0093698129 6.6541751e-39 340 248
0.024558939 0.667 -0.0093557863 6.4697824e-39 341 248
0.025728412 0.667 -0.0093557863 6.0106063e-39 342 248
0.050222475 0.68199998 -0.009566186 9.3227742e-39 362 248
0.051418249 0.68199998 -0.009566186 9.5993611e-39 363 248
0.052614026 0.68199998 -0.009566186 1.1159872e-38 364 248
0.053809796 0.68199998 -0.009566186 1.162085e-38 365 248
0.055086225 0.68300003 -0.0095802136 1.198932e-38 366 248
0.056283753 0.68300003 -0.0095802136 1.3556648e-38 367 248
0.057481278 0.68300003 -0.0095802136 1.6222813e-38 368 248
-0.0048391996 0.69 -0.010888199 1.0974189e-38 316 249
-0.0036188802 0.68800002 -0.010856641 1.2172732e-38 317 249
-0.0024090798 0.68699998 -0.010840859 1.2359289e-38 318 249
-0.0012027866 0.68599999 -0.010825079 1.2820267e-38 319 249
0 0.68400002 -0.01079352 1.1345142e-38 320 249
0.0011975267 0.68300003 -0.01077774 1.0423186e-38 321 249
0.0023915465 0.68199998 -0.010761959 1.0426057e-38 322 249
0.0035767998 0.68000001 -0.0107304 1.0610448e-38 323 249
0.0047690663 0.68000001 -0.0107304 1.1440523e-38 324 249
0.0059613334 0.68000001 -0.0107304 1.153272e-38 325 249
0.018739626 0.66799998 -0.01054104 4.263225e-39 336 249
0.019910853 0.66799998 -0.01054104 4.8163987e-39 337 249
0.021082079 0.66799998 -0.01054104 6.4712131e-39 338 249
0.022253305 0.66799998 -0.01054104 6.5637675e-39 339 249
0.023424532 0.66799998 -0.01054104 6.9314486e-39 340 249
0.024558939 0.667 -0.010525259 7.0236442e-39 341 249
0.025728412 0.667 -0.010525259 6.289326e-39 342 249
0.026857559 0.66600001 -0.01050948 5.7361522e-39 343 249
0.028025279 0.66600001 -0.01050948 6.3800769e-39 344 249
0.050222475 0.68199998 -0.010761959 9.8734271e-39 362 249
0.051418249 0.68199998 -0.010761959 1.0150015e-38 363 249
0.052614026 0.68199998 -0.010761959 1.1067692e-38 364 249
0.053809796 0.68199998 -0.010761959 1.152867e-38 365 249
0.055086225 0.68300003 -0.01077774 1.1253214e-38 366 249
0.056283753 0.68300003 -0.01077774 1.3466268e-38 367 249
0.057481278 0.68300003 -0.01077774 1.696146e-38 368 249
-0.0072903596 0.69300002 -0.012150601 1.8529892e-38 314 250
-0.0060753003 0.69300002 -0.012150601 1.373608e-38 315 250
-0.0048462129 0.69099998 -0.012115533 1.1617761e-38 316 250
-0.0036188802 0.68800002 -0.012062933 1.1248978e-38 317 250
-0.0024090798 0.68699998 -0.012045399 1.153061e-38 318 250
-0.0012027866 0.68599999 -0.012027865 1.2821348e-38 319 250
0 0.68400002 -0.0119928 1.1898316e-38 320 250
0.0011975267 0.68300003 -0.011975267 1.1068555e-38 321 250
0.0023915465 0.68199998 -0.011957732 1.0425348e-38 322 250
0.0035767998 0.68000001 -0.011922667 1.0425348e-38 323 250
0.0047690663 0.68000001 -0.011922667 1.0703716e-38 324 250
0.0059525664 0.67900002 -0.011905133 1.2178846e-38 325 250
0.0071325595 0.67799997 -0.011887599 1.245424e-38 326 250
0.0082967728 0.676 -0.011852534 9.5961746e-39 327 250
0.0094820261 0.676 -0.011852534 8.0392255e-39 328 250
0.014202001 0.67500001 -0.011835 6.8378404e-39 332 250
0.0153855 0.67500001 -0.011835 6.5616123e-39 333 250
0.01649536 0.67199999 -0.011782399 5.183361e-39 334 250
0.0176473 0.671 -0.011764866 4.6301872e-39 335 250
0.018739626 0.66799998 -0.011712266 5.3648838e-39 336 250
0.019910853 0.66799998 -0.011712266 5.9180576e-39 337 250
0.021082079 0.66799998 -0.011712266 6.4722879e-39 338 250
0.022253305 0.66799998 -0.011712266 6.7488748e-39 339 250
0.023424532 0.66799998 -0.011712266 7.3002353e-39 340 250
0.024558939 0.667 -0.011694733 7.4842664e-39 341 250
0.025728412 0.667 -0.011694733 7.0254463e-39 342 250
0.026857559 0.66600001 -0.011677199 6.7484993e-39 343 250
0.028025279 0.66600001 -0.011677199 6.8406949e-39 344 250
0.049026705 0.68199998 -0.011957732 9.2319855e-39 361 250
0.050222475 0.68199998 -0.011957732 1.0056739e-38 362 250
0.051418249 0.68199998 -0.011957732 1.0333686e-38 363 250
0.052614026 0.68199998 -0.011957732 1.1527598e-38 364 250
0.053809796 0.68199998 -0.011957732 1.1619794e-38 365 250
0.055086225 0.68300003 -0.011975267 1.0056476e-38 366 250
0.056283753 0.68300003 -0.011975267 1.3375519e-38 367 250
0.057481278 0.68300003 -0.011975267 1.7607185e-38 368 250
0.05867881 0.68300003 -0.011975267 1.9911715e-38 369 250
-0.0072903596 0.69300002 -0.01336566 1.8621369e-38 314 251
-0.0060753003 0.69300002 -0.01336566 1.4656957e-38 315 251
-0.0048462129 0.69099998 -0.013327086 1.2815584e-38 316 251
-0.0036293997 0.69 -0.0133078 1.1709237e-38 317 251
-0.0024125867 0.68800002 -0.013269227 1.0977439e-38 318 251
-0.0012045399 0.68699998 -0.013249939 1.2083427e-38 319 251
0 0.68599999 -0.013230653 1.3096503e-38 320 251
0.0011975267 0.68300003 -0.013172794 1.2819916e-38 321 251
0.0023915465 0.68199998 -0.013153506 1.2175982e-38 322 251
0.0035767998 0.68000001 -0.013114933 1.1806839e-38 323 251
0.0047690663 0.68000001 -0.013114933 1.1716793e-38 324 251
0.0059525664 0.67900002 -0.013095647 1.2915335e-38 325 251
0.0071325595 0.67799997 -0.013076359 1.2455691e-38 326 251
0.0082967728 0.676 -0.013037786 9.7820176e-39 327 251
0.0094820261 0.676 -0.013037786 8.5931377e-39 328 251
0.01066728 0.676 -0.013037786 7.9477683e-39 329 251
0.011835 0.67500001 -0.0130185 8.5845478e-39 330 251
0.0130185 0.67500001 -0.0130185 8.3997964e-39 331 251
0.014202001 0.67500001 -0.0130185 8.4012089e-39 332 251
0.0153855 0.67500001 -0.0130185 8.4012089e-39 333 251
0.01649536 0.67199999 -0.012960639 7.0261848e-39 334 251
0.0176473 0.671 -0.012941353 6.3808154e-39 335 251
0.018795732 0.67000002 -0.012922067 6.2889911e-39 336 251
0.019970467 0.67000002 -0.012922067 6.2889911e-39 337 251
0.0211452 0.67000002 -0.012922067 6.4748033e-39 338 251
0.022319933 0.67000002 -0.012922067 6.4748033e-39 339 251
0.023424532 0.66799998 -0.012883492 6.7499342e-39 340 251
0.024558939 0.667 -0.012864206 6.9339653e-39 341 251
0.025728412 0.667 -0.012864206 6.7513705e-39 342 251
0.026897885 0.667 -0.012864206 6.4751424e-39 343 251
0.028067358 0.667 -0.012864206 6.7506475e-39 344 251
0.029368332 0.67000002 -0.012922067 7.0275945e-39 345 251
0.030543067 0.67000002 -0.012922067 7.7622658e-39 346 251
0.0317178 0.67000002 -0.012922067 7.8544615e-39 347 251
0.032892533 0.67000002 -0.012922067 7.7622602e-39 348 251
0.034067266 0.67000002 -0.012922067 7.8548146e-39 349 251
0.035241999 0.67000002 -0.012922067 8.0377765e-39 350 251
0.047690667 0.68000001 -0.013114933 8.8628555e-39 360 251
0.048882935 0.68000001 -0.013114933 9.3234749e-39 361 251
0.050222475 0.68199998 -0.013153506 9.9667213e-39 362 251
0.051418249 0.68199998 -0.013153506 1.0427698e-38 363 251
0.052691177 0.68300003 -0.013172794 1.1345368e-38 364 251
0.053888701 0.68300003 -0.013172794 1.0792194e-38 365 251
0.055086225 0.68300003 -0.013172794 8.8608026e-39 366 251
0.056283753 0.68300003 -0.013172794 1.3285834e-38 367 251
0.057481278 0.68300003 -0.013172794 1.7515349e-38 368 251
0.05867881 0.68300003 -0.013172794 1.9544012e-38 369 251
0.059876334 0.68300003 -0.013172794 1.9726603e-38 370 251
-0.0072903596 0.69300002 -0.014580719 1.8436259e-38 314 252
-0.0060753003 0.69300002 -0.014580719 1.4932824e-38 315 252
-0.0048462129 0.69099998 -0.014538639 1.3553149e-38 316 252
-0.0036293997 0.69 -0.014517599 1.2723388e-38 317 252
-0.0024125867 0.68800002 -0.014475521 1.060758e-38 318 252
-0.0012045399 0.68699998 -0.014454478 1.060758e-38 319 252
0 0.68599999 -0.01443344 1.1993401e-38 320 252
0.00119928 0.68400002 -0.01439136 1.3191944e-38 321 252
0.0023950534 0.68300003 -0.014370319 1.3466362e-38 322 252
0.00358732 0.68199998 -0.01434928 1.2913547e-38 323 252
0.0047690663 0.68000001 -0.014307199 1.2730575e-38 324 252
0.0059525664 0.67900002 -0.01428616 1.3375945e-38 325 252
0.0071325595 0.67799997 -0.014265119 1.1996155e-38 326 252
0.0082967728 0.676 -0.014223038 9.3224814e-39 327 252
0.0094820261 0.676 -0.014223038 9.1445361e-39 328 252
0.01066728 0.676 -0.014223038 8.3147754e-39 329 252
0.011835 0.67500001 -0.014202001 8.7686041e-39 330 252
0.0130185 0.67500001 -0.014202001 8.6764085e-39 331 252
0.014202001 0.67500001 -0.014202001 8.5877525e-39 332 252
0.0153855 0.67500001 -0.014202001 8.4955569e-39 333 252
0.016544454 0.67400002 -0.01418096 8.040673e-39 334 252
0.0176473 0.671 -0.01411784 8.2247041e-39 335 252
0.018823786 0.671 -0.01411784 7.0261904e-39 336 252
0.020000271 0.671 -0.01411784 7.2102215e-39 337 252
0.0211452 0.67000002 -0.014096799 7.6708255e-39 338 252
0.022319933 0.67000002 -0.014096799 7.6708255e-39 339 252
0.023494666 0.67000002 -0.014096799 8.0385038e-39 340 252
0.02459576 0.66799998 -0.014054719 7.8541111e-39 341 252
0.025728412 0.667 -0.014033679 7.7629791e-39 342 252
0.026897885 0.667 -0.014033679 7.3945567e-39 343 252
0.028193599 0.67000002 -0.014096799 7.7622518e-39 344 252
0.029368332 0.67000002 -0.014096799 8.1306728e-39 345 252
0.030543067 0.67000002 -0.014096799 7.7640455e-39 346 252
0.0317178 0.67000002 -0.014096799 7.7640455e-39 347 252
0.032892533 0.67000002 -0.014096799 7.5803745e-39 348 252
0.034067266 0.67000002 -0.014096799 7.6725687e-39 349 252
0.035241999 0.67000002 -0.014096799 8.4976659e-39 350 252
0.036525436 0.67199999 -0.01413888 8.5898629e-39 351 252
0.037815895 0.67400002 -0.01418096 8.9554182e-39 352 252
0.039055496 0.67500001 -0.014202001 8.7710256e-39 353 252
0.040238999 0.67500001 -0.014202001 8.6791747e-39 354 252
0.041422497 0.67500001 -0.014202001 8.4029479e-39 355 252
0.042669121 0.676 -0.014223038 7.8540873e-39 356 252
0.043854371 0.676 -0.014223038 7.9462815e-39 357 252
0.045172878 0.67799997 -0.014265119 8.221788e-39 358 252
0.046430022 0.67900002 -0.01428616 8.1295938e-39 359 252
0.047620531 0.67900002 -0.01428616 8.6777551e-39 360 252
0.048882935 0.68000001 -0.014307199 9.6000702e-39 361 252
0.050222475 0.68199998 -0.01434928 1.1254604e-38 362 252
0.051418249 0.68199998 -0.01434928 1.1438997e-38 363 252
0.052691177 0.68300003 -0.014370319 1.1345017e-38 364 252
0.053888701 0.68300003 -0.014370319 1.0146476e-38 365 252
0.055086225 0.68300003 -0.014370319 9.3185381e-39 366 252
0.056283753 0.68300003 -0.014370319 1.4481493e-38 367 252
0.057481278 0.68300003 -0.014370319 1.7974886e-38 368 252
0.05867881 0.68300003 -0.014370319 1.9634407e-38 369 252
-0.0072903596 0.69300002 -0.015795778 1.8712486e-38 314 253
-0.0060753003 0.69300002 -0.015795778 1.4840269e-38 315 253
-0.0048462129 0.69099998 -0.015750192 1.3553865e-38 316 253
-0.0036293997 0.69 -0.015727401 1.3369833e-38 317 253
-0.0024125867 0.68800002 -0.015681813 1.1711407e-38 318 253
-0.0012045399 0.68699998 -0.015659019 1.0512863e-38 319 253
0 0.68599999 -0.015636226 7.7599593e-39 320 253
0.00119928 0.68400002 -0.01559064 9.3276437e-39 321 253
0.0023950534 0.68300003 -0.015567848 1.2270345e-38 322 253
0.00358732 0.68199998 -0.015545053 1.2915715e-38 323 253
0.0047690663 0.68000001 -0.015499466 1.3008614e-38 324 253
0.0059525664 0.67900002 -0.015476674 1.3284841e-38 325 253
0.0071325595 0.67799997 -0.015453878 1.1813571e-38 326 253
0.0082967728 0.676 -0.015408293 8.3104972e-39 327 253
0.0094820261 0.676 -0.015408293 8.7746773e-39 328 253
0.01066728 0.676 -0.015408293 7.760524e-39 329 253
0.011852534 0.676 -0.015408293 8.768251e-39 330 253
0.0130185 0.67500001 -0.0153855 9.1370335e-39 331 253
0.014202001 0.67500001 -0.0153855 8.4977401e-39 332 253
0.0153855 0.67500001 -0.0153855 8.5899358e-39 333 253
0.016544454 0.67400002 -0.015362706 7.5815292e-39 334 253
0.017673599 0.67199999 -0.01531712 7.9499515e-39 335 253
0.018823786 0.671 -0.015294326 8.4066333e-39 336 253
0.020000271 0.671 -0.015294326 8.4991877e-39 337 253
0.0211452 0.67000002 -0.015271533 9.3275036e-39 338 253
0.022319933 0.67000002 -0.015271533 1.0525688e-38 339 253
0.023494666 0.67000002 -0.015271533 1.1535504e-38 340 253
0.024669399 0.67000002 -0.015271533 1.0706104e-38 341 253
0.025844134 0.67000002 -0.015271533 9.6955196e-39 342 253
0.027018867 0.67000002 -0.015271533 9.5114871e-39 343 253
0.028193599 0.67000002 -0.015271533 9.60221e-39 344 253
0.029368332 0.67000002 -0.015271533 8.9568405e-39 345 253
0.030543067 0.67000002 -0.015271533 7.5818094e-39 346 253
0.031765141 0.671 -0.015294326 7.3977797e-39 347 253
0.032892533 0.67000002 -0.015271533 7.581092e-39 348 253
0.034067266 0.67000002 -0.015271533 7.6732862e-39 349 253
0.0352946 0.671 -0.015294326 8.4976827e-39 350 253
0.036525436 0.67199999 -0.01531712 8.5898783e-39 351 253
0.037815895 0.67400002 -0.015362706 8.9557868e-39 352 253
0.039055496 0.67500001 -0.0153855 8.7717556e-39 353 253
0.040238999 0.67500001 -0.0153855 8.2203545e-39 354 253
0.041422497 0.67500001 -0.0153855 8.2203545e-39 355 253
0.042669121 0.676 -0.015408293 7.9462815e-39 356 253
0.043854371 0.676 -0.015408293 7.9462815e-39 357 253
0.045172878 0.67799997 -0.015453878 8.1281589e-39 358 253
0.046430022 0.67900002 -0.015476674 8.4969372e-39 359 253
0.047620531 0.67900002 -0.015476674 9.6915918e-39 360 253
0.048882935 0.68000001 -0.015499466 1.0982331e-38 361 253
0.050222475 0.68199998 -0.015545053 1.3094606e-38 362 253
0.051418249 0.68199998 -0.015545053 1.1896063e-38 363 253
0.052614026 0.68199998 -0.015545053 8.5859925e-39 364 253
0.053809796 0.68199998 -0.015545053 7.8484275e-39 365 253
0.055005573 0.68199998 -0.015545053 1.005538e-38 366 253
0.056201346 0.68199998 -0.015545053 1.5217977e-38 367 253
0.057481278 0.68300003 -0.015567848 1.8528062e-38 368 253
0.05867881 0.68300003 -0.015567848 1.9818801e-38 369 253
-0.0072903596 0.69300002 -0.01701084 1.8897955e-38 314 254
-0.0060753003 0.69300002 -0.01701084 1.5117935e-38 315 254
-0.00486024 0.69300002 -0.01701084 1.3369836e-38 316 254
-0.0036346598 0.69099998 -0.016961746 1.3830456e-38 317 254
-0.0024195998 0.69 -0.0169372 1.3003945e-38 318 254
-0.0012062934 0.68800002 -0.016888106 1.1897237e-38 319 254
0 0.68699998 -0.01686356 1.0059089e-38 320 254
0.0012027866 0.68599999 -0.016839013 9.6903054e-39 321 254
0.0023985601 0.68400002 -0.016789921 1.0795578e-38 322 254
0.00358732 0.68199998 -0.016740825 1.1440948e-38 323 254
0.004783093 0.68199998 -0.016740825 1.2178144e-38 324 254
0.0059613334 0.68000001 -0.016691733 1.2639121e-38 325 254
0.0071325595 0.67799997 -0.016642639 1.236355e-38 326 254
0.0083213197 0.67799997 -0.016642639 1.1072811e-38 327 254
0.0094820261 0.676 -0.016593546 9.9689424e-39 328 254
0.01066728 0.676 -0.016593546 8.7704006e-39 329 254
0.011852534 0.676 -0.016593546 8.4005447e-39 330 254
0.0130185 0.67500001 -0.016569 9.0459141e-39 331 254
0.014202001 0.67500001 -0.016569 8.774327e-39 332 254
0.0153855 0.67500001 -0.016569 8.6821314e-39 333 254
0.016544454 0.67400002 -0.016544454 8.2236742e-39 334 254
0.017673599 0.67199999 -0.01649536 8.1314786e-39 335 254
0.018851839 0.67199999 -0.01649536 8.313737e-39 336 254
0.020000271 0.671 -0.016470812 8.5903239e-39 337 254
0.021176759 0.671 -0.016470812 9.8796152e-39 338 254
0.022353247 0.671 -0.016470812 1.0894127e-38 339 254
0.023529733 0.671 -0.016470812 1.1536949e-38 340 254
0.024706218 0.671 -0.016470812 1.0983777e-38 341 254
0.025882706 0.671 -0.016470812 1.0798273e-38 342 254
0.027059194 0.671 -0.016470812 1.0613882e-38 343 254
0.028235679 0.671 -0.016470812 9.6032862e-39 344 254
0.029412165 0.671 -0.016470812 9.1423066e-39 345 254
0.030588651 0.671 -0.016470812 8.0406282e-39 346 254
0.031765141 0.671 -0.016470812 7.9484339e-39 347 254
0.032941625 0.671 -0.016470812 7.6725687e-39 348 254
0.034118112 0.671 -0.016470812 7.7651217e-39 349 254
0.035347197 0.67199999 -0.01649536 8.4069164e-39 350 254
0.036634147 0.67400002 -0.016544454 8.3147207e-39 351 254
0.037871998 0.67500001 -0.016569 8.6806264e-39 352 254
0.039055496 0.67500001 -0.016569 8.4962337e-39 353 254
0.040238999 0.67500001 -0.016569 8.3129061e-39 354 254
0.041422497 0.67500001 -0.016569 8.2207118e-39 355 254
0.042669121 0.676 -0.016593546 8.2210706e-39 356 254
0.043984115 0.67799997 -0.016642639 8.3132648e-39 357 254
0.045172878 0.67799997 -0.016642639 8.3118495e-39 358 254
0.046430022 0.67900002 -0.016667187 9.14125e-39 359 254
0.047620531 0.67900002 -0.016667187 1.1256071e-38 360 254
0.048882935 0.68000001 -0.016691733 1.2085834e-38 361 254
0.050222475 0.68199998 -0.016740825 1.2820192e-38 362 254
0.051418249 0.68199998 -0.016740825 1.1068477e-38 363 254
0.052614026 0.68199998 -0.016740825 7.2977746e-39 364 254
0.053809796 0.68199998 -0.016740825 7.8509484e-39 365 254
0.055005573 0.68199998 -0.016740825 1.0975183e-38 366 254
0.056201346 0.68199998 -0.016740825 1.6045942e-38 367 254
0.057481278 0.68300003 -0.016765373 1.8804289e-38 368 254
0.05867881 0.68300003 -0.016765373 1.9726605e-38 369 254
-0.0073008798 0.69400001 -0.0182522 1.8989798e-38 314 255
-0.0060753003 0.69300002 -0.018225901 1.5670756e-38 315 255
-0.00486024 0.69300002 -0.018225901 1.3370922e-38 316 255
-0.0036346598 0.69099998 -0.0181733 1.300214e-38 317 255
-0.0024195998 0.69 -0.018146999 1.3189774e-38 318 255
-0.0012062934 0.68800002 -0.0180944 1.4019536e-38 319 255
0 0.68699998 -0.018068098 1.4112803e-38 320 255
0.0012027866 0.68599999 -0.018041799 1.3099012e-38 321 255
0.0023985601 0.68400002 -0.0179892 1.1348379e-38 322 255
0.0035925799 0.68300003 -0.017962901 9.689218e-39 323 255
0.004783093 0.68199998 -0.017936599 8.4953565e-39 324 255
0.0059613334 0.68000001 -0.017883999 9.4173128e-39 325 255
0.0071325595 0.67799997 -0.0178314 1.1073575e-38 326 255
0.0083213197 0.67799997 -0.0178314 1.2825292e-38 327 255
0.0094820261 0.676 -0.017778801 1.2821322e-38 328 255
0.01066728 0.676 -0.017778801 1.162278e-38 329 255
0.011852534 0.676 -0.017778801 1.0151583e-38 330 255
0.013037786 0.676 -0.017778801 9.6902451e-39 331 255
0.014202001 0.67500001 -0.0177525 9.1416998e-39 332 255
0.0153855 0.67500001 -0.0177525 9.0495042e-39 333 255
0.016544454 0.67400002 -0.0177262 8.315186e-39 334 255
0.017673599 0.67199999 -0.017673599 8.1307933e-39 335 255
0.018851839 0.67199999 -0.017673599 7.6691159e-39 336 255
0.020030079 0.67199999 -0.017673599 7.9457028e-39 337 255
0.021176759 0.671 -0.0176473 9.9707444e-39 338 255
0.022353247 0.671 -0.0176473 1.1077092e-38 339 255
0.023529733 0.671 -0.0176473 1.1261459e-38 340 255
0.024706218 0.671 -0.0176473 1.0984874e-38 341 255
0.025882706 0.671 -0.0176473 1.0707526e-38 342 255
0.027059194 0.671 -0.0176473 1.0062157e-38 343 255
0.028235679 0.671 -0.0176473 9.2359484e-39 344 255
0.029412165 0.671 -0.0176473 8.6827746e-39 345 255
0.030588651 0.671 -0.0176473 7.8576746e-39 346 255
0.031812478 0.67199999 -0.017673599 7.6732862e-39 347 255
0.03299072 0.67199999 -0.017673599 7.8565984e-39 348 255
0.034168959 0.67199999 -0.017673599 7.9487927e-39 349 255
0.035347197 0.67199999 -0.017673599 8.2232244e-39 350 255
0.036688499 0.67500001 -0.0177525 8.2232244e-39 351 255
0.037871998 0.67500001 -0.0177525 8.1299567e-39 352 255
0.039055496 0.67500001 -0.0177525 8.1299567e-39 353 255
0.040298611 0.676 -0.017778801 8.2207118e-39 354 255
0.041483864 0.676 -0.017778801 8.2207118e-39 355 255
0.042669121 0.676 -0.017778801 8.3114711e-39 356 255
0.043984115 0.67799997 -0.0178314 8.4958624e-39 357 255
0.045172878 0.67799997 -0.0178314 8.7714179e-39 358 255
0.046430022 0.67900002 -0.017857701 1.0062157e-38 359 255
0.047620531 0.67900002 -0.017857701 1.27287e-38 360 255
0.049026705 0.68199998 -0.017936599 1.2636505e-38 361 255
0.050222475 0.68199998 -0.017936599 1.0980226e-38 362 255
0.051493648 0.68300003 -0.017962901 9.2285103e-39 363 255
0.052614026 0.68199998 -0.017936599 7.2977718e-39 364 255
0.053809796 0.68199998 -0.017936599 8.6807063e-39 365 255
0.055005573 0.68199998 -0.017936599 1.2171576e-38 366 255
0.056201346 0.68199998 -0.017936599 1.6597327e-38 367 255
0.05739712 0.68199998 -0.017936599 1.8896489e-38 368 255
-0.0073008798 0.69400001 -0.019469013 1.8530621e-38 314 256
-0.0060753003 0.69300002 -0.01944096 1.5303775e-38 315 256
-0.00486024 0.69300002 -0.01944096 1.3830824e-38 316 256
-0.0036346598 0.69099998 -0.019384852 1.3001424e-38 317 256
-0.0024231065 0.69099998 -0.019384852 1.2911749e-38 318 256
-0.0012062934 0.68800002 -0.019300694 1.374151e-38 319 256
0 0.68800002 -0.019300694 1.42954e-38 320 256
0.0012045399 0.68699998 -0.019272638 1.4387595e-38 321 256
0.0024055731 0.68599999 -0.019244585 1.3741863e-38 322 256
0.00359784 0.68400002 -0.01918848 1.1621005e-38 323 256
0.0047901068 0.68300003 -0.019160427 8.862337e-39 324 256
0.005978866 0.68199998 -0.019132372 8.401719e-39 325 256
0.0071535995 0.68000001 -0.019076265 9.2329244e-39 326 256
0.0083213197 0.67799997 -0.019020159 1.1353065e-38 327 256
0.0095100794 0.67799997 -0.019020159 1.2454011e-38 328 256
0.01066728 0.676 -0.018964052 1.1716087e-38 329 256
0.011852534 0.676 -0.018964052 1.1530936e-38 330 256
0.013037786 0.676 -0.018964052 1.0885567e-38 331 256
0.014202001 0.67500001 -0.018935999 9.6005326e-39 332 256
0.0153855 0.67500001 -0.018935999 9.4161413e-39 333 256
0.016569 0.67500001 -0.018935999 8.2222799e-39 334 256
0.0177262 0.67400002 -0.018907947 8.1300843e-39 335 256
0.018851839 0.67199999 -0.018851839 7.944621e-39 336 256
0.020030079 0.67199999 -0.018851839 8.129371e-39 337 256
0.021208318 0.67199999 -0.018851839 8.4098801e-39 338 256
0.022386558 0.67199999 -0.018851839 9.0552495e-39 339 256
0.023564799 0.67199999 -0.018851839 1.0615366e-38 340 256
0.024706218 0.671 -0.018823786 1.0430974e-38 341 256
0.025882706 0.671 -0.018823786 9.6044184e-39 342 256
0.027059194 0.671 -0.018823786 9.5122228e-39 343 256
0.028235679 0.671 -0.018823786 9.2363141e-39 344 256
0.029412165 0.671 -0.018823786 8.6831403e-39 345 256
0.030588651 0.671 -0.018823786 8.0409869e-39 346 256
0.031812478 0.67199999 -0.018851839 7.9487927e-39 347 256
0.03299072 0.67199999 -0.018851839 7.8569572e-39 348 256
0.034168959 0.67199999 -0.018851839 7.8569572e-39 349 256
0.035452399 0.67400002 -0.018907947 7.8562397e-39 350 256
0.036688499 0.67500001 -0.018935999 7.7640455e-39 351 256
0.037928104 0.676 -0.018964052 7.763328e-39 352 256
0.039113361 0.676 -0.018964052 7.6711338e-39 353 256
0.040298611 0.676 -0.018964052 8.1292351e-39 354 256
0.041483864 0.676 -0.018964052 8.1292351e-39 355 256
0.042669121 0.676 -0.018964052 8.4033164e-39 356 256
0.043984115 0.67799997 -0.019020159 8.4955121e-39 357 256
0.045239504 0.67900002 -0.019048214 9.6008409e-39 358 256
0.046430022 0.67900002 -0.019048214 1.0983777e-38 359 256
0.047690667 0.68000001 -0.019076265 1.3004941e-38 360 256
0.049026705 0.68199998 -0.019132372 1.217482e-38 361 256
0.050222475 0.68199998 -0.019132372 8.7704006e-39 362 256
0.051493648 0.68300003 -0.019160427 7.9406385e-39 363 256
0.052691177 0.68300003 -0.019160427 7.4818058e-39 364 256
0.053809796 0.68199998 -0.019132372 9.7870566e-39 365 256
0.055005573 0.68199998 -0.019132372 1.3367975e-38 366 256
0.056201346 0.68199998 -0.019132372 1.6687018e-38 367 256
-0.0060840664 0.69400001 -0.020685827 1.5120455e-38 315 257
-0.0048672534 0.69400001 -0.020685827 1.364679e-38 316 257
-0.0036451798 0.69300002 -0.020656019 1.3370203e-38 317 257
-0.0024231065 0.69099998 -0.020596405 1.3003942e-38 318 257
-0.0012097999 0.69 -0.020566599 1.3096137e-38 319 257
0 0.68800002 -0.020506985 1.365003e-38 320 257
0.0012045399 0.68699998 -0.020477179 1.3926976e-38 321 257
0.0024090798 0.68699998 -0.020477179 1.4387948e-38 322 257
0.00359784 0.68400002 -0.020387759 1.3189405e-38 323 257
0.0047901068 0.68300003 -0.020357953 1.0702647e-38 324 257
0.005978866 0.68199998 -0.020328145 9.9650818e-39 325 257
0.00717464 0.68199998 -0.020328145 1.0059808e-38 326 257
0.0083213197 0.67799997 -0.020208918 1.0797373e-38 327 257
0.0095100794 0.67799997 -0.020208918 1.1440578e-38 328 257
0.010698839 0.67799997 -0.020208918 1.1256186e-38 329 257
0.011852534 0.676 -0.020149305 1.1529864e-38 330 257
0.013037786 0.676 -0.020149305 1.1068887e-38 331 257
0.014223038 0.676 -0.020149305 9.9675369e-39 332 257
0.0153855 0.67500001 -0.020119499 9.8753398e-39 333 257
0.016569 0.67500001 -0.020119499 8.8644291e-39 334 257
0.0177262 0.67400002 -0.020089693 8.6800365e-39 335 257
0.018907947 0.67400002 -0.020089693 8.3119644e-39 336 257
0.020089693 0.67400002 -0.020089693 8.3119644e-39 337 257
0.021208318 0.67199999 -0.020030079 7.4907755e-39 338 257
0.022386558 0.67199999 -0.020030079 7.767361e-39 339 257
0.023564799 0.67199999 -0.020030079 9.1437962e-39 340 257
0.024743039 0.67199999 -0.020030079 8.4984268e-39 341 257
0.025921278 0.67199999 -0.020030079 8.2243552e-39 342 257
0.027099518 0.67199999 -0.020030079 9.0541159e-39 343 257
0.02827776 0.67199999 -0.020030079 9.3281468e-39 344 257
0.029455997 0.67199999 -0.020030079 8.5905818e-39 345 257
0.030634239 0.67199999 -0.020030079 7.9491514e-39 346 257
0.03190716 0.67400002 -0.020089693 7.9491514e-39 347 257
0.033088908 0.67400002 -0.020089693 7.6736449e-39 348 257
0.034321502 0.67500001 -0.020119499 7.6736449e-39 349 257
0.035505001 0.67500001 -0.020119499 7.8562397e-39 350 257
0.036742851 0.676 -0.020149305 7.7636867e-39 351 257
0.037928104 0.676 -0.020149305 7.7636867e-39 352 257
0.039113361 0.676 -0.020149305 7.6711338e-39 353 257
0.040298611 0.676 -0.020149305 8.1292351e-39 354 257
0.041483864 0.676 -0.020149305 8.1292351e-39 355 257
0.042795356 0.67799997 -0.020208918 8.1274554e-39 356 257
0.044048995 0.67900002 -0.020238725 8.5880734e-39 357 257
0.045239504 0.67900002 -0.020238725 1.0706488e-38 358 257
0.046430022 0.67900002 -0.020238725 1.1997227e-38 359 257
0.047830928 0.68199998 -0.020328145 1.2544329e-38 360 257
0.049098592 0.68300003 -0.020357953 1.1069198e-38 361 257
0.05029612 0.68300003 -0.020357953 7.2974187e-39 362 257
0.051493648 0.68300003 -0.020357953 7.4818086e-39 363 257
0.052691177 0.68300003 -0.020357953 8.9533485e-39 364 257
0.053888701 0.68300003 -0.020357953 1.1165685e-38 365 257
0.055086225 0.68300003 -0.020357953 1.346306e-38 366 257
0.056283753 0.68300003 -0.020357953 1.6136734e-38 367 257
-0.0060840664 0.69400001 -0.021902639 1.5304128e-38 315 258
-0.0048672534 0.69400001 -0.021902639 1.3738263e-38 316 258
-0.0036451798 0.69300002 -0.021871079 1.3646067e-38 317 258
-0.00243012 0.69300002 -0.021871079 1.3648228e-38 318 258
-0.0012115532 0.69099998 -0.021807959 1.3925175e-38 319 258
0 0.69 -0.021776399 1.3466718e-38 320 258
0.0012062934 0.68800002 -0.021713281 1.3097575e-38 321 258
0.0024090798 0.68699998 -0.021681719 1.2179216e-38 322 258
0.00360836 0.68599999 -0.021650158 1.3101172e-38 323 258
0.0047901068 0.68300003 -0.02155548 1.410849e-38 324 258
0.0059876335 0.68300003 -0.02155548 1.3647512e-38 325 258
0.00717464 0.68199998 -0.021523919 1.2266743e-38 326 258
0.0083458666 0.68000001 -0.0214608 1.1252949e-38 327 258
0.0095100794 0.67799997 -0.021397678 1.1899035e-38 328 258
0.010698839 0.67799997 -0.021397678 1.1806839e-38 329 258
0.011852534 0.676 -0.021334561 1.1529878e-38 330 258
0.013037786 0.676 -0.021334561 1.125365e-38 331 258
0.014223038 0.676 -0.021334561 1.1347974e-38 332 258
0.015408293 0.676 -0.021334561 1.0702605e-38 333 258
0.016593546 0.676 -0.021334561 8.3109078e-39 334 258
0.0177525 0.67500001 -0.021303 8.6796903e-39 335 258
0.018935999 0.67500001 -0.021303 8.2204848e-39 336 258
0.020089693 0.67400002 -0.021271439 8.2204848e-39 337 258
0.021271439 0.67400002 -0.021271439 7.7651945e-39 338 258
0.022453187 0.67400002 -0.021271439 7.8573902e-39 339 258
0.023564799 0.67199999 -0.021208318 8.133254e-39 340 258
0.024743039 0.67199999 -0.021208318 7.1191021e-39 341 258
0.025921278 0.67199999 -0.021208318 8.4980905e-39 342 258
0.027099518 0.67199999 -0.021208318 9.8810249e-39 343 258
0.02827776 0.67199999 -0.021208318 9.3277965e-39 344 258
0.029543666 0.67400002 -0.021271439 8.5898727e-39 345 258
0.030725412 0.67400002 -0.021271439 7.7654804e-39 346 258
0.031954501 0.67500001 -0.021303 7.6732862e-39 347 258
0.033137999 0.67500001 -0.021303 7.8569572e-39 348 258
0.034321502 0.67500001 -0.021303 7.7647629e-39 349 258
0.035557602 0.676 -0.021334561 7.7636867e-39 350 258
0.036742851 0.676 -0.021334561 7.7636867e-39 351 258
0.037928104 0.676 -0.021334561 8.0388345e-39 352 258
0.039113361 0.676 -0.021334561 7.9466403e-39 353 258
0.040298611 0.676 -0.021334561 8.2207202e-39 354 258
0.041606598 0.67799997 -0.021397678 8.2207202e-39 355 258
0.042795356 0.67799997 -0.021397678 8.0345535e-39 356 258
0.044048995 0.67900002 -0.021429239 8.6799229e-39 357 258
0.045239504 0.67900002 -0.021429239 1.1442628e-38 358 258
0.046498399 0.68000001 -0.0214608 1.245678e-38 359 258
0.047830928 0.68199998 -0.021523919 1.1163915e-38 360 258
0.049098592 0.68300003 -0.02155548 9.8731762e-39 361 258
0.05029612 0.68300003 -0.02155548 8.1250368e-39 362 258
0.051569041 0.68400002 -0.02158704 9.32358e-39 363 258
0.05276832 0.68400002 -0.02158704 1.1437624e-38 364 258
0.053888701 0.68300003 -0.02155548 1.1529821e-38 365 258
0.055086225 0.68300003 -0.02155548 1.2265966e-38 366 258
0.056283753 0.68300003 -0.02155548 1.576904e-38 367 258
-0.0061015999 0.69599998 -0.023186078 1.511938e-38 315 259
-0.0048812795 0.69599998 -0.023186078 1.3831177e-38 316 259
-0.0036504399 0.69400001 -0.023119451 1.3554951e-38 317 259
-0.0024336267 0.69400001 -0.023119451 1.3372723e-38 318 259
-0.00121506 0.69300002 -0.02308614 1.3741507e-38 319 259
0 0.69099998 -0.023019511 1.4019536e-38 320 259
0.0012062934 0.68800002 -0.022919573 1.3097578e-38 321 259
0.0024090798 0.68699998 -0.022886258 1.2178497e-38 322 259
0.00360836 0.68599999 -0.022852944 1.2639474e-38 323 259
0.0047971201 0.68400002 -0.022786319 1.4017374e-38 324 259
0.0059876335 0.68300003 -0.022753006 1.4017374e-38 325 259
0.0071851597 0.68300003 -0.022753006 1.327945e-38 326 259
0.0083704125 0.68199998 -0.022719691 1.1896515e-38 327 259
0.0095381327 0.68000001 -0.022653066 1.1716443e-38 328 259
0.010698839 0.67799997 -0.022586439 1.1716443e-38 329 259
0.011887599 0.67799997 -0.022586439 1.1348013e-38 330 259
0.013037786 0.676 -0.022519812 1.1348013e-38 331 259
0.014223038 0.676 -0.022519812 1.199336e-38 332 259
0.015408293 0.676 -0.022519812 1.1440187e-38 333 259
0.016593546 0.676 -0.022519812 8.3105547e-39 334 259
0.017778801 0.676 -0.022519812 8.6793372e-39 335 259
0.018935999 0.67500001 -0.022486499 8.5874723e-39 336 259
0.020119499 0.67500001 -0.022486499 8.403081e-39 337 259
0.021303 0.67500001 -0.022486499 7.9460111e-39 338 259
0.022486499 0.67500001 -0.022486499 8.2222393e-39 339 259
0.023634933 0.67400002 -0.022453187 8.3137188e-39 340 259
0.024816679 0.67400002 -0.022453187 8.0371305e-39 341 259
0.025998428 0.67400002 -0.022453187 8.6807063e-39 342 259
0.027180174 0.67400002 -0.022453187 9.8792495e-39 343 259
0.02836192 0.67400002 -0.022453187 9.0512264e-39 344 259
0.0295875 0.67500001 -0.022486499 8.405857e-39 345 259
0.030771 0.67500001 -0.022486499 7.9487927e-39 346 259
0.032001842 0.676 -0.022519812 7.8565984e-39 347 259
0.033187091 0.676 -0.022519812 7.8562397e-39 348 259
0.034372345 0.676 -0.022519812 7.8562397e-39 349 259
0.035557602 0.676 -0.022519812 7.8562397e-39 350 259
0.036851559 0.67799997 -0.022586439 7.8562397e-39 351 259
0.038040318 0.67799997 -0.022586439 8.3136235e-39 352 259
0.039229076 0.67799997 -0.022586439 8.3136235e-39 353 259
0.040417835 0.67799997 -0.022586439 8.5877077e-39 354 259
0.041606598 0.67799997 -0.022586439 8.5877077e-39 355 259
0.042858478 0.67900002 -0.022619752 8.5859505e-39 356 259
0.044048995 0.67900002 -0.022619752 9.6001024e-39 357 259
0.045306131 0.68000001 -0.022653066 1.2085496e-38 358 259
0.046635158 0.68199998 -0.022719691 1.2730865e-38 359 259
0.047901068 0.68300003 -0.022753006 1.0518546e-38 360 259
0.049098592 0.68300003 -0.022753006 9.3200025e-39 361 259
0.050369758 0.68400002 -0.022786319 9.7806135e-39 362 259
0.051569041 0.68400002 -0.022786319 1.1255385e-38 363 259
0.05292261 0.68599999 -0.022852944 1.290882e-38 364 259
0.054125395 0.68599999 -0.022852944 1.1986505e-38 365 259
0.055328183 0.68599999 -0.022852944 1.1801038e-38 366 259
-0.0073955595 0.70300001 -0.024651866 1.8438778e-38 314 260
-0.0061103669 0.69700003 -0.024441468 1.484279e-38 315 260
-0.0048882933 0.69700003 -0.024441468 1.3464197e-38 316 260
-0.0036609597 0.69599998 -0.0244064 1.3464197e-38 317 260
-0.0024336267 0.69400001 -0.024336265 1.355496e-38 318 260
-0.00121506 0.69300002 -0.024301201 1.355496e-38 319 260
0 0.69099998 -0.024231065 1.3464565e-38 320 260
0.0012097999 0.69 -0.024195999 1.3925544e-38 321 260
0.0024125867 0.68800002 -0.024125867 1.3926623e-38 322 260
0.0036136196 0.68699998 -0.024090799 1.2451134e-38 323 260
0.0047971201 0.68400002 -0.0239856 1.070014e-38 324 260
0.0059964 0.68400002 -0.0239856 1.1161117e-38 325 260
0.0071851597 0.68300003 -0.023950534 1.1621376e-38 326 260
0.0083704125 0.68199998 -0.023915464 1.1621376e-38 327 260
0.009566186 0.68199998 -0.023915464 1.1256186e-38 328 260
0.010714619 0.67900002 -0.023810266 1.1348382e-38 329 260
0.011887599 0.67799997 -0.023775198 1.0979954e-38 330 260
0.013076359 0.67799997 -0.023775198 1.1163985e-38 331 260
0.014223038 0.676 -0.023705067 1.2637656e-38 332 260
0.015408293 0.676 -0.023705067 1.1623506e-38 333 260
0.016593546 0.676 -0.023705067 7.4822388e-39 334 260
0.017778801 0.676 -0.023705067 8.1276082e-39 335 260
0.018964052 0.676 -0.023705067 8.5856968e-39 336 260
0.020149305 0.676 -0.023705067 8.4935012e-39 337 260
0.021334561 0.676 -0.023705067 8.4956298e-39 338 260
0.022519812 0.676 -0.023705067 8.4956298e-39 339 260
0.023669999 0.67500001 -0.023669999 8.4959829e-39 340 260
0.0248535 0.67500001 -0.023669999 8.4034285e-39 341 260
0.026037 0.67500001 -0.023669999 8.6799776e-39 342 260
0.027220501 0.67500001 -0.023669999 8.8647276e-39 343 260
