# .PCD v.7 - Point Cloud Data file format
FIELDS x y z rgb imX imY
SIZE 4 4 4 4 4 4
TYPE F F F F F F
COUNT 1 1 1 1 1 1
WIDTH 842
HEIGHT 1
VIEWPOINT 0 0 0 1 0 0 0
POINTS 842
DATA ascii
0.012169886 0.63099998 0.086295553 1.6514937e-38 331 162
0.013255199 0.63 0.086158797 1.6330543e-38 332 162
0.014337006 0.62900001 0.086022034 1.6238347e-38 333 162
0.015415306 0.62800002 0.085885279 1.6054677e-38 334 162
0.016516401 0.62800002 0.085885279 1.6054677e-38 335 162
0.017617494 0.62800002 0.085885279 1.6329821e-38 336 162
0.018688779 0.62699997 0.085748516 1.6145429e-38 337 162
0.019788118 0.62699997 0.085748516 1.6419492e-38 338 162
0.020887459 0.62699997 0.085748516 1.6142906e-38 339 162
0.021986797 0.62699997 0.085748516 1.595887e-38 340 162
0.023086138 0.62699997 0.085748516 1.595887e-38 341 162
0.024185479 0.62699997 0.085748516 1.5866668e-38 342 162
0.025325146 0.62800002 0.085885279 1.5774473e-38 343 162
0.026426241 0.62800002 0.085885279 1.5774107e-38 344 162
0.027571166 0.62900001 0.086022034 1.5589356e-38 345 162
0.028719598 0.63 0.086158797 1.5862703e-38 346 162
0.029824199 0.63 0.086158797 1.5494279e-38 347 162
0.030977892 0.63099998 0.086295553 1.521697e-38 348 162
0.032033399 0.63 0.086158797 1.4940023e-38 349 162
0.033137999 0.63 0.086158797 1.4939305e-38 350 162
0.0342426 0.63 0.086158797 1.5216252e-38 351 162
0.035347197 0.63 0.086158797 1.5769791e-38 352 162
0.036509659 0.63099998 0.086295553 1.7613344e-38 353 162
0.0066696797 0.634 0.085594222 1.6788998e-38 326 163
0.0077567468 0.63200003 0.085324213 1.6881193e-38 327 163
0.0088648535 0.63200003 0.085324213 1.6422739e-38 328 163
0.0099729598 0.63200003 0.085324213 1.6514934e-38 329 163
0.011063533 0.63099998 0.085189201 1.6606054e-38 330 163
0.012169886 0.63099998 0.085189201 1.6513499e-38 331 163
0.013276239 0.63099998 0.085189201 1.6329468e-38 332 163
0.014359799 0.63 0.085054196 1.6237271e-38 333 163
0.015439852 0.62900001 0.084919192 1.6145792e-38 334 163
0.016542701 0.62900001 0.084919192 1.6145792e-38 335 163
0.017645547 0.62900001 0.084919192 1.6421293e-38 336 163
0.018718587 0.62800002 0.084784187 1.6236543e-38 337 163
0.019819681 0.62800002 0.084784187 1.6235461e-38 338 163
0.020920772 0.62800002 0.084784187 1.6050709e-38 339 163
0.022021867 0.62800002 0.084784187 1.5958151e-38 340 163
0.023122961 0.62800002 0.084784187 1.5958151e-38 341 163
0.024224052 0.62800002 0.084784187 1.5774476e-38 342 163
0.025365472 0.62900001 0.084919192 1.549789e-38 343 163
0.02646832 0.62900001 0.084919192 1.558864e-38 344 163
0.027615 0.63 0.085054196 1.5312053e-38 345 163
0.028719598 0.63 0.085054196 1.5218412e-38 346 163
0.029871536 0.63099998 0.085189201 1.5034021e-38 347 163
0.030977892 0.63099998 0.085189201 1.5032575e-38 348 163
0.032084245 0.63099998 0.085189201 1.4940021e-38 349 163
0.033137999 0.63 0.085054196 1.50315e-38 350 163
0.0342426 0.63 0.085054196 1.5216252e-38 351 163
0.035403304 0.63099998 0.085189201 1.5586123e-38 352 163
0.036509659 0.63099998 0.085189201 1.7430034e-38 353 163
0.0066696797 0.634 0.08448261 1.6788281e-38 326 164
0.0077812932 0.634 0.08448261 1.6880477e-38 327 164
0.0088929068 0.634 0.08448261 1.6606054e-38 328 164
0.010004519 0.634 0.08448261 1.6513499e-38 329 164
0.011081067 0.63200003 0.084216103 1.6422386e-38 330 164
0.012189173 0.63200003 0.084216103 1.633019e-38 331 164
0.013276239 0.63099998 0.084082849 1.6054679e-38 332 164
0.014382593 0.63099998 0.084082849 1.5870287e-38 333 164
0.015464399 0.63 0.083949596 1.5869562e-38 334 164
0.016569 0.63 0.083949596 1.5962117e-38 335 164
0.017645547 0.62900001 0.083816342 1.6236543e-38 336 164
0.018718587 0.62800002 0.083683088 1.5960316e-38 337 164
0.019819681 0.62800002 0.083683088 1.6142906e-38 338 164
0.020920772 0.62800002 0.083683088 1.5866318e-38 339 164
0.022021867 0.62800002 0.083683088 1.5773404e-38 340 164
0.023122961 0.62800002 0.083683088 1.5865599e-38 341 164
0.024224052 0.62800002 0.083683088 1.5497893e-38 342 164
0.025365472 0.62900001 0.083816342 1.5405696e-38 343 164
0.02646832 0.62900001 0.083816342 1.5495728e-38 344 164
0.027615 0.63 0.083949596 1.5310978e-38 345 164
0.028765187 0.63099998 0.084082849 1.5218412e-38 346 164
0.029871536 0.63099998 0.084082849 1.5034021e-38 347 164
0.030977892 0.63099998 0.084082849 1.5124772e-38 348 164
0.032084245 0.63099998 0.084082849 1.5032575e-38 349 164
0.033190601 0.63099998 0.084082849 1.5399916e-38 350 164
0.034296948 0.63099998 0.084082849 1.5307361e-38 351 164
0.035403304 0.63099998 0.084082849 1.5769068e-38 352 164
0.036509659 0.63099998 0.084082849 1.7705176e-38 353 164
0.0077812932 0.634 0.083370999 1.6512413e-38 327 165
0.0088929068 0.634 0.083370999 1.6513139e-38 328 165
0.010004519 0.634 0.083370999 1.6697531e-38 329 165
0.011081067 0.63200003 0.083108 1.6514581e-38 330 165
0.012189173 0.63200003 0.083108 1.6422386e-38 331 165
0.01329728 0.63200003 0.083108 1.6422736e-38 332 165
0.014382593 0.63099998 0.08297649 1.6238345e-38 333 165
0.015488946 0.63099998 0.08297649 1.6237978e-38 334 165
0.0165953 0.63099998 0.08297649 1.6145782e-38 335 165
0.017673599 0.63 0.082844995 1.5960669e-38 336 165
0.018748393 0.62900001 0.082713492 1.5868115e-38 337 165
0.019851239 0.62900001 0.082713492 1.6051065e-38 338 165
0.020954086 0.62900001 0.082713492 1.595887e-38 339 165
0.022056932 0.62900001 0.082713492 1.5774476e-38 340 165
0.02315978 0.62900001 0.082713492 1.5590086e-38 341 165
0.024262626 0.62900001 0.082713492 1.5589361e-38 342 165
0.025365472 0.62900001 0.082713492 1.5589361e-38 343 165
0.02646832 0.62900001 0.082713492 1.5771589e-38 344 165
0.027615 0.63 0.082844995 1.5586839e-38 345 165
0.028765187 0.63099998 0.08297649 1.5586828e-38 346 165
0.029871536 0.63099998 0.08297649 1.5402078e-38 347 165
0.031026987 0.63200003 0.083108 1.5584305e-38 348 165
0.032084245 0.63099998 0.08297649 1.549211e-38 349 165
0.033190601 0.63099998 0.08297649 1.5583228e-38 350 165
0.034296948 0.63099998 0.08297649 1.5306642e-38 351 165
0.035459414 0.63200003 0.083108 1.5492125e-38 352 165
0.03656752 0.63200003 0.083108 1.7520429e-38 353 165
0.0077935657 0.63499999 0.082389124 1.6511334e-38 327 166
0.0089069325 0.63499999 0.082389124 1.6420937e-38 328 166
0.0100203 0.63499999 0.082389124 1.6605329e-38 329 166
0.011116133 0.634 0.082259387 1.6698603e-38 330 166
0.012227747 0.634 0.082259387 1.6790798e-38 331 166
0.01329728 0.63200003 0.081999891 1.6608205e-38 332 166
0.014405387 0.63200003 0.081999891 1.6608205e-38 333 166
0.015488946 0.63099998 0.081870146 1.7065943e-38 334 166
0.0165953 0.63099998 0.081870146 1.6881193e-38 335 166
0.017701652 0.63099998 0.081870146 1.6605682e-38 336 166
0.018778199 0.63 0.081740394 1.6513487e-38 337 166
0.0198828 0.63 0.081740394 1.6603883e-38 338 166
0.020987399 0.63 0.081740394 1.6511688e-38 339 166
0.022092 0.63 0.081740394 1.641877e-38 340 166
0.023196599 0.63 0.081740394 1.6234378e-38 341 166
0.024301199 0.63 0.081740394 1.5958145e-38 342 166
0.025405798 0.63 0.081740394 1.586595e-38 343 166
0.026510399 0.63 0.081740394 1.6232208e-38 344 166
0.027658831 0.63099998 0.081870146 1.5863785e-38 345 166
0.028765187 0.63099998 0.081870146 1.6137848e-38 346 166
0.029918881 0.63200003 0.081999891 1.567687e-38 347 166
0.031026987 0.63200003 0.081999891 1.5401715e-38 348 166
0.032135095 0.63200003 0.081999891 1.5216965e-38 349 166
0.033243202 0.63200003 0.081999891 1.5583228e-38 350 166
0.034351308 0.63200003 0.081999891 1.5306642e-38 351 166
0.035459414 0.63200003 0.081999891 1.5216617e-38 352 166
0.03656752 0.63200003 0.081999891 1.706053e-38 353 166
0.0089209592 0.63599998 0.081403755 1.6697884e-38 328 167
0.010036079 0.63599998 0.081403755 1.6605329e-38 329 167
0.011133666 0.63499999 0.081275761 1.6606051e-38 330 167
0.012227747 0.634 0.081147775 1.6698247e-38 331 167
0.01329728 0.63200003 0.080891788 1.6514934e-38 332 167
0.014405387 0.63200003 0.080891788 1.660713e-38 333 167
0.015488946 0.63099998 0.080763787 1.633054e-38 334 167
0.0165953 0.63099998 0.080763787 1.6238345e-38 335 167
0.017701652 0.63099998 0.080763787 1.6513853e-38 336 167
0.018808005 0.63099998 0.080763787 1.6606048e-38 337 167
0.019914359 0.63099998 0.080763787 1.7063787e-38 338 167
0.021020712 0.63099998 0.080763787 1.6603167e-38 339 167
0.022092 0.63 0.080635794 1.6694634e-38 340 167
0.023196599 0.63 0.080635794 1.6233656e-38 341 167
0.024339773 0.63099998 0.080763787 1.6050697e-38 342 167
0.025446124 0.63099998 0.080763787 1.5958501e-38 343 167
0.026552478 0.63099998 0.080763787 1.6048896e-38 344 167
0.027658831 0.63099998 0.080763787 1.5772308e-38 345 167
0.028765187 0.63099998 0.080763787 1.6137845e-38 346 167
0.029918881 0.63200003 0.080891788 1.5769421e-38 347 167
0.031026987 0.63200003 0.080891788 1.5767974e-38 348 167
0.032135095 0.63200003 0.080891788 1.5767974e-38 349 167
0.033243202 0.63200003 0.080891788 1.549211e-38 350 167
0.034351308 0.63200003 0.080891788 1.5122967e-38 351 167
0.035459414 0.63200003 0.080891788 1.4205702e-38 352 167
0.03656752 0.63200003 0.080891788 1.5681191e-38 353 167
0.0089209592 0.63599998 0.080288634 1.7619127e-38 328 168
0.010036079 0.63599998 0.080288634 1.715815e-38 329 168
0.011151199 0.63599998 0.080288634 1.6790798e-38 330 168
0.012247032 0.63499999 0.080162399 1.6606048e-38 331 168
0.013339359 0.634 0.080036156 1.6513134e-38 332 168
0.014405387 0.63200003 0.079783678 1.6328741e-38 333 168
0.015488946 0.63099998 0.079657435 1.5959963e-38 334 168
0.0165953 0.63099998 0.079657435 1.6052158e-38 335 168
0.017701652 0.63099998 0.079657435 1.6235471e-38 336 168
0.018808005 0.63099998 0.079657435 1.6235471e-38 337 168
0.019914359 0.63099998 0.079657435 1.6601732e-38 338 168
0.021020712 0.63099998 0.079657435 1.6325504e-38 339 168
0.022127066 0.63099998 0.079657435 1.6233659e-38 340 168
0.023233417 0.63099998 0.079657435 1.6049267e-38 341 168
0.024339773 0.63099998 0.079657435 1.6049265e-38 342 168
0.025446124 0.63099998 0.079657435 1.5957069e-38 343 168
0.026552478 0.63099998 0.079657435 1.5955983e-38 344 168
0.027658831 0.63099998 0.079657435 1.5863429e-38 345 168
0.028810775 0.63200003 0.079783678 1.5862703e-38 346 168
0.029918881 0.63200003 0.079783678 1.5586476e-38 347 168
0.031026987 0.63200003 0.079783678 1.5952731e-38 348 168
0.032135095 0.63200003 0.079783678 1.5952731e-38 349 168
0.033243202 0.63200003 0.079783678 1.5860888e-38 350 168
0.034351308 0.63200003 0.079783678 1.5123323e-38 351 168
0.035459414 0.63200003 0.079783678 1.2642324e-38 352 168
0.03656752 0.63200003 0.079783678 1.4670628e-38 353 168
0.010036079 0.63599998 0.079173513 1.6793332e-38 329 169
0.011151199 0.63599998 0.079173513 1.7068108e-38 330 169
0.012247032 0.63499999 0.079049028 1.6883717e-38 331 169
0.013339359 0.634 0.078924544 1.6881912e-38 332 169
0.014450972 0.634 0.078924544 1.6697881e-38 333 169
0.015513494 0.63200003 0.078675576 1.6605685e-38 334 169
0.0165953 0.63099998 0.078551084 1.651349e-38 335 169
0.017701652 0.63099998 0.078551084 1.6328738e-38 336 169
0.018808005 0.63099998 0.078551084 1.6328738e-38 337 169
0.019914359 0.63099998 0.078551084 1.6511688e-38 338 169
0.021020712 0.63099998 0.078551084 1.6235461e-38 339 169
0.022127066 0.63099998 0.078551084 1.6234378e-38 340 169
0.023233417 0.63099998 0.078551084 1.6234378e-38 341 169
0.024339773 0.63099998 0.078551084 1.6417324e-38 342 169
0.025446124 0.63099998 0.078551084 1.6417324e-38 343 169
0.026552478 0.63099998 0.078551084 1.6141448e-38 344 169
0.027702669 0.63200003 0.078675576 1.6049252e-38 345 169
0.028810775 0.63200003 0.078675576 1.6415154e-38 346 169
0.029918881 0.63200003 0.078675576 1.6046731e-38 347 169
0.031026987 0.63200003 0.078675576 1.5860535e-38 348 169
0.032135095 0.63200003 0.078675576 1.4938939e-38 349 169
0.033243202 0.63200003 0.078675576 1.4200288e-38 350 169
0.034351308 0.63200003 0.078675576 1.2448931e-38 351 169
0.035459414 0.63200003 0.078675576 1.0430704e-38 352 169
0.011151199 0.63599998 0.078058392 1.7067755e-38 330 170
0.012247032 0.63499999 0.077935666 1.7436536e-38 331 170
0.013339359 0.634 0.077812932 1.7619477e-38 332 170
0.014450972 0.634 0.077812932 1.7619477e-38 333 170
0.015513494 0.63200003 0.077567466 1.7343603e-38 334 170
0.016621601 0.63200003 0.077567466 1.7251408e-38 335 170
0.017729707 0.63200003 0.077567466 1.7251408e-38 336 170
0.018837813 0.63200003 0.077567466 1.7158853e-38 337 170
0.01994592 0.63200003 0.077567466 1.7341085e-38 338 170
0.021054026 0.63200003 0.077567466 1.706414e-38 339 170
0.022162134 0.63200003 0.077567466 1.6879391e-38 340 170
0.023233417 0.63099998 0.077444725 1.669536e-38 341 170
0.024339773 0.63099998 0.077444725 1.6970142e-38 342 170
0.025446124 0.63099998 0.077444725 1.6786111e-38 343 170
0.026594561 0.63200003 0.077567466 1.6785734e-38 344 170
0.027702669 0.63200003 0.077567466 1.6601703e-38 345 170
0.028810775 0.63200003 0.077567466 1.6876119e-38 346 170
0.030013559 0.634 0.077812932 1.6138195e-38 347 170
0.031125173 0.634 0.077812932 1.5121883e-38 348 170
0.032135095 0.63200003 0.077567466 1.3093579e-38 349 170
0.033243202 0.63200003 0.077567466 9.7774241e-39 350 170
0.034460012 0.634 0.077812932 8.5788823e-39 351 170
0.012247032 0.63499999 0.076822296 1.2465905e-38 331 171
0.013339359 0.634 0.076701313 1.504017e-38 332 171
0.014450972 0.634 0.076701313 1.5685539e-38 333 171
0.015513494 0.63200003 0.076459363 1.6055032e-38 334 171
0.016621601 0.63200003 0.076459363 1.6423455e-38 335 171
0.017729707 0.63200003 0.076459363 1.7066659e-38 336 171
0.018837813 0.63200003 0.076459363 1.7066659e-38 337 171
0.01994592 0.63200003 0.076459363 1.724889e-38 338 171
0.021054026 0.63200003 0.076459363 1.6879747e-38 339 171
0.022162134 0.63200003 0.076459363 1.6603517e-38 340 171
0.02327024 0.63200003 0.076459363 1.6419126e-38 341 171
0.024378346 0.63200003 0.076459363 1.6417324e-38 342 171
0.025486453 0.63200003 0.076459363 1.586415e-38 343 171
0.026594561 0.63200003 0.076459363 1.5217689e-38 344 171
0.027702669 0.63200003 0.076459363 1.438793e-38 345 171
0.028810775 0.63200003 0.076459363 1.3828994e-38 346 171
0.030013559 0.634 0.076701313 1.1985082e-38 347 171
0.031174263 0.63499999 0.076822296 1.1245721e-38 348 171
0.032287631 0.63499999 0.076822296 1.0600352e-38 349 171
0.012247032 0.63499999 0.075708933 8.0383637e-39 331 172
0.0133604 0.63499999 0.075708933 1.1168685e-38 332 172
0.014473766 0.63499999 0.075708933 1.2827848e-38 333 172
0.015562586 0.634 0.075589702 1.439228e-38 334 172
0.016621601 0.63200003 0.075351253 1.5129846e-38 335 172
0.017729707 0.63200003 0.075351253 1.6050346e-38 336 172
0.018837813 0.63200003 0.075351253 1.6234378e-38 337 172
0.01994592 0.63200003 0.075351253 1.6417321e-38 338 172
0.021054026 0.63200003 0.075351253 1.6048899e-38 339 172
0.022162134 0.63200003 0.075351253 1.5863785e-38 340 172
0.02327024 0.63200003 0.075351253 1.5494643e-38 341 172
0.024378346 0.63200003 0.075351253 1.4941107e-38 342 172
0.025486453 0.63200003 0.075351253 1.420354e-38 343 172
0.026678719 0.634 0.075589702 1.3373055e-38 344 172
0.027790332 0.634 0.075589702 1.2082316e-38 345 172
0.028901944 0.634 0.075589702 9.6841565e-39 346 172
0.0300609 0.63499999 0.075708933 7.5632983e-39 347 172
0.031174263 0.63499999 0.075708933 7.7466231e-39 348 172
0.0133604 0.63499999 0.074595563 8.3016144e-39 332 173
0.014473766 0.63499999 0.074595563 7.4714936e-39 333 173
0.015562586 0.634 0.07447809 6.4616675e-39 334 173
0.016621601 0.63200003 0.074243151 6.8300899e-39 335 173
0.017729707 0.63200003 0.074243151 6.373062e-39 336 173
0.018837813 0.63200003 0.074243151 6.6496489e-39 337 173
0.01994592 0.63200003 0.074243151 8.1200902e-39 338 173
0.021054026 0.63200003 0.074243151 8.4888727e-39 339 173
0.022162134 0.63200003 0.074243151 7.6587435e-39 340 173
0.02327024 0.63200003 0.074243151 6.8289828e-39 341 173
0.024378346 0.63200003 0.074243151 6.4584025e-39 342 173
0.025486453 0.63200003 0.074243151 6.3662054e-39 343 173
0.026594561 0.63200003 0.074243151 6.826815e-39 344 173
0.027702669 0.63200003 0.074243151 7.2877932e-39 345 173
0.028901944 0.634 0.07447809 7.4754186e-39 346 173
0.0300609 0.63499999 0.074595563 9.4115269e-39 347 173
0.021054026 0.63200003 0.073135041 7.6591149e-39 339 174
0.022162134 0.63200003 0.073135041 7.8420586e-39 340 174
0.02327024 0.63200003 0.073135041 7.6576673e-39 341 174
0.024378346 0.63200003 0.073135041 7.5672667e-39 342 174
0.025486453 0.63200003 0.073135041 7.8438536e-39 343 174
0.026594561 0.63200003 0.073135041 8.488144e-39 344 174
0.027702669 0.63200003 0.073135041 8.7650911e-39 345 174
0.028901944 0.634 0.073366478 1.0607204e-38 346 174
0.022162134 0.63200003 0.072026931 1.4016622e-38 340 175
0.02327024 0.63200003 0.072026931 1.4109178e-38 341 175
-0.010825079 0.68599999 -0.0012027866 1.5117878e-38 311 241
-0.0096222926 0.68599999 -0.0012027866 1.2913404e-38 312 241
-0.0084317802 0.68699998 -0.0012045399 1.0977296e-38 313 241
-0.0072377604 0.68800002 -0.0012062934 8.58737e-39 314 241
0.051493648 0.68300003 -0.0011975267 7.2995445e-39 363 241
0.052691177 0.68300003 -0.0011975267 1.0240838e-38 364 241
-0.012027865 0.68599999 -0.0024055731 1.6408616e-38 310 242
-0.010825079 0.68599999 -0.0024055731 1.5210073e-38 311 242
-0.0096222926 0.68599999 -0.0024055731 1.3005597e-38 312 242
-0.0084317802 0.68699998 -0.0024090798 1.1530467e-38 313 242
-0.0072377604 0.68800002 -0.0024125867 9.3249224e-39 314 242
-0.0060314666 0.68800002 -0.0024125867 7.5728467e-39 315 242
0.051493648 0.68300003 -0.0023950534 8.2197085e-39 363 242
0.052691177 0.68300003 -0.0023950534 1.0976608e-38 364 242
-0.012027865 0.68599999 -0.00360836 1.6684127e-38 310 243
-0.010825079 0.68599999 -0.00360836 1.5393388e-38 311 243
-0.0096222926 0.68599999 -0.00360836 1.3189262e-38 312 243
-0.0084317802 0.68699998 -0.0036136196 1.1991078e-38 313 243
-0.0072377604 0.68800002 -0.0036188802 1.0246506e-38 314 243
-0.0060314666 0.68800002 -0.0036188802 8.9557671e-39 315 243
-0.0048251734 0.68800002 -0.0036188802 7.0211205e-39 316 243
0.05029612 0.68300003 -0.0035925799 8.4930514e-39 362 243
0.051493648 0.68300003 -0.0035925799 9.1384208e-39 363 243
0.052691177 0.68300003 -0.0035925799 1.0976605e-38 364 243
-0.010888199 0.69 -0.0048391996 1.5393388e-38 311 244
-0.0096503468 0.68800002 -0.0048251734 1.3005953e-38 312 244
-0.0084440531 0.68800002 -0.0048251734 1.180741e-38 313 244
-0.0072377604 0.68800002 -0.0048251734 1.0523819e-38 314 244
-0.0060314666 0.68800002 -0.0048251734 9.970645e-39 315 244
-0.0048251734 0.68800002 -0.0048251734 8.4044249e-39 316 244
0.044113863 0.68000001 -0.0047690663 7.5732405e-39 357 244
0.045239504 0.67900002 -0.0047620535 7.2066286e-39 358 244
0.046430022 0.67900002 -0.0047620535 7.5754111e-39 359 244
0.047690667 0.68000001 -0.0047690663 7.4832155e-39 360 244
0.048882935 0.68000001 -0.0047690663 7.6676067e-39 361 244
0.05029612 0.68300003 -0.0047901068 8.6778e-39 362 244
0.051493648 0.68300003 -0.0047901068 9.2309724e-39 363 244
0.052691177 0.68300003 -0.0047901068 1.0976605e-38 364 244
-0.010888199 0.69 -0.0060489997 1.6952067e-38 311 245
-0.0096503468 0.68800002 -0.0060314666 1.3739199e-38 312 245
-0.0084440531 0.68800002 -0.0060314666 1.263321e-38 313 245
-0.0072377604 0.68800002 -0.0060314666 1.0340516e-38 314 245
-0.0060314666 0.68800002 -0.0060314666 1.0340516e-38 315 245
-0.0048251734 0.68800002 -0.0060314666 9.6036995e-39 316 245
-0.0036188802 0.68800002 -0.0060314666 8.5891875e-39 317 245
0.044113863 0.68000001 -0.0059613334 7.0222345e-39 357 245
0.045239504 0.67900002 -0.0059525664 7.2991815e-39 358 245
0.046430022 0.67900002 -0.0059525664 7.4832127e-39 359 245
0.047690667 0.68000001 -0.0059613334 8.1260611e-39 360 245
0.048882935 0.68000001 -0.0059613334 8.4030082e-39 361 245
0.05029612 0.68300003 -0.0059876335 9.0458566e-39 362 245
0.051493648 0.68300003 -0.0059876335 9.414279e-39 363 245
0.052691177 0.68300003 -0.0059876335 1.1068791e-38 364 245
0.054125395 0.68599999 -0.0060139326 1.3650268e-38 365 245
-0.013327086 0.69099998 -0.0072693196 1.822985e-38 309 246
-0.012115533 0.69099998 -0.0072693196 1.8963081e-38 310 246
-0.010888199 0.69 -0.0072587994 1.8870886e-38 311 246
-0.0096503468 0.68800002 -0.0072377604 1.4378801e-38 312 246
-0.0084440531 0.68800002 -0.0072377604 1.3641236e-38 313 246
-0.0072377604 0.68800002 -0.0072377604 1.0157204e-38 314 246
-0.0060314666 0.68800002 -0.0072377604 1.0065008e-38 315 246
-0.0048251734 0.68800002 -0.0072377604 9.5118921e-39 316 246
-0.0036136196 0.68699998 -0.0072272392 9.5118921e-39 317 246
-0.0024090798 0.68699998 -0.0072272392 1.0520346e-38 318 246
0.012960639 0.67199999 -0.0070694401 4.6302475e-39 331 246
0.01413888 0.67199999 -0.0070694401 5.7376768e-39 332 246
0.01531712 0.67199999 -0.0070694401 6.3830462e-39 333 246
0.017673599 0.67199999 -0.0070694401 7.849889e-39 335 246
0.018851839 0.67199999 -0.0070694401 7.9413588e-39 336 246
0.020030079 0.67199999 -0.0070694401 8.12575e-39 337 246
0.021208318 0.67199999 -0.0070694401 7.5722259e-39 338 246
0.022386558 0.67199999 -0.0070694401 6.6502696e-39 339 246
0.042921599 0.68000001 -0.0071535995 6.9303766e-39 356 246
0.044113863 0.68000001 -0.0071535995 7.298799e-39 357 246
0.045239504 0.67900002 -0.0071430802 7.2076851e-39 358 246
0.046430022 0.67900002 -0.0071430802 7.5761089e-39 359 246
0.047690667 0.68000001 -0.0071535995 8.3100867e-39 360 246
0.048882935 0.68000001 -0.0071535995 8.6788692e-39 361 246
0.05029612 0.68300003 -0.0071851597 8.9533051e-39 362 246
0.051493648 0.68300003 -0.0071851597 9.5064788e-39 363 246
0.05292261 0.68599999 -0.0072167199 1.1344664e-38 364 246
0.054125395 0.68599999 -0.0072167199 1.355772e-38 365 246
0.055408835 0.68699998 -0.0072272392 1.594477e-38 366 246
-0.013327086 0.69099998 -0.008480873 1.9139562e-38 309 247
-0.012115533 0.69099998 -0.008480873 1.9225989e-38 310 247
-0.010888199 0.69 -0.0084686 2.0240499e-38 311 247
-0.0096783992 0.69 -0.0084686 1.4928369e-38 312 247
-0.0084440531 0.68800002 -0.0084440531 1.4559585e-38 313 247
-0.0072377604 0.68800002 -0.0084440531 1.0616028e-38 314 247
-0.0060489997 0.69 -0.0084686 1.0616028e-38 315 247
-0.0048251734 0.68800002 -0.0084440531 1.0705413e-38 316 247
-0.0036136196 0.68699998 -0.0084317802 1.0705413e-38 317 247
-0.0024055731 0.68599999 -0.0084195063 1.0887719e-38 318 247
-0.0012027866 0.68599999 -0.0084195063 1.107211e-38 319 247
0 0.68300003 -0.0083826864 1.052001e-38 320 247
0.0011975267 0.68300003 -0.0083826864 9.9668362e-39 321 247
0.0082844999 0.67500001 -0.0082844999 6.3772182e-39 327 247
0.0094539737 0.67400002 -0.0082722269 4.9053322e-39 328 247
0.01063572 0.67400002 -0.0082722269 5.0900821e-39 329 247
0.011817466 0.67400002 -0.0082722269 4.906079e-39 330 247
0.012960639 0.67199999 -0.00824768 5.0901116e-39 331 247
0.01413888 0.67199999 -0.00824768 5.8273137e-39 332 247
0.01531712 0.67199999 -0.00824768 6.1957361e-39 333 247
0.01649536 0.67199999 -0.00824768 6.4694307e-39 334 247
0.017673599 0.67199999 -0.00824768 6.7463763e-39 335 247
0.018851839 0.67199999 -0.00824768 7.1151518e-39 336 247
0.020030079 0.67199999 -0.00824768 7.1151518e-39 337 247
0.021208318 0.67199999 -0.00824768 6.3779609e-39 338 247
0.022386558 0.67199999 -0.00824768 5.4560032e-39 339 247
0.023564799 0.67199999 -0.00824768 4.9935831e-39 340 247
0.024743039 0.67199999 -0.00824768 5.2701714e-39 341 247
0.025921278 0.67199999 -0.00824768 5.8247633e-39 342 247
0.027099518 0.67199999 -0.00824768 6.6548841e-39 343 247
0.02827776 0.67199999 -0.00824768 7.2076823e-39 344 247
0.042921599 0.68000001 -0.0083458666 7.2987836e-39 356 247
0.044113863 0.68000001 -0.0083458666 7.4835336e-39 357 247
0.045306131 0.68000001 -0.0083458666 7.4842636e-39 358 247
0.046498399 0.68000001 -0.0083458666 7.576818e-39 359 247
0.047830928 0.68199998 -0.0083704125 8.5855973e-39 360 247
0.049026705 0.68199998 -0.0083704125 8.7703487e-39 361 247
0.05029612 0.68300003 -0.0083826864 8.8625598e-39 362 247
0.051569041 0.68400002 -0.0083949603 9.5079292e-39 363 247
0.05292261 0.68599999 -0.0084195063 1.2539623e-38 364 247
0.054125395 0.68599999 -0.0084195063 1.5028546e-38 365 247
0.055408835 0.68699998 -0.0084317802 1.7050045e-38 366 247
0.056613375 0.68699998 -0.0084317802 1.6588707e-38 367 247
-0.012097999 0.69 -0.0096783992 1.9774856e-38 310 248
-0.010888199 0.69 -0.0096783992 2.0973398e-38 311 248
-0.0096783992 0.69 -0.0096783992 1.52957e-38 312 248
-0.0084686 0.69 -0.0096783992 1.4742526e-38 313 248
-0.0072587994 0.69 -0.0096783992 1.0248323e-38 314 248
-0.0060314666 0.68800002 -0.0096503468 1.0524912e-38 315 248
-0.0048251734 0.68800002 -0.0096503468 1.1348281e-38 316 248
-0.00360836 0.68599999 -0.0096222926 1.1440477e-38 317 248
-0.0024055731 0.68599999 -0.0096222926 1.0425684e-38 318 248
-0.0011975267 0.68300003 -0.0095802136 9.780315e-39 319 248
0 0.68300003 -0.0095802136 9.0452835e-39 320 248
0.0011957732 0.68199998 -0.009566186 9.2300335e-39 321 248
0.0023915465 0.68199998 -0.009566186 9.6909906e-39 322 248
0.0035767998 0.68000001 -0.0095381327 9.6909906e-39 323 248
0.0047690663 0.68000001 -0.0095381327 9.5090853e-39 324 248
0.0082844999 0.67500001 -0.0094679995 8.4937997e-39 327 248
0.0094539737 0.67400002 -0.0094539737 6.9296858e-39 328 248
0.01063572 0.67400002 -0.0094539737 6.0080896e-39 329 248
0.011817466 0.67400002 -0.0094539737 5.1815883e-39 330 248
0.012960639 0.67199999 -0.0094259195 4.9971957e-39 331 248
0.01413888 0.67199999 -0.0094259195 5.0886752e-39 332 248
0.01531712 0.67199999 -0.0094259195 5.0886752e-39 333 248
0.01649536 0.67199999 -0.0094259195 6.3743638e-39 334 248
0.017673599 0.67199999 -0.0094259195 7.0197332e-39 335 248
0.018851839 0.67199999 -0.0094259195 7.2077048e-39 336 248
0.020030079 0.67199999 -0.0094259195 7.2999004e-39 337 248
0.021208318 0.67199999 -0.0094259195 6.6534618e-39 338 248
0.022386558 0.67199999 -0.0094259195 6.5609074e-39 339 248
0.023564799 0.67199999 -0.0094259195 6.6509563e-39 340 248
0.024743039 0.67199999 -0.0094259195 6.7431519e-39 341 248
0.025921278 0.67199999 -0.0094259195 6.8378461e-39 342 248
0.027099518 0.67199999 -0.0094259195 7.2066286e-39 343 248
0.02827776 0.67199999 -0.0094259195 7.5753901e-39 344 248
0.029455997 0.67199999 -0.0094259195 7.9441712e-39 345 248
0.030634239 0.67199999 -0.0094259195 8.3118621e-39 346 248
0.031812478 0.67199999 -0.0094259195 8.3118621e-39 347 248
0.042921599 0.68000001 -0.0095381327 7.5771529e-39 356 248
0.044113863 0.68000001 -0.0095381327 7.4849559e-39 357 248
0.045306131 0.68000001 -0.0095381327 7.4849671e-39 358 248
0.046498399 0.68000001 -0.0095381327 7.7619127e-39 359 248
0.047830928 0.68199998 -0.009566186 8.5859477e-39 360 248
0.049098592 0.68300003 -0.0095802136 8.7706991e-39 361 248
0.05029612 0.68300003 -0.0095802136 8.9533107e-39 362 248
0.051719822 0.68599999 -0.0096222926 9.7830713e-39 363 248
0.052999757 0.68699998 -0.0096363192 1.3459781e-38 364 248
0.054204296 0.68699998 -0.0096363192 1.8069563e-38 365 248
0.055408835 0.68699998 -0.0096363192 2.0001392e-38 366 248
0.056613375 0.68699998 -0.0096363192 1.9171631e-38 367 248
-0.01090398 0.69099998 -0.01090398 2.152585e-38 311 249
-0.0096924258 0.69099998 -0.01090398 1.5205658e-38 312 249
-0.0084686 0.69 -0.010888199 1.4191507e-38 313 249
-0.0072587994 0.69 -0.010888199 1.0064302e-38 314 249
-0.0060314666 0.68800002 -0.010856641 1.0709672e-38 315 249
-0.0048251734 0.68800002 -0.010856641 1.1992231e-38 316 249
-0.00360836 0.68599999 -0.010825079 1.2176622e-38 317 249
-0.0024055731 0.68599999 -0.010825079 1.1529528e-38 318 249
-0.0011975267 0.68300003 -0.01077774 1.0884158e-38 319 249
0 0.68300003 -0.01077774 1.0056574e-38 320 249
0.0011957732 0.68199998 -0.010761959 9.9643783e-39 321 249
0.0023915465 0.68199998 -0.010761959 1.0057646e-38 322 249
0.0035767998 0.68000001 -0.0107304 9.872896e-39 323 249
0.0047690663 0.68000001 -0.0107304 9.6002397e-39 324 249
0.0059525664 0.67900002 -0.010714619 9.9690222e-39 325 249
0.0071325595 0.67799997 -0.010698839 1.1164278e-38 326 249
0.0083213197 0.67799997 -0.010698839 1.0795854e-38 327 249
0.0094820261 0.676 -0.01066728 1.0057545e-38 328 249
0.0106515 0.67500001 -0.0106515 8.4905781e-39 329 249
0.011817466 0.67400002 -0.01063572 6.2883241e-39 330 249
0.012960639 0.67199999 -0.010604159 6.1961284e-39 331 249
0.01413888 0.67199999 -0.010604159 6.1021307e-39 332 249
0.01531712 0.67199999 -0.010604159 5.825904e-39 333 249
0.01649536 0.67199999 -0.010604159 6.4694559e-39 334 249
0.0177262 0.67400002 -0.01063572 6.838237e-39 335 249
0.018907947 0.67400002 -0.01063572 7.5761342e-39 336 249
0.020030079 0.67199999 -0.010604159 7.3917429e-39 337 249
0.021208318 0.67199999 -0.010604159 6.1020789e-39 338 249
0.022386558 0.67199999 -0.010604159 6.0095245e-39 339 249
0.023564799 0.67199999 -0.010604159 6.1928494e-39 340 249
0.024706218 0.671 -0.01058838 6.4690775e-39 341 249
0.025882706 0.671 -0.01058838 6.6541751e-39 342 249
0.027059194 0.671 -0.01058838 6.9311207e-39 343 249
0.028235679 0.671 -0.01058838 7.6679444e-39 344 249
0.029455997 0.67199999 -0.010604159 7.9441712e-39 345 249
0.030634239 0.67199999 -0.010604159 8.5873728e-39 346 249
0.031812478 0.67199999 -0.010604159 8.5873728e-39 347 249
0.033088908 0.67400002 -0.01063572 8.1271205e-39 348 249
0.034270655 0.67400002 -0.01063572 7.9427307e-39 349 249
0.035505001 0.67500001 -0.0106515 7.7597869e-39 350 249
0.036742851 0.676 -0.01066728 8.2207651e-39 351 249
0.041667968 0.67900002 -0.010714619 8.3121998e-39 355 249
0.042858478 0.67900002 -0.010714619 8.1288763e-39 356 249
0.044113863 0.68000001 -0.0107304 7.8526524e-39 357 249
0.045306131 0.68000001 -0.0107304 7.6693513e-39 358 249
0.046635158 0.68199998 -0.010761959 7.761547e-39 359 249
0.047901068 0.68300003 -0.01077774 8.494824e-39 360 249
0.049098592 0.68300003 -0.01077774 8.6792167e-39 361 249
0.050369758 0.68400002 -0.01079352 9.1366229e-39 362 249
0.051795214 0.68699998 -0.010840859 1.0150775e-38 363 249
0.052999757 0.68699998 -0.010840859 1.3737094e-38 364 249
0.054204296 0.68699998 -0.010840859 1.8254321e-38 365 249
0.055489492 0.68800002 -0.010856641 2.0371256e-38 366 249
0.056695789 0.68800002 -0.010856641 1.9909918e-38 367 249
-0.013500666 0.69999999 -0.012273333 1.9772707e-38 309 250
-0.012273333 0.69999999 -0.012273333 2.014219e-38 310 250
-0.01101444 0.69800001 -0.012238266 2.2170494e-38 311 250
-0.0097906133 0.69800001 -0.012238266 1.5575879e-38 312 250
-0.0084686 0.69 -0.012097999 1.4008914e-38 313 250
-0.0072587994 0.69 -0.012097999 1.0157592e-38 314 250
-0.0060489997 0.69 -0.012097999 1.1263941e-38 315 250
-0.0048251734 0.68800002 -0.012062933 1.3097521e-38 316 250
-0.00360836 0.68599999 -0.012027865 1.3097521e-38 317 250
-0.0024055731 0.68599999 -0.012027865 1.171572e-38 318 250
-0.00119928 0.68400002 -0.0119928 1.1346937e-38 319 250
0 0.68300003 -0.011975267 1.1255467e-38 320 250
0.0011957732 0.68199998 -0.011957732 1.097852e-38 321 250
0.0023915465 0.68199998 -0.011957732 1.0334231e-38 322 250
0.0035767998 0.68000001 -0.011922667 9.9654475e-39 323 250
0.0047620535 0.67900002 -0.011905133 9.0460122e-39 324 250
0.0059525664 0.67900002 -0.011905133 9.3222403e-39 325 250
0.0071325595 0.67799997 -0.011887599 1.0607204e-38 326 250
0.0082967728 0.676 -0.011852534 1.2451118e-38 327 250
0.0094820261 0.676 -0.011852534 1.2083035e-38 328 250
0.0106515 0.67500001 -0.011835 1.0423874e-38 329 250
0.011835 0.67500001 -0.011835 9.3257982e-39 330 250
0.012999214 0.67400002 -0.011817466 9.878972e-39 331 250
0.01413888 0.67199999 -0.011782399 9.5080259e-39 332 250
0.01531712 0.67199999 -0.011782399 9.0466876e-39 333 250
0.01649536 0.67199999 -0.011782399 8.3119798e-39 334 250
0.017673599 0.67199999 -0.011782399 8.5885681e-39 335 250
0.018851839 0.67199999 -0.011782399 9.9674976e-39 336 250
0.020030079 0.67199999 -0.011782399 9.137737e-39 337 250
0.021208318 0.67199999 -0.011782399 6.7474427e-39 338 250
0.022386558 0.67199999 -0.011782399 6.3790203e-39 339 250
0.023564799 0.67199999 -0.011782399 6.6548841e-39 340 250
0.024706218 0.671 -0.011764866 6.8392754e-39 341 250
0.025882706 0.671 -0.011764866 7.3895751e-39 342 250
0.027059194 0.671 -0.011764866 7.666162e-39 343 250
0.028235679 0.671 -0.011764866 8.2193161e-39 344 250
0.029455997 0.67199999 -0.011782399 8.4037088e-39 345 250
0.030634239 0.67199999 -0.011782399 8.4969736e-39 346 250
0.031812478 0.67199999 -0.011782399 8.4969736e-39 347 250
0.033088908 0.67400002 -0.011817466 7.944174e-39 348 250
0.034270655 0.67400002 -0.011817466 7.944174e-39 349 250
0.035505001 0.67500001 -0.011835 8.6803139e-39 350 250
0.036742851 0.676 -0.011852534 9.7866615e-39 351 250
0.037928104 0.676 -0.011852534 1.1073788e-38 352 250
0.039229076 0.67799997 -0.011887599 1.0244027e-38 353 250
0.040477451 0.67900002 -0.011905133 9.5075158e-39 354 250
0.041667968 0.67900002 -0.011905133 9.2309289e-39 355 250
0.042858478 0.67900002 -0.011905133 8.1296036e-39 356 250
0.044113863 0.68000001 -0.011922667 7.8530167e-39 357 250
0.045439381 0.68199998 -0.011957732 7.6693485e-39 358 250
0.046635158 0.68199998 -0.011957732 7.7615442e-39 359 250
0.047901068 0.68300003 -0.011975267 8.4951772e-39 360 250
0.049170479 0.68400002 -0.0119928 8.6795698e-39 361 250
0.050517038 0.68599999 -0.012027865 9.4110616e-39 362 250
0.051795214 0.68699998 -0.012045399 1.0793996e-38 363 250
0.052999757 0.68699998 -0.012045399 1.3921855e-38 364 250
0.054204296 0.68699998 -0.012045399 1.8070659e-38 365 250
0.055489492 0.68800002 -0.012062933 2.0095028e-38 366 250
0.056695789 0.68800002 -0.012062933 1.9726605e-38 367 250
0.057902083 0.68800002 -0.012062933 2.0093593e-38 368 250
-0.013500666 0.69999999 -0.013500666 1.885436e-38 309 251
-0.012273333 0.69999999 -0.013500666 1.9406442e-38 310 251
-0.01101444 0.69800001 -0.013462093 2.2448898e-38 311 251
-0.0097906133 0.69800001 -0.013462093 1.6129076e-38 312 251
-0.0085667865 0.69800001 -0.013462093 1.3916381e-38 313 251
-0.0072903596 0.69300002 -0.01336566 9.4225551e-39 314 251
-0.0060489997 0.69 -0.0133078 1.1266108e-38 315 251
-0.0048251734 0.68800002 -0.013269227 1.3283361e-38 316 251
-0.0036136196 0.68699998 -0.013249939 1.2914218e-38 317 251
-0.0024055731 0.68599999 -0.013230653 1.0795208e-38 318 251
-0.00119928 0.68400002 -0.01319208 1.0795208e-38 319 251
0 0.68300003 -0.013172794 1.1623893e-38 320 251
0.0011957732 0.68199998 -0.013153506 1.1439862e-38 321 251
0.0023915465 0.68199998 -0.013153506 1.1162916e-38 322 251
0.0035767998 0.68000001 -0.013114933 1.107072e-38 323 251
0.0047620535 0.67900002 -0.013095647 1.0793057e-38 324 251
0.0059525664 0.67900002 -0.013095647 9.871461e-39 325 251
0.0071325595 0.67799997 -0.013076359 9.6870656e-39 326 251
0.0082967728 0.676 -0.013037786 1.1807566e-38 327 251
0.0094820261 0.676 -0.013037786 1.1440931e-38 328 251
0.0106515 0.67500001 -0.0130185 9.9658007e-39 329 251
0.011835 0.67500001 -0.0130185 8.9548857e-39 330 251
0.012999214 0.67400002 -0.012999214 8.678659e-39 331 251
0.01418096 0.67400002 -0.012999214 8.8616055e-39 332 251
0.015362706 0.67400002 -0.012999214 8.8616055e-39 333 251
0.016544454 0.67400002 -0.012999214 8.6779135e-39 334 251
0.017673599 0.67199999 -0.012960639 1.0153045e-38 335 251
0.018851839 0.67199999 -0.012960639 1.3556331e-38 336 251
0.020030079 0.67199999 -0.012960639 1.1989007e-38 337 251
0.021208318 0.67199999 -0.012960639 8.4066207e-39 338 251
0.022386558 0.67199999 -0.012960639 7.7612513e-39 339 251
0.023564799 0.67199999 -0.012960639 8.0363934e-39 340 251
0.024743039 0.67199999 -0.012960639 7.7598052e-39 341 251
0.025921278 0.67199999 -0.012960639 8.3997992e-39 342 251
0.027099518 0.67199999 -0.012960639 8.4919948e-39 343 251
0.02827776 0.67199999 -0.012960639 8.4952038e-39 344 251
0.029455997 0.67199999 -0.012960639 8.8636262e-39 345 251
0.030725412 0.67400002 -0.012999214 8.5891875e-39 346 251
0.03190716 0.67400002 -0.012999214 8.5891875e-39 347 251
0.033137999 0.67500001 -0.0130185 8.4033711e-39 348 251
0.034321502 0.67500001 -0.0130185 8.5881211e-39 349 251
0.035557602 0.676 -0.013037786 1.0518836e-38 350 251
0.036742851 0.676 -0.013037786 1.0887617e-38 351 251
0.037928104 0.676 -0.013037786 1.0797571e-38 352 251
0.039229076 0.67799997 -0.013076359 1.0429147e-38 353 251
0.040477451 0.67900002 -0.013095647 1.0150018e-38 354 251
0.041667968 0.67900002 -0.013095647 9.5046488e-39 355 251
0.042858478 0.67900002 -0.013095647 8.3129187e-39 356 251
0.044113863 0.68000001 -0.013114933 8.1281687e-39 357 251
0.045439381 0.68199998 -0.013153506 7.6689954e-39 358 251
0.046635158 0.68199998 -0.013153506 7.761191e-39 359 251
0.047901068 0.68300003 -0.013172794 8.3107901e-39 360 251
0.049170479 0.68400002 -0.01319208 8.5873756e-39 361 251
0.050517038 0.68599999 -0.013230653 9.5954557e-39 362 251
0.051795214 0.68699998 -0.013249939 1.0886195e-38 363 251
0.053076908 0.68800002 -0.013269227 1.373819e-38 364 251
0.054283202 0.68800002 -0.013269227 1.7886633e-38 365 251
0.055489492 0.68800002 -0.013269227 2.0187228e-38 366 251
0.056695789 0.68800002 -0.013269227 1.9541858e-38 367 251
-0.013462093 0.69800001 -0.01468592 1.776063e-38 309 252
-0.012238266 0.69800001 -0.01468592 1.8128695e-38 310 252
-0.01101444 0.69800001 -0.01468592 2.0064444e-38 311 252
-0.0097625591 0.69599998 -0.014643839 1.6223111e-38 312 252
-0.0085422397 0.69599998 -0.014643839 1.3549437e-38 313 252
-0.0072903596 0.69300002 -0.014580719 9.9725045e-39 314 252
-0.0060577663 0.69099998 -0.014538639 1.2461428e-38 315 252
-0.0048251734 0.68800002 -0.014475521 1.3743264e-38 316 252
-0.0036136196 0.68699998 -0.014454478 1.2729111e-38 317 252
-0.0024055731 0.68599999 -0.01443344 9.6895865e-39 318 252
-0.00119928 0.68400002 -0.01439136 9.2286084e-39 319 252
0 0.68400002 -0.01439136 1.0151656e-38 320 252
0.0011975267 0.68300003 -0.014370319 1.0797026e-38 321 252
0.0023915465 0.68199998 -0.01434928 1.1715016e-38 322 252
0.0035767998 0.68000001 -0.014307199 1.1807213e-38 323 252
0.0047690663 0.68000001 -0.014307199 1.1622452e-38 324 252
0.0059525664 0.67900002 -0.01428616 1.1253668e-38 325 252
0.0071325595 0.67799997 -0.014265119 1.05197e-38 326 252
0.0083213197 0.67799997 -0.014265119 1.1257265e-38 327 252
0.0094820261 0.676 -0.014223038 1.1533494e-38 328 252
0.01066728 0.676 -0.014223038 1.05197e-38 329 252
0.011835 0.67500001 -0.014202001 9.0445828e-39 330 252
0.0130185 0.67500001 -0.014202001 7.5698129e-39 331 252
0.01418096 0.67400002 -0.01418096 7.4797823e-39 332 252
0.015362706 0.67400002 -0.01418096 7.5719779e-39 333 252
0.016544454 0.67400002 -0.01418096 7.6605582e-39 334 252
0.0177262 0.67400002 -0.01418096 1.0057643e-38 335 252
0.018907947 0.67400002 -0.01418096 1.4387203e-38 336 252
0.020089693 0.67400002 -0.01418096 1.2543292e-38 337 252
0.021208318 0.67199999 -0.01413888 9.1427564e-39 338 252
0.022386558 0.67199999 -0.01413888 8.497387e-39 339 252
0.023564799 0.67199999 -0.01413888 8.3158698e-39 340 252
0.024743039 0.67199999 -0.01413888 7.6705004e-39 341 252
0.025921278 0.67199999 -0.01413888 8.7675321e-39 342 252
0.027180174 0.67400002 -0.01418096 8.7675321e-39 343 252
0.02836192 0.67400002 -0.01418096 8.6799636e-39 344 252
0.029543666 0.67400002 -0.01418096 8.7721592e-39 345 252
0.030725412 0.67400002 -0.01418096 8.5888399e-39 346 252
0.031954501 0.67500001 -0.014202001 8.5888399e-39 347 252
0.033137999 0.67500001 -0.014202001 8.4037522e-39 348 252
0.034372345 0.676 -0.014223038 8.8643717e-39 349 252
0.035557602 0.676 -0.014223038 1.0703968e-38 350 252
0.036742851 0.676 -0.014223038 1.0703968e-38 351 252
0.037928104 0.676 -0.014223038 1.0153667e-38 352 252
0.039229076 0.67799997 -0.014265119 1.0153667e-38 353 252
0.040477451 0.67900002 -0.01428616 1.0057838e-38 354 252
0.041667968 0.67900002 -0.01428616 9.4124685e-39 355 252
0.042921599 0.68000001 -0.014307199 8.3129187e-39 356 252
0.044113863 0.68000001 -0.014307199 8.220723e-39 357 252
0.045439381 0.68199998 -0.01434928 7.7611966e-39 358 252
0.04670354 0.68300003 -0.014370319 7.7611966e-39 359 252
0.0479712 0.68400002 -0.01439136 8.0360137e-39 360 252
0.049170479 0.68400002 -0.01439136 8.2207651e-39 361 252
0.050517038 0.68599999 -0.01443344 1.0055365e-38 362 252
0.051870614 0.68800002 -0.014475521 1.1345745e-38 363 252
0.053231198 0.69 -0.014517599 1.4013701e-38 364 252
0.054440998 0.69 -0.014517599 1.7885917e-38 365 252
0.055892758 0.69300002 -0.014580719 2.0096108e-38 366 252
0.057107817 0.69300002 -0.014580719 1.9358543e-38 367 252
-0.013462093 0.69800001 -0.015909746 1.9811258e-38 309 253
-0.012238266 0.69800001 -0.015909746 2.0086756e-38 310 253
-0.01101444 0.69800001 -0.015909746 1.980981e-38 311 253
-0.0097625591 0.69599998 -0.015864158 1.6594783e-38 312 253
-0.0085422397 0.69599998 -0.015864158 1.3552329e-38 313 253
-0.0073008798 0.69400001 -0.015818574 1.2640452e-38 314 253
-0.0060753003 0.69300002 -0.015795778 1.4484365e-38 315 253
-0.0048391996 0.69 -0.015727401 1.4296453e-38 316 253
-0.0036136196 0.68699998 -0.015659019 1.2637291e-38 317 253
-0.0024055731 0.68599999 -0.015636226 8.7683561e-39 318 253
-0.0012027866 0.68599999 -0.015636226 7.5698129e-39 319 253
0 0.68400002 -0.01559064 5.7359897e-39 320 253
0.0011975267 0.68300003 -0.015567848 7.1189241e-39 321 253
0.0023950534 0.68300003 -0.015567848 1.0611197e-38 322 253
0.00358732 0.68199998 -0.015545053 1.1071815e-38 323 253
0.0047690663 0.68000001 -0.015499466 1.1622455e-38 324 253
0.0059525664 0.67900002 -0.015476674 1.1806486e-38 325 253
0.0071325595 0.67799997 -0.015453878 1.1257265e-38 326 253
0.0083213197 0.67799997 -0.015453878 1.116507e-38 327 253
0.0095100794 0.67799997 -0.015453878 1.1441301e-38 328 253
0.01066728 0.676 -0.015408293 1.1164714e-38 329 253
0.011852534 0.676 -0.015408293 9.9643783e-39 330 253
0.0130185 0.67500001 -0.0153855 9.1342589e-39 331 253
0.014202001 0.67500001 -0.0153855 9.5059155e-39 332 253
0.015362706 0.67400002 -0.015362706 9.782501e-39 333 253
0.016544454 0.67400002 -0.015362706 9.5945042e-39 334 253
0.0177262 0.67400002 -0.015362706 1.0700493e-38 335 253
0.018907947 0.67400002 -0.015362706 1.374328e-38 336 253
0.020089693 0.67400002 -0.015362706 1.2175952e-38 337 253
0.021208318 0.67199999 -0.01531712 8.4066207e-39 338 253
0.022386558 0.67199999 -0.01531712 7.3921086e-39 339 253
0.023564799 0.67199999 -0.01531712 8.496273e-39 340 253
0.024743039 0.67199999 -0.01531712 8.3118817e-39 341 253
0.025921278 0.67199999 -0.01531712 8.7678853e-39 342 253
0.027180174 0.67400002 -0.015362706 9.044112e-39 343 253
0.02836192 0.67400002 -0.015362706 8.7711068e-39 344 253
0.029543666 0.67400002 -0.015362706 8.7711068e-39 345 253
0.030725412 0.67400002 -0.015362706 8.4963178e-39 346 253
0.031954501 0.67500001 -0.0153855 8.4041208e-39 347 253
0.033137999 0.67500001 -0.0153855 8.5860107e-39 348 253
0.034372345 0.676 -0.015408293 8.7704034e-39 349 253
0.035557602 0.676 -0.015408293 8.9569232e-39 350 253
0.036851559 0.67799997 -0.015453878 9.23315e-39 351 253
0.038040318 0.67799997 -0.015453878 9.5082823e-39 352 253
0.039286941 0.67900002 -0.015476674 9.5082823e-39 353 253
0.040477451 0.67900002 -0.015476674 9.4153384e-39 354 253
0.041729335 0.68000001 -0.015499466 8.9543616e-39 355 253
0.042921599 0.68000001 -0.015499466 8.1296036e-39 356 253
0.044243611 0.68199998 -0.015545053 7.9452124e-39 357 253
0.045506012 0.68300003 -0.015567848 7.5771655e-39 358 253
0.04670354 0.68300003 -0.015567848 7.6693611e-39 359 253
0.0479712 0.68400002 -0.01559064 7.6675913e-39 360 253
0.049314249 0.68599999 -0.015636226 8.1285695e-39 361 253
0.050590675 0.68699998 -0.015659019 1.079294e-38 362 253
0.052021399 0.69 -0.015727401 1.1991483e-38 363 253
0.053231198 0.69 -0.015727401 1.4473973e-38 364 253
0.054440998 0.69 -0.015727401 1.7793015e-38 365 253
0.055650797 0.69 -0.015727401 1.9819164e-38 366 253
-0.012273333 0.69999999 -0.017182667 2.1197782e-38 310 254
-0.011045999 0.69999999 -0.017182667 2.0183991e-38 311 254
-0.0097906133 0.69800001 -0.017133573 1.7057206e-38 312 254
-0.0085545136 0.69700003 -0.017109027 1.3092794e-38 313 254
-0.0073219193 0.69599998 -0.017084479 1.2089812e-38 314 254
-0.0060840664 0.69400001 -0.017035386 1.4486898e-38 315 254
-0.00486024 0.69300002 -0.01701084 1.4480497e-38 316 254
-0.0036188802 0.68800002 -0.016888106 1.2912813e-38 317 254
-0.0024090798 0.68699998 -0.01686356 1.0700862e-38 318 254
-0.0012027866 0.68599999 -0.016839013 9.5023184e-39 319 254
0 0.68400002 -0.016789921 8.6772493e-39 320 254
0.0011975267 0.68300003 -0.016765373 8.3084668e-39 321 254
0.0023950534 0.68300003 -0.016765373 8.5850536e-39 322 254
0.00358732 0.68199998 -0.016740825 8.9538362e-39 323 254
0.004783093 0.68199998 -0.016740825 9.7814318e-39 324 254
0.0059613334 0.68000001 -0.016691733 1.0334247e-38 325 254
0.0071535995 0.68000001 -0.016691733 1.1164719e-38 326 254
0.0083213197 0.67799997 -0.016642639 1.1440948e-38 327 254
0.0095100794 0.67799997 -0.016642639 1.2360742e-38 328 254
0.010698839 0.67799997 -0.016642639 1.2452939e-38 329 254
0.011852534 0.676 -0.016593546 1.1807569e-38 330 254
0.013037786 0.676 -0.016593546 1.1346231e-38 331 254
0.014202001 0.67500001 -0.016569 1.0980323e-38 332 254
0.0153855 0.67500001 -0.016569 1.0888127e-38 333 254
0.016569 0.67500001 -0.016569 1.0610461e-38 334 254
0.0177525 0.67500001 -0.016569 1.1532777e-38 335 254
0.018935999 0.67500001 -0.016569 1.3559614e-38 336 254
0.020089693 0.67400002 -0.016544454 1.1900091e-38 337 254
0.021271439 0.67400002 -0.016544454 8.8643745e-39 338 254
0.022453187 0.67400002 -0.016544454 8.2190051e-39 339 254
0.023634933 0.67400002 -0.016544454 9.2262976e-39 340 254
0.024816679 0.67400002 -0.016544454 9.134102e-39 341 254
0.025998428 0.67400002 -0.016544454 8.7682384e-39 342 254
0.027180174 0.67400002 -0.016544454 9.3214122e-39 343 254
0.02836192 0.67400002 -0.016544454 8.9554911e-39 344 254
0.0295875 0.67500001 -0.016569 8.77146e-39 345 254
0.030771 0.67500001 -0.016569 8.5870799e-39 346 254
0.031954501 0.67500001 -0.016569 8.6792769e-39 347 254
0.033187091 0.676 -0.016593546 8.4019894e-39 348 254
0.034372345 0.676 -0.016593546 8.4019894e-39 349 254
0.035557602 0.676 -0.016593546 8.1289758e-39 350 254
0.036851559 0.67799997 -0.016642639 8.2211729e-39 351 254
0.038040318 0.67799997 -0.016642639 8.6796133e-39 352 254
0.039286941 0.67900002 -0.016667187 8.6796133e-39 353 254
0.040477451 0.67900002 -0.016667187 9.1394774e-39 354 254
0.041729335 0.68000001 -0.016691733 8.7706963e-39 355 254
0.043047838 0.68199998 -0.016740825 8.3129159e-39 356 254
0.044243611 0.68199998 -0.016740825 8.1285246e-39 357 254
0.045506012 0.68300003 -0.016765373 7.6697143e-39 358 254
0.046771921 0.68400002 -0.016789921 7.7619099e-39 359 254
0.048111461 0.68599999 -0.016839013 8.3111614e-39 360 254
0.049458027 0.68800002 -0.016888106 8.8643352e-39 361 254
0.050664321 0.68800002 -0.016888106 1.1437245e-38 362 254
0.052096792 0.69099998 -0.016961746 1.263543e-38 363 254
0.053308345 0.69099998 -0.016961746 1.4843124e-38 364 254
0.054519895 0.69099998 -0.016961746 1.8254363e-38 365 254
-0.012290866 0.70099998 -0.018436298 2.1014117e-38 310 255
-0.011045999 0.69999999 -0.018409999 2.0276552e-38 311 255
-0.0097906133 0.69800001 -0.0183574 1.733416e-38 312 255
-0.0085545136 0.69700003 -0.018331099 1.2909129e-38 313 255
-0.0073219193 0.69599998 -0.018304799 1.1815026e-38 314 255
-0.0060840664 0.69400001 -0.0182522 1.4303949e-38 315 255
-0.00486024 0.69300002 -0.018225901 1.4572695e-38 316 255
-0.0036293997 0.69 -0.018146999 1.3005011e-38 317 255
-0.0024090798 0.68699998 -0.018068098 1.1530257e-38 318 255
-0.0012027866 0.68599999 -0.018041799 1.0977083e-38 319 255
0 0.68599999 -0.018041799 1.0609392e-38 320 255
0.00119928 0.68400002 -0.0179892 9.8718268e-39 321 255
0.0023950534 0.68300003 -0.017962901 7.8474886e-39 322 255
0.00358732 0.68199998 -0.017936599 7.2943148e-39 323 255
0.004783093 0.68199998 -0.017936599 6.8344255e-39 324 255
0.0059613334 0.68000001 -0.017883999 6.5581987e-39 325 255
0.0071535995 0.68000001 -0.017883999 7.7570936e-39 326 255
0.0083335936 0.67900002 -0.017857701 9.6932019e-39 327 255
0.0095100794 0.67799997 -0.0178314 1.2636254e-38 328 255
0.010698839 0.67799997 -0.0178314 1.3926993e-38 329 255
0.011852534 0.676 -0.017778801 1.4020255e-38 330 255
0.013037786 0.676 -0.017778801 1.411245e-38 331 255
0.014223038 0.676 -0.017778801 1.4113159e-38 332 255
0.015408293 0.676 -0.017778801 1.3559985e-38 333 255
0.016593546 0.676 -0.017778801 1.374078e-38 334 255
0.0177525 0.67500001 -0.0177525 1.3925172e-38 335 255
0.018935999 0.67500001 -0.0177525 1.38362e-38 336 255
0.020119499 0.67500001 -0.0177525 1.2545461e-38 337 255
