# .PCD v.7 - Point Cloud Data file format
FIELDS x y z rgb imX imY
SIZE 4 4 4 4 4 4
TYPE F F F F F F
COUNT 1 1 1 1 1 1
WIDTH 857
HEIGHT 1
VIEWPOINT 0 0 0 1 0 0 0
POINTS 857
DATA ascii
0.01020966 0.64700001 0.12365033 1.28123e-38 329 131
0.011344067 0.64700001 0.12365033 1.2997413e-38 330 131
0.012478473 0.64700001 0.12365033 1.4103761e-38 331 131
-0.018234665 0.64999998 0.12308399 1.5950564e-38 304 132
-0.017068699 0.64899999 0.12289463 1.5766172e-38 305 132
-0.015906241 0.648 0.12270528 1.5305916e-38 306 132
-0.014770079 0.648 0.12270528 1.5121885e-38 307 132
-0.01363392 0.648 0.12270528 1.493786e-38 308 132
-0.012478473 0.64700001 0.12251592 1.4661273e-38 309 132
-0.011326533 0.64600003 0.12232657 1.4477601e-38 310 132
-0.01016232 0.64399999 0.12194784 1.4293569e-38 311 132
-0.0090331733 0.64399999 0.12194784 1.4476879e-38 312 132
-0.0078917528 0.64300001 0.12175848 1.4292488e-38 313 132
-0.00675384 0.64200002 0.12156911 1.4200288e-38 314 132
-0.0056281998 0.64200002 0.12156911 1.3924061e-38 315 132
-0.00450256 0.64200002 0.12156911 1.3831865e-38 316 132
-0.00337692 0.64200002 0.12156911 1.373967e-38 317 132
-0.00225128 0.64200002 0.12156911 1.3738947e-38 318 132
-0.00112564 0.64200002 0.12156911 1.3646751e-38 319 132
0 0.64200002 0.12156911 1.3737146e-38 320 132
0.00112564 0.64200002 0.12156911 1.3552755e-38 321 132
0.00225128 0.64200002 0.12156911 1.336764e-38 322 132
0.00337692 0.64200002 0.12156911 1.3091414e-38 323 132
0.00450256 0.64200002 0.12156911 1.3182528e-38 324 132
0.0056281998 0.64200002 0.12156911 1.2998135e-38 325 132
0.0067643598 0.64300001 0.12175848 1.299705e-38 326 132
0.0079040267 0.64399999 0.12194784 1.2904855e-38 327 132
0.0090612266 0.64600003 0.12232657 1.2812303e-38 328 132
0.01020966 0.64700001 0.12251592 1.2720106e-38 329 132
0.011344067 0.64700001 0.12251592 1.309033e-38 330 132
0.01249776 0.648 0.12270528 1.4012647e-38 331 132
-0.018234665 0.64999998 0.12194432 1.5767974e-38 304 133
-0.017095 0.64999998 0.12194432 1.5399191e-38 305 133
-0.015930785 0.64899999 0.12175673 1.5122967e-38 306 133
-0.014792874 0.64899999 0.12175673 1.4754543e-38 307 133
-0.01363392 0.648 0.12156911 1.4845663e-38 308 133
-0.012478473 0.64700001 0.12138151 1.4569077e-38 309 133
-0.011326533 0.64600003 0.12119391 1.4476882e-38 310 133
-0.01019388 0.64600003 0.12119391 1.4384686e-38 311 133
-0.0090331733 0.64399999 0.12081868 1.429249e-38 312 133
-0.0079040267 0.64399999 0.12081868 1.4200293e-38 313 133
-0.0067643598 0.64300001 0.12063108 1.410702e-38 314 133
-0.0056369668 0.64300001 0.12063108 1.4014825e-38 315 133
-0.0045095733 0.64300001 0.12063108 1.3831147e-38 316 133
-0.00337692 0.64200002 0.12044348 1.3738951e-38 317 133
-0.00225128 0.64200002 0.12044348 1.3830063e-38 318 133
-0.00112564 0.64200002 0.12044348 1.3553837e-38 319 133
0 0.64200002 0.12044348 1.364495e-38 320 133
0.00112564 0.64200002 0.12044348 1.3276527e-38 321 133
0.00225128 0.64200002 0.12044348 1.3275448e-38 322 133
0.00337692 0.64200002 0.12044348 1.2998862e-38 323 133
0.00450256 0.64200002 0.12044348 1.3089614e-38 324 133
0.0056281998 0.64200002 0.12044348 1.2997419e-38 325 133
0.0067643598 0.64300001 0.12063108 1.2812303e-38 326 133
0.0079040267 0.64399999 0.12081868 1.2812303e-38 327 133
0.0090612266 0.64600003 0.12119391 1.2720103e-38 328 133
0.01020966 0.64700001 0.12138151 1.2535712e-38 329 133
0.011344067 0.64700001 0.12138151 1.309033e-38 330 133
0.01249776 0.648 0.12156911 1.4104843e-38 331 133
-0.018290773 0.65200001 0.12117637 1.5951286e-38 304 134
-0.017095 0.64999998 0.12080465 1.5582862e-38 305 134
-0.015930785 0.64899999 0.12061881 1.52148e-38 306 134
-0.014792874 0.64899999 0.12061881 1.5122604e-38 307 134
-0.013654959 0.64899999 0.12061881 1.4662345e-38 308 134
-0.01249776 0.648 0.12043297 1.4662345e-38 309 134
-0.011344067 0.64700001 0.1202471 1.456943e-38 310 134
-0.01019388 0.64600003 0.12006126 1.4477235e-38 311 134
-0.0090612266 0.64600003 0.12006126 1.4659828e-38 312 134
-0.0079040267 0.64399999 0.11968954 1.4567631e-38 313 134
-0.0067643598 0.64300001 0.11950368 1.4382521e-38 314 134
-0.0056369668 0.64300001 0.11950368 1.4197771e-38 315 134
-0.0045095733 0.64300001 0.11950368 1.3922263e-38 316 134
-0.0033821799 0.64300001 0.11950368 1.3922263e-38 317 134
-0.0022547867 0.64300001 0.11950368 1.392154e-38 318 134
-0.0011273933 0.64300001 0.11950368 1.3644953e-38 319 134
0 0.64200002 0.11931784 1.3552035e-38 320 134
0.00112564 0.64200002 0.11931784 1.3459839e-38 321 134
0.0022547867 0.64300001 0.11950368 1.3367278e-38 322 134
0.0033821799 0.64300001 0.11950368 1.3182528e-38 323 134
0.0045095733 0.64300001 0.11950368 1.3365475e-38 324 134
0.0056369668 0.64300001 0.11950368 1.327328e-38 325 134
0.0067643598 0.64300001 0.11950368 1.318036e-38 326 134
0.0079040267 0.64399999 0.11968954 1.318036e-38 327 134
0.0090752533 0.64700001 0.1202471 1.2904852e-38 328 134
0.01020966 0.64700001 0.1202471 1.2812656e-38 329 134
0.0113616 0.648 0.12043297 1.3181807e-38 330 134
0.01249776 0.648 0.12043297 1.4288155e-38 331 134
0.013675999 0.64999998 0.12080465 1.5581059e-38 332 134
-0.018290773 0.65200001 0.1200332 1.5767255e-38 304 135
-0.017095 0.64999998 0.119665 1.5582862e-38 305 135
-0.015930785 0.64899999 0.11948089 1.5122601e-38 306 135
-0.014792874 0.64899999 0.11948089 1.5030406e-38 307 135
-0.013654959 0.64899999 0.11948089 1.4754541e-38 308 135
-0.01249776 0.648 0.1192968 1.4662345e-38 309 135
-0.011344067 0.64700001 0.11911271 1.4938212e-38 310 135
-0.01019388 0.64600003 0.1189286 1.4938212e-38 311 135
-0.0090612266 0.64600003 0.1189286 1.5029332e-38 312 135
-0.0079040267 0.64399999 0.1185604 1.4844941e-38 313 135
-0.0067748795 0.64399999 0.1185604 1.4383964e-38 314 135
-0.0056369668 0.64300001 0.11837629 1.401518e-38 315 135
-0.0045095733 0.64300001 0.11837629 1.3831147e-38 316 135
-0.0033821799 0.64300001 0.11837629 1.3738951e-38 317 135
-0.0022547867 0.64300001 0.11837629 1.3646751e-38 318 135
-0.0011273933 0.64300001 0.11837629 1.346236e-38 319 135
0 0.64300001 0.11837629 1.364495e-38 320 135
0.0011273933 0.64300001 0.11837629 1.3552755e-38 321 135
0.0022547867 0.64300001 0.11837629 1.3184325e-38 322 135
0.0033821799 0.64300001 0.11837629 1.309213e-38 323 135
0.0045095733 0.64300001 0.11837629 1.3275079e-38 324 135
0.0056457333 0.64399999 0.1185604 1.2998132e-38 325 135
0.0067748795 0.64399999 0.1185604 1.2997769e-38 326 135
0.0079285735 0.64600003 0.1189286 1.2997769e-38 327 135
0.0090752533 0.64700001 0.11911271 1.2904855e-38 328 135
0.010225439 0.648 0.1192968 1.28123e-38 329 135
0.011379133 0.64899999 0.11948089 1.2996694e-38 330 135
0.012536332 0.64999998 0.119665 1.4195238e-38 331 135
0.013675999 0.64999998 0.119665 1.5672891e-38 332 135
-0.017095 0.64999998 0.11852533 1.5673979e-38 305 136
-0.015955333 0.64999998 0.11852533 1.4660544e-38 306 136
-0.014815666 0.64999998 0.11852533 1.4384316e-38 307 136
-0.013654959 0.64899999 0.11834299 1.3648553e-38 308 136
-0.012517046 0.64899999 0.11834299 1.3648553e-38 309 136
-0.011344067 0.64700001 0.11797829 1.4016257e-38 310 136
-0.01019388 0.64600003 0.11779595 1.4200288e-38 311 136
-0.0090612266 0.64600003 0.11779595 1.4476516e-38 312 136
-0.0079040267 0.64399999 0.11743125 1.4476516e-38 313 136
-0.0067748795 0.64399999 0.11743125 1.4107373e-38 314 136
-0.0056457333 0.64399999 0.11743125 1.3646754e-38 315 136
-0.0045165867 0.64399999 0.11743125 1.3646754e-38 316 136
-0.0033874398 0.64399999 0.11743125 1.3462004e-38 317 136
-0.0022582933 0.64399999 0.11743125 1.3461641e-38 318 136
-0.0011291467 0.64399999 0.11743125 1.3369087e-38 319 136
0 0.64399999 0.11743125 1.3552035e-38 320 136
0.0011291467 0.64399999 0.11743125 1.3367643e-38 321 136
0.0022582933 0.64399999 0.11743125 1.2999218e-38 322 136
0.0033874398 0.64399999 0.11743125 1.2722271e-38 323 136
0.0045165867 0.64399999 0.11743125 1.2721908e-38 324 136
0.0056457333 0.64399999 0.11743125 1.2537158e-38 325 136
0.00679592 0.64600003 0.11779595 1.2536442e-38 326 136
0.0091173323 0.64999998 0.11852533 1.2627557e-38 328 136
0.010256999 0.64999998 0.11852533 1.2535362e-38 329 136
0.011431733 0.65200001 0.11889002 1.3180009e-38 330 136
0.012574906 0.65200001 0.11889002 1.4378553e-38 331 136
-0.015955333 0.64999998 0.11738566 1.447616e-38 306 137
-0.014815666 0.64999998 0.11738566 1.401518e-38 307 137
-0.013675999 0.64999998 0.11738566 1.3186496e-38 308 137
-0.012517046 0.64899999 0.11720507 1.2909549e-38 309 137
-0.011344067 0.64700001 0.11684388 1.2633325e-38 310 137
-0.01019388 0.64600003 0.11666329 1.2541129e-38 311 137
-0.0090612266 0.64600003 0.11666329 1.2909186e-38 312 137
-0.0079285735 0.64600003 0.11666329 1.3093579e-38 313 137
-0.00679592 0.64600003 0.11666329 1.2908464e-38 314 137
-0.0056632664 0.64600003 0.11666329 1.3092496e-38 315 137
-0.0045306133 0.64600003 0.11666329 1.3275092e-38 316 137
-0.00339796 0.64600003 0.11666329 1.2998865e-38 317 137
-0.0022653067 0.64600003 0.11666329 1.2906662e-38 318 137
-0.0011326533 0.64600003 0.11666329 1.2906662e-38 319 137
0 0.64399999 0.1163021 1.2997419e-38 320 137
0.0011291467 0.64399999 0.1163021 1.2997419e-38 321 137
0.0022582933 0.64399999 0.1163021 1.2812669e-38 322 137
0.00339796 0.64600003 0.11666329 1.2444245e-38 323 137
0.0045306133 0.64600003 0.11666329 1.2627554e-38 324 137
0.0056632664 0.64600003 0.11666329 1.2535359e-38 325 137
-0.014815666 0.64999998 0.11624599 1.4937493e-38 307 138
-0.013675999 0.64999998 0.11624599 1.4660547e-38 308 138
-0.012517046 0.64899999 0.11606716 1.4384319e-38 309 138
-0.011344067 0.64700001 0.11570948 1.4291767e-38 310 138
-0.01019388 0.64600003 0.11553065 1.4107376e-38 311 138
-0.0090612266 0.64600003 0.11553065 1.4013736e-38 312 138
-0.0079285735 0.64600003 0.11553065 1.392154e-38 313 138
-0.00679592 0.64600003 0.11553065 1.3645306e-38 314 138
-0.0056632664 0.64600003 0.11553065 1.3552752e-38 315 138
-0.0045306133 0.64600003 0.11553065 1.3552032e-38 316 138
-0.00339796 0.64600003 0.11553065 1.336764e-38 317 138
-0.0022653067 0.64600003 0.11553065 1.3367278e-38 318 138
-0.0011326533 0.64600003 0.11553065 1.3274723e-38 319 138
0 0.64600003 0.11553065 1.3274723e-38 320 138
0.0011291467 0.64399999 0.11517295 1.3182528e-38 321 138
0.0022582933 0.64399999 0.11517295 1.2999218e-38 322 138
0.00339796 0.64600003 0.11553065 1.2906662e-38 323 138
0.0045306133 0.64600003 0.11553065 1.3089612e-38 324 138
0.0056632664 0.64600003 0.11553065 1.2997416e-38 325 138
-0.013675999 0.64999998 0.11510632 1.5214447e-38 308 139
-0.012536332 0.64999998 0.11510632 1.5122251e-38 309 139
-0.011344067 0.64700001 0.11457507 1.5305563e-38 310 139
-0.01020966 0.64700001 0.11457507 1.5121532e-38 311 139
-0.0090612266 0.64600003 0.11439799 1.5120805e-38 312 139
-0.0079285735 0.64600003 0.11439799 1.4659828e-38 313 139
-0.00679592 0.64600003 0.11439799 1.4843496e-38 314 139
-0.0056632664 0.64600003 0.11439799 1.4474714e-38 315 139
-0.0045306133 0.64600003 0.11439799 1.429032e-38 316 139
-0.00339796 0.64600003 0.11439799 1.4014092e-38 317 139
-0.0022653067 0.64600003 0.11439799 1.4105208e-38 318 139
-0.0011326533 0.64600003 0.11439799 1.3736427e-38 319 139
0 0.64600003 0.11439799 1.3644582e-38 320 139
0.0011291467 0.64399999 0.11404381 1.3644582e-38 321 139
0.0022582933 0.64399999 0.11404381 1.3553108e-38 322 139
0.00339796 0.64600003 0.11439799 1.327688e-38 323 139
0.0045306133 0.64600003 0.11439799 1.3642788e-38 324 139
0.0056632664 0.64600003 0.11439799 1.3458038e-38 325 139
-0.012536332 0.64999998 0.11396667 1.4754911e-38 309 140
-0.011344067 0.64700001 0.11344067 1.5122248e-38 310 140
-0.01019388 0.64600003 0.11326534 1.5214803e-38 311 140
-0.0090612266 0.64600003 0.11326534 1.5122604e-38 312 140
-0.0079285735 0.64600003 0.11326534 1.4938212e-38 313 140
-0.00679592 0.64600003 0.11326534 1.4752743e-38 314 140
-0.0056632664 0.64600003 0.11326534 1.4752743e-38 315 140
-0.0045306133 0.64600003 0.11326534 1.4660544e-38 316 140
-0.00339796 0.64600003 0.11326534 1.429212e-38 317 140
-0.0022653067 0.64600003 0.11326534 1.3924414e-38 318 140
-0.0011326533 0.64600003 0.11326534 1.3647467e-38 319 140
0 0.64600003 0.11326534 1.37393e-38 320 140
0.0011291467 0.64399999 0.11291467 1.3647104e-38 321 140
0.0022582933 0.64399999 0.11291467 1.3737502e-38 322 140
0.00339796 0.64600003 0.11326534 1.3460555e-38 323 140
0.0045306133 0.64600003 0.11326534 1.3459117e-38 324 140
-0.011379133 0.64899999 0.11265341 1.3554921e-38 310 141
-0.01019388 0.64600003 0.11213268 1.4200291e-38 311 141
-0.0090612266 0.64600003 0.11213268 1.466055e-38 312 141
-0.0079285735 0.64600003 0.11213268 1.4383964e-38 313 141
-0.00679592 0.64600003 0.11213268 1.4199569e-38 314 141
-0.0056632664 0.64600003 0.11213268 1.4199569e-38 315 141
-0.0045306133 0.64600003 0.11213268 1.4474714e-38 316 141
-0.00339796 0.64600003 0.11213268 1.4290323e-38 317 141
-0.0022653067 0.64600003 0.11213268 1.3921896e-38 318 141
-0.0011326533 0.64600003 0.11213268 1.38297e-38 319 141
0 0.64600003 0.11213268 1.3644587e-38 320 141
0.0011326533 0.64600003 0.11213268 1.336764e-38 321 141
-0.01019388 0.64600003 0.11100002 1.0605734e-38 311 142
-0.0090612266 0.64600003 0.11100002 1.1618447e-38 312 142
-0.0079285735 0.64600003 0.11100002 1.2079067e-38 313 142
-0.00679592 0.64600003 0.11100002 1.1986874e-38 314 142
-0.0056632664 0.64600003 0.11100002 1.2079069e-38 315 142
-0.0045376266 0.64700001 0.11117186 1.2262742e-38 316 142
-0.0034032199 0.64700001 0.11117186 1.2170546e-38 317 142
-0.0022688133 0.64700001 0.11117186 1.2354212e-38 318 142
-0.0011344067 0.64700001 0.11117186 1.1985788e-38 319 142
0 0.64700001 0.11117186 1.1892145e-38 320 142
-0.01019388 0.64600003 0.10986737 1.1066347e-38 311 143
-0.0090612266 0.64600003 0.10986737 1.2076904e-38 312 143
-0.0079408465 0.64700001 0.11003745 1.1984709e-38 313 143
-0.0068064397 0.64700001 0.11003745 1.1708129e-38 314 143
-0.0056720334 0.64700001 0.11003745 1.1800325e-38 315 143
-0.0045376266 0.64700001 0.11003745 1.1800325e-38 316 143
-0.0034032199 0.64700001 0.11003745 1.1800325e-38 317 143
-0.0022688133 0.64700001 0.11003745 1.198399e-38 318 143
-0.00113616 0.648 0.11020751 1.198399e-38 319 143
0 0.648 0.11020751 1.1891424e-38 320 143
-0.0091453865 0.65200001 0.10974464 1.2998509e-38 312 144
-0.0080022132 0.65200001 0.10974464 1.2906313e-38 313 144
-0.0068379994 0.64999998 0.10940799 1.3089259e-38 314 144
-0.005698333 0.64999998 0.10940799 1.2904867e-38 315 144
-0.0045586661 0.64999998 0.10940799 1.2721552e-38 316 144
-0.0034189997 0.64999998 0.10940799 1.2629357e-38 317 144
-0.0022793331 0.64999998 0.10940799 1.2904146e-38 318 144
-0.0011396665 0.64999998 0.10940799 1.2904146e-38 319 144
-0.0068590399 0.65200001 0.10860147 1.5483827e-38 314 145
-0.0057158666 0.65200001 0.10860147 1.4469676e-38 315 145
-0.0045726933 0.65200001 0.10860147 1.3920093e-38 316 145
-0.0034189997 0.64999998 0.10826832 1.3827897e-38 317 145
-0.0022793331 0.64999998 0.10826832 1.3826098e-38 318 145
-0.026229866 0.68000001 0.028614398 6.0920792e-39 298 216
-0.025037598 0.68000001 0.028614398 7.1062311e-39 299 216
-0.026075572 0.676 0.027260827 2.5922228e-39 298 217
-0.0248535 0.67500001 0.027220501 4.343581e-39 299 217
-0.023669999 0.67500001 0.027220501 6.3665025e-39 300 217
0.0081494926 0.66399997 0.026776904 1.1522636e-38 327 217
0.0093137063 0.66399997 0.026776904 1.1431873e-38 328 217
-0.027260827 0.676 0.026075572 3.6038482e-39 297 218
-0.026037 0.67500001 0.026037 4.2470652e-39 298 218
-0.024816679 0.67400002 0.025998428 5.077186e-39 299 218
-0.023564799 0.67199999 0.025921278 5.6310885e-39 300 218
-0.022386558 0.67199999 0.025921278 5.2619458e-39 301 218
-0.021208318 0.67199999 0.025921278 4.2528357e-39 302 218
-0.020030079 0.67199999 0.025921278 4.0684445e-39 303 218
-0.0093557863 0.667 0.025728412 1.0693952e-38 312 218
-0.0081740404 0.66600001 0.02568984 1.0509559e-38 313 218
-0.0070063197 0.66600001 0.02568984 1.0325895e-38 314 218
0.0081494926 0.66399997 0.025612691 1.0050007e-38 327 218
0.0093137063 0.66399997 0.025612691 9.8652435e-39 328 218
-0.027260827 0.676 0.024890319 3.972258e-39 297 219
-0.026037 0.67500001 0.0248535 4.7094783e-39 298 219
-0.024816679 0.67400002 0.024816679 5.8154671e-39 299 219
-0.023564799 0.67199999 0.024743039 5.5424731e-39 300 219
-0.022386558 0.67199999 0.024743039 5.5424731e-39 301 219
-0.021208318 0.67199999 0.024743039 4.8971037e-39 302 219
-0.020030079 0.67199999 0.024743039 3.8833119e-39 303 219
-0.018851839 0.67199999 0.024743039 4.1566548e-39 304 219
-0.0176473 0.671 0.024706218 4.3410475e-39 305 219
-0.016470812 0.671 0.024706218 5.167211e-39 306 219
-0.015271533 0.67000002 0.024669399 5.5359935e-39 307 219
-0.014096799 0.67000002 0.024669399 5.2626493e-39 308 219
-0.010525259 0.667 0.024558939 8.2107612e-39 311 219
-0.0093557863 0.667 0.024558939 8.7617868e-39 312 219
-0.0081740404 0.66600001 0.02452212 8.5777543e-39 313 219
-0.0070063197 0.66600001 0.02452212 8.1171433e-39 314 219
-0.0058210664 0.66399997 0.024448479 8.39337e-39 315 219
-0.0046568532 0.66399997 0.024448479 8.8532636e-39 316 219
0.0081494926 0.66399997 0.024448479 8.1185502e-39 327 219
0.0093137063 0.66399997 0.024448479 8.6684603e-39 328 219
0.010477919 0.66399997 0.024448479 8.0230909e-39 329 219
0.011694733 0.667 0.024558939 6.7352178e-39 330 219
0.012864206 0.667 0.024558939 5.9054571e-39 331 219
0.014033679 0.667 0.024558939 5.5377522e-39 332 219
0.015203152 0.667 0.024558939 5.076781e-39 333 219
0.025000781 0.67900002 0.025000781 6.370031e-39 341 219
0.026191294 0.67900002 0.025000781 6.7370352e-39 342 219
-0.031090107 0.68199998 0.023915464 8.6680694e-39 294 220
-0.029894331 0.68199998 0.023915464 7.5617218e-39 295 220
-0.028614398 0.68000001 0.023845334 5.5373934e-39 296 220
-0.027260827 0.676 0.023705067 4.9842281e-39 297 220
-0.026037 0.67500001 0.023669999 5.1715298e-39 298 220
-0.0248535 0.67500001 0.023669999 7.1998337e-39 299 220
-0.023564799 0.67199999 0.023564799 6.5566475e-39 300 220
-0.022386558 0.67199999 0.023564799 7.3867683e-39 301 220
-0.021208318 0.67199999 0.023564799 8.672831e-39 302 220
-0.020030079 0.67199999 0.023564799 8.4884397e-39 303 220
-0.018851839 0.67199999 0.023564799 8.6706646e-39 304 220
-0.0176473 0.671 0.023529733 7.9330995e-39 305 220
-0.016470812 0.671 0.023529733 6.4583184e-39 306 220
-0.015271533 0.67000002 0.023494666 6.089896e-39 307 220
-0.014096799 0.67000002 0.023494666 6.5497979e-39 308 220
-0.012883492 0.66799998 0.023424532 6.4576023e-39 309 220
-0.011712266 0.66799998 0.023424532 6.1853286e-39 310 220
-0.010525259 0.667 0.023389466 6.093133e-39 311 220
-0.0093557863 0.667 0.023389466 5.5439123e-39 312 220
-0.0081740404 0.66600001 0.023354398 4.5294002e-39 313 220
-0.0070063197 0.66600001 0.023354398 4.4346808e-39 314 220
-0.0058210664 0.66399997 0.023284266 4.3424852e-39 315 220
-0.0046568532 0.66399997 0.023284266 4.9853239e-39 316 220
-0.0034926396 0.66399997 0.023284266 5.4459433e-39 317 220
-0.0023354399 0.66600001 0.023354398 5.1722361e-39 318 220
-0.00116772 0.66600001 0.023354398 4.434671e-39 319 220
0 0.66600001 0.023354398 4.5203941e-39 320 220
0.00116772 0.66600001 0.023354398 4.7051441e-39 321 220
0.0023354399 0.66600001 0.023354398 4.1544912e-39 322 220
0.0081740404 0.66600001 0.023354398 6.27965e-39 327 220
0.0093417596 0.66600001 0.023354398 7.5649812e-39 328 220
0.01050948 0.66600001 0.023354398 7.38059e-39 329 220
0.011694733 0.667 0.023389466 6.0923693e-39 330 220
0.012864206 0.667 0.023389466 5.6313911e-39 331 220
0.014033679 0.667 0.023389466 6.1820468e-39 332 220
0.015203152 0.667 0.023389466 6.1820468e-39 333 220
0.016446266 0.67000002 0.023494666 5.9076109e-39 334 220
0.017620999 0.67000002 0.023494666 5.8150565e-39 335 220
0.018851839 0.67199999 0.023564799 5.9994408e-39 336 220
0.020030079 0.67199999 0.023564799 6.1834705e-39 337 220
0.021303 0.67500001 0.023669999 5.8179222e-39 338 220
0.022586439 0.67799997 0.023775198 5.9101164e-39 339 220
0.023775198 0.67799997 0.023775198 6.3700156e-39 340 220
0.025000781 0.67900002 0.023810266 6.6462423e-39 341 220
0.026191294 0.67900002 0.023810266 7.195868e-39 342 220
0.027381808 0.67900002 0.023810266 7.195868e-39 343 220
-0.031090107 0.68199998 0.022719691 8.7631292e-39 294 221
-0.029894331 0.68199998 0.022719691 8.7631292e-39 295 221
-0.028614398 0.68000001 0.022653066 7.7504137e-39 296 221
-0.027260827 0.676 0.022519812 7.197607e-39 297 221
-0.026075572 0.676 0.022519812 7.0132466e-39 298 221
-0.0248535 0.67500001 0.022486499 7.7511704e-39 299 221
-0.023564799 0.67199999 0.022386558 7.1076408e-39 300 221
-0.022386558 0.67199999 0.022386558 7.7530103e-39 301 221
-0.021208318 0.67199999 0.022386558 8.6731869e-39 302 221
-0.020030079 0.67199999 0.022386558 8.6731869e-39 303 221
-0.018851839 0.67199999 0.022386558 9.040173e-39 304 221
-0.017673599 0.67199999 0.022386558 9.2242041e-39 305 221
-0.016470812 0.671 0.022353247 7.7479852e-39 306 221
-0.015271533 0.67000002 0.022319933 7.1026158e-39 307 221
-0.014096799 0.67000002 0.022319933 6.7370633e-39 308 221
-0.012883492 0.66799998 0.022253305 7.0132914e-39 309 221
-0.011694733 0.667 0.022219993 7.2909503e-39 310 221
-0.010525259 0.667 0.022219993 7.3835047e-39 311 221
-0.0093557863 0.667 0.022219993 7.934875e-39 312 221
-0.0081740404 0.66600001 0.02218668 6.9210818e-39 313 221
-0.0070063197 0.66600001 0.02218668 5.1711417e-39 314 221
-0.0058385995 0.66600001 0.02218668 4.9863903e-39 315 221
-0.0046568532 0.66399997 0.022120051 5.5409934e-39 316 221
-0.0034926396 0.66399997 0.022120051 5.9097759e-39 317 221
-0.0023354399 0.66600001 0.02218668 5.1725836e-39 318 221
-0.00116772 0.66600001 0.02218668 4.0662346e-39 319 221
0 0.66600001 0.02218668 3.8796938e-39 320 221
0.00116772 0.66600001 0.02218668 4.2484749e-39 321 221
0.0023354399 0.66600001 0.02218668 4.7076594e-39 322 221
0.0035031599 0.66600001 0.02218668 4.7076594e-39 323 221
0.0046708798 0.66600001 0.02218668 4.5246961e-39 324 221
0.0058473665 0.667 0.022219993 5.0778698e-39 325 221
0.0070063197 0.66600001 0.02218668 5.63211e-39 326 221
0.0081740404 0.66600001 0.02218668 6.3700338e-39 327 221
0.0093417596 0.66600001 0.02218668 6.5547768e-39 328 221
0.01050948 0.66600001 0.02218668 6.4625797e-39 329 221
0.011694733 0.667 0.022219993 6.460063e-39 330 221
0.012864206 0.667 0.022219993 6.183116e-39 331 221
0.014033679 0.667 0.022219993 5.7239399e-39 332 221
0.015225946 0.66799998 0.022253305 5.7239399e-39 333 221
0.016446266 0.67000002 0.022319933 5.907964e-39 334 221
0.017620999 0.67000002 0.022319933 6.0001582e-39 335 221
0.018851839 0.67199999 0.022386558 5.7257279e-39 336 221
0.020030079 0.67199999 0.022386558 5.9101164e-39 337 221
0.021303 0.67500001 0.022486499 5.8186396e-39 338 221
0.022586439 0.67799997 0.022586439 6.0952237e-39 339 221
0.023775198 0.67799997 0.022586439 5.9105046e-39 340 221
0.025000781 0.67900002 0.022619752 6.0945357e-39 341 221
0.026191294 0.67900002 0.022619752 6.9171581e-39 342 221
0.027381808 0.67900002 0.022619752 6.7324067e-39 343 221
0.028614398 0.68000001 0.022653066 7.6489975e-39 344 221
-0.032475237 0.68599999 0.021650158 9.7766422e-39 293 222
-0.03118128 0.68400002 0.02158704 8.5808932e-39 294 222
-0.029938167 0.68300003 0.02155548 9.1337068e-39 295 222
-0.028614398 0.68000001 0.0214608 9.3177155e-39 296 222
-0.027260827 0.676 0.021334561 8.9492974e-39 297 222
-0.026075572 0.676 0.021334561 8.7642096e-39 298 222
-0.0248535 0.67500001 0.021303 8.3954257e-39 299 222
-0.023634933 0.67400002 0.021271439 7.7504613e-39 300 222
-0.022453187 0.67400002 0.021271439 7.6582657e-39 301 222
-0.021208318 0.67199999 0.021208318 7.290237e-39 302 222
-0.020030079 0.67199999 0.021208318 7.8430521e-39 303 222
-0.018851839 0.67199999 0.021208318 8.5788193e-39 304 222
-0.017673599 0.67199999 0.021208318 8.6713736e-39 305 222
-0.016470812 0.671 0.021176759 8.3926147e-39 306 222
-0.015271533 0.67000002 0.0211452 8.0238336e-39 307 222
-0.014096799 0.67000002 0.0211452 6.923244e-39 308 222
-0.012883492 0.66799998 0.021082079 7.4764178e-39 309 222
-0.011694733 0.667 0.021050518 8.1210711e-39 310 222
-0.010525259 0.667 0.021050518 8.1210711e-39 311 222
-0.0093557863 0.667 0.021050518 8.7639196e-39 312 222
-0.0081740404 0.66600001 0.02101896 7.7494075e-39 313 222
-0.0070063197 0.66600001 0.02101896 5.8154377e-39 314 222
-0.0058385995 0.66600001 0.02101896 5.0778726e-39 315 222
-0.0046708798 0.66600001 0.02101896 5.9094073e-39 316 222
-0.0035031599 0.66600001 0.02101896 6.2781885e-39 317 222
-0.0023354399 0.66600001 0.02101896 5.2654855e-39 318 222
-0.00116772 0.66600001 0.02101896 4.343532e-39 319 222
0 0.66600001 0.02101896 4.4325032e-39 320 222
0.00116772 0.66600001 0.02101896 4.5246989e-39 321 222
0.0023354399 0.66600001 0.02101896 4.5246989e-39 322 222
0.0035031599 0.66600001 0.02101896 4.800927e-39 323 222
0.0046708798 0.66600001 0.02101896 5.1686235e-39 324 222
0.0058473665 0.667 0.021050518 5.2608192e-39 325 222
0.0070063197 0.66600001 0.02101896 5.5402647e-39 326 222
0.0081740404 0.66600001 0.02101896 6.001603e-39 327 222
0.0093417596 0.66600001 0.02101896 6.3703701e-39 328 222
0.010525259 0.667 0.021050518 6.3703701e-39 329 222
0.011694733 0.667 0.021050518 6.0927112e-39 330 222
0.012864206 0.667 0.021050518 5.9083227e-39 331 222
0.014054719 0.66799998 0.021082079 5.6324575e-39 332 222
0.015271533 0.67000002 0.0211452 5.816846e-39 333 222
0.016446266 0.67000002 0.0211452 5.8172047e-39 334 222
0.0176473 0.671 0.021176759 6.0012344e-39 335 222
0.018851839 0.67199999 0.021208318 5.8179222e-39 336 222
0.020089693 0.67400002 0.021271439 5.9101164e-39 337 222
0.021334561 0.676 0.021334561 5.9108339e-39 338 222
0.022586439 0.67799997 0.021397678 6.0030281e-39 339 222
0.023775198 0.67799997 0.021397678 6.0938196e-39 340 222
0.025000781 0.67900002 0.021429239 6.001624e-39 341 222
0.026191294 0.67900002 0.021429239 7.098318e-39 342 222
0.027381808 0.67900002 0.021429239 7.3749063e-39 343 222
0.028614398 0.68000001 0.0214608 8.5698748e-39 344 222
-0.032475237 0.68599999 0.020447372 9.5018532e-39 293 223
-0.03118128 0.68400002 0.020387759 8.1206339e-39 294 223
-0.029982001 0.68400002 0.020387759 8.8581989e-39 295 223
-0.02869856 0.68199998 0.020328145 9.1340445e-39 296 223
-0.027381808 0.67900002 0.020238725 9.318433e-39 297 223
-0.026075572 0.676 0.020149305 9.5006789e-39 298 223
-0.0248535 0.67500001 0.020119499 8.4865325e-39 299 223
-0.023634933 0.67400002 0.020089693 8.1156341e-39 300 223
-0.022453187 0.67400002 0.020089693 7.4702661e-39 301 223
-0.021271439 0.67400002 0.020089693 7.6554e-39 302 223
-0.020030079 0.67199999 0.020030079 8.4851621e-39 303 223
-0.018851839 0.67199999 0.020030079 8.762821e-39 304 223
-0.017673599 0.67199999 0.020030079 8.762821e-39 305 223
-0.016470812 0.671 0.020000271 8.4851481e-39 306 223
-0.015271533 0.67000002 0.019970467 8.1160068e-39 307 223
-0.014096799 0.67000002 0.019970467 7.2909349e-39 308 223
-0.012883492 0.66799998 0.019910853 7.3834893e-39 309 223
-0.011694733 0.667 0.019881045 7.5668141e-39 310 223
-0.010525259 0.667 0.019881045 7.6590112e-39 311 223
-0.0093557863 0.667 0.019881045 7.7512096e-39 312 223
-0.0081863133 0.667 0.019881045 7.1058402e-39 313 223
-0.0070168395 0.667 0.019881045 5.6310464e-39 314 223
-0.0058473665 0.667 0.019881045 4.985677e-39 315 223
-0.0046708798 0.66600001 0.019851239 5.6338953e-39 316 223
-0.0035031599 0.66600001 0.019851239 5.9101234e-39 317 223
-0.0023354399 0.66600001 0.019851239 5.2651155e-39 318 223
-0.00116772 0.66600001 0.019851239 4.1587848e-39 319 223
0 0.66600001 0.019851239 4.0655144e-39 320 223
0.00116772 0.66600001 0.019851239 4.2499042e-39 321 223
0.0023389466 0.667 0.019881045 4.800927e-39 322 223
0.0035084197 0.667 0.019881045 4.8931226e-39 323 223
0.0046778931 0.667 0.019881045 5.1693396e-39 324 223
0.0058473665 0.667 0.019881045 5.2615352e-39 325 223
0.0070168395 0.667 0.019881045 5.3565923e-39 326 223
0.0081863133 0.667 0.019881045 5.8172075e-39 327 223
0.0093557863 0.667 0.019881045 6.2781759e-39 328 223
0.010525259 0.667 0.019881045 6.1856229e-39 329 223
0.011712266 0.66799998 0.019910853 5.9997995e-39 330 223
0.012883492 0.66799998 0.019910853 5.9076053e-39 331 223
0.014096799 0.67000002 0.019970467 5.6335337e-39 332 223
0.015271533 0.67000002 0.019970467 5.6335337e-39 333 223
0.016470812 0.671 0.020000271 5.7257279e-39 334 223
0.0176473 0.671 0.020000271 5.8179222e-39 335 223
0.018907947 0.67400002 0.020089693 6.0012344e-39 336 223
0.020089693 0.67400002 0.020089693 6.0937874e-39 337 223
0.021334561 0.676 0.020149305 6.0023106e-39 338 223
0.022586439 0.67799997 0.020208918 6.278536e-39 339 223
0.023775198 0.67799997 0.020208918 6.4611714e-39 340 223
0.025000781 0.67900002 0.020238725 6.4611714e-39 341 223
0.026191294 0.67900002 0.020238725 7.5600192e-39 342 223
0.027422134 0.68000001 0.020268533 7.8369663e-39 343 223
0.02869856 0.68199998 0.020328145 8.5705964e-39 344 223
-0.033727121 0.68699998 0.019272638 1.2727625e-38 292 224
-0.032475237 0.68599999 0.019244585 9.8695609e-39 293 224
-0.031272452 0.68599999 0.019244585 7.8440512e-39 294 224
-0.029982001 0.68400002 0.01918848 8.4894206e-39 295 224
-0.028740639 0.68300003 0.019160427 9.0425678e-39 296 224
-0.027502786 0.68199998 0.019132372 9.0425678e-39 297 224
-0.026075572 0.676 0.018964052 9.1311775e-39 298 224
-0.024890319 0.676 0.018964052 8.2088737e-39 299 224
-0.023669999 0.67500001 0.018935999 7.6546363e-39 300 224
-0.022486499 0.67500001 0.018935999 7.6546363e-39 301 224
-0.021271439 0.67400002 0.018907947 8.4833054e-39 302 224
-0.020089693 0.67400002 0.018907947 9.4052631e-39 303 224
-0.018851839 0.67199999 0.018851839 9.7743917e-39 304 224
-0.017673599 0.67199999 0.018851839 9.6821961e-39 305 224
-0.016470812 0.671 0.018823786 9.0372022e-39 306 224
-0.015271533 0.67000002 0.018795732 8.7606153e-39 307 224
-0.014096799 0.67000002 0.018795732 8.1174361e-39 308 224
-0.012883492 0.66799998 0.018739626 7.8408492e-39 309 224
-0.011712266 0.66799998 0.018739626 7.2880636e-39 310 224
-0.010525259 0.667 0.018711573 7.5646505e-39 311 224
-0.0093557863 0.667 0.018711573 7.3820543e-39 312 224
-0.0081863133 0.667 0.018711573 7.1058262e-39 313 224
-0.0070168395 0.667 0.018711573 6.3667954e-39 314 224
-0.0058473665 0.667 0.018711573 5.721426e-39 315 224
-0.0046778931 0.667 0.018711573 6.0934287e-39 316 224
-0.0035084197 0.667 0.018711573 6.3703701e-39 317 224
-0.0023389466 0.667 0.018711573 5.9997995e-39 318 224
-0.0011694733 0.667 0.018711573 5.2622457e-39 319 224
0 0.667 0.018711573 5.2608107e-39 320 224
0.0011694733 0.667 0.018711573 5.4451992e-39 321 224
0.0023389466 0.667 0.018711573 5.7221406e-39 322 224
0.0035084197 0.667 0.018711573 5.9061703e-39 323 224
0.0046778931 0.667 0.018711573 6.0898413e-39 324 224
0.0058473665 0.667 0.018711573 6.0898413e-39 325 224
0.0070168395 0.667 0.018711573 6.3675002e-39 326 224
0.0081863133 0.667 0.018711573 6.7362771e-39 327 224
0.0093557863 0.667 0.018711573 7.0121424e-39 328 224
0.01054104 0.66799998 0.018739626 6.7359184e-39 329 224
0.011712266 0.66799998 0.018739626 6.458977e-39 330 224
0.012922067 0.67000002 0.018795732 6.3667828e-39 331 224
0.01411784 0.671 0.018823786 5.8175634e-39 332 224
0.015294326 0.671 0.018823786 6.0015932e-39 333 224
0.01649536 0.67199999 0.018851839 6.0934287e-39 334 224
0.017673599 0.67199999 0.018851839 6.0934287e-39 335 224
0.018907947 0.67400002 0.018907947 6.0930699e-39 336 224
0.020089693 0.67400002 0.018907947 6.3692939e-39 337 224
0.021334561 0.676 0.018964052 6.1863404e-39 338 224
0.022586439 0.67799997 0.019020159 6.555483e-39 339 224
0.023810266 0.67900002 0.019048214 7.1050975e-39 340 224
0.025000781 0.67900002 0.019048214 7.2894888e-39 341 224
0.026229866 0.68000001 0.019076265 8.2957864e-39 342 224
0.027422134 0.68000001 0.019076265 8.387982e-39 343 224
0.02869856 0.68199998 0.019132372 7.7433581e-39 344 224
-0.03498251 0.68800002 0.0180944 1.5767252e-38 291 225
-0.033727121 0.68699998 0.018068098 1.2819101e-38 292 225
-0.032522578 0.68699998 0.018068098 1.0145069e-38 293 225
-0.031272452 0.68599999 0.018041799 8.0273635e-39 294 225
-0.029982001 0.68400002 0.0179892 8.5805373e-39 295 225
-0.028740639 0.68300003 0.017962901 8.9500148e-39 296 225
-0.027543113 0.68300003 0.017962901 8.4894024e-39 297 225
-0.026229866 0.68000001 0.017883999 8.390751e-39 298 225
-0.024890319 0.676 0.017778801 7.6531972e-39 299 225
-0.023669999 0.67500001 0.0177525 6.826319e-39 300 225
-0.022486499 0.67500001 0.0177525 8.7624132e-39 301 225
-0.021271439 0.67400002 0.0177262 1.0233201e-38 302 225
-0.020089693 0.67400002 0.0177262 1.0694538e-38 303 225
-0.018851839 0.67199999 0.017673599 1.0144594e-38 304 225
-0.017673599 0.67199999 0.017673599 1.0144594e-38 305 225
-0.016470812 0.671 0.0176473 1.0786007e-38 306 225
-0.015294326 0.671 0.0176473 1.0325036e-38 307 225
-0.014096799 0.67000002 0.017620999 9.4956594e-39 308 225
-0.012922067 0.67000002 0.017620999 8.85029e-39 309 225
-0.011712266 0.66799998 0.017568398 7.3787893e-39 310 225
-0.010525259 0.667 0.0175421 7.5635393e-39 311 225
-0.0093557863 0.667 0.0175421 7.7504459e-39 312 225
-0.0081863133 0.667 0.0175421 7.6582503e-39 313 225
-0.0070168395 0.667 0.0175421 7.9326497e-39 314 225
-0.0058473665 0.667 0.0175421 7.8404555e-39 315 225
-0.0046778931 0.667 0.0175421 7.2919536e-39 316 225
-0.0035084197 0.667 0.0175421 7.2919536e-39 317 225
-0.0023389466 0.667 0.0175421 7.5653077e-39 318 225
-0.0011694733 0.667 0.0175421 7.1043366e-39 319 225
0 0.667 0.0175421 6.9203069e-39 320 225
0.0011694733 0.667 0.0175421 6.6440829e-39 321 225
0.0023389466 0.667 0.0175421 6.0945049e-39 322 225
0.0035084197 0.667 0.0175421 6.1866991e-39 323 225
0.0046778931 0.667 0.0175421 6.5536823e-39 324 225
0.0058561331 0.66799998 0.017568398 6.4614881e-39 325 225
0.0070273597 0.66799998 0.017568398 7.0125011e-39 326 225
0.0081985854 0.66799998 0.017568398 7.1046953e-39 327 225
0.0093698129 0.66799998 0.017568398 7.1968895e-39 328 225
0.0105726 0.67000002 0.017620999 7.0121424e-39 329 225
0.011747333 0.67000002 0.017620999 6.5522474e-39 330 225
0.012941353 0.671 0.0176473 6.5522474e-39 331 225
0.01411784 0.671 0.0176473 5.8186396e-39 332 225
0.015294326 0.671 0.0176473 5.9108339e-39 333 225
0.01649536 0.67199999 0.017673599 6.0019519e-39 334 225
0.017673599 0.67199999 0.017673599 6.0941461e-39 335 225
0.018907947 0.67400002 0.0177262 6.1856229e-39 336 225
0.020119499 0.67500001 0.0177525 6.1856229e-39 337 225
0.021334561 0.676 0.017778801 6.6458794e-39 338 225
0.022586439 0.67799997 0.0178314 7.1064988e-39 339 225
0.023810266 0.67900002 0.017857701 7.9355784e-39 340 225
0.025000781 0.67900002 0.017857701 7.5667959e-39 341 225
0.026229866 0.68000001 0.017883999 8.3872632e-39 342 225
0.027422134 0.68000001 0.017883999 8.2028719e-39 343 225
0.028740639 0.68300003 0.017962901 6.7292048e-39 344 225
-0.03498251 0.68800002 0.016888106 1.5950564e-38 291 226
-0.033727121 0.68699998 0.01686356 1.3003489e-38 292 226
-0.032522578 0.68699998 0.01686356 9.8688378e-39 293 226
-0.031272452 0.68599999 0.016839013 7.842968e-39 294 226
-0.030069664 0.68599999 0.016839013 8.5808932e-39 295 226
-0.02878272 0.68400002 0.016789921 9.5935808e-39 296 226
-0.027543113 0.68300003 0.016765373 8.6716385e-39 297 226
-0.026307013 0.68199998 0.016740825 6.000517e-39 298 226
-0.024890319 0.676 0.016593546 6.3692939e-39 299 226
-0.023705067 0.676 0.016593546 7.7482613e-39 300 226
-0.022519812 0.676 0.016593546 9.4999558e-39 301 226
-0.021303 0.67500001 0.016569 1.0695607e-38 302 226
-0.020089693 0.67400002 0.016544454 1.0971831e-38 303 226
-0.018851839 0.67199999 0.01649536 1.0879995e-38 304 226
-0.017673599 0.67199999 0.01649536 1.0879995e-38 305 226
-0.01649536 0.67199999 0.01649536 1.0603771e-38 306 226
-0.015294326 0.671 0.016470812 1.0419024e-38 307 226
-0.01411784 0.671 0.016470812 1.0048453e-38 308 226
-0.012941353 0.671 0.016470812 9.3108996e-39 309 226
-0.011747333 0.67000002 0.016446266 7.5635141e-39 310 226
-0.01054104 0.66799998 0.016397171 8.0248439e-39 311 226
-0.0093698129 0.66799998 0.016397171 8.6712797e-39 312 226
-0.0081863133 0.667 0.016372627 8.763474e-39 313 226
-0.0070168395 0.667 0.016372627 8.9467862e-39 314 226
-0.0058561331 0.66799998 0.016397171 8.9467862e-39 315 226
-0.0046778931 0.667 0.016372627 8.6716385e-39 316 226
-0.0035084197 0.667 0.016372627 8.48725e-39 317 226
-0.0023389466 0.667 0.016372627 8.1184731e-39 318 226
-0.0011694733 0.667 0.016372627 8.1184731e-39 319 226
0 0.667 0.016372627 7.4734722e-39 320 226
0.0011694733 0.667 0.016372627 7.4734722e-39 321 226
0.0023389466 0.667 0.016372627 7.3823542e-39 322 226
0.0035084197 0.667 0.016372627 7.4745484e-39 323 226
0.0046778931 0.667 0.016372627 7.5656665e-39 324 226
0.0058561331 0.66799998 0.016397171 7.381278e-39 325 226
0.0070273597 0.66799998 0.016397171 7.6557083e-39 326 226
0.0081985854 0.66799998 0.016397171 7.8400968e-39 327 226
0.0093978662 0.67000002 0.016446266 7.9312148e-39 328 226
0.01058838 0.671 0.016470812 7.7471851e-39 329 226
0.011764866 0.671 0.016470812 7.2876488e-39 330 226
0.012941353 0.671 0.016470812 7.1954546e-39 331 226
0.01411784 0.671 0.016470812 6.4614881e-39 332 226
0.01531712 0.67199999 0.01649536 6.3692939e-39 333 226
0.01649536 0.67199999 0.01649536 6.5526061e-39 334 226
0.0177262 0.67400002 0.016544454 6.5526061e-39 335 226
0.018935999 0.67500001 0.016569 6.5522474e-39 336 226
0.020119499 0.67500001 0.016569 6.6444416e-39 337 226
0.021334561 0.676 0.016593546 6.0945175e-39 338 226
0.022586439 0.67799997 0.016642639 7.200865e-39 339 226
0.023810266 0.67900002 0.016667187 8.7624734e-39 340 226
0.025000781 0.67900002 0.016667187 8.117104e-39 341 226
0.026229866 0.68000001 0.016691733 8.4780323e-39 342 226
0.027502786 0.68199998 0.016740825 7.8326629e-39 343 226
0.02878272 0.68400002 0.016789921 6.4526221e-39 344 226
-0.03498251 0.68800002 0.015681813 1.5858367e-38 291 227
-0.033776212 0.68800002 0.015681813 1.3371198e-38 292 227
-0.032522578 0.68699998 0.015659019 1.0328744e-38 293 227
-0.031272452 0.68599999 0.015636226 8.4858655e-39 294 227
-0.030069664 0.68599999 0.015636226 1.0237581e-38 295 227
-0.02878272 0.68400002 0.01559064 1.1433954e-38 296 227
-0.027543113 0.68300003 0.015567848 9.9591837e-39 297 227
-0.026307013 0.68199998 0.015545053 7.9355434e-39 298 227
-0.025037598 0.68000001 0.015499466 8.3043259e-39 299 227
-0.023705067 0.676 0.015408293 9.8677014e-39 300 227
-0.022519812 0.676 0.015408293 1.0790018e-38 301 227
-0.021334561 0.676 0.015408293 1.1249213e-38 302 227
-0.020089693 0.67400002 0.015362706 1.1433603e-38 303 227
-0.018907947 0.67400002 0.015362706 1.0972259e-38 304 227
-0.017673599 0.67199999 0.01531712 1.0419087e-38 305 227
-0.01649536 0.67199999 0.01531712 1.0328297e-38 306 227
-0.015294326 0.671 0.015294326 1.0420493e-38 307 227
-0.01411784 0.671 0.015294326 1.0602342e-38 308 227
-0.012941353 0.671 0.015294326 1.0049171e-38 309 227
-0.011747333 0.67000002 0.015271533 9.6818289e-39 310 227
-0.0105726 0.67000002 0.015271533 9.6818289e-39 311 227
-0.0093698129 0.66799998 0.015225946 9.3155631e-39 312 227
-0.0081985854 0.66799998 0.015225946 9.2233689e-39 313 227
-0.0070273597 0.66799998 0.015225946 9.0393392e-39 314 227
-0.0058561331 0.66799998 0.015225946 9.0393392e-39 315 227
-0.0046849065 0.66799998 0.015225946 8.6716385e-39 316 227
-0.0035084197 0.667 0.015203152 8.48725e-39 317 227
-0.0023389466 0.667 0.015203152 8.1188318e-39 318 227
-0.0011694733 0.667 0.015203152 7.5660252e-39 319 227
0 0.66799998 0.015225946 7.381278e-39 320 227
0.0011712266 0.66799998 0.015225946 7.381278e-39 321 227
0.0023424532 0.66799998 0.015225946 7.4734722e-39 322 227
0.0035136798 0.66799998 0.015225946 7.5656665e-39 323 227
0.0046849065 0.66799998 0.015225946 7.5656665e-39 324 227
0.0058561331 0.66799998 0.015225946 7.381278e-39 325 227
0.0070483997 0.67000002 0.015271533 7.9312148e-39 326 227
0.0082231332 0.67000002 0.015271533 8.023409e-39 327 227
0.0093978662 0.67000002 0.015271533 7.839738e-39 328 227
0.01058838 0.671 0.015294326 7.6553496e-39 329 227
0.011764866 0.671 0.015294326 6.9203069e-39 330 227
0.012941353 0.671 0.015294326 6.7362771e-39 331 227
0.01411784 0.671 0.015294326 6.5526061e-39 332 227
0.01531712 0.67199999 0.01531712 6.5526061e-39 333 227
0.01649536 0.67199999 0.01531712 6.5526061e-39 334 227
0.0177262 0.67400002 0.015362706 6.6448004e-39 335 227
0.018935999 0.67500001 0.0153855 6.4614881e-39 336 227
0.020149305 0.676 0.015408293 6.3692939e-39 337 227
0.021334561 0.676 0.015408293 6.9210369e-39 338 227
0.022586439 0.67799997 0.015453878 7.8429946e-39 339 227
0.023810266 0.67900002 0.015476674 9.1305497e-39 340 227
0.025000781 0.67900002 0.015476674 7.9320065e-39 341 227
0.026229866 0.68000001 0.015499466 7.9241396e-39 342 227
0.027502786 0.68199998 0.015545053 7.6475513e-39 343 227
0.02878272 0.68400002 0.01559064 7.3720561e-39 344 227
0.030113498 0.68699998 0.015659019 9.5847526e-39 345 227
-0.033776212 0.68800002 0.014475521 1.3187533e-38 292 228
-0.032522578 0.68699998 0.014454478 1.051386e-38 293 228
-0.031318039 0.68699998 0.014454478 9.7744744e-39 294 228
-0.030069664 0.68599999 0.01443344 1.1157769e-38 295 228
-0.02878272 0.68400002 0.01439136 1.2170842e-38 296 228
-0.027543113 0.68300003 0.014370319 1.1433277e-38 297 228
-0.026307013 0.68199998 0.01434928 1.0053547e-38 298 228
-0.025037598 0.68000001 0.014307199 9.8687972e-39 299 228
-0.023705067 0.676 0.014223038 1.0513816e-38 300 228
-0.022519812 0.676 0.014223038 1.1343936e-38 301 228
-0.021334561 0.676 0.014223038 1.1803154e-38 302 228
-0.020119499 0.67500001 0.014202001 1.1895349e-38 303 228
-0.018907947 0.67400002 0.01418096 1.0605327e-38 304 228
-0.0177262 0.67400002 0.01418096 8.9461655e-39 305 228
-0.01649536 0.67199999 0.01413888 9.5933019e-39 306 228
-0.01531712 0.67199999 0.01413888 1.0423421e-38 307 228
-0.01411784 0.671 0.01411784 1.115483e-38 308 228
-0.012941353 0.671 0.01411784 1.0786048e-38 309 228
-0.011764866 0.671 0.01411784 1.0693454e-38 310 228
-0.0105726 0.67000002 0.014096799 1.0325036e-38 311 228
-0.0093978662 0.67000002 0.014096799 1.0050247e-38 312 228
-0.0081985854 0.66799998 0.014054719 9.8654999e-39 313 228
-0.0070273597 0.66799998 0.014054719 9.5899934e-39 314 228
-0.0058736666 0.67000002 0.014096799 9.4974405e-39 315 228
-0.0046849065 0.66799998 0.014054719 8.9467862e-39 316 228
-0.0035136798 0.66799998 0.014054719 8.6698448e-39 317 228
-0.0023424532 0.66799998 0.014054719 8.4843802e-39 318 228
-0.0011712266 0.66799998 0.014054719 8.023409e-39 319 228
0 0.66799998 0.014054719 7.7475438e-39 320 228
0.0011747333 0.67000002 0.014096799 7.9315735e-39 321 228
0.0023424532 0.66799998 0.014054719 7.9326497e-39 322 228
0.0035136798 0.66799998 0.014054719 7.9326497e-39 323 228
0.0046849065 0.66799998 0.014054719 7.8411729e-39 324 228
0.0058736666 0.67000002 0.014096799 7.564949e-39 325 228
0.0070483997 0.67000002 0.014096799 7.4731135e-39 326 228
0.0082231332 0.67000002 0.014096799 7.4731135e-39 327 228
0.0093978662 0.67000002 0.014096799 7.472396e-39 328 228
0.01058838 0.671 0.01411784 7.3798431e-39 329 228
0.011764866 0.671 0.01411784 6.7366359e-39 330 228
0.012941353 0.671 0.01411784 6.6440829e-39 331 228
0.01413888 0.67199999 0.01413888 6.5526061e-39 332 228
0.01531712 0.67199999 0.01413888 6.5526061e-39 333 228
0.016544454 0.67400002 0.01418096 6.9199481e-39 334 228
0.0177262 0.67400002 0.01418096 7.0121424e-39 335 228
0.018964052 0.676 0.014223038 6.7359184e-39 336 228
0.020149305 0.676 0.014223038 6.7359184e-39 337 228
0.021397678 0.67799997 0.014265119 5.8186719e-39 338 228
0.022586439 0.67799997 0.014265119 7.5703888e-39 339 228
0.023810266 0.67900002 0.01428616 1.0232248e-38 340 228
0.025037598 0.68000001 0.014307199 7.8351614e-39 341 228
0.026307013 0.68199998 0.01434928 6.9135988e-39 342 228
0.027502786 0.68199998 0.01434928 7.0057959e-39 343 228
0.028740639 0.68300003 0.014370319 8.1092694e-39 344 228
0.030113498 0.68699998 0.014454478 1.0045376e-38 345 228
-0.033776212 0.68800002 0.013269227 1.3371215e-38 292 229
-0.032522578 0.68699998 0.013249939 1.0881933e-38 293 229
-0.031318039 0.68699998 0.013249939 1.0787926e-38 294 229
-0.030069664 0.68599999 0.013230653 1.1802079e-38 295 229
-0.02878272 0.68400002 0.01319208 1.2445662e-38 296 229
-0.027543113 0.68300003 0.013172794 1.2538218e-38 297 229
-0.026307013 0.68199998 0.013153506 1.1987545e-38 298 229
-0.025037598 0.68000001 0.013114933 1.1526207e-38 299 229
-0.023775198 0.67799997 0.013076359 1.1619486e-38 300 229
-0.022519812 0.676 0.013037786 1.1987908e-38 301 229
-0.021334561 0.676 0.013037786 1.1895009e-38 302 229
-0.020149305 0.676 0.013037786 1.1987205e-38 303 229
-0.018935999 0.67500001 0.0130185 1.0053973e-38 304 229
-0.0177525 0.67500001 0.0130185 8.3022562e-39 305 229
-0.016544454 0.67400002 0.012999214 9.2260048e-39 306 229
-0.01531712 0.67199999 0.012960639 1.0701495e-38 307 229
-0.01413888 0.67199999 0.012960639 1.1616592e-38 308 229
-0.012960639 0.67199999 0.012960639 1.1155614e-38 309 229
-0.011764866 0.671 0.012941353 1.1063005e-38 310 229
-0.01058838 0.671 0.012941353 1.0417635e-38 311 229
-0.0093978662 0.67000002 0.012922067 1.0417589e-38 312 229
-0.0082231332 0.67000002 0.012922067 1.0140648e-38 313 229
-0.0070483997 0.67000002 0.012922067 9.6811115e-39 314 229
-0.0058736666 0.67000002 0.012922067 9.5885585e-39 315 229
-0.0046989331 0.67000002 0.012922067 9.2215753e-39 316 229
-0.0035241998 0.67000002 0.012922067 8.9446338e-39 317 229
-0.0023494666 0.67000002 0.012922067 8.5758569e-39 318 229
-0.0011747333 0.67000002 0.012922067 8.2067213e-39 319 229
0 0.67000002 0.012922067 7.9315735e-39 320 229
0.0011747333 0.67000002 0.012922067 8.0237677e-39 321 229
0.0023494666 0.67000002 0.012922067 7.8415317e-39 322 229
0.0035241998 0.67000002 0.012922067 7.9337259e-39 323 229
0.0046989331 0.67000002 0.012922067 7.5656665e-39 324 229
0.0058736666 0.67000002 0.012922067 7.4734722e-39 325 229
0.0070483997 0.67000002 0.012922067 7.3809193e-39 326 229
0.0082231332 0.67000002 0.012922067 7.3809193e-39 327 229
0.0093978662 0.67000002 0.012922067 7.1054128e-39 328 229
0.01058838 0.671 0.012941353 6.9206656e-39 329 229
0.011764866 0.671 0.012941353 6.7366359e-39 330 229
0.012960639 0.67199999 0.012960639 6.6444416e-39 331 229
0.01413888 0.67199999 0.012960639 6.7366359e-39 332 229
0.01531712 0.67199999 0.012960639 6.7366359e-39 333 229
0.016544454 0.67400002 0.012999214 6.9206656e-39 334 229
0.0177525 0.67500001 0.0130185 6.9206656e-39 335 229
0.018964052 0.676 0.013037786 6.9203069e-39 336 229
0.020208918 0.67799997 0.013076359 6.6440829e-39 337 229
0.021397678 0.67799997 0.013076359 6.0012527e-39 338 229
0.022619752 0.67900002 0.013095647 7.9373609e-39 339 229
0.023810266 0.67900002 0.013095647 1.0231526e-38 340 229
0.025111238 0.68199998 0.013153506 8.2032208e-39 341 229
0.026307013 0.68199998 0.013153506 7.3738525e-39 342 229
0.027502786 0.68199998 0.013153506 7.7426336e-39 343 229
0.028740639 0.68300003 0.013172794 8.202537e-39 344 229
0.030113498 0.68699998 0.013249939 9.7698627e-39 345 229
-0.033776212 0.68800002 0.012062933 1.3371944e-38 292 230
-0.032522578 0.68699998 0.012045399 1.1251444e-38 293 230
-0.031318039 0.68699998 0.012045399 1.1524782e-38 294 230
-0.030069664 0.68599999 0.012027865 1.2170151e-38 295 230
-0.02886688 0.68599999 0.012027865 1.2079407e-38 296 230
-0.027583439 0.68400002 0.0119928 1.1249645e-38 297 230
-0.026307013 0.68199998 0.011957732 1.005217e-38 298 230
-0.025037598 0.68000001 0.011922667 9.0383765e-39 299 230
-0.023810266 0.67900002 0.011905133 8.5788347e-39 300 230
-0.022586439 0.67799997 0.011887599 8.3026065e-39 301 230
-0.021397678 0.67799997 0.011887599 8.394456e-39 302 230
-0.020149305 0.676 0.011852534 8.7628784e-39 303 230
-0.018964052 0.676 0.011852534 7.6590518e-39 304 230
-0.0177525 0.67500001 0.011835 7.1984338e-39 305 230
-0.016544454 0.67400002 0.011817466 8.4902544e-39 306 230
-0.015362706 0.67400002 0.011817466 9.5969621e-39 307 230
-0.01418096 0.67400002 0.011817466 1.0881936e-38 308 230
-0.012960639 0.67199999 0.011782399 1.0974132e-38 309 230
-0.011782399 0.67199999 0.011782399 1.1616223e-38 310 230
-0.01058838 0.671 0.011764866 1.0970854e-38 311 230
-0.0094118929 0.671 0.011764866 1.0786045e-38 312 230
-0.0082354061 0.671 0.011764866 1.0140676e-38 313 230
-0.0070589199 0.671 0.011764866 1.0048821e-38 314 230
-0.0058824331 0.671 0.011764866 9.8640706e-39 315 230
-0.0046989331 0.67000002 0.011747333 9.4967342e-39 316 230
