# .PCD v.7 - Point Cloud Data file format
FIELDS x y z rgb imX imY
SIZE 4 4 4 4 4 4
TYPE F F F F F F
COUNT 1 1 1 1 1 1
WIDTH 838
HEIGHT 1
VIEWPOINT 0 0 0 1 0 0 0
POINTS 838
DATA ascii
-0.016470812 0.671 0.0035294599 1.0328354e-38 306 237
-0.015294326 0.671 0.0035294599 1.0051409e-38 307 237
-0.014096799 0.67000002 0.0035241998 9.5907473e-39 308 237
-0.012922067 0.67000002 0.0035241998 8.6687924e-39 309 237
-0.011747333 0.67000002 0.0035241998 8.2067227e-39 310 237
-0.0105726 0.67000002 0.0035241998 8.2067227e-39 311 237
-0.0093978662 0.67000002 0.0035241998 7.6564356e-39 312 237
-0.0082231332 0.67000002 0.0035241998 7.6564356e-39 313 237
-0.0070483997 0.67000002 0.0035241998 7.5645903e-39 314 237
-0.0058736666 0.67000002 0.0035241998 7.3802018e-39 315 237
-0.0047059464 0.671 0.0035294599 6.6476702e-39 316 237
-0.0035294599 0.671 0.0035294599 6.3710875e-39 317 237
-0.0023529732 0.671 0.0035294599 6.2799695e-39 318 237
-0.0011764866 0.671 0.0035294599 6.2799695e-39 319 237
0 0.671 0.0035294599 6.1866991e-39 320 237
0.0011764866 0.671 0.0035294599 6.5554774e-39 321 237
0.0023529732 0.671 0.0035294599 8.8528656e-39 322 237
0.0035294599 0.671 0.0035294599 9.682985e-39 323 237
0.0047059464 0.671 0.0035294599 1.0324797e-38 324 237
0.0058911997 0.67199999 0.00353472 9.956014e-39 325 237
0.0070694401 0.67199999 0.00353472 9.5836568e-39 326 237
0.00824768 0.67199999 0.00353472 7.5553529e-39 327 237
0.0094259195 0.67199999 0.00353472 6.8178103e-39 328 237
0.01063572 0.67400002 0.00354524 7.0940384e-39 329 237
0.011835 0.67500001 0.0035505001 6.6348652e-39 330 237
0.013037786 0.676 0.0035557596 6.7270608e-39 331 237
0.014223038 0.676 0.0035557596 6.9125269e-39 332 237
0.015453878 0.67799997 0.0035662798 7.2809506e-39 333 237
0.016667187 0.67900002 0.0035715401 7.7422805e-39 334 237
0.017883999 0.68000001 0.0035767998 8.479847e-39 335 237
0.019132372 0.68199998 0.00358732 9.3095978e-39 336 237
0.020328145 0.68199998 0.00358732 9.2170421e-39 337 237
0.02155548 0.68300003 0.0035925799 9.6758524e-39 338 237
0.022753006 0.68300003 0.0035925799 9.4914611e-39 339 237
0.0239856 0.68400002 0.00359784 9.5825848e-39 340 237
0.025295338 0.68699998 0.0036136196 1.2440289e-38 341 237
0.026499879 0.68699998 0.0036136196 1.3367287e-38 342 237
-0.038601387 0.68800002 0.0024125867 1.2172364e-38 288 238
-0.037340738 0.68699998 0.0024090798 9.5908861e-39 289 238
-0.036136195 0.68699998 0.0024090798 1.0788706e-38 290 238
-0.034880809 0.68599999 0.0024055731 1.1618107e-38 291 238
-0.033579841 0.68400002 0.0023985601 1.216982e-38 292 238
-0.032333218 0.68300003 0.0023950534 1.1801038e-38 293 238
-0.031090107 0.68199998 0.0023915465 1.0971978e-38 294 238
-0.029806666 0.68000001 0.0023845332 9.9581846e-39 295 238
-0.028530238 0.67799997 0.0023775198 8.1160446e-39 296 238
-0.027260827 0.676 0.0023705065 7.1940884e-39 297 238
-0.026075572 0.676 0.0023705065 5.5370753e-39 298 238
-0.0248535 0.67500001 0.0023669999 4.5225633e-39 299 238
-0.023669999 0.67500001 0.0023669999 2.590055e-39 300 238
-0.022486499 0.67500001 0.0023669999 1.5755527e-39 301 238
-0.021271439 0.67400002 0.0023634934 2.4161132e-39 302 238
-0.020030079 0.67199999 0.0023564799 6.656752e-39 303 238
-0.018851839 0.67199999 0.0023564799 1.005362e-38 304 238
-0.017673599 0.67199999 0.0023564799 1.0606794e-38 305 238
-0.01649536 0.67199999 0.0023564799 1.1524784e-38 306 238
-0.015294326 0.671 0.0023529732 1.1340393e-38 307 238
-0.01411784 0.671 0.0023529732 1.0879372e-38 308 238
-0.012941353 0.671 0.0023529732 9.5886328e-39 309 238
-0.011764866 0.671 0.0023529732 8.0223468e-39 310 238
-0.01058838 0.671 0.0023529732 7.9301512e-39 311 238
-0.0094118929 0.671 0.0023529732 7.7486312e-39 312 238
-0.0082354061 0.671 0.0023529732 7.7486312e-39 313 238
-0.0070589199 0.671 0.0023529732 7.3823542e-39 314 238
-0.0058824331 0.671 0.0023529732 7.197607e-39 315 238
-0.0047059464 0.671 0.0023529732 6.739147e-39 316 238
-0.0035294599 0.671 0.0023529732 6.6469528e-39 317 238
-0.0023529732 0.671 0.0023529732 6.2796108e-39 318 238
-0.0011764866 0.671 0.0023529732 6.1874166e-39 319 238
0 0.671 0.0023529732 6.1852712e-39 320 238
0.0011764866 0.671 0.0023529732 7.2916173e-39 321 238
0.0023529732 0.671 0.0023529732 1.0050705e-38 322 238
0.0035294599 0.671 0.0023529732 1.0419847e-38 323 238
0.0047129598 0.67199999 0.0023564799 1.0416995e-38 324 238
0.0058911997 0.67199999 0.0023564799 9.9560168e-39 325 238
0.0070694401 0.67199999 0.0023564799 9.9509973e-39 326 238
0.00824768 0.67199999 0.0023564799 8.4758673e-39 327 238
0.0094539737 0.67400002 0.0023634934 7.7390449e-39 328 238
0.0106515 0.67500001 0.0023669999 7.2780668e-39 329 238
0.011852534 0.676 0.0023705065 7.0032777e-39 330 238
0.013037786 0.676 0.0023705065 7.3717001e-39 331 238
0.014265119 0.67799997 0.0023775198 7.5575207e-39 332 238
0.015476674 0.67900002 0.0023810267 7.741912e-39 333 238
0.016691733 0.68000001 0.0023845332 8.1099742e-39 334 238
0.017883999 0.68000001 0.0023845332 8.5705936e-39 335 238
0.019132372 0.68199998 0.0023915465 8.5723985e-39 336 238
0.020357953 0.68300003 0.0023950534 8.5723985e-39 337 238
0.02155548 0.68300003 0.0023950534 9.3074398e-39 338 238
0.022786319 0.68400002 0.0023985601 9.6762223e-39 339 238
0.024055731 0.68599999 0.0024055731 1.0320871e-38 340 238
0.025295338 0.68699998 0.0024090798 1.225698e-38 341 238
0.026538454 0.68800002 0.0024125867 1.3274373e-38 342 238
-0.037340738 0.68699998 0.0012045399 8.576374e-39 289 239
-0.036136195 0.68699998 0.0012045399 9.8674687e-39 290 239
-0.034931656 0.68699998 0.0012045399 1.0974176e-38 291 239
-0.033678025 0.68599999 0.0012027866 1.1893236e-38 292 239
-0.032380559 0.68400002 0.00119928 1.2354214e-38 293 239
-0.031090107 0.68199998 0.0011957732 1.2446397e-38 294 239
-0.029806666 0.68000001 0.0011922666 1.1524081e-38 295 239
-0.028572321 0.67900002 0.0011905134 1.0508484e-38 296 239
-0.027260827 0.676 0.0011852533 1.0785071e-38 297 239
-0.026075572 0.676 0.0011852533 1.0511358e-38 298 239
-0.0248535 0.67500001 0.0011834999 9.7737933e-39 299 239
-0.023669999 0.67500001 0.0011834999 8.1164174e-39 300 239
-0.022486499 0.67500001 0.0011834999 7.0100698e-39 301 239
-0.021271439 0.67400002 0.0011817467 5.0836712e-39 302 239
-0.020089693 0.67400002 0.0011817467 6.4666071e-39 303 239
-0.018851839 0.67199999 0.0011782399 9.2271034e-39 304 239
-0.017673599 0.67199999 0.0011782399 1.033345e-38 305 239
-0.01649536 0.67199999 0.0011782399 1.1156743e-38 306 239
-0.015294326 0.671 0.0011764866 1.0972712e-38 307 239
-0.01411784 0.671 0.0011764866 1.1708084e-38 308 239
-0.012941353 0.671 0.0011764866 1.0417345e-38 309 239
-0.011764866 0.671 0.0011764866 8.2989533e-39 310 239
-0.01058838 0.671 0.0011764866 8.0227252e-39 311 239
-0.0094118929 0.671 0.0011764866 7.3816437e-39 312 239
-0.0082354061 0.671 0.0011764866 7.4738394e-39 313 239
-0.0070589199 0.671 0.0011764866 7.1075652e-39 314 239
-0.0058824331 0.671 0.0011764866 6.739147e-39 315 239
-0.0047059464 0.671 0.0011764866 6.4636405e-39 316 239
-0.0035294599 0.671 0.0011764866 6.4636405e-39 317 239
-0.0023529732 0.671 0.0011764866 6.2796108e-39 318 239
-0.0011764866 0.671 0.0011764866 6.1874166e-39 319 239
0 0.671 0.0011764866 6.1852712e-39 320 239
0.0011764866 0.671 0.0011764866 7.2916173e-39 321 239
0.0023529732 0.671 0.0011764866 9.9581566e-39 322 239
0.00353472 0.67199999 0.0011782399 1.0235102e-38 323 239
0.0047129598 0.67199999 0.0011782399 1.0231895e-38 324 239
0.0059087332 0.67400002 0.0011817467 9.9556665e-39 325 239
0.0070904801 0.67400002 0.0011817467 9.3999914e-39 326 239
0.0082722269 0.67400002 0.0011817467 8.4780351e-39 327 239
0.0094539737 0.67400002 0.0011817467 7.0940384e-39 328 239
0.0106515 0.67500001 0.0011834999 7.1865928e-39 329 239
0.011852534 0.676 0.0011852533 7.3709813e-39 330 239
0.013076359 0.67799997 0.0011887599 7.924155e-39 331 239
0.01428616 0.67900002 0.0011905134 7.8344635e-39 332 239
0.015499466 0.68000001 0.0011922666 7.8344635e-39 333 239
0.016691733 0.68000001 0.0011922666 8.2925648e-39 334 239
0.017883999 0.68000001 0.0011922666 8.5695118e-39 335 239
0.019132372 0.68199998 0.0011957732 8.7546248e-39 336 239
0.020357953 0.68300003 0.0011975267 9.1230486e-39 337 239
0.02155548 0.68300003 0.0011975267 9.4010634e-39 338 239
0.022786319 0.68400002 0.00119928 9.6776517e-39 339 239
0.024090799 0.68699998 0.0012045399 9.9535183e-39 340 239
0.02533216 0.68800002 0.0012062934 1.1889627e-38 341 239
0.026615599 0.69 0.0012097999 1.3181456e-38 342 239
-0.037340738 0.68699998 -0 7.2870701e-39 289 240
-0.036136195 0.68699998 -0 7.5632983e-39 290 240
-0.034931656 0.68699998 -0 8.9462327e-39 291 240
-0.033678025 0.68599999 -0 1.0697214e-38 292 240
-0.032380559 0.68400002 -0 1.1895757e-38 293 240
-0.031090107 0.68199998 -0 1.2079423e-38 294 240
-0.029806666 0.68000001 -0 1.0327706e-38 295 240
-0.028572321 0.67900002 -0 8.2036188e-39 296 240
-0.027341479 0.67799997 -0 8.5720426e-39 297 240
-0.026075572 0.676 -0 9.2242475e-39 298 240
-0.024890319 0.676 -0 1.0146564e-38 299 240
-0.023669999 0.67500001 -0 1.1524084e-38 300 240
-0.022486499 0.67500001 -0 1.0417738e-38 301 240
-0.021303 0.67500001 -0 9.3156865e-39 302 240
-0.020089693 0.67400002 -0 9.4078821e-39 303 240
-0.018907947 0.67400002 -0 9.9603524e-39 304 240
-0.017673599 0.67199999 -0 1.0513526e-38 305 240
-0.01649536 0.67199999 -0 1.1156037e-38 306 240
-0.01531712 0.67199999 -0 1.1156037e-38 307 240
-0.01411784 0.671 -0 1.1616627e-38 308 240
-0.012941353 0.671 -0 1.0786866e-38 309 240
-0.011764866 0.671 -0 9.6800885e-39 310 240
-0.01058838 0.671 -0 8.850688e-39 311 240
-0.0094118929 0.671 -0 8.3943383e-39 312 240
-0.0082354061 0.671 -0 8.0255614e-39 313 240
-0.0070589199 0.671 -0 7.7500549e-39 314 240
-0.0058824331 0.671 -0 7.4734722e-39 315 240
-0.0047059464 0.671 -0 6.922818e-39 316 240
-0.0035294599 0.671 -0 6.6462353e-39 317 240
-0.0023564799 0.67199999 -0 6.3714463e-39 318 240
-0.0011782399 0.67199999 -0 6.3714463e-39 319 240
0 0.67199999 -0 6.1859872e-39 320 240
0.0011782399 0.67199999 -0 7.1083023e-39 321 240
0.0023564799 0.67199999 -0 9.8652407e-39 322 240
0.00353472 0.67199999 -0 1.0049992e-38 323 240
0.0047269869 0.67400002 -0 1.0690355e-38 324 240
0.0059087332 0.67400002 -0 1.0229376e-38 325 240
0.0070904801 0.67400002 -0 1.0226509e-38 326 240
0.0082722269 0.67400002 -0 9.0279662e-39 327 240
0.0094539737 0.67400002 -0 7.2791388e-39 328 240
0.0106515 0.67500001 -0 7.46353e-39 329 240
0.011852534 0.676 -0 7.2816597e-39 330 240
0.013076359 0.67799997 -0 7.3738553e-39 331 240
0.01428616 0.67900002 -0 7.6497191e-39 332 240
0.015499466 0.68000001 -0 7.6497191e-39 333 240
0.016691733 0.68000001 -0 8.0174227e-39 334 240
0.017936599 0.68199998 -0 8.2943697e-39 335 240
0.019132372 0.68199998 -0 8.7553408e-39 336 240
0.020357953 0.68300003 -0 9.216319e-39 337 240
0.02158704 0.68400002 -0 9.4936261e-39 338 240
0.022786319 0.68400002 -0 9.217398e-39 339 240
0.024125867 0.68800002 -0 8.937937e-39 340 240
0.025405798 0.69 -0 1.1888199e-38 341 240
0.026654173 0.69099998 -0 1.3274007e-38 342 240
-0.037395094 0.68800002 -0.0012062934 7.102676e-39 289 241
-0.0361888 0.68800002 -0.0012062934 3.5092171e-39 290 241
-0.034931656 0.68699998 -0.0012045399 3.6932496e-39 291 241
-0.033678025 0.68599999 -0.0012027866 6.9190135e-39 292 241
-0.032380559 0.68400002 -0.00119928 8.3937834e-39 293 241
-0.031090107 0.68199998 -0.0011957732 8.9458698e-39 294 241
-0.029806666 0.68000001 -0.0011922666 6.0874451e-39 295 241
-0.028572321 0.67900002 -0.0011905134 2.3960298e-39 296 241
-0.027341479 0.67799997 -0.0011887599 2.2119987e-39 297 241
-0.026075572 0.676 -0.0011852533 1.858325e-39 298 241
-0.024890319 0.676 -0.0011852533 6.5606608e-39 299 241
-0.023705067 0.676 -0.0011852533 1.1891088e-38 300 241
-0.022519812 0.676 -0.0011852533 1.1983284e-38 301 241
-0.021334561 0.676 -0.0011852533 1.1341136e-38 302 241
-0.020119499 0.67500001 -0.0011834999 1.1248939e-38 303 241
-0.018935999 0.67500001 -0.0011834999 1.0418459e-38 304 241
-0.0177262 0.67400002 -0.0011817467 9.8652855e-39 305 241
-0.016544454 0.67400002 -0.0011817467 1.0419904e-38 306 241
-0.01531712 0.67199999 -0.0011782399 1.0880882e-38 307 241
-0.01413888 0.67199999 -0.0011782399 1.1248217e-38 308 241
-0.012960639 0.67199999 -0.0011782399 1.097163e-38 309 241
-0.011782399 0.67199999 -0.0011782399 1.0970163e-38 310 241
-0.010604159 0.67199999 -0.0011782399 1.0601739e-38 311 241
-0.0094118929 0.671 -0.0011764866 9.5914872e-39 312 241
-0.0082354061 0.671 -0.0011764866 8.4854984e-39 313 241
-0.0070589199 0.671 -0.0011764866 7.8418904e-39 314 241
-0.0058824331 0.671 -0.0011764866 7.6571432e-39 315 241
-0.0047129598 0.67199999 -0.0011782399 7.1983245e-39 316 241
-0.00353472 0.67199999 -0.0011782399 7.013936e-39 317 241
-0.0023564799 0.67199999 -0.0011782399 6.4636405e-39 318 241
-0.0011782399 0.67199999 -0.0011782399 6.3710875e-39 319 241
0 0.67199999 -0.0011782399 6.4615077e-39 320 241
0.0011782399 0.67199999 -0.0011782399 7.5678553e-39 321 241
0.0023564799 0.67199999 -0.0011782399 9.9570874e-39 322 241
0.00354524 0.67400002 -0.0011817467 1.0234033e-38 323 241
0.0047269869 0.67400002 -0.0011817467 1.0323374e-38 324 241
0.0059087332 0.67400002 -0.0011817467 1.0046786e-38 325 241
0.0070904801 0.67400002 -0.0011817467 9.8602479e-39 326 241
0.0082722269 0.67400002 -0.0011817467 9.2148784e-39 327 241
0.0094679995 0.67500001 -0.0011834999 8.018859e-39 328 241
0.01066728 0.676 -0.0011852533 7.6497163e-39 329 241
0.011852534 0.676 -0.0011852533 7.2816597e-39 330 241
0.013076359 0.67799997 -0.0011887599 7.2816597e-39 331 241
0.01428616 0.67900002 -0.0011905134 7.6486443e-39 332 241
0.015499466 0.68000001 -0.0011922666 7.9252298e-39 333 241
0.016691733 0.68000001 -0.0011922666 8.2021713e-39 334 241
0.017936599 0.68199998 -0.0011957732 8.5705936e-39 335 241
0.019132372 0.68199998 -0.0011957732 9.1234017e-39 336 241
0.020357953 0.68300003 -0.0011975267 9.6765755e-39 337 241
0.021650158 0.68599999 -0.0012027866 9.8616828e-39 338 241
0.022852944 0.68599999 -0.0012027866 9.2163134e-39 339 241
0.024195999 0.69 -0.0012097999 8.5702279e-39 340 241
0.025442619 0.69099998 -0.0012115532 1.1889271e-38 341 241
0.026654173 0.69099998 -0.0012115532 1.3642435e-38 342 241
0.027946379 0.69300002 -0.00121506 1.4933174e-38 343 241
-0.037395094 0.68800002 -0.0024125867 7.8380747e-39 289 242
-0.0361888 0.68800002 -0.0024125867 5.1644196e-39 290 242
-0.03498251 0.68800002 -0.0024125867 4.5190502e-39 291 242
-0.033678025 0.68599999 -0.0024055731 4.9807514e-39 292 242
-0.032475237 0.68599999 -0.0024055731 5.6261208e-39 293 242
-0.031135695 0.68300003 -0.0023950534 6.1778485e-39 294 242
-0.029894331 0.68199998 -0.0023915465 5.2558936e-39 295 242
-0.028572321 0.67900002 -0.0023810267 3.5031004e-39 296 242
-0.027341479 0.67799997 -0.0023775198 4.3332198e-39 297 242
-0.026152719 0.67799997 -0.0023775198 1.9469291e-39 298 242
-0.024890319 0.676 -0.0023705065 5.3581674e-39 299 242
-0.023705067 0.676 -0.0023705065 1.0695434e-38 300 242
-0.022519812 0.676 -0.0023705065 1.1340804e-38 301 242
-0.021334561 0.676 -0.0023705065 1.1340788e-38 302 242
-0.020119499 0.67500001 -0.0023669999 1.1156037e-38 303 242
-0.018935999 0.67500001 -0.0023669999 8.391603e-39 304 242
-0.0177525 0.67500001 -0.0023669999 6.9161142e-39 305 242
-0.016544454 0.67400002 -0.0023634934 1.005005e-38 306 242
-0.01531712 0.67199999 -0.0023564799 1.1340788e-38 307 242
-0.01413888 0.67199999 -0.0023564799 1.1431182e-38 308 242
-0.012960639 0.67199999 -0.0023564799 1.1338986e-38 309 242
-0.011782399 0.67199999 -0.0023564799 1.1338971e-38 310 242
-0.010604159 0.67199999 -0.0023564799 1.1246775e-38 311 242
-0.0094259195 0.67199999 -0.0023564799 1.0970504e-38 312 242
-0.00824768 0.67199999 -0.0023564799 9.9559916e-39 313 242
-0.0070694401 0.67199999 -0.0023564799 8.760265e-39 314 242
-0.0058911997 0.67199999 -0.0023564799 8.0227e-39 315 242
-0.0047129598 0.67199999 -0.0023564799 7.6582194e-39 316 242
-0.00353472 0.67199999 -0.0023564799 7.4741897e-39 317 242
-0.0023564799 0.67199999 -0.0023564799 7.013936e-39 318 242
-0.0011782399 0.67199999 -0.0023564799 7.106489e-39 319 242
0 0.67199999 -0.0023564799 8.5784297e-39 320 242
0.0011782399 0.67199999 -0.0023564799 9.3159947e-39 321 242
0.0023634934 0.67400002 -0.0023634934 1.0600307e-38 322 242
0.00354524 0.67400002 -0.0023634934 1.0692503e-38 323 242
0.0047269869 0.67400002 -0.0023634934 1.0598882e-38 324 242
0.0059174998 0.67500001 -0.0023669999 1.0322295e-38 325 242
0.0071010003 0.67500001 -0.0023669999 1.0044632e-38 326 242
0.0082967728 0.676 -0.0023705065 9.3992627e-39 327 242
0.0094820261 0.676 -0.0023705065 8.8457358e-39 328 242
0.01066728 0.676 -0.0023705065 8.2929207e-39 329 242
0.011887599 0.67799997 -0.0023775198 7.6486443e-39 330 242
0.013076359 0.67799997 -0.0023775198 7.5564487e-39 331 242
0.014307199 0.68000001 -0.0023845332 7.466051e-39 332 242
0.015499466 0.68000001 -0.0023845332 7.7422777e-39 333 242
0.016740825 0.68199998 -0.0023915465 8.2943669e-39 334 242
0.017936599 0.68199998 -0.0023915465 8.5705936e-39 335 242
0.019160427 0.68300003 -0.0023950534 8.8468176e-39 336 242
0.020357953 0.68300003 -0.0023950534 9.3077957e-39 337 242
0.021650158 0.68599999 -0.0024055731 1.0044279e-38 338 242
0.022886258 0.68699998 -0.0024090798 9.2148784e-39 339 242
0.024195999 0.69 -0.0024195998 8.6624263e-39 340 242
0.025442619 0.69099998 -0.0024231065 1.2257697e-38 341 242
0.026654173 0.69099998 -0.0024231065 1.3827549e-38 342 242
0.027946379 0.69300002 -0.00243012 1.5302679e-38 343 242
0.029161438 0.69300002 -0.00243012 1.4475436e-38 344 242
-0.037666857 0.69300002 -0.0036451798 8.4816448e-39 289 243
-0.036346599 0.69099998 -0.0036346598 6.2682434e-39 290 243
-0.034931656 0.68699998 -0.0036136196 5.8998197e-39 291 243
-0.033727121 0.68699998 -0.0036136196 4.9771515e-39 292 243
-0.032475237 0.68599999 -0.00360836 4.4243365e-39 293 243
-0.031135695 0.68300003 -0.0035925799 4.6094466e-39 294 243
-0.029894331 0.68199998 -0.00358732 4.7938392e-39 295 243
-0.028614398 0.68000001 -0.0035767998 4.1509894e-39 296 243
-0.027381808 0.67900002 -0.0035715401 5.5339238e-39 297 243
-0.026152719 0.67799997 -0.0035662798 4.800679e-39 298 243
-0.024963958 0.67799997 -0.0035662798 5.261297e-39 299 243
-0.023705067 0.676 -0.0035557596 9.0377151e-39 300 243
-0.022519812 0.676 -0.0035557596 1.0604681e-38 301 243
-0.021334561 0.676 -0.0035557596 1.0789062e-38 302 243
-0.020149305 0.676 -0.0035557596 1.0696866e-38 303 243
-0.018964052 0.676 -0.0035557596 7.3781839e-39 304 243
-0.0177525 0.67500001 -0.0035505001 5.9952495e-39 305 243
-0.016569 0.67500001 -0.0035505001 9.5887211e-39 306 243
-0.015362706 0.67400002 -0.00354524 1.1617025e-38 307 243
-0.01418096 0.67400002 -0.00354524 1.1523378e-38 308 243
-0.012999214 0.67400002 -0.00354524 1.1431182e-38 309 243
-0.011782399 0.67199999 -0.00353472 1.1155303e-38 310 243
-0.010604159 0.67199999 -0.00353472 1.1155303e-38 311 243
-0.0094539737 0.67400002 -0.00354524 1.1614819e-38 312 243
-0.00824768 0.67199999 -0.00353472 1.0876895e-38 313 243
-0.0070694401 0.67199999 -0.00353472 9.6815375e-39 314 243
-0.0058911997 0.67199999 -0.00353472 8.6673855e-39 315 243
-0.0047129598 0.67199999 -0.00353472 8.1181396e-39 316 243
-0.00353472 0.67199999 -0.00353472 7.9337483e-39 317 243
-0.0023634934 0.67400002 -0.00354524 7.4724353e-39 318 243
-0.0011817467 0.67400002 -0.00354524 8.4862285e-39 319 243
0 0.67400002 -0.00354524 1.0602813e-38 320 243
0.0011817467 0.67400002 -0.00354524 1.0695008e-38 321 243
0.0023634934 0.67400002 -0.00354524 1.0783632e-38 322 243
0.0035505001 0.67500001 -0.0035505001 1.0783632e-38 323 243
0.0047339997 0.67500001 -0.0035505001 1.0598885e-38 324 243
0.0059174998 0.67500001 -0.0035505001 1.0137907e-38 325 243
0.0071010003 0.67500001 -0.0035505001 9.8602451e-39 326 243
0.0082967728 0.676 -0.0035557596 9.4914611e-39 327 243
0.0094820261 0.676 -0.0035557596 8.7546248e-39 328 243
0.01066728 0.676 -0.0035557596 8.201451e-39 329 243
0.011887599 0.67799997 -0.0035662798 7.9245082e-39 330 243
0.013076359 0.67799997 -0.0035662798 7.9245082e-39 331 243
0.014307199 0.68000001 -0.0035767998 7.6493632e-39 332 243
0.015545053 0.68199998 -0.00358732 7.8337545e-39 333 243
0.016740825 0.68199998 -0.00358732 8.2943697e-39 334 243
0.017936599 0.68199998 -0.00358732 8.3865653e-39 335 243
0.019160427 0.68300003 -0.0035925799 8.7528213e-39 336 243
0.020387759 0.68400002 -0.00359784 9.3981907e-39 337 243
0.021681719 0.68699998 -0.0036136196 9.4928933e-39 338 243
0.022919573 0.68800002 -0.0036188802 9.2159476e-39 339 243
0.024195999 0.69 -0.0036293997 8.5695118e-39 340 243
0.025442619 0.69099998 -0.0036346598 1.2256977e-38 341 243
0.026654173 0.69099998 -0.0036346598 1.4470766e-38 342 243
0.027946379 0.69300002 -0.0036451798 1.6038094e-38 343 243
0.029161438 0.69300002 -0.0036451798 1.5854054e-38 344 243
-0.037666857 0.69300002 -0.00486024 9.4932758e-39 289 244
-0.036346599 0.69099998 -0.0048462129 6.4515445e-39 290 244
-0.034931656 0.68699998 -0.0048181596 6.0827634e-39 291 244
-0.033727121 0.68699998 -0.0048181596 5.7143508e-39 292 244
-0.032475237 0.68599999 -0.0048111463 5.0689814e-39 293 244
-0.03118128 0.68400002 -0.0047971201 5.071138e-39 294 244
-0.029894331 0.68199998 -0.004783093 5.3473647e-39 295 244
-0.028614398 0.68000001 -0.0047690663 4.4275777e-39 296 244
-0.027381808 0.67900002 -0.0047620535 4.2431864e-39 297 244
-0.026191294 0.67900002 -0.0047620535 3.1418765e-39 298 244
-0.024963958 0.67799997 -0.0047550397 4.3404197e-39 299 244
-0.023705067 0.676 -0.0047410131 7.7415771e-39 300 244
-0.022519812 0.676 -0.0047410131 6.5430353e-39 301 244
-0.021397678 0.67799997 -0.0047550397 6.0917639e-39 302 244
-0.020208918 0.67799997 -0.0047550397 7.6594498e-39 303 244
-0.018964052 0.676 -0.0047410131 8.4787792e-39 304 244
-0.017778801 0.676 -0.0047410131 7.8334098e-39 305 244
-0.016593546 0.676 -0.0047410131 8.6664088e-39 306 244
-0.0153855 0.67500001 -0.0047339997 9.8649506e-39 307 244
-0.014202001 0.67500001 -0.0047339997 9.8653009e-39 308 244
-0.0130185 0.67500001 -0.0047339997 9.6812698e-39 309 244
-0.011817466 0.67400002 -0.0047269869 1.0233712e-38 310 244
-0.01063572 0.67400002 -0.0047269869 1.0695049e-38 311 244
-0.0094539737 0.67400002 -0.0047269869 1.0880511e-38 312 244
-0.0082722269 0.67400002 -0.0047269869 1.069612e-38 313 244
-0.0070694401 0.67199999 -0.0047129598 1.0419145e-38 314 244
-0.0058911997 0.67199999 -0.0047129598 1.0142556e-38 315 244
-0.0047269869 0.67400002 -0.0047269869 1.04166e-38 316 244
-0.00354524 0.67400002 -0.0047269869 1.0047819e-38 317 244
-0.0023634934 0.67400002 -0.0047269869 9.8637987e-39 318 244
-0.0011817467 0.67400002 -0.0047269869 1.0324778e-38 319 244
0 0.67400002 -0.0047269869 1.0969813e-38 320 244
0.0011817467 0.67400002 -0.0047269869 1.0877617e-38 321 244
0.0023669999 0.67500001 -0.0047339997 1.0783996e-38 322 244
0.0035505001 0.67500001 -0.0047339997 1.0691799e-38 323 244
0.0047339997 0.67500001 -0.0047339997 1.0598885e-38 324 244
0.0059174998 0.67500001 -0.0047339997 1.0321939e-38 325 244
0.0071115191 0.676 -0.0047410131 9.8602479e-39 326 244
0.0082967728 0.676 -0.0047410131 9.5836596e-39 327 244
0.0094820261 0.676 -0.0047410131 8.8453855e-39 328 244
0.010698839 0.67799997 -0.0047550397 8.2922117e-39 329 244
0.011905133 0.67900002 -0.0047620535 8.1993e-39 330 244
0.013114933 0.68000001 -0.0047690663 8.1071044e-39 331 244
0.014307199 0.68000001 -0.0047690663 7.8312377e-39 332 244
0.015545053 0.68199998 -0.004783093 8.1078232e-39 333 244
0.016740825 0.68199998 -0.004783093 8.2010951e-39 334 244
0.017962901 0.68300003 -0.0047901068 8.4776819e-39 335 244
0.019160427 0.68300003 -0.0047901068 8.5702251e-39 336 244
0.020387759 0.68400002 -0.0047971201 9.4925401e-39 337 244
0.021681719 0.68699998 -0.0048181596 9.6780048e-39 338 244
0.022919573 0.68800002 -0.0048251734 9.3088621e-39 339 244
0.024195999 0.69 -0.0048391996 8.7521024e-39 340 244
0.025442619 0.69099998 -0.0048462129 1.133358e-38 341 244
0.02673132 0.69300002 -0.00486024 1.4276296e-38 342 244
0.027946379 0.69300002 -0.00486024 1.5106416e-38 343 244
-0.03888192 0.69300002 -0.0060753003 1.4933168e-38 288 245
-0.037666857 0.69300002 -0.0060753003 1.0508137e-38 289 245
-0.036346599 0.69099998 -0.0060577663 8.1081764e-39 290 245
-0.035135046 0.69099998 -0.0060577663 7.0018288e-39 291 245
-0.033727121 0.68699998 -0.0060226996 5.8958484e-39 292 245
-0.032522578 0.68699998 -0.0060226996 5.8036528e-39 293 245
-0.031272452 0.68599999 -0.0060139326 5.5328266e-39 294 245
-0.029982001 0.68400002 -0.0059964 5.440631e-39 295 245
-0.02869856 0.68199998 -0.005978866 4.2413899e-39 296 245
-0.027422134 0.68000001 -0.0059613334 3.2272394e-39 297 245
-0.026191294 0.67900002 -0.0059525664 2.5858357e-39 298 245
-0.024963958 0.67799997 -0.0059437994 5.0751177e-39 299 245
-0.023775198 0.67799997 -0.0059437994 7.0061644e-39 300 245
-0.022586439 0.67799997 -0.0059437994 4.3324912e-39 301 245
-0.021397678 0.67799997 -0.0059437994 3.6889168e-39 302 245
-0.020208918 0.67799997 -0.0059437994 5.9941677e-39 303 245
-0.019020159 0.67799997 -0.0059437994 7.3709995e-39 304 245
-0.017778801 0.676 -0.0059262668 7.2788038e-39 305 245
-0.016593546 0.676 -0.0059262668 6.4548053e-39 306 245
-0.0153855 0.67500001 -0.0059174998 6.5470009e-39 307 245
-0.014202001 0.67500001 -0.0059174998 7.0083308e-39 308 245
-0.0130185 0.67500001 -0.0059174998 7.1927235e-39 309 245
-0.011817466 0.67400002 -0.0059087332 7.8405942e-39 310 245
-0.01063572 0.67400002 -0.0059087332 9.4997568e-39 311 245
-0.0094539737 0.67400002 -0.0059087332 1.1063829e-38 312 245
-0.0082722269 0.67400002 -0.0059087332 1.0879079e-38 313 245
-0.0070904801 0.67400002 -0.0059087332 1.0971263e-38 314 245
-0.0059087332 0.67400002 -0.0059087332 1.0971263e-38 315 245
-0.0047269869 0.67400002 -0.0059087332 1.1429001e-38 316 245
-0.00354524 0.67400002 -0.0059087332 1.1152056e-38 317 245
-0.0023669999 0.67500001 -0.0059174998 1.0968744e-38 318 245
-0.0011834999 0.67500001 -0.0059174998 1.0784351e-38 319 245
0 0.67500001 -0.0059174998 1.0784715e-38 320 245
0.0011834999 0.67500001 -0.0059174998 1.0784715e-38 321 245
0.0023669999 0.67500001 -0.0059174998 1.0967309e-38 322 245
0.0035505001 0.67500001 -0.0059174998 1.0783276e-38 323 245
0.0047339997 0.67500001 -0.0059174998 1.0782197e-38 324 245
0.0059262668 0.676 -0.0059262668 1.0413775e-38 325 245
0.0071115191 0.676 -0.0059262668 1.0044282e-38 326 245
0.0082967728 0.676 -0.0059262668 9.0301299e-39 327 245
0.0094820261 0.676 -0.0059262668 8.659925e-39 328 245
0.010698839 0.67799997 -0.0059437994 8.1989469e-39 329 245
0.011905133 0.67900002 -0.0059525664 7.3727861e-39 330 245
0.013114933 0.68000001 -0.0059613334 7.1880347e-39 331 245
0.014307199 0.68000001 -0.0059613334 7.5553767e-39 332 245
0.015545053 0.68199998 -0.005978866 7.8319622e-39 333 245
0.016765373 0.68300003 -0.0059876335 8.2000189e-39 334 245
0.017962901 0.68300003 -0.0059876335 8.5691615e-39 335 245
0.01918848 0.68400002 -0.0059964 8.9408055e-39 336 245
0.020447372 0.68599999 -0.0060139326 9.5861749e-39 337 245
0.021681719 0.68699998 -0.0060226996 9.678002e-39 338 245
0.022919573 0.68800002 -0.0060314666 9.3092181e-39 339 245
0.024195999 0.69 -0.0060489997 8.9361209e-39 340 245
0.025442619 0.69099998 -0.0060577663 1.0319055e-38 341 245
0.02673132 0.69300002 -0.0060753003 1.3987449e-38 342 245
0.027946379 0.69300002 -0.0060753003 1.3987449e-38 343 245
-0.03888192 0.69300002 -0.0072903596 1.5115399e-38 288 246
-0.037666857 0.69300002 -0.0072903596 1.2441725e-38 289 246
-0.036451802 0.69300002 -0.0072903596 1.0872245e-38 290 246
-0.035135046 0.69099998 -0.0072693196 9.028332e-39 291 246
-0.0338744 0.69 -0.0072587994 5.5299399e-39 292 246
-0.032569919 0.68800002 -0.0072377604 5.8987224e-39 293 246
-0.031318039 0.68699998 -0.0072272392 6.0895975e-39 294 246
-0.030069664 0.68599999 -0.0072167199 5.9974019e-39 295 246
-0.028740639 0.68300003 -0.0071851597 5.5288861e-39 296 246
-0.027422134 0.68000001 -0.0071535995 4.5147342e-39 297 246
-0.026229866 0.68000001 -0.0071535995 3.8729647e-39 298 246
-0.025000781 0.67900002 -0.0071430802 7.2842031e-39 299 246
-0.023775198 0.67799997 -0.0071325595 7.0129957e-39 300 246
-0.022586439 0.67799997 -0.0071325595 5.8148113e-39 301 246
-0.021429239 0.67900002 -0.0071430802 5.8919079e-39 302 246
-0.020238725 0.67900002 -0.0071430802 5.0621473e-39 303 246
-0.019020159 0.67799997 -0.0071325595 4.2352803e-39 304 246
-0.0178314 0.67799997 -0.0071325595 3.958692e-39 305 246
-0.016593546 0.676 -0.0071115191 2.489687e-39 306 246
-0.015408293 0.676 -0.0071115191 2.8588282e-39 307 246
-0.014202001 0.67500001 -0.0071010003 3.1397255e-39 308 246
-0.0130185 0.67500001 -0.0071010003 2.4021605e-39 309 246
-0.011835 0.67500001 -0.0071010003 1.9494318e-39 310 246
-0.0106515 0.67500001 -0.0071010003 6.9276357e-39 311 246
-0.0094539737 0.67400002 -0.0070904801 1.0972359e-38 312 246
-0.0082722269 0.67400002 -0.0070904801 1.0603216e-38 313 246
-0.0071010003 0.67500001 -0.0071010003 1.0970914e-38 314 246
-0.0059174998 0.67500001 -0.0071010003 1.0786163e-38 315 246
-0.0047339997 0.67500001 -0.0071010003 1.0969112e-38 316 246
-0.0035505001 0.67500001 -0.0071010003 1.0969112e-38 317 246
-0.0023705065 0.676 -0.0071115191 1.0785797e-38 318 246
-0.0011852533 0.676 -0.0071115191 1.0785797e-38 319 246
0 0.67500001 -0.0071010003 1.0693599e-38 320 246
0.0011834999 0.67500001 -0.0071010003 1.0693599e-38 321 246
0.0023705065 0.676 -0.0071115191 1.0784351e-38 322 246
0.0035557596 0.676 -0.0071115191 1.0692155e-38 323 246
0.0047410131 0.676 -0.0071115191 1.0415217e-38 324 246
0.0059262668 0.676 -0.0071115191 1.013863e-38 325 246
0.0071115191 0.676 -0.0071115191 9.3081587e-39 326 246
0.0082967728 0.676 -0.0071115191 8.3865625e-39 327 246
0.0095100794 0.67799997 -0.0071325595 8.0116815e-39 328 246
0.010698839 0.67799997 -0.0071325595 8.1038772e-39 329 246
0.011905133 0.67900002 -0.0071430802 7.1862397e-39 330 246
0.013114933 0.68000001 -0.0071535995 7.3706309e-39 331 246
0.01434928 0.68199998 -0.00717464 7.4642531e-39 332 246
0.015545053 0.68199998 -0.00717464 7.74084e-39 333 246
0.016765373 0.68300003 -0.0071851597 8.0174199e-39 334 246
0.017962901 0.68300003 -0.0071851597 8.2943669e-39 335 246
0.01918848 0.68400002 -0.0071956799 9.3077929e-39 336 246
0.020477179 0.68699998 -0.0072272392 9.8609667e-39 337 246
0.021713281 0.68800002 -0.0072377604 9.860601e-39 338 246
0.022986198 0.69 -0.0072587994 9.6762083e-39 339 246
0.024195999 0.69 -0.0072587994 9.6722398e-39 340 246
0.025442619 0.69099998 -0.0072693196 9.9488281e-39 341 246
0.02673132 0.69300002 -0.0072903596 1.4164983e-38 342 246
0.027946379 0.69300002 -0.0072903596 1.3796202e-38 343 246
-0.039106347 0.69700003 -0.0085545136 1.502212e-38 288 247
-0.037721213 0.69400001 -0.0085176928 1.3086012e-38 289 247
-0.036451802 0.69300002 -0.0085054198 1.22577e-38 290 247
-0.035236739 0.69300002 -0.0085054198 1.0690733e-38 291 247
-0.033923492 0.69099998 -0.008480873 7.0972642e-39 292 247
-0.032569919 0.68800002 -0.0084440531 5.8987224e-39 293 247
-0.031318039 0.68699998 -0.0084317802 6.8228466e-39 294 247
-0.030069664 0.68599999 -0.0084195063 6.3622271e-39 295 247
-0.028740639 0.68300003 -0.0083826864 6.2650064e-39 296 247
-0.027502786 0.68199998 -0.0083704125 5.7118327e-39 297 247
-0.026229866 0.68000001 -0.0083458666 3.9709113e-39 298 247
-0.025000781 0.67900002 -0.0083335936 4.9854234e-39 299 247
-0.023775198 0.67799997 -0.0083213197 6.0896031e-39 300 247
-0.022586439 0.67799997 -0.0083213197 5.5364293e-39 301 247
-0.021429239 0.67900002 -0.0083335936 5.4348884e-39 302 247
-0.020238725 0.67900002 -0.0083335936 4.328901e-39 303 247
-0.019020159 0.67799997 -0.0083213197 3.7771944e-39 304 247
-0.0178314 0.67799997 -0.0083213197 3.7771944e-39 305 247
-0.016593546 0.676 -0.0082967728 2.4904339e-39 306 247
-0.015408293 0.676 -0.0082967728 2.6748265e-39 307 247
-0.014223038 0.676 -0.0082967728 6.0828026e-39 308 247
-0.013037786 0.676 -0.0082967728 4.6998668e-39 309 247
-0.011852534 0.676 -0.0082967728 3.5967184e-39 310 247
-0.0106515 0.67500001 -0.0082844999 8.4834469e-39 311 247
-0.0094679995 0.67500001 -0.0082844999 1.1248223e-38 312 247
-0.0082844999 0.67500001 -0.0082844999 1.0879082e-38 313 247
-0.0071010003 0.67500001 -0.0082844999 1.0878714e-38 314 247
-0.0059262668 0.676 -0.0082967728 1.0786519e-38 315 247
-0.0047410131 0.676 -0.0082967728 1.0877996e-38 316 247
-0.0035557596 0.676 -0.0082967728 1.07858e-38 317 247
-0.0023705065 0.676 -0.0082967728 1.0969465e-38 318 247
-0.0011852533 0.676 -0.0082967728 1.0876911e-38 319 247
0 0.676 -0.0082967728 1.0969465e-38 320 247
0.0011852533 0.676 -0.0082967728 1.0876911e-38 321 247
0.0023705065 0.676 -0.0082967728 1.0876548e-38 322 247
0.0035557596 0.676 -0.0082967728 1.0784351e-38 323 247
0.0047410131 0.676 -0.0082967728 1.0874746e-38 324 247
0.0059262668 0.676 -0.0082967728 1.0321572e-38 325 247
0.0071115191 0.676 -0.0082967728 1.0043197e-38 326 247
0.0083213197 0.67799997 -0.0083213197 8.2911201e-39 327 247
0.0095100794 0.67799997 -0.0083213197 6.7256147e-39 328 247
0.010698839 0.67799997 -0.0083213197 7.1865928e-39 329 247
0.011905133 0.67900002 -0.0083335936 6.7277797e-39 330 247
0.013114933 0.68000001 -0.0083458666 6.8199753e-39 331 247
0.01434928 0.68199998 -0.0083704125 7.190906e-39 332 247
0.015545053 0.68199998 -0.0083704125 7.375656e-39 333 247
0.016765373 0.68300003 -0.0083826864 8.0174199e-39 334 247
0.0179892 0.68400002 -0.0083949603 8.3865625e-39 335 247
0.019244585 0.68599999 -0.0084195063 8.7553408e-39 336 247
0.020477179 0.68699998 -0.0084317802 9.4007102e-39 337 247
0.021713281 0.68800002 -0.0084440531 9.7691242e-39 338 247
0.022986198 0.69 -0.0084686 9.4003417e-39 339 247
0.024195999 0.69 -0.0084686 9.6725902e-39 340 247
0.025442619 0.69099998 -0.008480873 1.0133568e-38 341 247
0.02673132 0.69300002 -0.0085054198 1.4072772e-38 342 247
0.027946379 0.69300002 -0.0085054198 1.370363e-38 343 247
-0.040328421 0.69700003 -0.0097765867 1.6587635e-38 287 248
-0.039106347 0.69700003 -0.0097765867 1.4746612e-38 288 248
-0.037829921 0.69599998 -0.0097625591 1.2534277e-38 289 248
-0.036504399 0.69400001 -0.0097345067 1.2536805e-38 290 248
-0.035287585 0.69400001 -0.0097345067 1.2076186e-38 291 248
-0.034021679 0.69300002 -0.0097204801 8.1117735e-39 292 248
-0.032711938 0.69099998 -0.0096924258 5.4381002e-39 293 248
-0.031318039 0.68699998 -0.0096363192 6.638807e-39 294 248
-0.030113498 0.68699998 -0.0096363192 6.1778303e-39 295 248
-0.02878272 0.68400002 -0.0095942402 5.8047472e-39 296 248
-0.027502786 0.68199998 -0.009566186 5.8047472e-39 297 248
-0.026307013 0.68199998 -0.009566186 4.6130437e-39 298 248
-0.025037598 0.68000001 -0.0095381327 5.0740219e-39 299 248
-0.023810266 0.67900002 -0.009524107 5.7143564e-39 300 248
-0.022619752 0.67900002 -0.009524107 5.6218006e-39 301 248
-0.021429239 0.67900002 -0.009524107 4.9771571e-39 302 248
-0.020238725 0.67900002 -0.009524107 4.1473978e-39 303 248
-0.019048214 0.67900002 -0.009524107 3.9630052e-39 304 248
-0.0178314 0.67799997 -0.0095100794 3.7786139e-39 305 248
-0.016642639 0.67799997 -0.0095100794 3.1357654e-39 306 248
-0.015408293 0.676 -0.0094820261 3.4123523e-39 307 248
-0.014223038 0.676 -0.0094820261 7.9259725e-39 308 248
-0.013037786 0.676 -0.0094820261 5.8054716e-39 309 248
-0.011852534 0.676 -0.0094820261 3.8707913e-39 310 248
-0.01066728 0.676 -0.0094820261 9.0337466e-39 311 248
-0.0094820261 0.676 -0.0094820261 1.1247867e-38 312 248
-0.0082967728 0.676 -0.0094820261 1.0694693e-38 313 248
-0.0071115191 0.676 -0.0094820261 1.0878358e-38 314 248
-0.0059262668 0.676 -0.0094820261 1.0878358e-38 315 248
-0.0047410131 0.676 -0.0094820261 1.087764e-38 316 248
-0.0035557596 0.676 -0.0094820261 1.0785444e-38 317 248
-0.0023705065 0.676 -0.0094820261 1.0969112e-38 318 248
-0.0011852533 0.676 -0.0094820261 1.0876917e-38 319 248
0 0.676 -0.0094820261 1.096839e-38 320 248
0.0011852533 0.676 -0.0094820261 1.0876195e-38 321 248
0.0023705065 0.676 -0.0094820261 1.0876192e-38 322 248
0.0035557596 0.676 -0.0094820261 1.0783996e-38 323 248
0.0047410131 0.676 -0.0094820261 1.0598888e-38 324 248
0.0059262668 0.676 -0.0094820261 1.0321942e-38 325 248
0.0071115191 0.676 -0.0094820261 9.768055e-39 326 248
0.0083213197 0.67799997 -0.0095100794 8.3847604e-39 327 248
0.0095100794 0.67799997 -0.0095100794 8.0149087e-39 328 248
0.010714619 0.67900002 -0.009524107 7.6461262e-39 329 248
0.011922667 0.68000001 -0.0095381327 6.911445e-39 330 248
0.013153506 0.68199998 -0.009566186 7.0036407e-39 331 248
0.01434928 0.68199998 -0.009566186 7.2809408e-39 332 248
0.015567848 0.68300003 -0.0095802136 7.8337545e-39 333 248
0.016789921 0.68400002 -0.0095942402 8.201451e-39 334 248
0.018041799 0.68599999 -0.0096222926 8.4776791e-39 335 248
0.019244585 0.68599999 -0.0096222926 8.8475379e-39 336 248
0.020477179 0.68699998 -0.0096363192 9.216319e-39 337 248
0.021713281 0.68800002 -0.0096503468 9.6765727e-39 338 248
0.022986198 0.69 -0.0096783992 9.4925401e-39 339 248
0.024195999 0.69 -0.0096783992 9.397448e-39 340 248
0.025442619 0.69099998 -0.0096924258 1.041196e-38 341 248
0.026654173 0.69099998 -0.0096924258 1.3983094e-38 342 248
0.027865725 0.69099998 -0.0096924258 1.2968943e-38 343 248
-0.041610107 0.69800001 -0.01101444 1.6587635e-38 286 249
-0.040328421 0.69700003 -0.01099866 1.6587635e-38 287 249
-0.039106347 0.69700003 -0.01099866 1.5022123e-38 288 249
-0.037884273 0.69700003 -0.01099866 1.2256614e-38 289 249
-0.036609598 0.69599998 -0.010982879 1.1156387e-38 290 249
-0.035287585 0.69400001 -0.01095132 1.1156387e-38 291 249
-0.034021679 0.69300002 -0.010935539 8.3901554e-39 292 249
-0.032711938 0.69099998 -0.01090398 6.9146652e-39 293 249
-0.031318039 0.68699998 -0.010840859 8.1124924e-39 294 249
-0.030113498 0.68699998 -0.010840859 7.0061448e-39 295 249
-0.02886688 0.68599999 -0.010825079 7.0915203e-39 296 249
-0.027543113 0.68300003 -0.01077774 8.2900635e-39 297 249
-0.026345588 0.68300003 -0.01077774 6.7295831e-39 298 249
-0.025111238 0.68199998 -0.010761959 5.0697031e-39 299 249
-0.023845334 0.68000001 -0.0107304 5.1586645e-39 300 249
-0.022653066 0.68000001 -0.0107304 5.7118383e-39 301 249
-0.0214608 0.68000001 -0.0107304 4.7005702e-39 302 249
-0.020268533 0.68000001 -0.0107304 4.0552008e-39 303 249
-0.019048214 0.67900002 -0.010714619 3.7778951e-39 304 249
-0.0178314 0.67799997 -0.010698839 3.6856994e-39 305 249
-0.016642639 0.67799997 -0.010698839 2.4914722e-39 306 249
-0.015453878 0.67799997 -0.010698839 2.8602534e-39 307 249
-0.014265119 0.67799997 -0.010698839 7.6511807e-39 308 249
-0.013076359 0.67799997 -0.010698839 5.4388443e-39 309 249
-0.011887599 0.67799997 -0.010698839 3.6863987e-39 310 249
-0.010698839 0.67799997 -0.010698839 8.941551e-39 311 249
-0.0095100794 0.67799997 -0.010698839 1.1431179e-38 312 249
-0.0083213197 0.67799997 -0.010698839 1.0970561e-38 313 249
-0.0071325595 0.67799997 -0.010698839 1.1062029e-38 314 249
-0.0059437994 0.67799997 -0.010698839 1.1062029e-38 315 249
-0.0047550397 0.67799997 -0.010698839 1.0878358e-38 316 249
-0.0035662798 0.67799997 -0.010698839 1.0693967e-38 317 249
-0.0023775198 0.67799997 -0.010698839 1.0876917e-38 318 249
-0.0011852533 0.676 -0.01066728 1.0876917e-38 319 249
0 0.676 -0.01066728 1.0876195e-38 320 249
0.0011887599 0.67799997 -0.010698839 1.0783999e-38 321 249
0.0023705065 0.676 -0.01066728 1.0967311e-38 322 249
0.0035557596 0.676 -0.01066728 1.0783279e-38 323 249
0.0047550397 0.67799997 -0.010698839 1.07822e-38 324 249
0.0059437994 0.67799997 -0.010698839 1.0321222e-38 325 249
0.0071325595 0.67799997 -0.010698839 9.9510114e-39 326 249
0.0083213197 0.67799997 -0.010698839 8.7528269e-39 327 249
0.009524107 0.67900002 -0.010714619 8.2904194e-39 328 249
0.0107304 0.68000001 -0.0107304 7.8294413e-39 329 249
0.011957732 0.68199998 -0.010761959 7.2787884e-39 330 249
0.013153506 0.68199998 -0.010761959 7.3709841e-39 331 249
0.01434928 0.68199998 -0.010761959 7.1880347e-39 332 249
0.015567848 0.68300003 -0.01077774 7.1880347e-39 333 249
0.016789921 0.68400002 -0.01079352 7.8337601e-39 334 249
0.018041799 0.68599999 -0.010825079 8.0181527e-39 335 249
0.019272638 0.68699998 -0.010840859 8.5705964e-39 336 249
0.020477179 0.68699998 -0.010840859 8.9397391e-39 337 249
0.021713281 0.68800002 -0.010856641 9.4911052e-39 338 249
0.022986198 0.69 -0.010888199 9.6758552e-39 339 249
0.024195999 0.69 -0.010888199 9.9513449e-39 340 249
0.025442619 0.69099998 -0.01090398 1.1887453e-38 341 249
0.026654173 0.69099998 -0.01090398 1.4641428e-38 342 249
-0.041610107 0.69800001 -0.012238266 1.6496158e-38 286 250
-0.040386278 0.69800001 -0.012238266 1.6588354e-38 287 250
-0.039162453 0.69800001 -0.012238266 1.5299067e-38 288 250
-0.037884273 0.69700003 -0.012220734 1.2164416e-38 289 250
-0.036609598 0.69599998 -0.0122032 1.004968e-38 290 250
-0.035389278 0.69599998 -0.0122032 9.8649296e-39 291 250
-0.034070771 0.69400001 -0.012168133 9.0344501e-39 292 250
-0.03280662 0.69300002 -0.012150601 9.4032312e-39 293 250
-0.031500384 0.69099998 -0.012115533 9.5883455e-39 294 250
-0.030113498 0.68699998 -0.012045399 7.9288242e-39 295 250
-0.02886688 0.68599999 -0.012027865 7.7408456e-39 296 250
-0.027583439 0.68400002 -0.0119928 9.8609849e-39 297 250
-0.026345588 0.68300003 -0.011975267 9.6776699e-39 298 250
-0.025111238 0.68199998 -0.011957732 7.2805849e-39 299 250
-0.023915464 0.68199998 -0.011957732 5.6217852e-39 300 250
-0.022719691 0.68199998 -0.011957732 5.437394e-39 301 250
-0.021523919 0.68199998 -0.011957732 4.4232617e-39 302 250
-0.020268533 0.68000001 -0.011922667 3.6856966e-39 303 250
-0.019076265 0.68000001 -0.011922667 3.4076804e-39 304 250
-0.017857701 0.67900002 -0.011905133 3.4076804e-39 305 250
-0.016642639 0.67799997 -0.011887599 1.7535569e-39 306 250
-0.015453878 0.67799997 -0.011887599 2.1219793e-39 307 250
-0.014265119 0.67799997 -0.011887599 7.1905585e-39 308 250
-0.013076359 0.67799997 -0.011887599 5.4388415e-39 309 250
-0.011887599 0.67799997 -0.011887599 4.0544567e-39 310 250
-0.010698839 0.67799997 -0.011887599 8.6642382e-39 311 250
-0.0095100794 0.67799997 -0.011887599 1.1154955e-38 312 250
-0.0083213197 0.67799997 -0.011887599 1.0878008e-38 313 250
-0.0071325595 0.67799997 -0.011887599 1.0786163e-38 314 250
-0.0059437994 0.67799997 -0.011887599 1.0786163e-38 315 250
-0.0047550397 0.67799997 -0.011887599 1.0786163e-38 316 250
-0.0035662798 0.67799997 -0.011887599 1.0693967e-38 317 250
-0.0023775198 0.67799997 -0.011887599 1.0969112e-38 318 250
-0.0011887599 0.67799997 -0.011887599 1.0876917e-38 319 250
0 0.67799997 -0.011887599 1.0784718e-38 320 250
0.0011887599 0.67799997 -0.011887599 1.0784718e-38 321 250
0.0023775198 0.67799997 -0.011887599 1.0783999e-38 322 250
0.0035662798 0.67799997 -0.011887599 1.0691802e-38 323 250
0.0047550397 0.67799997 -0.011887599 1.0781844e-38 324 250
0.0059437994 0.67799997 -0.011887599 1.0321225e-38 325 250
0.0071325595 0.67799997 -0.011887599 9.9502911e-39 326 250
0.0083335936 0.67900002 -0.011905133 8.9361392e-39 327 250
0.0095381327 0.68000001 -0.011922667 8.1067484e-39 328 250
0.0107304 0.68000001 -0.011922667 7.646129e-39 329 250
0.011957732 0.68199998 -0.011957732 7.1883879e-39 330 250
0.013172794 0.68300003 -0.011975267 7.1883879e-39 331 250
0.014370319 0.68300003 -0.011975267 7.4638972e-39 332 250
0.01559064 0.68400002 -0.0119928 7.3717001e-39 333 250
0.016839013 0.68599999 -0.012027865 7.6482912e-39 334 250
0.018068098 0.68699998 -0.012045399 8.1092694e-39 335 250
0.019272638 0.68699998 -0.012045399 8.3865653e-39 336 250
0.020477179 0.68699998 -0.012045399 8.9397391e-39 337 250
0.021713281 0.68800002 -0.012062933 9.3999886e-39 338 250
0.022986198 0.69 -0.012097999 9.6765755e-39 339 250
0.024231065 0.69099998 -0.012115533 1.0227581e-38 340 250
0.025626717 0.69599998 -0.0122032 1.3362593e-38 341 250
0.026847038 0.69599998 -0.0122032 1.5847905e-38 342 250
-0.041610107 0.69800001 -0.013462093 1.6312127e-38 286 251
-0.040386278 0.69800001 -0.013462093 1.6496158e-38 287 251
-0.039162453 0.69800001 -0.013462093 1.5575654e-38 288 251
-0.037938625 0.69800001 -0.013462093 1.3086012e-38 289 251
-0.036662199 0.69700003 -0.013442807 1.0325192e-38 290 251
-0.035440128 0.69700003 -0.013442807 9.5876252e-39 291 251
-0.034168959 0.69599998 -0.013423519 9.3124775e-39 292 251
-0.032853961 0.69400001 -0.013384946 9.4972289e-39 293 251
-0.031500384 0.69099998 -0.013327086 1.06007e-38 294 251
-0.030157333 0.68800002 -0.013269227 9.3099608e-39 295 251
-0.02886688 0.68599999 -0.013230653 7.7433609e-39 296 251
-0.027583439 0.68400002 -0.01319208 9.9556959e-39 297 251
-0.02638416 0.68400002 -0.01319208 1.0970211e-38 298 251
-0.02514806 0.68300003 -0.013172794 1.0601068e-38 299 251
-0.023915464 0.68199998 -0.013153506 9.6794691e-39 300 251
-0.022719691 0.68199998 -0.013153506 8.9419027e-39 301 251
-0.021523919 0.68199998 -0.013153506 8.3865779e-39 302 251
-0.020268533 0.68000001 -0.013114933 7.8334042e-39 303 251
-0.019076265 0.68000001 -0.013114933 7.0947671e-39 304 251
-0.017857701 0.67900002 -0.013095647 6.7259832e-39 305 251
-0.016642639 0.67799997 -0.013076359 5.1615456e-39 306 251
-0.015453878 0.67799997 -0.013076359 5.3462956e-39 307 251
-0.014265119 0.67799997 -0.013076359 7.2849037e-39 308 251
-0.013076359 0.67799997 -0.013076359 5.5328266e-39 309 251
-0.011887599 0.67799997 -0.013076359 4.0573266e-39 310 251
-0.010698839 0.67799997 -0.013076359 7.4685663e-39 311 251
-0.0095100794 0.67799997 -0.013076359 9.8663785e-39 312 251
-0.0083213197 0.67799997 -0.013076359 1.0142964e-38 313 251
-0.0071325595 0.67799997 -0.013076359 1.0511018e-38 314 251
-0.0059437994 0.67799997 -0.013076359 1.0511018e-38 315 251
-0.0047550397 0.67799997 -0.013076359 1.07858e-38 316 251
-0.0035662798 0.67799997 -0.013076359 1.0693246e-38 317 251
-0.0023775198 0.67799997 -0.013076359 1.1060586e-38 318 251
-0.0011887599 0.67799997 -0.013076359 1.096839e-38 319 251
0 0.67799997 -0.013076359 1.096839e-38 320 251
0.0011887599 0.67799997 -0.013076359 1.0876195e-38 321 251
0.0023775198 0.67799997 -0.013076359 1.0600687e-38 322 251
0.0035662798 0.67799997 -0.013076359 1.050849e-38 323 251
0.0047550397 0.67799997 -0.013076359 1.07822e-38 324 251
0.0059525664 0.67900002 -0.013095647 1.0413419e-38 325 251
0.0071430802 0.67900002 -0.013095647 9.6747832e-39 326 251
0.0083335936 0.67900002 -0.013095647 8.7528269e-39 327 251
0.0095381327 0.68000001 -0.013114933 7.3709841e-39 328 251
0.010761959 0.68199998 -0.013153506 7.3709841e-39 329 251
0.011957732 0.68199998 -0.013153506 7.2805849e-39 330 251
0.013172794 0.68300003 -0.013172794 7.649366e-39 331 251
0.014370319 0.68300003 -0.013172794 7.6490003e-39 332 251
0.01559064 0.68400002 -0.01319208 7.5564459e-39 333 251
0.016839013 0.68599999 -0.013230653 7.4660538e-39 334 251
0.018068098 0.68699998 -0.013249939 7.5582494e-39 335 251
0.019272638 0.68699998 -0.013249939 8.479477e-39 336 251
0.020506985 0.68800002 -0.013269227 9.0326508e-39 337 251
0.021776399 0.69 -0.0133078 9.6769258e-39 338 251
0.02308614 0.69300002 -0.01336566 9.7691214e-39 339 251
0.024336265 0.69400001 -0.013384946 1.0044985e-38 340 251
0.025626717 0.69599998 -0.013423519 1.3364028e-38 341 251
0.026847038 0.69599998 -0.013423519 1.5849351e-38 342 251
0.028107686 0.69700003 -0.013442807 1.6955697e-38 343 251
-0.040386278 0.69800001 -0.01468592 1.6679108e-38 287 252
-0.039162453 0.69800001 -0.01468592 1.5667126e-38 288 252
-0.037938625 0.69800001 -0.01468592 1.3731018e-38 289 252
-0.036662199 0.69700003 -0.01466488 1.0694696e-38 290 252
-0.035440128 0.69700003 -0.01466488 9.5879896e-39 291 252
-0.034168959 0.69599998 -0.014643839 9.2213651e-39 292 252
-0.032853961 0.69400001 -0.01460176 9.4053962e-39 293 252
-0.031500384 0.69099998 -0.014538639 1.069397e-38 294 252
-0.030244999 0.69 -0.014517599 9.5876224e-39 295 252
-0.028908957 0.68699998 -0.014454478 7.1919808e-39 296 252
-0.027664091 0.68599999 -0.01443344 8.7593079e-39 297 252
-0.02638416 0.68400002 -0.01439136 1.0141892e-38 298 252
-0.02514806 0.68300003 -0.014370319 1.0602869e-38 299 252
-0.023915464 0.68199998 -0.01434928 1.1064923e-38 300 252
-0.022719691 0.68199998 -0.01434928 1.0787978e-38 301 252
-0.021523919 0.68199998 -0.01434928 1.1338986e-38 302 252
-0.020328145 0.68199998 -0.01434928 1.0878008e-38 303 252
-0.019132372 0.68199998 -0.01434928 1.0691099e-38 304 252
-0.017883999 0.68000001 -0.014307199 9.8609793e-39 305 252
