# .PCD v.7 - Point Cloud Data file format
FIELDS x y z rgb imX imY
SIZE 4 4 4 4 4 4
TYPE F F F F F F
COUNT 1 1 1 1 1 1
WIDTH 836
HEIGHT 1
VIEWPOINT 0 0 0 1 0 0 0
POINTS 836
DATA ascii
-0.026885614 0.69700003 0.0085545136 1.0880864e-38 298 233
-0.025663542 0.69700003 0.0085545136 9.9589063e-39 299 233
-0.024441468 0.69700003 0.0085545136 1.0051469e-38 300 233
-0.023219392 0.69700003 0.0085545136 9.5904909e-39 301 233
-0.02199732 0.69700003 0.0085545136 9.6833956e-39 302 233
-0.020775247 0.69700003 0.0085545136 9.5908412e-39 303 233
-0.019553173 0.69700003 0.0085545136 9.7737779e-39 304 233
-0.018331099 0.69700003 0.0085545136 9.4968309e-39 305 233
-0.017109027 0.69700003 0.0085545136 9.3120865e-39 306 233
-0.015886955 0.69700003 0.0085545136 9.6812278e-39 307 233
-0.01466488 0.69700003 0.0085545136 9.6808718e-39 308 233
-0.013442807 0.69700003 0.0085545136 9.5886762e-39 309 233
-0.0122032 0.69599998 0.0085422397 9.5890321e-39 310 233
-0.010982879 0.69599998 0.0085422397 9.6812278e-39 311 233
-0.0097625591 0.69599998 0.0085422397 9.9574559e-39 312 233
-0.0085422397 0.69599998 0.0085422397 1.0049652e-38 313 233
-0.0073219193 0.69599998 0.0085422397 1.004858e-38 314 233
-0.0061015999 0.69599998 0.0085422397 1.0417361e-38 315 233
-0.0048812795 0.69599998 0.0085422397 1.0323371e-38 316 233
-0.00366622 0.69700003 0.0085545136 9.5858064e-39 317 233
-0.0024441467 0.69700003 0.0085545136 8.7574904e-39 318 233
-0.0012238267 0.69800001 0.0085667865 8.2043166e-39 319 233
0 0.69800001 0.0085667865 8.4816322e-39 320 233
0.0012273333 0.69999999 0.0085913334 9.4032284e-39 321 233
0.0024581731 0.70099998 0.0086036054 1.0966947e-38 322 233
0.0036977797 0.70300001 0.0086281532 1.0966947e-38 323 233
0.0049303733 0.70300001 0.0086281532 1.105627e-38 324 233
0.0061717331 0.704 0.0086404262 9.9495624e-39 325 233
0.0074060797 0.704 0.0086404262 7.7440798e-39 326 233
0.0086404262 0.704 0.0086404262 8.6663948e-39 327 233
0.0099028256 0.70599997 0.0086649731 8.8500574e-39 328 233
0.011140679 0.70599997 0.0086649731 8.4812763e-39 329 233
0.012396066 0.70700002 0.008677247 9.4939765e-39 330 233
0.013693533 0.70999998 0.0087140659 1.0324096e-38 331 233
0.015001519 0.713 0.0087508867 1.0596367e-38 332 233
0.016274439 0.71399999 0.0087631596 1.161016e-38 333 233
0.017575413 0.71600002 0.0087877065 1.4472546e-38 334 233
-0.047704693 0.71600002 0.00753232 1.4107023e-38 282 234
-0.046319555 0.71399999 0.0075112795 1.2170915e-38 283 234
-0.045067675 0.71399999 0.0075112795 1.0973093e-38 284 234
-0.043754432 0.713 0.0075007593 1.0789062e-38 285 234
-0.042325463 0.70999998 0.0074691991 1.097415e-38 286 234
-0.040964879 0.708 0.0074481601 1.1158542e-38 287 234
-0.039667413 0.70700002 0.0074376399 1.0051412e-38 288 234
-0.038373452 0.70599997 0.0074271196 8.945064e-39 289 234
-0.037030395 0.704 0.0074060797 9.2288634e-39 290 234
-0.035745207 0.70300001 0.0073955595 9.6894814e-39 291 234
-0.034512613 0.70300001 0.0073955595 4.1527858e-39 292 234
-0.03318534 0.70099998 0.0073745195 2.124482e-39 293 234
-0.031956252 0.70099998 0.0073745195 1.6944501e-41 294 234
-0.030683333 0.69999999 0.0073639993 4.1668282e-39 295 234
-0.029371841 0.69800001 0.0073429602 1.0974539e-38 296 234
-0.028148014 0.69800001 0.0073429602 1.1159289e-38 297 234
-0.026885614 0.69700003 0.00733244 1.097093e-38 298 234
-0.025663542 0.69700003 0.00733244 8.0206695e-39 299 234
-0.024441468 0.69700003 0.00733244 7.1001579e-39 300 234
-0.023219392 0.69700003 0.00733244 7.7455273e-39 301 234
-0.02202888 0.69800001 0.0073429602 9.2213623e-39 302 234
-0.020805053 0.69800001 0.0073429602 1.1341502e-38 303 234
-0.019553173 0.69700003 0.00733244 1.207509e-38 304 234
-0.018331099 0.69700003 0.00733244 1.0599601e-38 305 234
-0.017109027 0.69700003 0.00733244 9.7691214e-39 306 234
-0.015886955 0.69700003 0.00733244 1.0414491e-38 307 234
-0.01466488 0.69700003 0.00733244 1.1799229e-38 308 234
-0.013442807 0.69700003 0.00733244 1.1799229e-38 309 234
-0.0122032 0.69599998 0.0073219193 1.1706311e-38 310 234
-0.010982879 0.69599998 0.0073219193 1.1706311e-38 311 234
-0.0097625591 0.69599998 0.0073219193 1.1706665e-38 312 234
-0.0085545136 0.69700003 0.00733244 1.1706665e-38 313 234
-0.00733244 0.69700003 0.00733244 1.1705232e-38 314 234
-0.0061103669 0.69700003 0.00733244 1.1981819e-38 315 234
-0.0048882933 0.69700003 0.00733244 1.0137924e-38 316 234
-0.00366622 0.69700003 0.00733244 6.1735115e-39 317 234
-0.0024476533 0.69800001 0.0073429602 2.4921729e-39 318 234
-0.0012238267 0.69800001 0.0073429602 1.7546078e-39 319 234
0 0.69999999 0.0073639993 1.0220805e-39 320 234
0.0012273333 0.69999999 0.0073639993 4.8021013e-39 321 234
0.0024581731 0.70099998 0.0073745195 1.0137924e-38 322 234
0.0036977797 0.70300001 0.0073955595 1.0414869e-38 323 234
0.0049373866 0.704 0.0074060797 1.0503818e-38 324 234
0.0061717331 0.704 0.0074060797 9.8584486e-39 325 234
0.0074060797 0.704 0.0074060797 8.3854863e-39 326 234
0.0086649731 0.70599997 0.0074271196 7.9245082e-39 327 234
0.0099028256 0.70599997 0.0074271196 5.8958484e-39 328 234
0.011156459 0.70700002 0.0074376399 5.9884027e-39 329 234
0.0124136 0.708 0.0074481601 8.2976011e-39 330 234
0.013693533 0.70999998 0.0074691991 9.9574812e-39 331 234
0.015022559 0.71399999 0.0075112795 1.0871876e-38 332 234
0.016274439 0.71399999 0.0075112795 1.1517245e-38 333 234
0.017575413 0.71600002 0.00753232 1.4655858e-38 334 234
-0.047704693 0.71600002 0.0062769335 1.3831515e-38 282 235
-0.046319555 0.71399999 0.0062593995 1.1710657e-38 283 235
-0.045067675 0.71399999 0.0062593995 1.0512119e-38 284 235
-0.043754432 0.713 0.0062506334 1.0696511e-38 285 235
-0.042325463 0.70999998 0.0062243328 1.0972003e-38 286 235
-0.040964879 0.708 0.0062067998 1.1617372e-38 287 235
-0.039667413 0.70700002 0.0061980332 1.0696075e-38 288 235
-0.038373452 0.70599997 0.0061892662 8.9447165e-39 289 235
-0.037030395 0.704 0.0061717331 9.9639075e-39 290 235
-0.035796054 0.704 0.0061717331 1.1254646e-38 291 235
-0.034512613 0.70300001 0.0061629666 7.3767644e-39 292 235
-0.033280019 0.70300001 0.0061629666 3.5967436e-39 293 235
-0.032047424 0.70300001 0.0061629666 4.9825703e-39 294 235
-0.030727165 0.70099998 0.0061454331 7.564048e-39 295 235
-0.029371841 0.69800001 0.006119133 1.1983655e-38 296 235
-0.028148014 0.69800001 0.006119133 1.2075851e-38 297 235
-0.026924185 0.69800001 0.006119133 1.050997e-38 298 235
-0.025700359 0.69800001 0.006119133 6.6377532e-39 299 235
-0.024476532 0.69800001 0.006119133 4.7956553e-39 300 235
-0.023252707 0.69800001 0.006119133 5.164798e-39 301 235
-0.02202888 0.69800001 0.006119133 7.1963206e-39 302 235
-0.020805053 0.69800001 0.006119133 1.0699394e-38 303 235
-0.019581227 0.69800001 0.006119133 1.1523733e-38 304 235
-0.0183574 0.69800001 0.006119133 9.956049e-39 305 235
-0.017133573 0.69800001 0.006119133 7.9291801e-39 306 235
-0.015886955 0.69700003 0.0061103669 9.5883427e-39 307 235
-0.01466488 0.69700003 0.0061103669 1.1616647e-38 308 235
-0.013442807 0.69700003 0.0061103669 1.1616647e-38 309 235
-0.0122032 0.69599998 0.0061015999 1.1798873e-38 310 235
-0.010982879 0.69599998 0.0061015999 1.1614482e-38 311 235
-0.0097765867 0.69700003 0.0061103669 1.1614116e-38 312 235
-0.0085545136 0.69700003 0.0061103669 1.1521561e-38 313 235
-0.00733244 0.69700003 0.0061103669 1.1336816e-38 314 235
-0.0061103669 0.69700003 0.0061103669 1.1336816e-38 315 235
-0.0048953067 0.69800001 0.006119133 8.5709734e-39 316 235
-0.0036714801 0.69800001 0.006119133 4.2374187e-39 317 235
-0.0024476533 0.69800001 0.006119133 3.5045508e-39 318 235
-0.0012238267 0.69800001 0.006119133 4.518344e-39 319 235
0 0.69999999 0.0061366665 2.7669857e-39 320 235
0.0012273333 0.69999999 0.0061366665 3.5967464e-39 321 235
0.0024581731 0.70099998 0.0061454331 8.663525e-39 322 235
0.0036977797 0.70300001 0.0061629666 8.3865779e-39 323 235
0.0049373866 0.704 0.0061717331 7.0969111e-39 324 235
0.0061717331 0.704 0.0061717331 6.8206843e-39 325 235
0.0074060797 0.704 0.0061717331 6.2682463e-39 326 235
0.0086649731 0.70599997 0.0061892662 5.8072681e-39 327 235
0.0099168532 0.70700002 0.0061980332 6.0813439e-39 328 235
0.01117224 0.708 0.0062067998 6.6345176e-39 329 235
0.012448666 0.70999998 0.0062243328 9.2156099e-39 330 235
0.01371282 0.71100003 0.0062330998 1.0783296e-38 331 235
0.015022559 0.71399999 0.0062593995 1.0688564e-38 332 235
0.016274439 0.71399999 0.0062593995 1.1241736e-38 333 235
0.017575413 0.71600002 0.0062769335 1.4381072e-38 334 235
-0.047704693 0.71600002 0.0050215465 1.4014111e-38 282 236
-0.046449307 0.71600002 0.0050215465 1.1801056e-38 283 236
-0.045067675 0.71399999 0.0050075199 1.0234453e-38 284 236
-0.043754432 0.713 0.0050005065 1.0787627e-38 285 236
-0.042385083 0.71100003 0.0049864799 1.0972372e-38 286 236
-0.041080594 0.70999998 0.0049794666 1.1709937e-38 287 236
-0.039723519 0.708 0.0049654399 1.1525138e-38 288 236
-0.038427804 0.70700002 0.0049584266 1.0326594e-38 289 236
-0.037135597 0.70599997 0.0049514128 1.1159593e-38 290 236
-0.035796054 0.704 0.0049373866 1.2450332e-38 291 236
-0.034561705 0.704 0.0049373866 8.9437174e-39 292 236
-0.03332736 0.704 0.0049373866 4.6105242e-39 293 236
-0.032047424 0.70300001 0.0049303733 8.1128875e-39 294 236
-0.030727165 0.70099998 0.0049163462 9.9564414e-39 295 236
-0.029455997 0.69999999 0.0049093333 1.0875507e-38 296 236
-0.028148014 0.69800001 0.0048953067 1.1059898e-38 297 236
-0.026924185 0.69800001 0.0048953067 9.2221246e-39 298 236
-0.025700359 0.69800001 0.0048953067 5.5339406e-39 299 236
-0.024476532 0.69800001 0.0048953067 5.254858e-39 300 236
-0.023252707 0.69800001 0.0048953067 4.2407075e-39 301 236
-0.02202888 0.69800001 0.0048953067 6.0903472e-39 302 236
-0.020805053 0.69800001 0.0048953067 1.0515379e-38 303 236
-0.019581227 0.69800001 0.0048953067 1.1523745e-38 304 236
-0.0183574 0.69800001 0.0048953067 9.9567777e-39 305 236
-0.017133573 0.69800001 0.0048953067 7.2863386e-39 306 236
-0.015909746 0.69800001 0.0048953067 8.9462201e-39 307 236
-0.01468592 0.69800001 0.0048953067 1.1340062e-38 308 236
-0.013442807 0.69700003 0.0048882933 1.1247867e-38 309 236
-0.012220734 0.69700003 0.0048882933 1.115458e-38 310 236
-0.01099866 0.69700003 0.0048882933 1.115458e-38 311 236
-0.0097765867 0.69700003 0.0048882933 1.1704877e-38 312 236
-0.0085667865 0.69800001 0.0048953067 1.1151703e-38 313 236
-0.0073429602 0.69800001 0.0048953067 1.0045714e-38 314 236
-0.006119133 0.69800001 0.0048953067 9.3081489e-39 315 236
-0.0048953067 0.69800001 0.0048953067 6.5430213e-39 316 236
-0.0036714801 0.69800001 0.0048953067 3.7767936e-39 317 236
-0.0024546667 0.69999999 0.0049093333 4.058428e-39 318 236
-0.0012273333 0.69999999 0.0049093333 5.3491668e-39 319 236
0 0.69999999 0.0049093333 4.6087249e-39 320 236
0.0012290865 0.70099998 0.0049163462 4.0559099e-39 321 236
0.0024651866 0.70300001 0.0049303733 6.819625e-39 322 236
0.0037030398 0.704 0.0049373866 5.5288861e-39 323 236
0.0049373866 0.704 0.0049373866 4.3314318e-39 324 236
0.0061717331 0.704 0.0049373866 4.700573e-39 325 236
0.0074271196 0.70599997 0.0049514128 3.8754969e-39 326 236
0.0086649731 0.70599997 0.0049514128 4.6130633e-39 327 236
0.0099168532 0.70700002 0.0049584266 6.0838606e-39 328 236
0.01117224 0.708 0.0049654399 6.72923e-39 329 236
0.012448666 0.70999998 0.0049794666 9.4003571e-39 330 236
0.01371282 0.71100003 0.0049864799 1.0783293e-38 331 236
0.015022559 0.71399999 0.0050075199 1.0688564e-38 332 236
0.016274439 0.71399999 0.0050075199 1.1333933e-38 333 236
0.017575413 0.71600002 0.0050215465 1.4013013e-38 334 236
-0.047704693 0.71600002 0.00376616 1.4014471e-38 282 237
-0.046449307 0.71600002 0.00376616 1.1433353e-38 283 237
-0.045067675 0.71399999 0.0037556398 9.8667499e-39 284 237
-0.043754432 0.713 0.0037503797 1.0604315e-38 285 237
-0.042385083 0.71100003 0.0037398601 1.1064923e-38 286 237
-0.041080594 0.70999998 0.0037345996 1.1710293e-38 287 237
-0.039723519 0.708 0.00372408 1.2169806e-38 288 237
-0.038427804 0.70700002 0.0037188199 1.170883e-38 289 237
-0.037135597 0.70599997 0.0037135598 1.2079051e-38 290 237
-0.035897743 0.70599997 0.0037135598 1.2724421e-38 291 237
-0.034561705 0.704 0.0037030398 9.035913e-39 292 237
-0.03332736 0.704 0.0037030398 3.7807621e-39 293 237
-0.032047424 0.70300001 0.0036977797 6.1774982e-39 294 237
-0.030727165 0.70099998 0.0036872597 7.1916515e-39 295 237
-0.029455997 0.69999999 0.0036819996 6.3597258e-39 296 237
-0.028148014 0.69800001 0.0036714801 6.5441171e-39 297 237
-0.026924185 0.69800001 0.0036714801 6.361186e-39 298 237
-0.025700359 0.69800001 0.0036714801 4.4250777e-39 299 237
-0.024476532 0.69800001 0.0036714801 5.5271289e-39 300 237
-0.023252707 0.69800001 0.0036714801 5.1583464e-39 301 237
-0.022091998 0.69999999 0.0036819996 6.8221641e-39 302 237
-0.020864666 0.69999999 0.0036819996 1.0049011e-38 303 237
-0.019581227 0.69800001 0.0036714801 9.8624339e-39 304 237
-0.0183574 0.69800001 0.0036714801 8.7560863e-39 305 237
-0.017133573 0.69800001 0.0036714801 7.8341272e-39 306 237
-0.015909746 0.69800001 0.0036714801 7.8341272e-39 307 237
-0.01468592 0.69800001 0.0036714801 8.2021839e-39 308 237
-0.013462093 0.69800001 0.0036714801 7.6490101e-39 309 237
-0.012238266 0.69800001 0.0036714801 6.5466086e-39 310 237
-0.01101444 0.69800001 0.0036714801 7.4685663e-39 311 237
-0.0097906133 0.69800001 0.0036714801 9.1205304e-39 312 237
-0.0085667865 0.69800001 0.0036714801 7.4613692e-39 313 237
-0.0073429602 0.69800001 0.0036714801 5.1651063e-39 314 237
-0.006119133 0.69800001 0.0036714801 5.1651063e-39 315 237
-0.0048953067 0.69800001 0.0036714801 5.0718513e-39 316 237
-0.0036819996 0.69999999 0.0036819996 3.8733081e-39 317 237
-0.0024546667 0.69999999 0.0036819996 4.1509922e-39 318 237
-0.0012273333 0.69999999 0.0036819996 4.3353848e-39 319 237
0 0.69999999 0.0036819996 5.1565107e-39 320 237
0.0012290865 0.70099998 0.0036872597 6.1706612e-39 321 237
0.0024686933 0.704 0.0037030398 7.1876872e-39 322 237
0.0037030398 0.704 0.0037030398 6.3575678e-39 323 237
0.0049373866 0.704 0.0037030398 5.3437886e-39 324 237
0.0061892662 0.70599997 0.0037135598 5.3437886e-39 325 237
0.0074271196 0.70599997 0.0037135598 4.6105452e-39 326 237
0.0086649731 0.70599997 0.0037135598 5.163719e-39 327 237
0.0099308798 0.708 0.00372408 5.9923838e-39 328 237
0.011203799 0.70999998 0.0037345996 6.3611678e-39 329 237
0.0124662 0.71100003 0.0037398601 8.8479064e-39 330 237
0.013751393 0.713 0.0037503797 1.0323036e-38 331 237
0.015022559 0.71399999 0.0037556398 1.0689285e-38 332 237
0.016274439 0.71399999 0.0037556398 1.1334655e-38 333 237
0.017575413 0.71600002 0.00376616 1.3644232e-38 334 237
-0.047704693 0.71600002 0.0025107733 1.4106301e-38 282 238
-0.046449307 0.71600002 0.0025107733 1.1617378e-38 283 238
-0.045067675 0.71399999 0.0025037599 9.9589427e-39 284 238
-0.043754432 0.713 0.0025002533 1.0604312e-38 285 238
-0.042504307 0.713 0.0025002533 1.1065287e-38 286 238
-0.041080594 0.70999998 0.0024897333 1.1434429e-38 287 238
-0.039723519 0.708 0.00248272 1.2446413e-38 288 238
-0.038482159 0.708 0.00248272 1.2261663e-38 289 238
-0.037188202 0.70700002 0.0024792133 1.2262742e-38 290 238
-0.035897743 0.70599997 0.0024757064 1.2631524e-38 291 238
-0.034561705 0.704 0.0024686933 9.2203057e-39 292 238
-0.03332736 0.704 0.0024686933 4.2417403e-39 293 238
-0.032047424 0.70300001 0.0024651866 5.6257705e-39 294 238
-0.030727165 0.70099998 0.0024581731 5.9945516e-39 295 238
-0.029455997 0.69999999 0.0024546667 5.1647924e-39 296 238
-0.028148014 0.69800001 0.0024476533 4.2428361e-39 297 238
-0.026924185 0.69800001 0.0024476533 4.0534212e-39 298 238
-0.025700359 0.69800001 0.0024476533 3.7771944e-39 299 238
-0.024476532 0.69800001 0.0024476533 4.604451e-39 300 238
-0.023252707 0.69800001 0.0024476533 4.6966466e-39 301 238
-0.022091998 0.69999999 0.0024546667 5.532154e-39 302 238
-0.020864666 0.69999999 0.0024546667 7.099121e-39 303 238
-0.019637333 0.69999999 0.0024546667 7.4668091e-39 304 238
-0.018409999 0.69999999 0.0024546667 7.0061896e-39 305 238
-0.017133573 0.69800001 0.0024476533 6.5419661e-39 306 238
-0.015909746 0.69800001 0.0024476533 5.3434229e-39 307 238
-0.01468592 0.69800001 0.0024476533 4.5136608e-39 308 238
-0.013462093 0.69800001 0.0024476533 4.4214652e-39 309 238
-0.012238266 0.69800001 0.0024476533 3.4101845e-39 310 238
-0.01101444 0.69800001 0.0024476533 4.147751e-39 311 238
-0.0097906133 0.69800001 0.0024476533 5.9869776e-39 312 238
-0.0085667865 0.69800001 0.0024476533 5.5256393e-39 313 238
-0.0073429602 0.69800001 0.0024476533 4.7916714e-39 314 238
-0.006119133 0.69800001 0.0024476533 4.7916714e-39 315 238
-0.0049093333 0.69999999 0.0024546667 4.9789522e-39 316 238
-0.0036819996 0.69999999 0.0024546667 4.5179754e-39 317 238
-0.0024546667 0.69999999 0.0024546667 4.4229085e-39 318 238
-0.0012273333 0.69999999 0.0024546667 3.8700935e-39 319 238
0 0.70099998 0.0024581731 5.3416236e-39 320 238
0.0012325933 0.70300001 0.0024651866 6.7245581e-39 321 238
0.0024686933 0.704 0.0024686933 6.5459079e-39 322 238
0.0037030398 0.704 0.0024686933 5.7161487e-39 323 238
0.0049514128 0.70599997 0.0024757064 5.3462956e-39 324 238
0.0061892662 0.70599997 0.0024757064 5.1615456e-39 325 238
0.0074271196 0.70599997 0.0024757064 4.7942106e-39 326 238
0.008677247 0.70700002 0.0024792133 5.43958e-39 327 238
0.0099589331 0.70999998 0.0024897333 5.71652e-39 328 238
0.01121958 0.71100003 0.0024932399 5.9009127e-39 329 238
0.012518799 0.71399999 0.0025037599 7.8352034e-39 330 238
0.01377068 0.71399999 0.0025037599 9.3103321e-39 331 238
0.015022559 0.71399999 0.0025037599 9.8613325e-39 332 238
0.016320027 0.71600002 0.0025107733 1.0691452e-38 333 238
0.017575413 0.71600002 0.0025107733 1.3459836e-38 334 238
0.018857099 0.71700001 0.0025142799 1.4382153e-38 335 238
-0.047704693 0.71600002 0.0012553866 1.3921913e-38 282 239
-0.046449307 0.71600002 0.0012553866 1.1801053e-38 283 239
-0.045067675 0.71399999 0.00125188 1.0050059e-38 284 239
-0.043754432 0.713 0.0012501266 1.0787983e-38 285 239
-0.042504307 0.713 0.0012501266 1.1432628e-38 286 239
-0.041080594 0.70999998 0.0012448666 1.1801409e-38 287 239
-0.039835732 0.70999998 0.0012448666 1.2079072e-38 288 239
-0.038482159 0.708 0.00124136 1.1802487e-38 289 239
-0.0372408 0.708 0.00124136 1.2079072e-38 290 239
-0.035948593 0.70700002 0.0012396066 1.2355659e-38 291 239
-0.034659892 0.70599997 0.0012378532 9.5887211e-39 292 239
-0.03332736 0.704 0.0012343467 4.8867439e-39 293 239
-0.032093015 0.704 0.0012343467 5.7240604e-39 294 239
-0.030727165 0.70099998 0.0012290865 5.5393104e-39 295 239
-0.029498078 0.70099998 0.0012290865 5.4417282e-39 296 239
-0.028228667 0.69999999 0.0012273333 4.2431864e-39 297 239
-0.027001332 0.69999999 0.0012273333 4.3285633e-39 298 239
-0.025773998 0.69999999 0.0012273333 4.3285633e-39 299 239
-0.024546666 0.69999999 0.0012273333 3.686791e-39 300 239
-0.023319334 0.69999999 0.0012273333 3.7789867e-39 301 239
-0.022091998 0.69999999 0.0012273333 1.7560904e-39 302 239
-0.020864666 0.69999999 0.0012273333 2.5858511e-39 303 239
-0.019637333 0.69999999 0.0012273333 6.2733063e-39 304 239
-0.018409999 0.69999999 0.0012273333 7.1030684e-39 305 239
-0.017182667 0.69999999 0.0012273333 4.5154629e-39 306 239
-0.015909746 0.69800001 0.0012238267 3.0399741e-39 307 239
-0.01468592 0.69800001 0.0012238267 4.969251e-39 308 239
-0.013462093 0.69800001 0.0012238267 6.8128048e-39 309 239
-0.012238266 0.69800001 0.0012238267 5.6225237e-39 310 239
-0.01101444 0.69800001 0.0012238267 4.9771543e-39 311 239
-0.0097906133 0.69800001 0.0012238267 5.8933485e-39 312 239
-0.0085667865 0.69800001 0.0012238267 6.0777411e-39 313 239
-0.0073429602 0.69800001 0.0012238267 5.4370408e-39 314 239
-0.006119133 0.69800001 0.0012238267 5.4370408e-39 315 239
-0.0049093333 0.69999999 0.0012273333 4.9811018e-39 316 239
-0.0036819996 0.69999999 0.0012273333 4.5204823e-39 317 239
-0.0024546667 0.69999999 0.0012273333 4.6991283e-39 318 239
-0.0012290865 0.70099998 0.0012290865 4.6065739e-39 319 239
0 0.70099998 0.0012290865 5.2533755e-39 320 239
0.0012325933 0.70300001 0.0012325933 5.8987449e-39 321 239
0.0024686933 0.704 0.0012343467 6.0824159e-39 322 239
0.0037135598 0.70599997 0.0012378532 5.9898615e-39 323 239
0.0049514128 0.70599997 0.0012378532 5.0711534e-39 324 239
0.0061980332 0.70700002 0.0012396066 4.6101767e-39 325 239
0.0074376399 0.70700002 0.0012396066 4.3314346e-39 326 239
0.008689519 0.708 0.00124136 5.2533909e-39 327 239
0.0099729598 0.71100003 0.00124662 6.5473541e-39 328 239
0.011251139 0.713 0.0012501266 7.3771147e-39 329 239
0.012518799 0.71399999 0.00125188 8.2986857e-39 330 239
0.013809253 0.71600002 0.0012553866 8.8518595e-39 331 239
0.01506464 0.71600002 0.0012553866 8.4780295e-39 332 239
0.016320027 0.71600002 0.0012553866 9.8609639e-39 333 239
0.017575413 0.71600002 0.0012553866 1.3275442e-38 334 239
0.018857099 0.71700001 0.00125714 1.4105561e-38 335 239
-0.047704693 0.71600002 -0 1.4014108e-38 282 240
-0.046449307 0.71600002 -0 1.1801053e-38 283 240
-0.045067675 0.71399999 -0 1.0141539e-38 284 240
-0.043815799 0.71399999 -0 1.0879104e-38 285 240
-0.042504307 0.713 -0 1.0789781e-38 286 240
-0.041138459 0.71100003 -0 1.1066369e-38 287 240
-0.039835732 0.70999998 -0 1.1434426e-38 288 240
-0.038482159 0.708 -0 1.1711013e-38 289 240
-0.0372408 0.708 -0 1.2077997e-38 290 240
-0.035948593 0.70700002 -0 1.2446779e-38 291 240
-0.034659892 0.70599997 -0 9.5887183e-39 292 240
-0.03332736 0.704 -0 5.2551635e-39 293 240
-0.032093015 0.704 -0 5.4417156e-39 294 240
-0.030814834 0.70300001 -0 5.5339112e-39 295 240
-0.029498078 0.70099998 -0 5.7140005e-39 296 240
-0.028228667 0.69999999 -0 4.7920428e-39 297 240
-0.027001332 0.69999999 -0 4.9714118e-39 298 240
-0.025773998 0.69999999 -0 4.6029894e-39 299 240
-0.024546666 0.69999999 -0 3.8701033e-39 300 240
-0.023319334 0.69999999 -0 3.685712e-39 301 240
-0.022123558 0.70099998 -0 1.8475644e-39 302 240
-0.020894472 0.70099998 -0 1.4787805e-39 303 240
-0.019637333 0.69999999 -0 4.9818515e-39 304 240
-0.018409999 0.69999999 -0 7.2863835e-39 305 240
-0.017182667 0.69999999 -0 4.3310814e-39 306 240
-0.015909746 0.69800001 -0 2.4871688e-39 307 240
-0.01468592 0.69800001 -0 4.0534057e-39 308 240
-0.013462093 0.69800001 -0 5.989514e-39 309 240
-0.012238266 0.69800001 -0 5.1669392e-39 310 240
-0.01101444 0.69800001 -0 4.060593e-39 311 240
-0.0097906133 0.69800001 -0 4.8835167e-39 312 240
-0.0085667865 0.69800001 -0 5.3444949e-39 313 240
-0.0073429602 0.69800001 -0 5.9884027e-39 314 240
-0.0061366665 0.69999999 -0 7.0943916e-39 315 240
-0.0049093333 0.69999999 -0 5.9963089e-39 316 240
-0.0036819996 0.69999999 -0 5.1669083e-39 317 240
-0.0024581731 0.70099998 -0 5.3469934e-39 318 240
-0.0012290865 0.70099998 -0 5.2547978e-39 319 240
0 0.70300001 -0 5.8033052e-39 320 240
0.0012343467 0.704 -0 5.9876965e-39 321 240
0.0024686933 0.704 -0 5.0704317e-39 322 240
0.0037135598 0.70599997 -0 5.2544629e-39 323 240
0.0049584266 0.70700002 -0 5.6210986e-39 324 240
0.0062067998 0.708 -0 5.4367059e-39 325 240
0.0074481601 0.708 -0 4.8856845e-39 326 240
0.0087140659 0.70999998 -0 6.7295971e-39 327 240
0.0099729598 0.71100003 -0 8.5709706e-39 328 240
0.011251139 0.713 -0 9.3088944e-39 329 240
0.012518799 0.71399999 -0 9.493273e-39 330 240
0.013809253 0.71600002 -0 9.1248492e-39 331 240
0.01506464 0.71600002 -0 8.017773e-39 332 240
0.016320027 0.71600002 -0 8.6631424e-39 333 240
0.017575413 0.71600002 -0 1.3275798e-38 334 240
-0.047704693 0.71600002 -0.0012553866 1.3921546e-38 282 241
-0.046449307 0.71600002 -0.0012553866 1.1892883e-38 283 241
-0.045067675 0.71399999 -0.00125188 1.04174e-38 284 241
-0.043815799 0.71399999 -0.00125188 1.1062769e-38 285 241
-0.042504307 0.713 -0.0012501266 1.1155684e-38 286 241
-0.041138459 0.71100003 -0.00124662 1.1340435e-38 287 241
-0.039835732 0.70999998 -0.0012448666 1.1525901e-38 288 241
-0.038590867 0.70999998 -0.0012448666 1.1710293e-38 289 241
-0.0372408 0.708 -0.00124136 1.2170549e-38 290 241
-0.03599944 0.708 -0.00124136 1.2538971e-38 291 241
-0.034708988 0.70700002 -0.0012396066 9.9578497e-39 292 241
-0.033422034 0.70599997 -0.0012378532 5.3480682e-39 293 241
-0.032093015 0.704 -0.0012343467 3.8743843e-39 294 241
-0.030814834 0.70300001 -0.0012325933 4.4275566e-39 295 241
-0.029498078 0.70099998 -0.0012290865 5.7143536e-39 296 241
-0.028268991 0.70099998 -0.0012290865 5.2533755e-39 297 241
-0.027039904 0.70099998 -0.0012290865 4.05304e-39 298 241
-0.025810819 0.70099998 -0.0012290865 4.2370711e-39 299 241
-0.024581732 0.70099998 -0.0012290865 3.7800587e-39 300 241
-0.023352645 0.70099998 -0.0012290865 3.5956674e-39 301 241
-0.02218668 0.70300001 -0.0012325933 3.1350592e-39 302 241
-0.020894472 0.70099998 -0.0012290865 3.2272548e-39 303 241
-0.019665385 0.70099998 -0.0012290865 5.1630001e-39 304 241
-0.018409999 0.69999999 -0.0012273333 5.8083695e-39 305 241
-0.017182667 0.69999999 -0.0012273333 4.5140252e-39 306 241
-0.015955333 0.69999999 -0.0012273333 3.4080363e-39 307 241
-0.01468592 0.69800001 -0.0012238267 4.0534029e-39 308 241
-0.013462093 0.69800001 -0.0012238267 6.2664568e-39 309 241
-0.012238266 0.69800001 -0.0012238267 5.8108708e-39 310 241
-0.01101444 0.69800001 -0.0012238267 4.7963588e-39 311 241
-0.0097906133 0.69800001 -0.0012238267 5.3437732e-39 312 241
-0.0085667865 0.69800001 -0.0012238267 5.5281631e-39 313 241
-0.0073639993 0.69999999 -0.0012273333 6.4515417e-39 314 241
-0.0061366665 0.69999999 -0.0012273333 7.3734994e-39 315 241
-0.0049093333 0.69999999 -0.0012273333 6.1828707e-39 316 241
-0.0036872597 0.70099998 -0.0012290865 5.444947e-39 317 241
-0.0024651866 0.70300001 -0.0012325933 5.7179395e-39 318 241
-0.0012325933 0.70300001 -0.0012325933 5.4417128e-39 319 241
0 0.70300001 -0.0012325933 5.1593806e-39 320 241
0.0012343467 0.704 -0.0012343467 4.3296199e-39 321 241
0.0024686933 0.704 -0.0012343467 4.3299982e-39 322 241
0.0037135598 0.70599997 -0.0012378532 4.8828133e-39 323 241
0.0049584266 0.70700002 -0.0012396066 6.0835089e-39 324 241
0.0062067998 0.708 -0.00124136 7.7430288e-39 325 241
0.0074481601 0.708 -0.00124136 9.2174148e-39 326 241
0.0087263398 0.71100003 -0.00124662 1.0139371e-38 327 241
0.010001013 0.713 -0.0012501266 1.078185e-38 328 241
0.011251139 0.713 -0.0012501266 1.078185e-38 329 241
0.012518799 0.71399999 -0.00125188 9.8609695e-39 330 241
0.013809253 0.71600002 -0.0012553866 8.4780351e-39 331 241
0.01506464 0.71600002 -0.0012553866 5.9912712e-39 332 241
0.016320027 0.71600002 -0.0012553866 7.9273794e-39 333 241
0.017575413 0.71600002 -0.0012553866 1.3460558e-38 334 241
-0.047704693 0.71600002 -0.0025107733 1.4104858e-38 282 242
-0.046449307 0.71600002 -0.0025107733 1.216875e-38 283 242
-0.045193922 0.71600002 -0.0025107733 1.0509598e-38 284 242
-0.043815799 0.71399999 -0.0025037599 1.1062772e-38 285 242
-0.042504307 0.713 -0.0025002533 1.0696511e-38 286 242
-0.041138459 0.71100003 -0.0024932399 1.0972737e-38 287 242
-0.039835732 0.70999998 -0.0024897333 1.1157486e-38 288 242
-0.038590867 0.70999998 -0.0024897333 1.1342236e-38 289 242
-0.0372408 0.708 -0.00248272 1.1710293e-38 290 242
-0.03599944 0.708 -0.00248272 1.2078716e-38 291 242
-0.034708988 0.70700002 -0.0024792133 1.106276e-38 292 242
-0.033469379 0.70700002 -0.0024792133 7.6511625e-39 293 242
-0.032184184 0.70599997 -0.0024757064 6.1753121e-39 294 242
-0.030858666 0.704 -0.0024686933 5.6221384e-39 295 242
-0.029582238 0.70300001 -0.0024651866 6.7263363e-39 296 242
-0.028349647 0.70300001 -0.0024651866 5.8043814e-39 297 242
-0.027117053 0.70300001 -0.0024651866 4.0533903e-39 298 242
-0.025884461 0.70300001 -0.0024651866 4.0533903e-39 299 242
-0.024651866 0.70300001 -0.0024651866 4.7888058e-39 300 242
-0.023419274 0.70300001 -0.0024651866 4.6040558e-39 301 242
-0.02218668 0.70300001 -0.0024651866 3.5070717e-39 302 242
-0.020954086 0.70300001 -0.0024651866 4.1524411e-39 303 242
-0.019721493 0.70300001 -0.0024651866 4.7935015e-39 304 242
-0.018436298 0.70099998 -0.0024581731 4.1481321e-39 305 242
-0.017207211 0.70099998 -0.0024581731 4.2377998e-39 306 242
-0.015955333 0.69999999 -0.0024546667 3.5002348e-39 307 242
-0.01468592 0.69800001 -0.0024476533 4.2363495e-39 308 242
-0.013462093 0.69800001 -0.0024476533 6.6334344e-39 309 242
-0.012238266 0.69800001 -0.0024476533 5.9952523e-39 310 242
-0.01101444 0.69800001 -0.0024476533 5.0736561e-39 311 242
-0.0097906133 0.69800001 -0.0024476533 6.080611e-39 312 242
-0.0085667865 0.69800001 -0.0024476533 5.7121886e-39 313 242
-0.0073639993 0.69999999 -0.0024546667 5.9905678e-39 314 242
-0.0061366665 0.69999999 -0.0024546667 6.912524e-39 315 242
-0.0049093333 0.69999999 -0.0024546667 6.9132457e-39 316 242
-0.0036872597 0.70099998 -0.0024581731 6.452269e-39 317 242
-0.0024651866 0.70300001 -0.0024651866 7.2795045e-39 318 242
-0.0012343467 0.704 -0.0024686933 8.1092666e-39 319 242
0 0.704 -0.0024686933 7.2780696e-39 320 242
0.0012343467 0.704 -0.0024686933 7.0011225e-39 321 242
0.0024686933 0.704 -0.0024686933 6.9132597e-39 322 242
0.0037188199 0.70700002 -0.0024792133 7.3745966e-39 323 242
0.0049654399 0.708 -0.00248272 8.8475561e-39 324 242
0.0062243328 0.70999998 -0.0024897333 9.5851211e-39 325 242
0.0074691991 0.70999998 -0.0024897333 1.0230825e-38 326 242
0.0087508867 0.713 -0.0025002533 1.0323021e-38 327 242
0.010001013 0.713 -0.0025002533 1.0414488e-38 328 242
0.011266919 0.71399999 -0.0025037599 1.0322291e-38 329 242
0.012518799 0.71399999 -0.0025037599 9.0301299e-39 330 242
0.013809253 0.71600002 -0.0025107733 7.6471954e-39 331 242
0.01506464 0.71600002 -0.0025107733 5.1608057e-39 332 242
0.016320027 0.71600002 -0.0025107733 7.3735022e-39 333 242
-0.04777132 0.71700001 -0.0037714199 1.4381812e-38 282 243
-0.046449307 0.71600002 -0.00376616 1.2353508e-38 283 243
-0.045193922 0.71600002 -0.00376616 1.06018e-38 284 243
-0.043815799 0.71399999 -0.0037556398 1.0970223e-38 285 243
-0.042563915 0.71399999 -0.0037556398 1.0512482e-38 286 243
-0.041138459 0.71100003 -0.0037398601 1.0605037e-38 287 243
-0.039891839 0.71100003 -0.0037398601 1.0790145e-38 288 243
-0.038590867 0.70999998 -0.0037345996 1.0882341e-38 289 243
-0.037345998 0.70999998 -0.0037345996 1.1342236e-38 290 243
-0.03599944 0.708 -0.00372408 1.1618463e-38 291 243
-0.034758076 0.708 -0.00372408 1.115712e-38 292 243
-0.033469379 0.70700002 -0.0037188199 1.0419554e-38 293 243
-0.032184184 0.70599997 -0.0037135598 1.0138648e-38 294 243
-0.030858666 0.704 -0.0037030398 9.3088888e-39 295 243
-0.029624319 0.704 -0.0037030398 8.0181499e-39 296 243
-0.028349647 0.70300001 -0.0036977797 7.1883879e-39 297 243
-0.027117053 0.70300001 -0.0036977797 6.4504697e-39 298 243
-0.025884461 0.70300001 -0.0036977797 5.9898517e-39 299 243
-0.024651866 0.70300001 -0.0036977797 6.0795418e-39 300 243
-0.023419274 0.70300001 -0.0036977797 5.3419768e-39 301 243
-0.02218668 0.70300001 -0.0036977797 4.064909e-39 302 243
-0.020983893 0.704 -0.0037030398 5.3556478e-39 303 243
-0.019721493 0.70300001 -0.0036977797 5.7147221e-39 304 243
-0.018436298 0.70099998 -0.0036872597 3.5023872e-39 305 243
-0.017207211 0.70099998 -0.0036872597 3.3172854e-39 306 243
-0.015955333 0.69999999 -0.0036819996 3.1328942e-39 307 243
-0.014727999 0.69999999 -0.0036819996 4.4229141e-39 308 243
-0.013462093 0.69800001 -0.0036714801 6.451218e-39 309 243
-0.012238266 0.69800001 -0.0036714801 7.0058085e-39 310 243
-0.011045999 0.69999999 -0.0036819996 6.4529934e-39 311 243
-0.0098186666 0.69999999 -0.0036819996 6.7270342e-39 312 243
-0.0085913334 0.69999999 -0.0036819996 6.0816648e-39 313 243
-0.0073639993 0.69999999 -0.0036819996 6.2646141e-39 314 243
-0.0061366665 0.69999999 -0.0036819996 6.9099835e-39 315 243
-0.0049163462 0.70099998 -0.0036872597 7.0021959e-39 316 243
-0.0036872597 0.70099998 -0.0036872597 7.0021959e-39 317 243
-0.0024686933 0.704 -0.0037030398 8.2940166e-39 318 243
-0.0012343467 0.704 -0.0037030398 9.9531778e-39 319 243
0 0.704 -0.0037030398 1.0043931e-38 320 243
0.0012343467 0.704 -0.0037030398 1.0320518e-38 321 243
0.0024686933 0.704 -0.0037030398 1.0140075e-38 322 243
0.00372408 0.708 -0.00372408 1.023227e-38 323 243
0.0049794666 0.70999998 -0.0037345996 1.0416289e-38 324 243
0.0062243328 0.70999998 -0.0037345996 1.0231897e-38 325 243
0.0074797203 0.71100003 -0.0037398601 1.0046786e-38 326 243
0.0087508867 0.713 -0.0037503797 9.9542315e-39 327 243
0.01001504 0.71399999 -0.0037556398 1.0045714e-38 328 243
0.011266919 0.71399999 -0.0037556398 9.6765727e-39 329 243
0.012553867 0.71600002 -0.00376616 8.1088994e-39 330 243
0.013809253 0.71600002 -0.00376616 6.6337694e-39 331 243
0.01506464 0.71600002 -0.00376616 4.3306989e-39 332 243
-0.04790457 0.71899998 -0.0050425865 1.4751676e-38 282 244
-0.046514176 0.71700001 -0.0050285598 1.2170199e-38 283 244
-0.045257039 0.71700001 -0.0050285598 1.0142261e-38 284 244
-0.043999899 0.71700001 -0.0050285598 1.0695434e-38 285 244
-0.042683143 0.71600002 -0.0050215465 1.032917e-38 286 244
-0.041312039 0.71399999 -0.0050075199 1.0421366e-38 287 244
-0.039891839 0.71100003 -0.0049864799 1.0514636e-38 288 244
-0.038645219 0.71100003 -0.0049864799 1.0514636e-38 289 244
-0.037345998 0.70999998 -0.0049794666 1.1157489e-38 290 244
-0.036101133 0.70999998 -0.0049794666 1.1157489e-38 291 244
-0.034758076 0.708 -0.0049654399 1.0512835e-38 292 244
-0.033469379 0.70700002 -0.0049584266 1.0052216e-38 293 244
-0.032184184 0.70599997 -0.0049514128 1.005005e-38 294 244
-0.030858666 0.704 -0.0049373866 1.0787615e-38 295 244
-0.029624319 0.704 -0.0049373866 1.1155674e-38 296 244
-0.028389972 0.704 -0.0049373866 1.0970924e-38 297 244
-0.027117053 0.70300001 -0.0049303733 1.0785815e-38 298 244
-0.025884461 0.70300001 -0.0049303733 1.0601065e-38 299 244
-0.024651866 0.70300001 -0.0049303733 1.023157e-38 300 244
-0.023419274 0.70300001 -0.0049303733 9.5862001e-39 301 244
-0.02218668 0.70300001 -0.0049303733 8.8529511e-39 302 244
-0.020983893 0.704 -0.0049373866 9.4061249e-39 303 244
-0.019721493 0.70300001 -0.0049303733 9.4925696e-39 304 244
-0.018488899 0.70300001 -0.0049303733 8.0177996e-39 305 244
-0.017207211 0.70099998 -0.0049163462 7.2845562e-39 306 244
-0.015978126 0.70099998 -0.0049163462 7.4685873e-39 307 244
-0.014727999 0.69999999 -0.0049093333 8.2965501e-39 308 244
-0.013500666 0.69999999 -0.0049093333 9.1263108e-39 309 244
-0.012273333 0.69999999 -0.0049093333 9.4025123e-39 310 244
-0.011045999 0.69999999 -0.0049093333 8.3880002e-39 311 244
-0.0098186666 0.69999999 -0.0049093333 8.2032208e-39 312 244
-0.0085913334 0.69999999 -0.0049093333 8.8485902e-39 313 244
-0.0073639993 0.69999999 -0.0049093333 9.2155819e-39 314 244
-0.0061454331 0.70099998 -0.0049163462 8.7542436e-39 315 244
-0.0049163462 0.70099998 -0.0049163462 7.0943748e-39 316 244
-0.0036977797 0.70300001 -0.0049303733 6.6337567e-39 317 244
-0.0024686933 0.704 -0.0049373866 8.6631424e-39 318 244
-0.0012343467 0.704 -0.0049373866 9.9538812e-39 319 244
0 0.704 -0.0049373866 9.6762223e-39 320 244
0.0012343467 0.704 -0.0049373866 9.3999942e-39 321 244
0.0024686933 0.704 -0.0049373866 9.3081489e-39 322 244
0.00372408 0.708 -0.0049654399 9.6765727e-39 323 244
0.0049794666 0.70999998 -0.0049794666 9.2177455e-39 324 244
0.0062330998 0.71100003 -0.0049864799 8.4801805e-39 325 244
0.0074797203 0.71100003 -0.0049864799 7.4681991e-39 326 244
0.0087508867 0.713 -0.0050005065 7.8369817e-39 327 244
0.01001504 0.71399999 -0.0050075199 8.4791239e-39 328 244
0.011266919 0.71399999 -0.0050075199 8.6638753e-39 329 244
0.012553867 0.71600002 -0.0050215465 7.3727861e-39 330 244
0.013809253 0.71600002 -0.0050215465 5.8051003e-39 331 244
0.015085679 0.71700001 -0.0050285598 5.3437732e-39 332 244
-0.0479712 0.72000003 -0.0063120001 1.5487441e-38 282 245
-0.046514176 0.71700001 -0.0062857 1.2629375e-38 283 245
-0.045257039 0.71700001 -0.0062857 1.0141542e-38 284 245
-0.043999899 0.71700001 -0.0062857 1.0786911e-38 285 245
-0.042683143 0.71600002 -0.0062769335 1.0605037e-38 286 245
-0.041312039 0.71399999 -0.0062593995 1.0328451e-38 287 245
-0.040004052 0.713 -0.0062506334 9.8707156e-39 288 245
-0.038645219 0.71100003 -0.0062330998 9.8707156e-39 289 245
-0.037345998 0.70999998 -0.0062243328 1.0238053e-38 290 245
-0.036101133 0.70999998 -0.0062243328 1.051464e-38 291 245
-0.034758076 0.708 -0.0062067998 9.9596644e-39 292 245
-0.033516716 0.708 -0.0062067998 8.3926988e-39 293 245
-0.032229774 0.70700002 -0.0061980332 9.314295e-39 294 245
-0.030946331 0.70599997 -0.0061892662 1.0697229e-38 295 245
-0.029708479 0.70599997 -0.0061892662 1.1986523e-38 296 245
-0.028389972 0.704 -0.0061717331 1.2078719e-38 297 245
-0.027155625 0.704 -0.0061717331 1.2261663e-38 298 245
-0.02592128 0.704 -0.0061717331 1.2169467e-38 299 245
-0.024686933 0.704 -0.0061717331 1.1985437e-38 300 245
-0.023452586 0.704 -0.0061717331 1.1616296e-38 301 245
-0.022218239 0.704 -0.0061717331 1.1340432e-38 302 245
-0.020983893 0.704 -0.0061717331 1.115604e-38 303 245
-0.019749546 0.704 -0.0061717331 1.1155321e-38 304 245
-0.018488899 0.70300001 -0.0061629666 1.1155321e-38 305 245
-0.017256306 0.70300001 -0.0061629666 1.0787259e-38 306 245
-0.015978126 0.70099998 -0.0061454331 1.0879813e-38 307 245
-0.014727999 0.69999999 -0.0061366665 1.1154599e-38 308 245
-0.013500666 0.69999999 -0.0061366665 1.1431185e-38 309 245
-0.012273333 0.69999999 -0.0061366665 1.1430438e-38 310 245
-0.011045999 0.69999999 -0.0061366665 9.6787208e-39 311 245
-0.0098326923 0.70099998 -0.0061454331 9.3099033e-39 312 245
-0.0086036054 0.70099998 -0.0061454331 1.0324054e-38 313 245
-0.0073745195 0.70099998 -0.0061454331 1.1245311e-38 314 245
-0.0061629666 0.70300001 -0.0061629666 1.0507746e-38 315 245
-0.0049303733 0.70300001 -0.0061629666 8.5702125e-39 316 245
-0.0037030398 0.704 -0.0061717331 6.6341043e-39 317 245
-0.0024686933 0.704 -0.0061717331 7.927727e-39 318 245
-0.0012343467 0.704 -0.0061717331 8.7578464e-39 319 245
0 0.70599997 -0.0061892662 8.7539185e-39 320 245
0.0012378532 0.70599997 -0.0061892662 8.4773316e-39 321 245
0.0024792133 0.70700002 -0.0061980332 8.201465e-39 322 245
0.00372408 0.708 -0.0062067998 8.386215e-39 323 245
0.0049794666 0.70999998 -0.0062243328 8.2021839e-39 324 245
0.0062243328 0.70999998 -0.0062243328 7.6490101e-39 325 245
0.0074797203 0.71100003 -0.0062330998 7.09836e-39 326 245
0.0087508867 0.713 -0.0062506334 7.6515338e-39 327 245
0.01001504 0.71399999 -0.0062593995 8.1117861e-39 328 245
0.011266919 0.71399999 -0.0062593995 8.2961788e-39 329 245
0.012553867 0.71600002 -0.0062769335 7.189834e-39 330 245
0.013809253 0.71600002 -0.0062769335 5.4381156e-39 331 245
0.015085679 0.71700001 -0.0062857 5.8976519e-39 332 245
-0.048104454 0.722 -0.0075954394 1.5485639e-38 282 246
-0.0467088 0.72000003 -0.0075743999 1.2904161e-38 283 246
-0.045383278 0.71899998 -0.0075638802 1.0784393e-38 284 246
-0.043999899 0.71700001 -0.0075428397 1.1337567e-38 285 246
-0.042683143 0.71600002 -0.00753232 1.0054025e-38 286 246
-0.041312039 0.71399999 -0.0075112795 9.9618294e-39 287 246
-0.040004052 0.713 -0.0075007593 9.6856054e-39 288 246
-0.038645219 0.71100003 -0.0074797203 9.6856054e-39 289 246
-0.037345998 0.70999998 -0.0074691991 1.0236977e-38 290 246
-0.036101133 0.70999998 -0.0074691991 1.0236977e-38 291 246
-0.034758076 0.708 -0.0074481601 9.2239014e-39 292 246
-0.033516716 0.708 -0.0074481601 7.9331626e-39 293 246
-0.032229774 0.70700002 -0.0074376399 6.552026e-39 294 246
-0.030946331 0.70599997 -0.0074271196 7.5658178e-39 295 246
-0.029708479 0.70599997 -0.0074271196 8.8533182e-39 296 246
-0.028470624 0.70599997 -0.0074271196 9.4064906e-39 297 246
-0.027155625 0.704 -0.0074060797 1.0326286e-38 298 246
-0.02592128 0.704 -0.0074060797 1.023409e-38 299 246
-0.024686933 0.704 -0.0074060797 9.4965226e-39 300 246
-0.023452586 0.704 -0.0074060797 8.8511532e-39 301 246
-0.022218239 0.704 -0.0074060797 8.4812917e-39 302 246
-0.020983893 0.704 -0.0074060797 8.5738461e-39 303 246
-0.019749546 0.704 -0.0074060797 9.6823516e-39 304 246
-0.018515198 0.704 -0.0074060797 1.0512472e-38 305 246
-0.017256306 0.70300001 -0.0073955595 1.0512467e-38 306 246
-0.016023712 0.70300001 -0.0073955595 1.0512467e-38 307 246
-0.014749039 0.70099998 -0.0073745195 1.0420624e-38 308 246
-0.013519952 0.70099998 -0.0073745195 1.0144396e-38 309 246
-0.012290866 0.70099998 -0.0073745195 1.0418794e-38 310 246
-0.011061779 0.70099998 -0.0073745195 9.4042821e-39 311 246
-0.0098607466 0.70300001 -0.0073955595 9.7708814e-39 312 246
-0.0086281532 0.70300001 -0.0073955595 1.0139664e-38 313 246
-0.0074060797 0.704 -0.0074060797 1.0418794e-38 314 246
-0.0061717331 0.704 -0.0074060797 1.0602825e-38 315 246
-0.0049373866 0.704 -0.0074060797 9.400692e-39 316 246
-0.0037030398 0.704 -0.0074060797 7.2801925e-39 317 246
-0.0024686933 0.704 -0.0074060797 7.7436846e-39 318 246
-0.0012378532 0.70599997 -0.0074271196 8.7581967e-39 319 246
0 0.70599997 -0.0074271196 6.2678637e-39 320 246
0.0012378532 0.70599997 -0.0074271196 6.7284831e-39 321 246
0.0024792133 0.70700002 -0.0074376399 7.4617476e-39 322 246
0.00372408 0.708 -0.0074481601 7.4617476e-39 323 246
0.0049794666 0.70999998 -0.0074691991 7.5557453e-39 324 246
0.0062243328 0.70999998 -0.0074691991 7.7401365e-39 325 246
0.0074797203 0.71100003 -0.0074797203 7.3774651e-39 326 246
0.0087263398 0.71100003 -0.0074797203 7.7462476e-39 327 246
0.010001013 0.713 -0.0075007593 8.1146602e-39 328 246
0.011266919 0.71399999 -0.0075112795 8.2990514e-39 329 246
0.012553867 0.71600002 -0.00753232 7.6511681e-39 330 246
0.013809253 0.71600002 -0.00753232 5.6225041e-39 331 246
0.015085679 0.71700001 -0.0075428397 5.9909209e-39 332 246
-0.049712259 0.727 -0.0089227129 1.622067e-38 281 247
-0.048304334 0.72500002 -0.0088981669 1.5667866e-38 282 247
-0.046903417 0.72299999 -0.0088736191 1.3086389e-38 283 247
-0.045446403 0.72000003 -0.0088367993 1.0048622e-38 284 247
-0.044183999 0.72000003 -0.0088367993 1.0878381e-38 285 247
-0.042742759 0.71700001 -0.0087999795 1.0328817e-38 286 247
-0.041427758 0.71600002 -0.0087877065 9.7760018e-39 287 247
-0.040060159 0.71399999 -0.0087631596 9.2257147e-39 288 247
-0.038753927 0.713 -0.0087508867 9.1335191e-39 289 247
-0.037398599 0.71100003 -0.0087263398 9.2257091e-39 290 247
-0.036101133 0.70999998 -0.0087140659 9.2257091e-39 291 247
-0.034856264 0.70999998 -0.0087140659 8.9480362e-39 292 247
-0.033516716 0.708 -0.008689519 8.0257212e-39 293 247
-0.03227536 0.708 -0.008689519 6.2736441e-39 294 247
-0.030990168 0.70700002 -0.008677247 6.1814484e-39 295 247
-0.029708479 0.70599997 -0.0086649731 6.0896185e-39 296 247
-0.028470624 0.70599997 -0.0086649731 6.8271836e-39 297 247
-0.027155625 0.704 -0.0086404262 8.1154015e-39 298 247
-0.02592128 0.704 -0.0086404262 7.9310102e-39 299 247
-0.024686933 0.704 -0.0086404262 7.8373712e-39 300 247
-0.023452586 0.704 -0.0086404262 7.0998048e-39 301 247
-0.022218239 0.704 -0.0086404262 6.3640418e-39 302 247
-0.021043506 0.70599997 -0.0086649731 6.8246598e-39 303 247
-0.019749546 0.704 -0.0086404262 8.2061495e-39 304 247
-0.018515198 0.704 -0.0086404262 9.6816384e-39 305 247
-0.017256306 0.70300001 -0.0086281532 1.0510305e-38 306 247
-0.016023712 0.70300001 -0.0086281532 1.0325555e-38 307 247
-0.014791119 0.70300001 -0.0086281532 9.1291652e-39 308 247
-0.013558527 0.70300001 -0.0086281532 9.2213623e-39 309 247
-0.012325933 0.70300001 -0.0086281532 9.7734248e-39 310 247
-0.01109334 0.70300001 -0.0086281532 8.7589127e-39 311 247
-0.0098747732 0.704 -0.0086404262 9.3113536e-39 312 247
-0.0086404262 0.704 -0.0086404262 1.0232951e-38 313 247
-0.0074060797 0.704 -0.0086404262 9.4060968e-39 314 247
-0.0061717331 0.704 -0.0086404262 8.9454774e-39 315 247
-0.0049373866 0.704 -0.0086404262 8.3890568e-39 316 247
-0.0037030398 0.704 -0.0086404262 7.1905136e-39 317 247
-0.0024757064 0.70599997 -0.0086649731 7.8373194e-39 318 247
-0.0012378532 0.70599997 -0.0086649731 8.4826888e-39 319 247
0 0.70700002 -0.008677247 7.9255774e-39 320 247
0.0012396066 0.70700002 -0.008677247 7.557155e-39 321 247
0.00248272 0.708 -0.008689519 6.7310041e-39 322 247
0.00372408 0.708 -0.008689519 7.1919808e-39 323 247
0.0049794666 0.70999998 -0.0087140659 7.6518842e-39 324 247
0.0062243328 0.70999998 -0.0087140659 8.0210254e-39 325 247
0.0074797203 0.71100003 -0.0087263398 7.8391495e-39 326 247
0.0087263398 0.71100003 -0.0087263398 8.1157364e-39 327 247
0.010001013 0.713 -0.0087508867 8.482714e-39 328 247
0.011266919 0.71399999 -0.0087631596 8.2064873e-39 329 247
0.012553867 0.71600002 -0.0087877065 7.466051e-39 330 247
0.013828539 0.71700001 -0.0087999795 5.6221384e-39 331 247
0.015085679 0.71700001 -0.0087999795 7.2802108e-39 332 247
0.0164112 0.72000003 -0.0088367993 8.3869184e-39 333 247
-0.049712259 0.727 -0.010197386 1.6588001e-38 281 248
-0.048304334 0.72500002 -0.010169334 1.5943364e-38 282 248
-0.046903417 0.72299999 -0.01014128 1.3269691e-38 283 248
-0.045446403 0.72000003 -0.010099201 9.6791188e-39 284 248
-0.044183999 0.72000003 -0.010099201 1.0692911e-38 285 248
-0.042742759 0.71700001 -0.01005712 9.8685618e-39 286 248
-0.041427758 0.71600002 -0.010043093 9.500138e-39 287 248
-0.040172372 0.71600002 -0.010043093 8.8569364e-39 288 248
-0.038808275 0.71399999 -0.01001504 8.7647407e-39 289 248
-0.037503798 0.713 -0.010001013 8.9491292e-39 290 248
-0.036101133 0.70999998 -0.0099589331 8.8569336e-39 291 248
-0.034856264 0.70999998 -0.0099589331 8.7643708e-39 292 248
-0.033516716 0.708 -0.0099308798 8.1190014e-39 293 248
-0.03227536 0.708 -0.0099308798 5.8155554e-39 294 248
-0.030990168 0.70700002 -0.0099168532 5.8155554e-39 295 248
-0.029750559 0.70700002 -0.0099168532 6.5491716e-39 296 248
-0.028470624 0.70599997 -0.0099028256 6.2725847e-39 297 248
-0.027155625 0.704 -0.0098747732 5.9963509e-39 298 248
-0.02592128 0.704 -0.0098747732 4.8900034e-39 299 248
-0.024686933 0.704 -0.0098747732 4.8889215e-39 300 248
-0.023452586 0.704 -0.0098747732 4.9811172e-39 301 248
-0.022218239 0.704 -0.0098747732 5.2605837e-39 302 248
-0.021043506 0.70599997 -0.0099028256 5.9981488e-39 303 248
-0.019805651 0.70599997 -0.0099028256 7.0061868e-39 304 248
-0.018567799 0.70599997 -0.0099028256 7.0061868e-39 305 248
-0.017280852 0.704 -0.0098747732 7.5597137e-39 306 248
-0.016046507 0.704 -0.0098747732 7.2827667e-39 307 248
-0.014812159 0.704 -0.0098747732 6.3629614e-39 308 248
-0.013558527 0.70300001 -0.0098607466 8.0224842e-39 309 248
-0.012325933 0.70300001 -0.0098607466 9.4979323e-39 310 248
-0.011109119 0.704 -0.0098747732 7.6540197e-39 311 248
-0.0098747732 0.704 -0.0098747732 8.6649263e-39 312 248
-0.0086404262 0.704 -0.0098747732 9.125903e-39 313 248
-0.0074060797 0.704 -0.0098747732 8.0213729e-39 314 248
-0.0061892662 0.70599997 -0.0099028256 6.4540472e-39 315 248
-0.0049514128 0.70599997 -0.0099028256 6.3639844e-39 316 248
-0.0037135598 0.70599997 -0.0099028256 7.2855805e-39 317 248
-0.0024757064 0.70599997 -0.0099028256 8.666364e-39 318 248
-0.0012396066 0.70700002 -0.0099168532 8.666364e-39 319 248
0 0.70700002 -0.0099168532 7.8384236e-39 320 248
0.0012396066 0.70700002 -0.0099168532 7.6540323e-39 321 248
0.00248272 0.708 -0.0099308798 7.3788902e-39 322 248
0.00372408 0.708 -0.0099308798 7.6554785e-39 323 248
0.0049794666 0.70999998 -0.0099589331 7.9313451e-39 324 248
0.0062330998 0.71100003 -0.0099729598 8.0235407e-39 325 248
0.0074797203 0.71100003 -0.0099729598 8.2068558e-39 326 248
0.0087508867 0.713 -0.010001013 8.2990514e-39 327 248
0.01001504 0.71399999 -0.01001504 8.2061369e-39 328 248
0.01129848 0.71600002 -0.010043093 8.1139413e-39 329 248
0.012553867 0.71600002 -0.010043093 7.8337601e-39 330 248
0.013828539 0.71700001 -0.01005712 7.2805877e-39 331 248
0.01512776 0.71899998 -0.010085173 8.5698776e-39 332 248
0.0164112 0.72000003 -0.010099201 9.952812e-39 333 248
-0.049712259 0.727 -0.01147206 1.6495442e-38 281 249
-0.048304334 0.72500002 -0.0114405 1.6219228e-38 282 249
-0.046903417 0.72299999 -0.01140894 1.4098369e-38 283 249
-0.045446403 0.72000003 -0.011361601 1.0690748e-38 284 249
-0.044183999 0.72000003 -0.011361601 1.1243563e-38 285 249
-0.042861983 0.71899998 -0.01134582 1.0050438e-38 286 249
-0.041485619 0.71700001 -0.01131426 9.6816552e-39 287 249
-0.040172372 0.71600002 -0.01129848 8.4888783e-39 288 249
-0.038808275 0.71399999 -0.011266919 8.396324e-39 289 249
-0.037556399 0.71399999 -0.011266919 8.3973988e-39 290 249
-0.036151983 0.71100003 -0.01121958 8.4895958e-39 291 249
