# .PCD v.7 - Point Cloud Data file format
FIELDS x y z rgb imX imY
SIZE 4 4 4 4 4 4
TYPE F F F F F F
COUNT 1 1 1 1 1 1
WIDTH 836
HEIGHT 1
VIEWPOINT 0 0 0 1 0 0 0
POINTS 836
DATA ascii
0.035452399 0.67400002 -0.035452399 1.1806779e-38 350 270
0.036634147 0.67400002 -0.035452399 1.1530552e-38 351 270
0.037815895 0.67400002 -0.035452399 1.0702622e-38 352 270
0.038997639 0.67400002 -0.035452399 1.1440187e-38 353 270
0.040238999 0.67500001 -0.035505001 1.282025e-38 354 270
0.041483864 0.676 -0.035557602 1.3004642e-38 355 270
0.042669121 0.676 -0.035557602 1.3647121e-38 356 270
0.044048995 0.67900002 -0.035715401 1.3370534e-38 357 270
0.045239504 0.67900002 -0.035715401 1.3553483e-38 358 270
0.046498399 0.68000001 -0.035767999 1.3461288e-38 359 270
0.047830928 0.68199998 -0.035873197 1.3276894e-38 360 270
0.049026705 0.68199998 -0.035873197 1.3276894e-38 361 270
0.05029612 0.68300003 -0.035925802 1.3644597e-38 362 270
0.051493648 0.68300003 -0.035925802 1.3829347e-38 363 270
0.05276832 0.68400002 -0.035978399 1.401374e-38 364 270
0.053967599 0.68400002 -0.035978399 1.4197771e-38 365 270
0.055408835 0.68699998 -0.036136195 1.4565465e-38 366 270
0.056695789 0.68800002 -0.0361888 1.7792312e-38 367 270
-0.0097906133 0.69800001 -0.037938625 1.926636e-38 312 271
-0.0085545136 0.69700003 -0.037884273 1.8252567e-38 313 271
-0.00733244 0.69700003 -0.037884273 1.6780696e-38 314 271
-0.0060840664 0.69400001 -0.037721213 1.5766904e-38 315 271
-0.00486024 0.69300002 -0.037666857 1.5033318e-38 316 271
-0.0036451798 0.69300002 -0.037666857 1.5217709e-38 317 271
-0.0024231065 0.69099998 -0.03755815 1.1898329e-38 318 271
-0.0012062934 0.68800002 -0.037395094 9.2246553e-39 319 271
0 0.68699998 -0.037340738 1.0056221e-38 320 271
0.00119928 0.68400002 -0.037177678 1.0332449e-38 321 271
0.0023950534 0.68300003 -0.037123326 1.1249726e-38 322 271
0.0035925799 0.68300003 -0.037123326 9.3136181e-39 323 271
0.004783093 0.68199998 -0.037068974 6.1829534e-39 324 271
0.0059613334 0.68000001 -0.036960267 4.1542908e-39 325 271
0.0071430802 0.67900002 -0.036905911 3.3360362e-39 326 271
0.0083213197 0.67799997 -0.036851559 1.0988274e-38 327 271
0.0094820261 0.676 -0.036742851 1.3286287e-38 328 271
0.01066728 0.676 -0.036742851 1.1995548e-38 329 271
0.011835 0.67500001 -0.036688499 1.1899373e-38 330 271
0.012999214 0.67400002 -0.036634147 1.2175599e-38 331 271
0.01418096 0.67400002 -0.036634147 1.3467769e-38 332 271
0.01531712 0.67199999 -0.036525436 1.3744354e-38 333 271
0.01649536 0.67199999 -0.036525436 1.3098982e-38 334 271
0.017673599 0.67199999 -0.036525436 1.2914951e-38 335 271
0.018851839 0.67199999 -0.036525436 1.263908e-38 336 271
0.020030079 0.67199999 -0.036525436 1.2178102e-38 337 271
0.021208318 0.67199999 -0.036525436 1.116719e-38 338 271
0.022386558 0.67199999 -0.036525436 1.1351941e-38 339 271
0.023564799 0.67199999 -0.036525436 1.1902594e-38 340 271
0.024706218 0.671 -0.036471087 1.1625647e-38 341 271
0.025882706 0.671 -0.036471087 1.2178087e-38 342 271
0.027059194 0.671 -0.036471087 1.2454313e-38 343 271
0.028235679 0.671 -0.036471087 1.2822373e-38 344 271
0.029455997 0.67199999 -0.036525436 1.2914927e-38 345 271
0.030634239 0.67199999 -0.036525436 1.2455761e-38 346 271
0.031812478 0.67199999 -0.036525436 1.2548317e-38 347 271
0.03299072 0.67199999 -0.036525436 1.3097898e-38 348 271
0.034270655 0.67400002 -0.036634147 1.3097898e-38 349 271
0.035505001 0.67500001 -0.036688499 1.3832584e-38 350 271
0.036688499 0.67500001 -0.036688499 1.2173064e-38 351 271
0.037871998 0.67500001 -0.036688499 8.4888503e-39 352 271
0.039055496 0.67500001 -0.036688499 1.0424959e-38 353 271
0.040298611 0.676 -0.036742851 1.2818099e-38 354 271
0.041483864 0.676 -0.036742851 1.3095044e-38 355 271
0.042795356 0.67799997 -0.036851559 1.3002477e-38 356 271
0.044048995 0.67900002 -0.036905911 1.2818086e-38 357 271
0.045239504 0.67900002 -0.036905911 1.3369455e-38 358 271
0.046498399 0.68000001 -0.036960267 1.3369455e-38 359 271
0.047830928 0.68199998 -0.037068974 1.3552402e-38 360 271
0.049098592 0.68300003 -0.037123326 1.3552402e-38 361 271
0.05029612 0.68300003 -0.037123326 1.3553481e-38 362 271
0.051569041 0.68400002 -0.037177678 1.3737871e-38 363 271
0.05292261 0.68599999 -0.037286382 1.4014459e-38 364 271
0.054125395 0.68599999 -0.037286382 1.3922263e-38 365 271
0.055408835 0.68699998 -0.037340738 1.4565465e-38 366 271
0.056613375 0.68699998 -0.037340738 1.7792312e-38 367 271
0.057817914 0.68699998 -0.037340738 1.9080883e-38 368 271
-0.0097906133 0.69800001 -0.039162453 1.9266366e-38 312 272
-0.0085545136 0.69700003 -0.039106347 1.8160018e-38 313 272
-0.00733244 0.69700003 -0.039106347 1.6780696e-38 314 272
-0.0060840664 0.69400001 -0.038938027 1.5674709e-38 315 272
-0.0048672534 0.69400001 -0.038938027 1.5033671e-38 316 272
-0.0036451798 0.69300002 -0.03888192 1.549429e-38 317 272
-0.00243012 0.69300002 -0.03888192 1.2267822e-38 318 272
-0.0012115532 0.69099998 -0.038769703 9.409757e-39 319 272
0 0.68800002 -0.038601387 1.1251164e-38 320 272
0.0012027866 0.68599999 -0.03848917 1.0237014e-38 321 272
0.0023985601 0.68400002 -0.038376961 7.7481029e-39 322 272
0.0035925799 0.68300003 -0.038320854 7.7481029e-39 323 272
0.004783093 0.68199998 -0.038264744 7.2882234e-39 324 272
0.0059613334 0.68000001 -0.038152531 6.27407e-39 325 272
0.0071535995 0.68000001 -0.038152531 5.9996285e-39 326 272
0.0083335936 0.67900002 -0.038096428 1.2545518e-38 327 272
0.0095100794 0.67799997 -0.038040318 1.3556765e-38 328 272
0.01066728 0.676 -0.037928104 1.2634449e-38 329 272
0.011852534 0.676 -0.037928104 1.1989067e-38 330 272
0.0130185 0.67500001 -0.037871998 1.2357489e-38 331 272
0.01418096 0.67400002 -0.037815895 1.374473e-38 332 272
0.015362706 0.67400002 -0.037815895 1.4390099e-38 333 272
0.016544454 0.67400002 -0.037815895 1.37458e-38 334 272
0.017673599 0.67199999 -0.037703678 1.3653603e-38 335 272
0.018851839 0.67199999 -0.037703678 1.4111339e-38 336 272
0.020030079 0.67199999 -0.037703678 1.4019143e-38 337 272
0.021208318 0.67199999 -0.037703678 1.4019143e-38 338 272
0.022386558 0.67199999 -0.037703678 1.4388286e-38 339 272
0.023564799 0.67199999 -0.037703678 1.4476529e-38 340 272
0.024743039 0.67199999 -0.037703678 1.2263832e-38 341 272
0.025882706 0.671 -0.037647571 1.0236253e-38 342 272
0.027059194 0.671 -0.037647571 8.6689256e-39 343 272
0.02827776 0.67199999 -0.037703678 7.9320892e-39 344 272
0.029455997 0.67199999 -0.037703678 9.222828e-39 345 272
0.030634239 0.67199999 -0.037703678 1.0888828e-38 346 272
0.031812478 0.67199999 -0.037703678 1.2363958e-38 347 272
0.033088908 0.67400002 -0.037815895 1.3465619e-38 348 272
0.034321502 0.67500001 -0.037871998 1.3557815e-38 349 272
0.035505001 0.67500001 -0.037871998 1.4109541e-38 350 272
0.036742851 0.676 -0.037928104 1.2818802e-38 351 272
0.037928104 0.676 -0.037928104 1.1247531e-38 352 272
0.039113361 0.676 -0.037928104 1.1524476e-38 353 272
0.040417835 0.67799997 -0.038040318 1.1064234e-38 354 272
0.041606598 0.67799997 -0.038040318 1.005044e-38 355 272
0.042858478 0.67900002 -0.038096428 8.6710962e-39 356 272
0.044048995 0.67900002 -0.038096428 1.0238422e-38 357 272
0.045239504 0.67900002 -0.038096428 1.2726254e-38 358 272
0.046635158 0.68199998 -0.038264744 1.3003199e-38 359 272
0.047830928 0.68199998 -0.038264744 1.3368736e-38 360 272
0.049098592 0.68300003 -0.038320854 1.3460932e-38 361 272
0.050369758 0.68400002 -0.038376961 1.3553483e-38 362 272
0.051719822 0.68599999 -0.03848917 1.3922266e-38 363 272
0.05292261 0.68599999 -0.03848917 1.4290323e-38 364 272
0.054204296 0.68699998 -0.038545277 1.4290323e-38 365 272
0.055408835 0.68699998 -0.038545277 1.4566537e-38 366 272
0.056613375 0.68699998 -0.038545277 1.7516798e-38 367 272
0.057817914 0.68699998 -0.038545277 1.9080517e-38 368 272
-0.0097906133 0.69800001 -0.040386278 1.9174893e-38 312 273
-0.0085545136 0.69700003 -0.040328421 1.797635e-38 313 273
-0.00733244 0.69700003 -0.040328421 1.6229327e-38 314 273
-0.0060840664 0.69400001 -0.040154841 1.4938589e-38 315 273
-0.0048672534 0.69400001 -0.040154841 1.4757807e-38 316 273
-0.0036504399 0.69400001 -0.040154841 1.5310981e-38 317 273
-0.00243012 0.69300002 -0.04009698 1.2820269e-38 318 273
-0.0012115532 0.69099998 -0.039981257 9.3171943e-39 319 273
0 0.69 -0.0399234 9.7763942e-39 320 273
0.0012045399 0.68699998 -0.039749816 9.4072515e-39 321 273
0.0024055731 0.68599999 -0.039691959 6.919787e-39 322 273
0.0035925799 0.68300003 -0.039518382 6.919787e-39 323 273
0.004783093 0.68199998 -0.039460517 7.7473995e-39 324 273
0.0059613334 0.68000001 -0.039344799 7.5630082e-39 325 273
0.0071535995 0.68000001 -0.039344799 6.5535254e-39 326 273
0.0083458666 0.68000001 -0.039344799 9.7803724e-39 327 273
0.0095100794 0.67799997 -0.039229076 1.1897613e-38 328 273
0.010698839 0.67799997 -0.039229076 1.1621026e-38 329 273
0.011852534 0.676 -0.039113361 1.0242039e-38 330 273
0.013037786 0.676 -0.039113361 1.1163635e-38 331 273
0.014202001 0.67500001 -0.039055496 1.374151e-38 332 273
0.015362706 0.67400002 -0.038997639 1.4663106e-38 333 273
0.016544454 0.67400002 -0.038997639 1.4203907e-38 334 273
0.0177262 0.67400002 -0.038997639 1.4296103e-38 335 273
0.018907947 0.67400002 -0.038997639 1.4939307e-38 336 273
0.020089693 0.67400002 -0.038997639 1.4847112e-38 337 273
0.021271439 0.67400002 -0.038997639 1.4847109e-38 338 273
0.022453187 0.67400002 -0.038997639 1.5123696e-38 339 273
0.023634933 0.67400002 -0.038997639 1.4842813e-38 340 273
0.024816679 0.67400002 -0.038997639 1.0233031e-38 341 273
0.025921278 0.67199999 -0.03888192 6.1847205e-39 342 273
0.027099518 0.67199999 -0.03888192 4.6173947e-39 343 273
0.02836192 0.67400002 -0.038997639 3.8798521e-39 344 273
0.029543666 0.67400002 -0.038997639 2.6813089e-39 345 273
0.030725412 0.67400002 -0.038997639 7.754937e-39 346 273
0.03190716 0.67400002 -0.038997639 1.1074338e-38 347 273
0.033137999 0.67500001 -0.039055496 1.3371275e-38 348 273
0.034372345 0.676 -0.039113361 1.3371275e-38 349 273
0.035557602 0.676 -0.039113361 1.3553849e-38 350 273
0.036742851 0.676 -0.039113361 1.290848e-38 351 273
0.037928104 0.676 -0.039113361 1.1617388e-38 352 273
0.039229076 0.67799997 -0.039229076 1.0234453e-38 353 273
0.040417835 0.67799997 -0.039229076 8.3037654e-39 354 273
0.041606598 0.67799997 -0.039229076 7.3814504e-39 355 273
0.042858478 0.67900002 -0.039286941 6.5524156e-39 356 273
0.044048995 0.67900002 -0.039286941 8.8573049e-39 357 273
0.045239504 0.67900002 -0.039286941 1.3000328e-38 358 273
0.046635158 0.68199998 -0.039460517 1.3461306e-38 359 273
0.047901068 0.68300003 -0.039518382 1.3643881e-38 360 273
0.049170479 0.68400002 -0.03957624 1.3736077e-38 361 273
0.050517038 0.68599999 -0.039691959 1.3553483e-38 362 273
0.051795214 0.68699998 -0.039749816 1.382971e-38 363 273
0.052999757 0.68699998 -0.039749816 1.3738601e-38 364 273
0.054204296 0.68699998 -0.039749816 1.3738601e-38 365 273
0.055408835 0.68699998 -0.039749816 1.4382871e-38 366 273
0.056695789 0.68800002 -0.039807681 1.7517523e-38 367 273
0.057902083 0.68800002 -0.039807681 1.9263827e-38 368 273
-0.0085545136 0.69700003 -0.041550495 1.7699766e-38 313 274
-0.00733244 0.69700003 -0.041550495 1.5676519e-38 314 274
-0.0060840664 0.69400001 -0.041371655 1.4201389e-38 315 274
-0.0048672534 0.69400001 -0.041371655 1.3836577e-38 316 274
-0.0036504399 0.69400001 -0.041371655 1.4665977e-38 317 274
-0.00243012 0.69300002 -0.041312039 1.3557834e-38 318 274
-0.0012115532 0.69099998 -0.041192811 1.1621726e-38 319 274
0 0.69 -0.041133199 1.0320929e-38 320 274
0.0012045399 0.68699998 -0.040954359 1.0320929e-38 321 274
0.0024055731 0.68599999 -0.040894743 7.932497e-39 322 274
0.00359784 0.68400002 -0.040775519 7.7481057e-39 323 274
0.0047901068 0.68300003 -0.040715907 7.5648061e-39 324 274
0.005978866 0.68199998 -0.040656291 7.4726104e-39 325 274
0.00717464 0.68199998 -0.040656291 5.4500715e-39 326 274
0.0083458666 0.68000001 -0.040537067 5.2656789e-39 327 274
0.0095100794 0.67799997 -0.040417835 7.6623911e-39 328 274
0.010698839 0.67799997 -0.040417835 8.8609329e-39 329 274
0.011852534 0.676 -0.040298611 8.5818068e-39 330 274
0.013037786 0.676 -0.040298611 8.3977757e-39 331 274
0.014202001 0.67500001 -0.040238999 9.5016023e-39 332 274
0.0153855 0.67500001 -0.040238999 9.8700247e-39 333 274
0.016569 0.67500001 -0.040238999 9.0424192e-39 334 274
0.0177262 0.67400002 -0.040179387 1.0148767e-38 335 274
0.018907947 0.67400002 -0.040179387 1.2817751e-38 336 274
0.020089693 0.67400002 -0.040179387 1.1895796e-38 337 274
0.021271439 0.67400002 -0.040179387 1.1433728e-38 338 274
0.022453187 0.67400002 -0.040179387 1.1617761e-38 339 274
0.023634933 0.67400002 -0.040179387 1.0511428e-38 340 274
0.0248535 0.67500001 -0.040238999 6.8239634e-39 341 274
0.026037 0.67500001 -0.040238999 3.8816304e-39 342 274
0.027220501 0.67500001 -0.040238999 6.1865225e-39 343 274
0.028404001 0.67500001 -0.040238999 9.2214379e-39 344 274
0.0295875 0.67500001 -0.040238999 6.2711778e-39 345 274
0.030771 0.67500001 -0.040238999 5.6326229e-39 346 274
0.031954501 0.67500001 -0.040238999 8.9516655e-39 347 274
0.033137999 0.67500001 -0.040238999 9.2246427e-39 348 274
0.034372345 0.676 -0.040298611 7.1041432e-39 349 274
0.035557602 0.676 -0.040298611 7.8320141e-39 350 274
0.036742851 0.676 -0.040298611 8.3851878e-39 351 274
0.037928104 0.676 -0.040298611 5.9059952e-39 352 274
0.039229076 0.67799997 -0.040417835 4.430505e-39 353 274
0.040417835 0.67799997 -0.040417835 4.5327619e-39 354 274
0.041606598 0.67799997 -0.040417835 6.8376513e-39 355 274
0.042858478 0.67900002 -0.040477451 8.5764006e-39 356 274
0.044048995 0.67900002 -0.040477451 9.5905511e-39 357 274
0.045306131 0.68000001 -0.040537067 1.3092525e-38 358 274
0.04670354 0.68300003 -0.040715907 1.383009e-38 359 274
0.0479712 0.68400002 -0.040775519 1.3553481e-38 360 274
0.049314249 0.68599999 -0.040894743 1.3553481e-38 361 274
0.050590675 0.68699998 -0.040954359 1.3553481e-38 362 274
0.051870614 0.68800002 -0.041013971 1.3737871e-38 363 274
0.052999757 0.68699998 -0.040954359 1.3829713e-38 364 274
0.054204296 0.68699998 -0.040954359 1.3737517e-38 365 274
0.055489492 0.68800002 -0.041013971 1.4659461e-38 366 274
0.056695789 0.68800002 -0.041013971 1.8070341e-38 367 274
-0.0085545136 0.69700003 -0.042772565 1.7791243e-38 313 275
-0.00733244 0.69700003 -0.042772565 1.5674724e-38 314 275
-0.0060840664 0.69400001 -0.042588469 1.4291431e-38 315 275
-0.0048672534 0.69400001 -0.042588469 1.3193727e-38 316 275
-0.0036504399 0.69400001 -0.042588469 1.3839096e-38 317 275
-0.00243012 0.69300002 -0.042527102 1.3926973e-38 318 275
-0.00121506 0.69300002 -0.042527102 1.3281604e-38 319 275
0 0.69 -0.042342998 1.2722679e-38 320 275
0.0012062934 0.68800002 -0.042220265 1.0418148e-38 321 275
0.0024090798 0.68699998 -0.042158898 8.3905884e-39 322 275
0.0036136196 0.68699998 -0.042158898 7.6530234e-39 323 275
0.0047901068 0.68300003 -0.041913435 7.5622893e-39 324 275
0.0059876335 0.68300003 -0.041913435 7.7466806e-39 325 275
0.0071851597 0.68300003 -0.041913435 6.0007244e-39 326 275
0.0083704125 0.68199998 -0.041852064 5.4475506e-39 327 275
0.0095381327 0.68000001 -0.041729335 8.4878358e-39 328 275
0.010698839 0.67799997 -0.041606598 9.9633246e-39 329 275
0.011887599 0.67799997 -0.041606598 7.292517e-39 330 275
0.013076359 0.67799997 -0.041606598 6.0017781e-39 331 275
0.014223038 0.676 -0.041483864 6.5549533e-39 332 275
0.0153855 0.67500001 -0.041422497 7.5691066e-39 333 275
0.016569 0.67500001 -0.041422497 5.4532889e-39 334 275
0.0177525 0.67500001 -0.041422497 4.9926709e-39 335 275
0.018935999 0.67500001 -0.041422497 7.8456893e-39 336 275
0.020119499 0.67500001 -0.041422497 8.1222776e-39 337 275
0.021303 0.67500001 -0.041422497 8.7622352e-39 338 275
0.022486499 0.67500001 -0.041422497 8.0246702e-39 339 275
0.023669999 0.67500001 -0.041422497 7.385416e-39 340 275
0.0248535 0.67500001 -0.041422497 6.4634583e-39 341 275
0.026037 0.67500001 -0.041422497 5.2584552e-39 342 275
0.027220501 0.67500001 -0.041422497 7.1945634e-39 343 275
0.028404001 0.67500001 -0.041422497 8.1168952e-39 344 275
0.0295875 0.67500001 -0.041422497 6.0885914e-39 345 275
0.030771 0.67500001 -0.041422497 8.3963296e-39 346 275
0.032001842 0.676 -0.041483864 9.594514e-39 347 275
0.033187091 0.676 -0.041483864 1.050891e-38 348 275
0.034372345 0.676 -0.041483864 7.6512059e-39 349 275
0.035557602 0.676 -0.041483864 5.4414171e-39 350 275
0.036742851 0.676 -0.041483864 5.9945909e-39 351 275
0.038040318 0.67799997 -0.041606598 5.9031365e-39 352 275
0.039229076 0.67799997 -0.041606598 5.4425185e-39 353 275
0.040417835 0.67799997 -0.041606598 5.448254e-39 354 275
0.041606598 0.67799997 -0.041606598 8.1219273e-39 355 275
0.042858478 0.67900002 -0.041667968 8.4860029e-39 356 275
0.044048995 0.67900002 -0.041667968 8.9469796e-39 357 275
0.045439381 0.68199998 -0.041852064 1.2265281e-38 358 275
0.046771921 0.68400002 -0.041974798 1.355602e-38 359 275
0.048111461 0.68599999 -0.042097531 1.3278694e-38 360 275
0.049386136 0.68699998 -0.042158898 1.318614e-38 361 275
0.050664321 0.68800002 -0.042220265 1.3185424e-38 362 275
0.051870614 0.68800002 -0.042220265 1.3185424e-38 363 275
0.052999757 0.68699998 -0.042158898 1.2911001e-38 364 275
0.054204296 0.68699998 -0.042158898 1.3187588e-38 365 275
0.055489492 0.68800002 -0.042220265 1.4935336e-38 366 275
0.056695789 0.68800002 -0.042220265 1.8069988e-38 367 275
-0.00733244 0.69700003 -0.043994639 1.5674724e-38 314 276
-0.0061015999 0.69599998 -0.043931518 1.4199234e-38 315 276
-0.0048672534 0.69400001 -0.043805279 1.2825667e-38 316 276
-0.0036504399 0.69400001 -0.043805279 1.3194091e-38 317 276
-0.0024336267 0.69400001 -0.043805279 1.3466718e-38 318 276
-0.00121506 0.69300002 -0.043742158 1.3097575e-38 319 276
0 0.69099998 -0.043615919 1.4383279e-38 320 276
0.0012097999 0.69 -0.043552797 1.3000345e-38 321 276
0.0024125867 0.68800002 -0.043426562 1.060111e-38 322 276
0.0036136196 0.68699998 -0.043363437 8.8493932e-39 323 276
0.0048181596 0.68699998 -0.043363437 7.1945788e-39 324 276
0.0059964 0.68400002 -0.043174081 7.1023832e-39 325 276
0.0071956799 0.68400002 -0.043174081 4.9880144e-39 326 276
0.0083826864 0.68300003 -0.043110959 6.002525e-39 327 276
0.009566186 0.68199998 -0.043047838 8.7651485e-39 328 276
0.0107304 0.68000001 -0.042921599 9.8714947e-39 329 276
0.011922667 0.68000001 -0.042921599 6.2783832e-39 330 276
0.013095647 0.67900002 -0.042858478 4.7110575e-39 331 276
0.014265119 0.67799997 -0.042795356 4.8983229e-39 332 276
0.015408293 0.676 -0.042669121 7.4798005e-39 333 276
0.016593546 0.676 -0.042669121 6.9259079e-39 334 276
0.017778801 0.676 -0.042669121 4.5284613e-39 335 276
0.018964052 0.676 -0.042669121 3.884894e-39 336 276
0.020119499 0.67500001 -0.042606 4.8068503e-39 337 276
0.021303 0.67500001 -0.042606 8.0272107e-39 338 276
0.022486499 0.67500001 -0.042606 6.1836569e-39 339 276
0.023705067 0.676 -0.042669121 6.5574658e-39 340 276
0.0248535 0.67500001 -0.042606 7.5719779e-39 341 276
0.026037 0.67500001 -0.042606 7.0998622e-39 342 276
0.027220501 0.67500001 -0.042606 5.8091234e-39 343 276
0.028404001 0.67500001 -0.042606 5.8105724e-39 344 276
0.0295875 0.67500001 -0.042606 5.7183767e-39 345 276
0.030771 0.67500001 -0.042606 1.051288e-38 346 276
0.032001842 0.676 -0.042669121 1.0789467e-38 347 276
0.033187091 0.676 -0.042669121 1.1154283e-38 348 276
0.034372345 0.676 -0.042669121 8.9419475e-39 349 276
0.035557602 0.676 -0.042669121 5.8119975e-39 350 276
0.036851559 0.67799997 -0.042795356 6.0885858e-39 351 276
0.038040318 0.67799997 -0.042795356 6.2733512e-39 352 276
0.039229076 0.67799997 -0.042795356 5.9964056e-39 353 276
0.040477451 0.67900002 -0.042858478 6.3698376e-39 354 276
0.041667968 0.67900002 -0.042858478 8.6750885e-39 355 276
0.042858478 0.67900002 -0.042858478 8.8547714e-39 356 276
0.044113863 0.68000001 -0.042921599 8.8547714e-39 357 276
0.045506012 0.68300003 -0.043110959 1.1805378e-38 358 276
0.046908677 0.68599999 -0.043300316 1.3372705e-38 359 276
0.048181597 0.68699998 -0.043363437 1.3093231e-38 360 276
0.049386136 0.68699998 -0.043363437 1.2724089e-38 361 276
0.050664321 0.68800002 -0.043426562 1.2540057e-38 362 276
0.051870614 0.68800002 -0.043426562 1.2724089e-38 363 276
0.053076908 0.68800002 -0.043426562 1.2818086e-38 364 276
0.054283202 0.68800002 -0.043426562 1.3278704e-38 365 276
0.055650797 0.69 -0.043552797 1.5027166e-38 366 276
-0.0073429602 0.69800001 -0.045281585 1.558217e-38 314 277
-0.0061015999 0.69599998 -0.045151837 1.3830812e-38 315 277
-0.0048812795 0.69599998 -0.045151837 1.2272859e-38 316 277
-0.0036609597 0.69599998 -0.045151837 1.2641642e-38 317 277
-0.0024336267 0.69400001 -0.045022093 1.2271059e-38 318 277
-0.0012168133 0.69400001 -0.045022093 1.2086667e-38 319 277
0 0.69300002 -0.044957221 1.4110285e-38 320 277
0.0012115532 0.69099998 -0.044827472 1.4202481e-38 321 277
0.0024125867 0.68800002 -0.044632856 1.383118e-38 322 277
0.0036136196 0.68699998 -0.044567976 1.2632637e-38 323 277
0.0048181596 0.68699998 -0.044567976 1.1432674e-38 324 277
0.0060139326 0.68599999 -0.044503104 9.8649898e-39 325 277
0.0071956799 0.68400002 -0.04437336 6.9262554e-39 326 277
0.0083826864 0.68300003 -0.044308487 7.9404059e-39 327 277
0.0095802136 0.68300003 -0.044308487 9.1328422e-39 328 277
0.010761959 0.68199998 -0.044243611 8.3949171e-39 329 277
0.011922667 0.68000001 -0.044113863 6.0007216e-39 330 277
0.013095647 0.67900002 -0.044048995 4.8025371e-39 331 277
0.014265119 0.67799997 -0.043984115 5.1731091e-39 332 277
0.015408293 0.676 -0.043854371 8.0315323e-39 333 277
0.016593546 0.676 -0.043854371 7.7524245e-39 334 277
0.017778801 0.676 -0.043854371 5.7237619e-39 335 277
0.018964052 0.676 -0.043854371 5.6326509e-39 336 277
0.020149305 0.676 -0.043854371 6.2780203e-39 337 277
0.021334561 0.676 -0.043854371 7.752056e-39 338 277
0.022519812 0.676 -0.043854371 7.4751089e-39 339 277
0.023705067 0.676 -0.043854371 9.589126e-39 340 277
0.0248535 0.67500001 -0.043789499 1.0050104e-38 341 277
0.026037 0.67500001 -0.043789499 6.9176192e-39 342 277
0.027220501 0.67500001 -0.043789499 5.5346847e-39 343 277
0.028404001 0.67500001 -0.043789499 5.5339813e-39 344 277
0.0295875 0.67500001 -0.043789499 5.5339813e-39 345 277
0.030771 0.67500001 -0.043789499 1.0972066e-38 346 277
0.032001842 0.676 -0.043854371 1.0787316e-38 347 277
0.033187091 0.676 -0.043854371 9.6805958e-39 348 277
0.034372345 0.676 -0.043854371 8.8511953e-39 349 277
0.0356628 0.67799997 -0.043984115 6.2726197e-39 350 277
0.036851559 0.67799997 -0.043984115 5.7194459e-39 351 277
0.038096428 0.67900002 -0.044048995 5.3531998e-39 352 277
0.039286941 0.67900002 -0.044048995 4.9847774e-39 353 277
0.040477451 0.67900002 -0.044048995 6.6475007e-39 354 277
0.041729335 0.68000001 -0.044113863 9.4133696e-39 355 277
0.043047838 0.68199998 -0.044243611 1.02377e-38 356 277
0.044308487 0.68300003 -0.044308487 1.0514287e-38 357 277
0.045705888 0.68599999 -0.044503104 1.2356755e-38 358 277
0.046977058 0.68699998 -0.044567976 1.2909929e-38 359 277
0.048181597 0.68699998 -0.044567976 1.1159289e-38 360 277
0.049458027 0.68800002 -0.044632856 1.0974539e-38 361 277
0.050811596 0.69 -0.0447626 1.1251485e-38 362 277
0.052021399 0.69 -0.0447626 1.1804659e-38 363 277
0.053231198 0.69 -0.0447626 1.235783e-38 364 277
0.054440998 0.69 -0.0447626 1.3095395e-38 365 277
0.055650797 0.69 -0.0447626 1.4752377e-38 366 277
-0.00733244 0.69700003 -0.046438783 1.5398137e-38 314 278
-0.0061015999 0.69599998 -0.046372157 1.3369833e-38 315 278
-0.0048812795 0.69599998 -0.046372157 1.1995916e-38 316 278
-0.0036609597 0.69599998 -0.046372157 1.254909e-38 317 278
-0.0024336267 0.69400001 -0.046238903 1.1718609e-38 318 278
-0.0012168133 0.69400001 -0.046238903 1.107324e-38 319 278
0 0.69300002 -0.04617228 1.2546206e-38 320 278
0.0012115532 0.69099998 -0.046039023 1.3375967e-38 321 278
0.0024195998 0.69 -0.045972396 1.4570191e-38 322 278
0.0036188802 0.68800002 -0.045839146 1.4662387e-38 323 278
0.0048181596 0.68699998 -0.045772515 1.4568389e-38 324 278
0.0060226996 0.68699998 -0.045772515 1.327765e-38 325 278
0.0072167199 0.68599999 -0.045705888 1.0794489e-38 326 278
0.0083949603 0.68400002 -0.045572639 1.0517902e-38 327 278
0.0095802136 0.68300003 -0.045506012 1.0237016e-38 328 278
0.010761959 0.68199998 -0.045439381 8.0243199e-39 329 278
0.011957732 0.68199998 -0.045439381 5.2638628e-39 330 278
0.013114933 0.68000001 -0.045306131 4.8950803e-39 331 278
0.01428616 0.67900002 -0.045239504 6.4613172e-39 332 278
0.015453878 0.67799997 -0.045172878 8.8580448e-39 333 278
0.016593546 0.676 -0.045039624 8.1197595e-39 334 278
0.017778801 0.676 -0.045039624 6.5524338e-39 335 278
0.018964052 0.676 -0.045039624 7.2889296e-39 336 278
0.020149305 0.676 -0.045039624 6.8275913e-39 337 278
0.021334561 0.676 -0.045039624 7.8410048e-39 338 278
0.022519812 0.676 -0.045039624 9.8693087e-39 339 278
0.023705067 0.676 -0.045039624 1.2721966e-38 340 278
0.024890319 0.676 -0.045039624 1.0601107e-38 341 278
0.026075572 0.676 -0.045039624 7.1934648e-39 342 278
0.027260827 0.676 -0.045039624 7.2860205e-39 343 278
0.028446076 0.676 -0.045039624 6.9154556e-39 344 278
0.029631332 0.676 -0.045039624 5.3477697e-39 345 278
0.030816587 0.676 -0.045039624 9.6838454e-39 346 278
0.03209652 0.67799997 -0.045172878 9.776041e-39 347 278
0.033285279 0.67799997 -0.045172878 8.8526358e-39 348 278
0.034474038 0.67799997 -0.045172878 8.6682459e-39 349 278
0.035715401 0.67900002 -0.045239504 5.6315691e-39 350 278
0.036905911 0.67900002 -0.045239504 4.7099729e-39 351 278
0.038096428 0.67900002 -0.045239504 4.3447988e-39 352 278
0.039344799 0.68000001 -0.045306131 4.9901682e-39 353 278
0.040656291 0.68199998 -0.045439381 8.0282701e-39 354 278
0.041913435 0.68300003 -0.045506012 1.1070367e-38 355 278
0.043110959 0.68300003 -0.045506012 1.2541145e-38 356 278
0.044503104 0.68599999 -0.045705888 1.2817733e-38 357 278
0.045705888 0.68599999 -0.045705888 1.2908846e-38 358 278
0.046977058 0.68699998 -0.045772515 1.1987249e-38 359 278
0.048181597 0.68699998 -0.045772515 9.8685618e-39 360 278
0.049458027 0.68800002 -0.045839146 9.7763647e-39 361 278
0.050811596 0.69 -0.045972396 1.0238425e-38 362 278
0.052021399 0.69 -0.045972396 1.1252218e-38 363 278
0.053462639 0.69300002 -0.04617228 1.1898294e-38 364 278
0.054756597 0.69400001 -0.046238903 1.2728054e-38 365 278
-0.00733244 0.69700003 -0.047660861 1.5581806e-38 314 279
-0.0061015999 0.69599998 -0.047592476 1.3092525e-38 315 279
-0.0048812795 0.69599998 -0.047592476 1.1627493e-38 316 279
-0.0036609597 0.69599998 -0.047592476 1.2088112e-38 317 279
-0.0024336267 0.69400001 -0.047455717 1.2086317e-38 318 279
-0.0012168133 0.69400001 -0.047455717 1.1256915e-38 319 279
0 0.69300002 -0.047387339 1.0154528e-38 320 279
0.0012115532 0.69099998 -0.047250576 1.0707701e-38 321 279
0.0024195998 0.69 -0.047182199 1.2638049e-38 322 279
0.0036188802 0.68800002 -0.047045439 1.3375614e-38 323 279
0.0048251734 0.68800002 -0.047045439 1.3836223e-38 324 279
0.0060226996 0.68699998 -0.046977058 1.3836223e-38 325 279
0.0072167199 0.68599999 -0.046908677 1.3742945e-38 326 279
0.0084195063 0.68599999 -0.046908677 1.3742945e-38 327 279
0.0095942402 0.68400002 -0.046771921 1.3277653e-38 328 279
0.01077774 0.68300003 -0.04670354 1.1525938e-38 329 279
0.011975267 0.68300003 -0.04670354 9.0416962e-39 330 279
0.013153506 0.68199998 -0.046635158 7.93535e-39 331 279
0.01434928 0.68199998 -0.046635158 8.5789202e-39 332 279
0.015499466 0.68000001 -0.046498399 9.6852677e-39 333 279
0.016642639 0.67799997 -0.046361636 8.5810908e-39 334 279
0.0178314 0.67799997 -0.046361636 6.5527869e-39 335 279
0.019020159 0.67799997 -0.046361636 7.4733111e-39 336 279
0.020208918 0.67799997 -0.046361636 6.4595179e-39 337 279
0.021397678 0.67799997 -0.046361636 7.7459197e-39 338 279
0.022586439 0.67799997 -0.046361636 1.2263506e-38 339 279
0.023775198 0.67799997 -0.046361636 1.3370206e-38 340 279
0.024963958 0.67799997 -0.046361636 1.0143359e-38 341 279
0.026152719 0.67799997 -0.046361636 7.0119476e-39 342 279
0.027341479 0.67799997 -0.046361636 8.3023277e-39 343 279
0.028530238 0.67799997 -0.046361636 8.9412413e-39 344 279
0.029762832 0.67900002 -0.046430022 6.5437948e-39 345 279
0.030953348 0.67900002 -0.046430022 4.9941128e-39 346 279
0.032143861 0.67900002 -0.046430022 5.8238721e-39 347 279
0.033334374 0.67900002 -0.046430022 6.9194212e-39 348 279
0.034524884 0.67900002 -0.046430022 7.5647906e-39 349 279
0.035767999 0.68000001 -0.046498399 7.8467669e-39 350 279
0.037068974 0.68199998 -0.046635158 8.8609175e-39 351 279
0.038264744 0.68199998 -0.046635158 1.0149488e-38 352 279
0.039460517 0.68199998 -0.046635158 1.1163282e-38 353 279
0.040715907 0.68300003 -0.04670354 1.2541522e-38 354 279
0.041974798 0.68400002 -0.046771921 1.2909944e-38 355 279
0.043300316 0.68599999 -0.046908677 1.2727335e-38 356 279
0.044503104 0.68599999 -0.046908677 1.2727335e-38 357 279
0.045772515 0.68699998 -0.046977058 1.1802505e-38 358 279
0.046977058 0.68699998 -0.046977058 1.0972744e-38 359 279
0.048251733 0.68800002 -0.047045439 7.8417054e-39 360 279
0.049458027 0.68800002 -0.047045439 7.7495098e-39 361 279
0.050885238 0.69099998 -0.047250576 8.3973988e-39 362 279
0.052096792 0.69099998 -0.047250576 1.0056921e-38 363 279
0.053462639 0.69300002 -0.047387339 1.1529158e-38 364 279
0.054677699 0.69300002 -0.047387339 1.2451474e-38 365 279
-0.0073429602 0.69800001 -0.048953064 1.5949513e-38 314 280
-0.006119133 0.69800001 -0.048953064 1.2907057e-38 315 280
-0.0048882933 0.69700003 -0.048882935 1.1258001e-38 316 280
-0.0036609597 0.69599998 -0.048812799 1.1534588e-38 317 280
-0.0024406398 0.69599998 -0.048812799 1.1259077e-38 318 280
-0.0012168133 0.69400001 -0.048672531 1.1259077e-38 319 280
0 0.69300002 -0.048602402 1.061478e-38 320 280
0.00121506 0.69300002 -0.048602402 1.0430389e-38 321 280
0.0024231065 0.69099998 -0.04846213 1.0889572e-38 322 280
0.0036293997 0.69 -0.048391998 1.1442745e-38 323 280
0.0048251734 0.68800002 -0.048251733 1.2728803e-38 324 280
0.0060314666 0.68800002 -0.048251733 1.3097225e-38 325 280
0.0072272392 0.68699998 -0.048181597 1.3098658e-38 326 280
0.0084195063 0.68599999 -0.048111461 1.3559635e-38 327 280
0.0096222926 0.68599999 -0.048111461 1.4202485e-38 328 280
0.01079352 0.68400002 -0.0479712 1.3557116e-38 329 280
0.011975267 0.68300003 -0.047901068 1.2268175e-38 330 280
0.013172794 0.68300003 -0.047901068 1.1346218e-38 331 280
0.014370319 0.68300003 -0.047901068 1.1346213e-38 332 280
0.015545053 0.68199998 -0.047830928 1.1530963e-38 333 280
0.016642639 0.67799997 -0.047550395 9.5966664e-39 334 280
0.0178314 0.67799997 -0.047550395 7.5683626e-39 335 280
0.019048214 0.67900002 -0.047620531 8.5810726e-39 336 280
0.020208918 0.67799997 -0.047550395 8.2119299e-39 337 280
0.021397678 0.67799997 -0.047550395 8.0228345e-39 338 280
0.022586439 0.67799997 -0.047550395 1.106529e-38 339 280
0.023775198 0.67799997 -0.047550395 1.1807187e-38 340 280
0.024963958 0.67799997 -0.047550395 9.4104605e-39 341 280
0.026191294 0.67900002 -0.047620531 8.6725409e-39 342 280
0.027381808 0.67900002 -0.047620531 1.0793042e-38 343 280
0.028572321 0.67900002 -0.047620531 1.1065331e-38 344 280
0.029806666 0.68000001 -0.047690667 8.6682459e-39 345 280
0.030998932 0.68000001 -0.047690667 7.755293e-39 346 280
0.032191198 0.68000001 -0.047690667 8.8612804e-39 347 280
0.033383466 0.68000001 -0.047690667 8.6750829e-39 348 280
0.034575731 0.68000001 -0.047690667 9.2282552e-39 349 280
0.035873197 0.68199998 -0.047830928 1.1068205e-38 350 280
0.037068974 0.68199998 -0.047830928 1.1897966e-38 351 280
0.038320854 0.68300003 -0.047901068 1.2727348e-38 352 280
0.039518382 0.68300003 -0.047901068 1.2819902e-38 353 280
0.040775519 0.68400002 -0.0479712 1.3555301e-38 354 280
0.042097531 0.68599999 -0.048111461 1.3186158e-38 355 280
0.043300316 0.68599999 -0.048111461 1.2818452e-38 356 280
0.044567976 0.68699998 -0.048181597 1.2357474e-38 357 280
0.045839146 0.68800002 -0.048251733 1.0881277e-38 358 280
0.047045439 0.68800002 -0.048251733 1.0051157e-38 359 280
0.048251733 0.68800002 -0.048251733 6.9208408e-39 360 280
0.049601797 0.69 -0.048391998 6.5524184e-39 361 280
0.051032521 0.69300002 -0.048602402 8.1193839e-39 362 280
0.052322973 0.69400001 -0.048672531 9.779264e-39 363 280
0.053771228 0.69700003 -0.048882935 1.125365e-38 364 280
0.055229999 0.69999999 -0.049093332 1.2636584e-38 365 280
-0.0073429602 0.69800001 -0.050176892 1.6318292e-38 314 281
-0.006119133 0.69800001 -0.050176892 1.2538271e-38 315 281
-0.0048953067 0.69800001 -0.050176892 1.0612629e-38 316 281
-0.00366622 0.69700003 -0.050105009 1.1442748e-38 317 281
-0.0024406398 0.69599998 -0.050033119 1.1167247e-38 318 281
-0.0012203199 0.69599998 -0.050033119 1.1167247e-38 319 281
0 0.69400001 -0.049889345 1.098501e-38 320 281
0.00121506 0.69300002 -0.049817458 1.080062e-38 321 281
0.0024231065 0.69099998 -0.049673684 1.1441673e-38 322 281
0.0036346598 0.69099998 -0.049673684 1.042752e-38 323 281
0.0048391996 0.69 -0.049601797 9.9636721e-39 324 281
0.0060314666 0.68800002 -0.049458027 9.8714765e-39 325 281
0.0072272392 0.68699998 -0.049386136 9.3229746e-39 326 281
0.0084317802 0.68699998 -0.049386136 1.0705909e-38 327 281
0.0096222926 0.68599999 -0.049314249 1.2824235e-38 328 281
0.010825079 0.68599999 -0.049314249 1.35618e-38 329 281
0.0119928 0.68400002 -0.049170479 1.4112803e-38 330 281
0.01319208 0.68400002 -0.049170479 1.4020608e-38 331 281
0.014370319 0.68300003 -0.049098592 1.4204633e-38 332 281
0.015567848 0.68300003 -0.049098592 1.4020242e-38 333 281
0.016740825 0.68199998 -0.049026705 1.3743989e-38 334 281
0.017936599 0.68199998 -0.049026705 1.2637641e-38 335 281
0.019076265 0.68000001 -0.048882935 1.2358881e-38 336 281
0.020238725 0.67900002 -0.048811045 1.3096446e-38 337 281
0.021429239 0.67900002 -0.048811045 1.2726957e-38 338 281
0.022586439 0.67799997 -0.048739154 1.0883044e-38 339 281
0.023775198 0.67799997 -0.048739154 8.4020469e-39 340 281
0.025000781 0.67900002 -0.048811045 8.7708294e-39 341 281
0.026191294 0.67900002 -0.048811045 1.1986896e-38 342 281
0.027381808 0.67900002 -0.048811045 1.3830809e-38 343 281
0.028614398 0.68000001 -0.048882935 1.3741133e-38 344 281
0.029806666 0.68000001 -0.048882935 1.3741133e-38 345 281
0.031090107 0.68199998 -0.049026705 1.3742213e-38 346 281
0.032285877 0.68199998 -0.049026705 1.3742213e-38 347 281
0.03348165 0.68199998 -0.049026705 1.3925525e-38 348 281
0.034677424 0.68199998 -0.049026705 1.383333e-38 349 281
0.035925802 0.68300003 -0.049098592 1.3923726e-38 350 281
0.037123326 0.68300003 -0.049098592 1.3370552e-38 351 281
0.038376961 0.68400002 -0.049170479 1.2541875e-38 352 281
0.03957624 0.68400002 -0.049170479 1.2449319e-38 353 281
0.040894743 0.68599999 -0.049314249 1.2632268e-38 354 281
0.042097531 0.68599999 -0.049314249 1.2632268e-38 355 281
0.043363437 0.68699998 -0.049386136 1.1897222e-38 356 281
0.044632856 0.68800002 -0.049458027 1.0790874e-38 357 281
0.045839146 0.68800002 -0.049458027 9.2217686e-39 358 281
0.047045439 0.68800002 -0.049458027 8.2998123e-39 359 281
0.048391998 0.69 -0.049601797 6.2769203e-39 360 281
0.049673684 0.69099998 -0.049673684 6.6457014e-39 361 281
0.051106159 0.69400001 -0.049889345 8.6711158e-39 362 281
0.052322973 0.69400001 -0.049889345 1.0330637e-38 363 281
0.053848371 0.69800001 -0.050176892 1.1068534e-38 364 281
0.055229999 0.69999999 -0.050320663 1.2912445e-38 365 281
0.056457333 0.69999999 -0.050320663 1.5949115e-38 366 281
-0.0073639993 0.69999999 -0.051547997 1.6227892e-38 314 282
-0.0061366665 0.69999999 -0.051547997 1.2540426e-38 315 282
-0.0049093333 0.69999999 -0.051547997 1.0887774e-38 316 282
-0.0036714801 0.69800001 -0.051400717 1.1440948e-38 317 282
-0.0024441467 0.69700003 -0.051327083 1.0799547e-38 318 282
-0.0012220733 0.69700003 -0.051327083 1.0983938e-38 319 282
0 0.69400001 -0.051106159 1.1259799e-38 320 282
0.0012168133 0.69400001 -0.051106159 1.1259799e-38 321 282
0.00243012 0.69300002 -0.051032521 1.1351276e-38 322 282
0.0036451798 0.69300002 -0.051032521 1.0982493e-38 323 282
0.0048462129 0.69099998 -0.050885238 9.8765141e-39 324 282
0.0060489997 0.69 -0.050811596 9.5999286e-39 325 282
0.0072377604 0.68800002 -0.050664321 9.6906823e-39 326 282
0.0084317802 0.68699998 -0.050590675 1.0889224e-38 327 282
0.0096363192 0.68699998 -0.050590675 1.171789e-38 328 282
0.010825079 0.68599999 -0.050517038 1.217851e-38 329 282
0.012027865 0.68599999 -0.050517038 1.2916065e-38 330 282
0.01319208 0.68400002 -0.050369758 1.3192292e-38 331 282
0.01439136 0.68400002 -0.050369758 1.3559983e-38 332 282
0.015567848 0.68300003 -0.05029612 1.3559983e-38 333 282
0.016765373 0.68300003 -0.05029612 1.3928004e-38 334 282
0.017962901 0.68300003 -0.05029612 1.3282635e-38 335 282
0.019132372 0.68199998 -0.050222475 1.3005307e-38 336 282
0.020328145 0.68199998 -0.050222475 1.3650676e-38 337 282
0.0214608 0.68000001 -0.050075196 1.3834016e-38 338 282
0.022653066 0.68000001 -0.050075196 1.3096451e-38 339 282
0.023845334 0.68000001 -0.050075196 1.1252903e-38 340 282
0.025037598 0.68000001 -0.050075196 1.0792284e-38 341 282
0.026229866 0.68000001 -0.050075196 1.1900076e-38 342 282
0.027422134 0.68000001 -0.050075196 1.3098619e-38 343 282
0.028614398 0.68000001 -0.050075196 1.2728054e-38 344 282
0.029894331 0.68199998 -0.050222475 1.2451827e-38 345 282
0.031090107 0.68199998 -0.050222475 1.2634784e-38 346 282
0.032285877 0.68199998 -0.050222475 1.2727338e-38 347 282
0.03348165 0.68199998 -0.050222475 1.2728057e-38 348 282
0.034728274 0.68300003 -0.05029612 1.2635503e-38 349 282
0.035925802 0.68300003 -0.05029612 1.2173808e-38 350 282
0.037177678 0.68400002 -0.050369758 1.1712829e-38 351 282
0.038376961 0.68400002 -0.050369758 1.1343697e-38 352 282
0.039691959 0.68599999 -0.050517038 1.1343697e-38 353 282
0.040894743 0.68599999 -0.050517038 1.1711401e-38 354 282
0.042158898 0.68699998 -0.050590675 1.1896152e-38 355 282
0.043363437 0.68699998 -0.050590675 1.1343695e-38 356 282
0.044632856 0.68800002 -0.050664321 1.060613e-38 357 282
0.045839146 0.68800002 -0.050664321 8.39381e-39 358 282
0.047182199 0.69 -0.050811596 7.1952668e-39 359 282
0.04846213 0.69099998 -0.050885238 7.1030838e-39 360 282
0.049817458 0.69300002 -0.051032521 7.8406489e-39 361 282
0.051106159 0.69400001 -0.051106159 9.31756e-39 362 282
0.052473757 0.69599998 -0.051253434 1.0239518e-38 363 282
0.053771228 0.69700003 -0.051327083 1.106781e-38 364 282
0.055229999 0.69999999 -0.051547997 1.3096114e-38 365 282
-0.0073639993 0.69999999 -0.052775331 1.6319725e-38 314 283
-0.0061366665 0.69999999 -0.052775331 1.34613e-38 315 283
-0.0049093333 0.69999999 -0.052775331 1.1622452e-38 316 283
-0.0036714801 0.69800001 -0.052624546 1.1345865e-38 317 283
-0.0024441467 0.69700003 -0.052549154 1.0521884e-38 318 283
-0.0012220733 0.69700003 -0.052549154 1.0798472e-38 319 283
0 0.69599998 -0.052473757 1.0891389e-38 320 283
0.0012168133 0.69400001 -0.052322973 1.0891389e-38 321 283
0.00243012 0.69300002 -0.05224758 1.0984301e-38 322 283
0.0036451798 0.69300002 -0.05224758 1.1261248e-38 323 283
0.0048462129 0.69099998 -0.052096792 1.1351997e-38 324 283
0.0060489997 0.69 -0.052021399 1.1259802e-38 325 283
0.0072377604 0.68800002 -0.051870614 1.1442029e-38 326 283
0.0084317802 0.68699998 -0.051795214 1.1349475e-38 327 283
0.0096363192 0.68699998 -0.051795214 1.0704462e-38 328 283
0.010825079 0.68599999 -0.051719822 1.0151288e-38 329 283
0.012027865 0.68599999 -0.051719822 1.0336401e-38 330 283
0.013230653 0.68599999 -0.051719822 1.0797379e-38 331 283
0.01439136 0.68400002 -0.051569041 1.162497e-38 332 283
0.01559064 0.68400002 -0.051569041 1.227034e-38 333 283
0.016765373 0.68300003 -0.051493648 1.2731273e-38 334 283
0.017962901 0.68300003 -0.051493648 1.2639077e-38 335 283
0.019160427 0.68300003 -0.051493648 1.3188997e-38 336 283
0.020328145 0.68199998 -0.051418249 1.3742171e-38 337 283
0.021523919 0.68199998 -0.051418249 1.346597e-38 338 283
0.022719691 0.68199998 -0.051418249 1.3742917e-38 339 283
0.023915464 0.68199998 -0.051418249 1.3372312e-38 340 283
0.025111238 0.68199998 -0.051418249 1.1896824e-38 341 283
0.026307013 0.68199998 -0.051418249 1.1808947e-38 342 283
0.027502786 0.68199998 -0.051418249 1.2270285e-38 343 283
0.02869856 0.68199998 -0.051418249 1.0701562e-38 344 283
0.029894331 0.68199998 -0.051418249 9.7799647e-39 345 283
0.031090107 0.68199998 -0.051418249 1.0147325e-38 346 283
0.032285877 0.68199998 -0.051418249 1.023952e-38 347 283
0.033530746 0.68300003 -0.051493648 1.0424984e-38 348 283
0.034728274 0.68300003 -0.051493648 1.0332788e-38 349 283
0.035978399 0.68400002 -0.051569041 9.6881348e-39 350 283
0.037177678 0.68400002 -0.051569041 9.6881348e-39 351 283
0.03848917 0.68599999 -0.051719822 1.088129e-38 352 283
0.039691959 0.68599999 -0.051719822 1.1157877e-38 353 283
0.040894743 0.68599999 -0.051719822 1.1251146e-38 354 283
0.042158898 0.68699998 -0.051795214 1.13437e-38 355 283
0.043363437 0.68699998 -0.051795214 1.0975635e-38 356 283
0.044632856 0.68800002 -0.051870614 1.0699047e-38 357 283
0.045839146 0.68800002 -0.051870614 8.3037752e-39 358 283
0.047182199 0.69 -0.052021399 6.2754713e-39 359 283
0.04846213 0.69099998 -0.052096792 7.3789448e-39 360 283
0.049817458 0.69300002 -0.05224758 8.6696837e-39 361 283
0.051106159 0.69400001 -0.052322973 1.0330266e-38 362 283
0.052473757 0.69599998 -0.052473757 1.0791243e-38 363 283
0.053771228 0.69700003 -0.052549154 1.12522e-38 364 283
0.054993302 0.69700003 -0.052549154 1.3373058e-38 365 283
-0.0061366665 0.69999999 -0.054002665 1.475239e-38 315 284
-0.0049093333 0.69999999 -0.054002665 1.3185089e-38 316 284
-0.0036819996 0.69999999 -0.054002665 1.1617763e-38 317 284
-0.0024476533 0.69800001 -0.053848371 9.8765113e-39 318 284
-0.0012220733 0.69700003 -0.053771228 1.0429685e-38 319 284
0 0.69599998 -0.053694077 1.0431134e-38 320 284
0.0012203199 0.69599998 -0.053694077 1.052333e-38 321 284
0.0024336267 0.69400001 -0.053539783 1.0800272e-38 322 284
0.0036451798 0.69300002 -0.053462639 1.1076501e-38 323 284
0.00486024 0.69300002 -0.053462639 1.1168333e-38 324 284
0.0060577663 0.69099998 -0.053308345 1.1352364e-38 325 284
0.0072587994 0.69 -0.053231198 1.1351997e-38 326 284
0.0084440531 0.68800002 -0.053076908 1.1259802e-38 327 284
0.0096363192 0.68699998 -0.052999757 1.1350194e-38 328 284
0.010840859 0.68699998 -0.052999757 1.0889574e-38 329 284
0.012027865 0.68599999 -0.05292261 1.0794506e-38 330 284
0.013230653 0.68599999 -0.05292261 1.0610113e-38 331 284
0.01443344 0.68599999 -0.05292261 1.0612266e-38 332 284
0.01559064 0.68400002 -0.05276832 1.1534222e-38 333 284
0.016789921 0.68400002 -0.05276832 1.1811846e-38 334 284
0.0179892 0.68400002 -0.05276832 1.1442703e-38 335 284
0.01918848 0.68400002 -0.05276832 1.1990827e-38 336 284
0.020357953 0.68300003 -0.052691177 1.2636196e-38 337 284
0.02155548 0.68300003 -0.052691177 1.0981013e-38 338 284
0.022719691 0.68199998 -0.052614026 1.0150893e-38 339 284
0.023915464 0.68199998 -0.052614026 1.0982786e-38 340 284
0.025111238 0.68199998 -0.052614026 1.0982786e-38 341 284
0.026307013 0.68199998 -0.052614026 1.1810026e-38 342 284
0.027502786 0.68199998 -0.052614026 1.2086613e-38 343 284
0.02869856 0.68199998 -0.052614026 9.9668797e-39 344 284
0.029894331 0.68199998 -0.052614026 8.8601734e-39 345 284
0.031090107 0.68199998 -0.052614026 9.5041233e-39 346 284
0.032285877 0.68199998 -0.052614026 9.6885145e-39 347 284
0.033530746 0.68300003 -0.052691177 1.0056571e-38 348 284
0.034728274 0.68300003 -0.052691177 1.0148767e-38 349 284
0.035978399 0.68400002 -0.05276832 1.0056924e-38 350 284
0.037177678 0.68400002 -0.05276832 1.0333151e-38 351 284
0.03848917 0.68599999 -0.05292261 1.0699773e-38 352 284
0.039691959 0.68599999 -0.05292261 1.1068555e-38 353 284
0.040954359 0.68699998 -0.052999757 1.088524e-38 354 284
0.042158898 0.68699998 -0.052999757 1.088524e-38 355 284
0.043363437 0.68699998 -0.052999757 1.0608646e-38 356 284
0.044632856 0.68800002 -0.053076908 1.0240224e-38 357 284
0.045972396 0.69 -0.053231198 9.1331631e-39 358 284
0.047250576 0.69099998 -0.053308345 7.9346199e-39 359 284
0.048602402 0.69300002 -0.053462639 9.2210456e-39 360 284
0.049889345 0.69400001 -0.053539783 1.0050806e-38 361 284
0.051253434 0.69599998 -0.053694077 1.198582e-38 362 284
0.052549154 0.69700003 -0.053771228 1.2539354e-38 363 284
0.053848371 0.69800001 -0.053848371 1.2910635e-38 364 284
0.0550722 0.69800001 -0.053848371 1.4477601e-38 365 284
-0.0061366665 0.69999999 -0.055229999 1.5488863e-38 315 285
-0.0049093333 0.69999999 -0.055229999 1.4291784e-38 316 285
-0.0036819996 0.69999999 -0.055229999 1.1802502e-38 317 285
-0.0024476533 0.69800001 -0.0550722 1.0151638e-38 318 285
-0.0012238267 0.69800001 -0.0550722 1.1350181e-38 319 285
0 0.69700003 -0.054993302 1.0798828e-38 320 285
0.0012203199 0.69599998 -0.054914396 1.0614076e-38 321 285
0.0024336267 0.69400001 -0.054756597 1.0339661e-38 322 285
0.0036504399 0.69400001 -0.054756597 1.0524051e-38 323 285
0.00486024 0.69300002 -0.054677699 1.0432932e-38 324 285
0.0060577663 0.69099998 -0.054519895 1.0617323e-38 325 285
0.0072693196 0.69099998 -0.054519895 1.0800989e-38 326 285
0.0084686 0.69 -0.054440998 1.0893186e-38 327 285
0.0096503468 0.68800002 -0.054283202 1.1720058e-38 328 285
0.010840859 0.68699998 -0.054204296 1.1720058e-38 329 285
0.012045399 0.68699998 -0.054204296 1.1440592e-38 330 285
0.013249939 0.68699998 -0.054204296 9.9658217e-39 331 285
0.01443344 0.68599999 -0.054125395 1.0244202e-38 332 285
0.015636226 0.68599999 -0.054125395 1.0981767e-38 333 285
0.016839013 0.68599999 -0.054125395 1.1628193e-38 334 285
0.018041799 0.68599999 -0.054125395 1.0798433e-38 335 285
0.01918848 0.68400002 -0.053967599 1.1254e-38 336 285
0.020387759 0.68400002 -0.053967599 1.1254e-38 337 285
0.02155548 0.68300003 -0.053888701 9.1396189e-39 338 285
0.022753006 0.68300003 -0.053888701 8.4020525e-39 339 285
0.023950534 0.68300003 -0.053888701 9.1421076e-39 340 285
0.02514806 0.68300003 -0.053888701 1.0248814e-38 341 285
0.026345588 0.68300003 -0.053888701 1.1902591e-38 342 285
0.027543113 0.68300003 -0.053888701 1.2087341e-38 343 285
0.028740639 0.68300003 -0.053888701 1.0520419e-38 344 285
0.029938167 0.68300003 -0.053888701 9.2296804e-39 345 285
0.031135695 0.68300003 -0.053888701 9.5066344e-39 346 285
0.032333218 0.68300003 -0.053888701 9.6913844e-39 347 285
0.033530746 0.68300003 -0.053888701 1.0059442e-38 348 285
0.034728274 0.68300003 -0.053888701 1.0151638e-38 349 285
0.035978399 0.68400002 -0.053967599 1.0795208e-38 350 285
0.037286382 0.68599999 -0.054125395 1.0887405e-38 351 285
0.03848917 0.68599999 -0.054125395 1.070301e-38 352 285
0.039749816 0.68699998 -0.054204296 1.070301e-38 353 285
0.040954359 0.68699998 -0.054204296 1.0703366e-38 354 285
0.042220265 0.68800002 -0.054283202 1.0334585e-38 355 285
0.043426562 0.68800002 -0.054283202 1.0333138e-38 356 285
0.0447626 0.69 -0.054440998 1.0056193e-38 357 285
0.046039023 0.69099998 -0.054519895 9.6856054e-39 358 285
0.047387339 0.69300002 -0.054677699 9.500854e-39 359 285
0.048672531 0.69400001 -0.054756597 9.4075864e-39 360 285
0.050033119 0.69599998 -0.054914396 9.9607602e-39 361 285
0.051253434 0.69599998 -0.054914396 1.1159301e-38 362 285
0.052549154 0.69700003 -0.054993302 1.2542235e-38 363 285
0.053848371 0.69800001 -0.0550722 1.401518e-38 364 285
0.0554667 0.70300001 -0.0554667 1.4844941e-38 365 285
-0.0061454331 0.70099998 -0.056537982 1.4659811e-38 315 286
-0.0049163462 0.70099998 -0.056537982 1.4571595e-38 316 286
-0.0036872597 0.70099998 -0.056537982 1.4663791e-38 317 286
-0.0024546667 0.69999999 -0.056457333 1.4204636e-38 318 286
-0.0012273333 0.69999999 -0.056457333 1.4019886e-38 319 286
0 0.69800001 -0.056296028 1.2361109e-38 320 286
0.0012220733 0.69700003 -0.056215372 1.1900131e-38 321 286
0.0024441467 0.69700003 -0.056215372 1.0340015e-38 322 286
0.0036609597 0.69599998 -0.056134716 1.0247819e-38 323 286
0.0048672534 0.69400001 -0.055973411 1.1074701e-38 324 286
0.0060753003 0.69300002 -0.055892758 1.1259093e-38 325 286
0.0072903596 0.69300002 -0.055892758 1.0065944e-38 326 286
0.008480873 0.69099998 -0.055731449 1.0250336e-38 327 286
0.0096783992 0.69 -0.055650797 1.1076136e-38 328 286
0.010856641 0.68800002 -0.055489492 1.1352364e-38 329 286
0.012045399 0.68699998 -0.055408835 1.0984291e-38 330 286
