# .PCD v.7 - Point Cloud Data file format
FIELDS x y z rgb imX imY
SIZE 4 4 4 4 4 4
TYPE F F F F F F
COUNT 1 1 1 1 1 1
WIDTH 837
HEIGHT 1
VIEWPOINT 0 0 0 1 0 0 0
POINTS 837
DATA ascii
0.02836192 0.67400002 -0.011817466 1.0515337e-38 344 250
0.029543666 0.67400002 -0.011817466 1.0515337e-38 345 250
0.030771 0.67500001 -0.011835 1.3555259e-38 346 250
0.031954501 0.67500001 -0.011835 1.272514e-38 347 250
0.033137999 0.67500001 -0.011835 8.9511975e-39 348 250
0.034321502 0.67500001 -0.011835 8.3980237e-39 349 250
0.0356628 0.67799997 -0.011887599 7.8484303e-39 350 250
0.036851559 0.67799997 -0.011887599 7.7558759e-39 351 250
0.037928104 0.676 -0.011852534 8.3061784e-39 352 250
0.039113361 0.676 -0.011852534 8.6749595e-39 353 250
0.040715907 0.68300003 -0.011975267 8.2165023e-39 354 250
0.041913435 0.68300003 -0.011975267 8.2165023e-39 355 250
0.043174081 0.68400002 -0.0119928 8.7668035e-39 356 250
0.044503104 0.68599999 -0.012027865 8.9515534e-39 357 250
0.045705888 0.68599999 -0.012027865 9.3196101e-39 358 250
0.046908677 0.68599999 -0.012027865 9.4118057e-39 359 250
0.048181597 0.68699998 -0.012045399 9.4096421e-39 360 250
0.049386136 0.68699998 -0.012045399 1.134575e-38 361 250
-0.01460176 0.69400001 -0.013384946 1.7976678e-38 308 251
-0.013384946 0.69400001 -0.013384946 1.5764341e-38 309 251
-0.012150601 0.69300002 -0.01336566 1.3466208e-38 310 251
-0.01090398 0.69099998 -0.013327086 1.2451697e-38 311 251
-0.0096783992 0.69 -0.0133078 1.0617071e-38 312 251
-0.0084440531 0.68800002 -0.013269227 1.0709267e-38 313 251
-0.0072272392 0.68699998 -0.013249939 1.0249715e-38 314 251
-0.0060139326 0.68599999 -0.013230653 1.0249715e-38 315 251
-0.0047971201 0.68400002 -0.01319208 1.0066393e-38 316 251
-0.0035925799 0.68300003 -0.013172794 9.7898074e-39 317 251
-0.0023915465 0.68199998 -0.013153506 9.2391531e-39 318 251
-0.0011922666 0.68000001 -0.013114933 9.1469589e-39 319 251
0 0.68000001 -0.013114933 8.3207982e-39 320 251
0.0011905134 0.67900002 -0.013095647 8.5048279e-39 321 251
0.0023810267 0.67900002 -0.013095647 8.410854e-39 322 251
0.0035662798 0.67799997 -0.013076359 8.5030497e-39 323 251
0.0047550397 0.67799997 -0.013076359 9.6019577e-39 324 251
0.0059437994 0.67799997 -0.013076359 9.140981e-39 325 251
0.0071325595 0.67799997 -0.013076359 8.4921125e-39 326 251
0.0082967728 0.676 -0.013037786 8.8612552e-39 327 251
0.0094820261 0.676 -0.013037786 8.8616209e-39 328 251
0.0106515 0.67500001 -0.0130185 8.7694253e-39 329 251
0.011817466 0.67400002 -0.012999214 8.5864605e-39 330 251
0.012999214 0.67400002 -0.012999214 8.5864605e-39 331 251
0.01418096 0.67400002 -0.012999214 8.3095037e-39 332 251
0.015362706 0.67400002 -0.012999214 8.2173081e-39 333 251
0.016544454 0.67400002 -0.012999214 9.2289335e-39 334 251
0.017673599 0.67199999 -0.012960639 9.5058791e-39 335 251
0.018851839 0.67199999 -0.012960639 9.3225612e-39 336 251
0.020089693 0.67400002 -0.012999214 1.0428909e-38 337 251
0.021271439 0.67400002 -0.012999214 1.1437666e-38 338 251
0.022453187 0.67400002 -0.012999214 9.7785045e-39 339 251
0.023634933 0.67400002 -0.012999214 9.6866746e-39 340 251
0.024816679 0.67400002 -0.012999214 9.8710659e-39 341 251
0.025998428 0.67400002 -0.012999214 9.7774451e-39 342 251
0.027180174 0.67400002 -0.012999214 9.6852495e-39 343 251
0.02836192 0.67400002 -0.012999214 9.4075864e-39 344 251
0.0295875 0.67500001 -0.0130185 9.5923364e-39 345 251
0.030771 0.67500001 -0.0130185 1.2452531e-38 346 251
0.032001842 0.676 -0.013037786 1.1991193e-38 347 251
0.033137999 0.67500001 -0.0130185 7.6633482e-39 348 251
0.034321502 0.67500001 -0.0130185 7.20237e-39 349 251
0.0356628 0.67799997 -0.013076359 7.8462947e-39 350 251
0.036851559 0.67799997 -0.013076359 7.9384903e-39 351 251
0.037928104 0.676 -0.013037786 8.3983923e-39 352 251
0.039113361 0.676 -0.013037786 8.6753393e-39 353 251
0.040656291 0.68199998 -0.013153506 8.308349e-39 354 251
0.041913435 0.68300003 -0.013172794 8.308349e-39 355 251
0.043174081 0.68400002 -0.01319208 8.6742547e-39 356 251
0.044503104 0.68599999 -0.013230653 8.8590047e-39 357 251
0.045705888 0.68599999 -0.013230653 9.2266956e-39 358 251
0.046908677 0.68599999 -0.013230653 9.3188912e-39 359 251
0.048181597 0.68699998 -0.013249939 9.9610138e-39 360 251
0.049386136 0.68699998 -0.013249939 1.1897122e-38 361 251
-0.013384946 0.69400001 -0.01460176 1.6684873e-38 309 252
-0.012150601 0.69300002 -0.014580719 1.475554e-38 310 252
-0.01090398 0.69099998 -0.014538639 1.3372605e-38 311 252
-0.0096783992 0.69 -0.014517599 1.1259949e-38 312 252
-0.0084440531 0.68800002 -0.014475521 1.0891525e-38 313 252
-0.0072272392 0.68699998 -0.014454478 1.1533983e-38 314 252
-0.0060139326 0.68599999 -0.01443344 1.1533983e-38 315 252
-0.0048111463 0.68599999 -0.01443344 1.107551e-38 316 252
-0.0035925799 0.68300003 -0.014370319 1.0983314e-38 317 252
-0.0023915465 0.68199998 -0.01434928 9.7898074e-39 318 252
-0.0011957732 0.68199998 -0.01434928 9.6976132e-39 319 252
0 0.68000001 -0.014307199 8.5970235e-39 320 252
0.0011905134 0.67900002 -0.01428616 8.5048279e-39 321 252
0.0023810267 0.67900002 -0.01428616 9.0526515e-39 322 252
0.0035662798 0.67799997 -0.014265119 8.8682603e-39 323 252
0.0047550397 0.67799997 -0.014265119 9.4157882e-39 324 252
0.0059437994 0.67799997 -0.014265119 9.6927338e-39 325 252
0.0071325595 0.67799997 -0.014265119 9.1371288e-39 326 252
0.0082967728 0.676 -0.014223038 8.7687064e-39 327 252
0.0094820261 0.676 -0.014223038 8.2155452e-39 328 252
0.01066728 0.676 -0.014223038 8.2155452e-39 329 252
0.011835 0.67500001 -0.014202001 8.3088143e-39 330 252
0.0130185 0.67500001 -0.014202001 8.4935643e-39 331 252
0.014202001 0.67500001 -0.014202001 8.6754388e-39 332 252
0.015362706 0.67400002 -0.01418096 7.845318e-39 333 252
0.016544454 0.67400002 -0.01418096 8.3062989e-39 334 252
0.0177262 0.67400002 -0.01418096 7.9375164e-39 335 252
0.018907947 0.67400002 -0.01418096 6.8354793e-39 336 252
0.020089693 0.67400002 -0.01418096 8.7715875e-39 337 252
0.021271439 0.67400002 -0.01418096 1.1897234e-38 338 252
0.022453187 0.67400002 -0.01418096 1.0698691e-38 339 252
0.023634933 0.67400002 -0.01418096 9.6852523e-39 340 252
0.024816679 0.67400002 -0.01418096 9.5005009e-39 341 252
0.025998428 0.67400002 -0.01418096 9.5923462e-39 342 252
0.027220501 0.67500001 -0.014202001 9.5001506e-39 343 252
0.028404001 0.67500001 -0.014202001 8.949132e-39 344 252
0.0295875 0.67500001 -0.014202001 9.5945014e-39 345 252
0.030816587 0.676 -0.014223038 1.2359977e-38 346 252
0.032001842 0.676 -0.014223038 1.162241e-38 347 252
0.033187091 0.676 -0.014223038 7.93814e-39 348 252
0.034372345 0.676 -0.014223038 7.5693575e-39 349 252
0.0356628 0.67799997 -0.014265119 9.0405415e-39 350 252
0.036905911 0.67900002 -0.01428616 9.3174871e-39 351 252
0.038096428 0.67900002 -0.01428616 9.5937125e-39 352 252
0.039286941 0.67900002 -0.01428616 9.3174843e-39 353 252
0.040656291 0.68199998 -0.01434928 8.9508444e-39 354 252
0.041974798 0.68400002 -0.01439136 8.6742575e-39 355 252
0.043174081 0.68400002 -0.01439136 8.9490521e-39 356 252
0.044503104 0.68599999 -0.01443344 9.0412478e-39 357 252
0.045705888 0.68599999 -0.01443344 9.4096575e-39 358 252
0.046908677 0.68599999 -0.01443344 9.4096575e-39 359 252
0.048181597 0.68699998 -0.014454478 9.3156444e-39 360 252
0.049386136 0.68699998 -0.014454478 1.1804926e-38 361 252
0.050590675 0.68699998 -0.014454478 1.7793346e-38 362 252
-0.013384946 0.69400001 -0.015818574 1.7054024e-38 309 253
-0.012150601 0.69300002 -0.015795778 1.5491349e-38 310 253
-0.01090398 0.69099998 -0.015750192 1.4569391e-38 311 253
-0.0096783992 0.69 -0.015727401 1.1996843e-38 312 253
-0.0084440531 0.68800002 -0.015681813 1.0613908e-38 313 253
-0.0072272392 0.68699998 -0.015659019 1.1993201e-38 314 253
-0.0060139326 0.68599999 -0.015636226 1.1993201e-38 315 253
-0.0048111463 0.68599999 -0.015636226 1.125922e-38 316 253
-0.0035925799 0.68300003 -0.015567848 1.0982273e-38 317 253
-0.0023915465 0.68199998 -0.015545053 9.8820184e-39 318 253
-0.0011957732 0.68199998 -0.015545053 9.5135946e-39 319 253
0 0.68000001 -0.015499466 8.5959642e-39 320 253
0.0011922666 0.68000001 -0.015499466 8.5959642e-39 321 253
0.0023810267 0.67900002 -0.015476674 8.9579742e-39 322 253
0.0035662798 0.67799997 -0.015453878 9.0505286e-39 323 253
0.0047550397 0.67799997 -0.015453878 1.0057583e-38 324 253
0.0059437994 0.67799997 -0.015453878 1.116393e-38 325 253
0.0071325595 0.67799997 -0.015453878 1.0610814e-38 326 253
0.0082967728 0.676 -0.015408293 1.070301e-38 327 253
0.0094820261 0.676 -0.015408293 1.0518265e-38 328 253
0.01066728 0.676 -0.015408293 1.0334234e-38 329 253
0.011852534 0.676 -0.015408293 1.0610461e-38 330 253
0.0130185 0.67500001 -0.0153855 1.0518265e-38 331 253
0.014202001 0.67500001 -0.0153855 1.0056924e-38 332 253
0.0153855 0.67500001 -0.0153855 1.0056924e-38 333 253
0.016569 0.67500001 -0.0153855 1.0333151e-38 334 253
0.0177525 0.67500001 -0.0153855 9.9647287e-39 335 253
0.018935999 0.67500001 -0.0153855 9.7803346e-39 336 253
0.020119499 0.67500001 -0.0153855 1.05179e-38 337 253
0.021303 0.67500001 -0.0153855 1.0978874e-38 338 253
0.022486499 0.67500001 -0.0153855 1.0610451e-38 339 253
0.023669999 0.67500001 -0.0153855 1.1065669e-38 340 253
0.0248535 0.67500001 -0.0153855 1.0051157e-38 341 253
0.026037 0.67500001 -0.0153855 9.3204256e-39 342 253
0.027220501 0.67500001 -0.0153855 1.0150545e-38 343 253
0.028404001 0.67500001 -0.0153855 1.097671e-38 344 253
0.029631332 0.676 -0.015408293 1.1622079e-38 345 253
0.030816587 0.676 -0.015408293 1.3003196e-38 346 253
0.032001842 0.676 -0.015408293 1.2542218e-38 347 253
0.033187091 0.676 -0.015408293 1.1528051e-38 348 253
0.034372345 0.676 -0.015408293 1.1896473e-38 349 253
0.035715401 0.67900002 -0.015476674 1.2171265e-38 350 253
0.036905911 0.67900002 -0.015476674 1.14337e-38 351 253
0.038096428 0.67900002 -0.015476674 1.0605719e-38 352 253
0.039344799 0.68000001 -0.015499466 1.0421326e-38 353 253
0.040715907 0.68300003 -0.015567848 9.1352441e-39 354 253
0.041974798 0.68400002 -0.01559064 8.9504941e-39 355 253
0.043300316 0.68599999 -0.015636226 9.2242069e-39 356 253
0.044567976 0.68699998 -0.015659019 9.3164025e-39 357 253
0.045772515 0.68699998 -0.015659019 9.3181906e-39 358 253
0.046977058 0.68699998 -0.015659019 9.1334406e-39 359 253
0.048181597 0.68699998 -0.015659019 8.4862565e-39 360 253
0.049386136 0.68699998 -0.015659019 1.1805299e-38 361 253
0.050590675 0.68699998 -0.015659019 1.8438365e-38 362 253
-0.013384946 0.69400001 -0.017035386 1.6593421e-38 309 254
-0.012150601 0.69300002 -0.01701084 1.4847091e-38 310 254
-0.01090398 0.69099998 -0.016961746 1.4939286e-38 311 254
-0.0096924258 0.69099998 -0.016961746 1.3193623e-38 312 254
-0.0084686 0.69 -0.0169372 1.1165319e-38 313 254
-0.0072377604 0.68800002 -0.016888106 1.2451317e-38 314 254
-0.0060226996 0.68699998 -0.01686356 1.2266567e-38 315 254
-0.0048181596 0.68699998 -0.01686356 1.1074825e-38 316 254
-0.00359784 0.68400002 -0.016789921 1.0890075e-38 317 254
-0.0023950534 0.68300003 -0.016765373 9.3317215e-39 318 254
-0.0011957732 0.68199998 -0.016740825 9.0547745e-39 319 254
0 0.68199998 -0.016740825 8.5044972e-39 320 254
0.0011922666 0.68000001 -0.016691733 8.4123016e-39 321 254
0.0023810267 0.67900002 -0.016667187 9.4193461e-39 322 254
0.0035715401 0.67900002 -0.016667187 1.0340944e-38 323 254
0.0047620535 0.67900002 -0.016667187 1.1714613e-38 324 254
0.0059437994 0.67799997 -0.016642639 1.1529861e-38 325 254
0.0071325595 0.67799997 -0.016642639 1.0428221e-38 326 254
0.0083213197 0.67799997 -0.016642639 1.0520416e-38 327 254
0.0095100794 0.67799997 -0.016642639 1.0612249e-38 328 254
0.01066728 0.676 -0.016593546 1.0427499e-38 329 254
0.011852534 0.676 -0.016593546 1.0520053e-38 330 254
0.013037786 0.676 -0.016593546 1.0796282e-38 331 254
0.014202001 0.67500001 -0.016569 1.0610814e-38 332 254
0.0153855 0.67500001 -0.016569 1.0334587e-38 333 254
0.016569 0.67500001 -0.016569 1.0794489e-38 334 254
0.0177525 0.67500001 -0.016569 1.1070717e-38 335 254
0.018935999 0.67500001 -0.016569 1.0885959e-38 336 254
0.020119499 0.67500001 -0.016569 1.0978155e-38 337 254
0.021303 0.67500001 -0.016569 1.1714275e-38 338 254
0.022486499 0.67500001 -0.016569 1.1714275e-38 339 254
0.023669999 0.67500001 -0.016569 1.180395e-38 340 254
0.024890319 0.676 -0.016593546 1.1435167e-38 341 254
0.026075572 0.676 -0.016593546 1.1068903e-38 342 254
0.027260827 0.676 -0.016593546 1.1714272e-38 343 254
0.028446076 0.676 -0.016593546 1.2632985e-38 344 254
0.029631332 0.676 -0.016593546 1.2817736e-38 345 254
0.030907756 0.67799997 -0.016642639 1.2724814e-38 346 254
0.03209652 0.67799997 -0.016642639 1.2540423e-38 347 254
0.033285279 0.67799997 -0.016642639 1.2264915e-38 348 254
0.034474038 0.67799997 -0.016642639 1.2541142e-38 349 254
0.035715401 0.67900002 -0.016667187 1.226311e-38 350 254
0.036960267 0.68000001 -0.016691733 1.1525545e-38 351 254
0.038264744 0.68199998 -0.016740825 1.0697915e-38 352 254
0.039460517 0.68199998 -0.016740825 1.0605719e-38 353 254
0.040775519 0.68400002 -0.016789921 1.0053605e-38 354 254
0.042097531 0.68599999 -0.016839013 9.5004308e-39 355 254
0.043300316 0.68599999 -0.016839013 9.2252859e-39 356 254
0.044567976 0.68699998 -0.01686356 9.5018714e-39 357 254
0.045839146 0.68800002 -0.016888106 9.8699294e-39 358 254
0.047045439 0.68800002 -0.016888106 9.8699294e-39 359 254
0.048251733 0.68800002 -0.016888106 1.0142553e-38 360 254
0.049458027 0.68800002 -0.016888106 1.2908422e-38 361 254
-0.016114887 0.70700002 -0.018594101 2.0279073e-38 307 255
-0.013384946 0.69400001 -0.0182522 1.585585e-38 309 255
-0.012168133 0.69400001 -0.0182522 1.3371962e-38 310 255
-0.010935539 0.69300002 -0.018225901 1.4662701e-38 311 255
-0.0097204801 0.69300002 -0.018225901 1.3837543e-38 312 255
-0.008480873 0.69099998 -0.0181733 1.134862e-38 313 255
-0.0072587994 0.69 -0.018146999 1.2085396e-38 314 255
-0.0060314666 0.68800002 -0.0180944 1.180917e-38 315 255
-0.0048181596 0.68699998 -0.018068098 1.0249011e-38 316 255
-0.00360836 0.68599999 -0.018041799 9.8798688e-39 317 255
-0.0023950534 0.68300003 -0.017962901 9.2388e-39 318 255
-0.0011957732 0.68199998 -0.017936599 9.2388e-39 319 255
0 0.68199998 -0.017936599 8.4112478e-39 320 255
0.0011922666 0.68000001 -0.017883999 8.9644216e-39 321 255
0.0023845332 0.68000001 -0.017883999 1.1445167e-38 322 255
0.0035715401 0.67900002 -0.017857701 1.2920297e-38 323 255
0.0047620535 0.67900002 -0.017857701 1.3558182e-38 324 255
0.0059437994 0.67799997 -0.0178314 1.1529878e-38 325 255
0.0071325595 0.67799997 -0.0178314 8.9563375e-39 326 255
0.0083213197 0.67799997 -0.0178314 9.5095113e-39 327 255
0.0095100794 0.67799997 -0.0178314 1.0334953e-38 328 255
0.01066728 0.676 -0.017778801 1.0242757e-38 329 255
0.011852534 0.676 -0.017778801 1.0610814e-38 330 255
0.013037786 0.676 -0.017778801 1.0887761e-38 331 255
0.014223038 0.676 -0.017778801 1.0887761e-38 332 255
0.015408293 0.676 -0.017778801 1.070301e-38 333 255
0.016593546 0.676 -0.017778801 1.0887758e-38 334 255
0.017778801 0.676 -0.017778801 1.0979954e-38 335 255
0.018964052 0.676 -0.017778801 1.1346218e-38 336 255
0.020149305 0.676 -0.017778801 1.1622805e-38 337 255
0.021334561 0.676 -0.017778801 1.2636231e-38 338 255
0.022519812 0.676 -0.017778801 1.3189405e-38 339 255
0.023705067 0.676 -0.017778801 1.3648934e-38 340 255
0.024890319 0.676 -0.017778801 1.374113e-38 341 255
0.026075572 0.676 -0.017778801 1.3648932e-38 342 255
0.027260827 0.676 -0.017778801 1.3280509e-38 343 255
0.028530238 0.67799997 -0.0178314 1.2910285e-38 344 255
0.029718997 0.67799997 -0.0178314 1.2080164e-38 345 255
0.030907756 0.67799997 -0.0178314 1.069616e-38 346 255
0.03209652 0.67799997 -0.0178314 9.9585952e-39 347 255
0.033334374 0.67900002 -0.017857701 1.0238425e-38 348 255
0.034524884 0.67900002 -0.017857701 1.0606848e-38 349 255
0.035715401 0.67900002 -0.017857701 1.1066022e-38 350 255
0.036960267 0.68000001 -0.017883999 1.0973467e-38 351 255
0.038264744 0.68199998 -0.017936599 1.0790496e-38 352 255
0.039518382 0.68300003 -0.017962901 1.1159637e-38 353 255
0.040775519 0.68400002 -0.0179892 1.0329131e-38 354 255
0.042097531 0.68599999 -0.018041799 9.1305889e-39 355 255
0.043300316 0.68599999 -0.018041799 9.3164053e-39 356 255
0.044632856 0.68800002 -0.0180944 9.685548e-39 357 255
0.045839146 0.68800002 -0.0180944 1.0146522e-38 358 255
0.047182199 0.69 -0.018146999 1.0330915e-38 359 255
0.048391998 0.69 -0.018146999 1.1615535e-38 360 255
-0.016114887 0.70700002 -0.019833706 2.0370552e-38 307 256
-0.01487528 0.70700002 -0.019833706 1.8435529e-38 308 256
-0.013635674 0.70700002 -0.019833706 1.5946247e-38 309 256
-0.0122032 0.69599998 -0.019525118 1.382971e-38 310 256
-0.01095132 0.69400001 -0.019469013 1.5397396e-38 311 256
-0.0097204801 0.69300002 -0.01944096 1.475771e-38 312 256
-0.0085054198 0.69300002 -0.01944096 1.2083678e-38 313 256
-0.0072693196 0.69099998 -0.019384852 1.0708207e-38 314 256
-0.0060489997 0.69 -0.019356798 1.0523816e-38 315 256
-0.0048251734 0.68800002 -0.019300694 1.0158238e-38 316 256
-0.0036136196 0.68699998 -0.019272638 9.7894557e-39 317 256
-0.0023985601 0.68400002 -0.01918848 9.0551276e-39 318 256
-0.0011975267 0.68300003 -0.019160427 9.1473232e-39 319 256
0 0.68300003 -0.019160427 7.9506368e-39 320 256
0.0011957732 0.68199998 -0.019132372 8.9647873e-39 321 256
0.0023915465 0.68199998 -0.019132372 1.1906515e-38 322 256
0.0035767998 0.68000001 -0.019076265 1.3382004e-38 323 256
0.0047690663 0.68000001 -0.019076265 1.4111008e-38 324 256
0.0059525664 0.67900002 -0.019048214 1.0607574e-38 325 256
0.0071430802 0.67900002 -0.019048214 6.5621406e-39 326 256
0.0083213197 0.67799997 -0.019020159 7.1149556e-39 327 256
0.0095100794 0.67799997 -0.019020159 8.5832558e-39 328 256
0.010698839 0.67799997 -0.019020159 8.4910587e-39 329 256
0.011852534 0.676 -0.018964052 8.5828858e-39 330 256
0.013037786 0.676 -0.018964052 8.9516684e-39 331 256
0.014223038 0.676 -0.018964052 9.3190061e-39 332 256
0.015408293 0.676 -0.018964052 9.2268105e-39 333 256
0.016593546 0.676 -0.018964052 9.4101228e-39 334 256
0.017778801 0.676 -0.018964052 9.4101228e-39 335 256
0.018964052 0.676 -0.018964052 9.5015995e-39 336 256
0.020149305 0.676 -0.018964052 9.8703806e-39 337 256
0.021334561 0.676 -0.018964052 1.0883088e-38 338 256
0.022519812 0.676 -0.018964052 1.0975285e-38 339 256
0.023775198 0.67799997 -0.019020159 1.0515379e-38 340 256
0.024963958 0.67799997 -0.019020159 1.0515379e-38 341 256
0.026152719 0.67799997 -0.019020159 1.0330266e-38 342 256
0.027341479 0.67799997 -0.019020159 1.0053677e-38 343 256
0.028530238 0.67799997 -0.019020159 9.683453e-39 344 256
0.029718997 0.67799997 -0.019020159 9.2224749e-39 345 256
0.030953348 0.67900002 -0.019048214 7.8424243e-39 346 256
0.032143861 0.67900002 -0.019048214 8.211567e-39 347 256
0.033334374 0.67900002 -0.019048214 9.9611259e-39 348 256
0.034524884 0.67900002 -0.019048214 1.0422464e-38 349 256
0.035767999 0.68000001 -0.019076265 1.0698678e-38 350 256
0.037068974 0.68199998 -0.019132372 1.0606483e-38 351 256
0.038320854 0.68300003 -0.019160427 1.0882697e-38 352 256
0.03957624 0.68400002 -0.01918848 1.1159284e-38 353 256
0.040894743 0.68599999 -0.019244585 1.0696841e-38 354 256
0.042097531 0.68599999 -0.019244585 9.1295155e-39 355 256
0.043363437 0.68699998 -0.019272638 9.1338119e-39 356 256
0.044632856 0.68800002 -0.019300694 9.3182032e-39 357 256
0.045972396 0.69 -0.019356798 1.0238364e-38 358 256
0.047387339 0.69300002 -0.01944096 1.0791538e-38 359 256
0.048882935 0.69700003 -0.019553173 1.2260554e-38 360 256
0.050105009 0.69700003 -0.019553173 1.4104467e-38 361 256
-0.016092092 0.70599997 -0.021043506 1.991029e-38 307 257
-0.014854239 0.70599997 -0.021043506 1.8066751e-38 308 257
-0.013577812 0.704 -0.020983893 1.5393077e-38 309 257
-0.012343466 0.704 -0.020983893 1.3737161e-38 310 257
-0.011109119 0.704 -0.020983893 1.5858021e-38 311 257
-0.0097345067 0.69400001 -0.020685827 1.5401673e-38 312 257
-0.0085176928 0.69400001 -0.020685827 1.337301e-38 313 257
-0.0072903596 0.69300002 -0.020656019 1.0892971e-38 314 257
-0.0060577663 0.69099998 -0.020596405 9.9710149e-39 315 257
-0.0048391996 0.69 -0.020566599 9.7001243e-39 316 257
-0.0036188802 0.68800002 -0.020506985 9.5153771e-39 317 257
-0.0024055731 0.68599999 -0.020447372 9.2391531e-39 318 257
-0.00119928 0.68400002 -0.020387759 9.3317061e-39 319 257
0 0.68300003 -0.020357953 8.1343078e-39 320 257
0.0011975267 0.68300003 -0.020357953 9.2406567e-39 321 257
0.0023950534 0.68300003 -0.020357953 1.2734481e-38 322 257
0.00358732 0.68199998 -0.020328145 1.3656797e-38 323 257
0.0047690663 0.68000001 -0.020268533 1.3835496e-38 324 257
0.0059613334 0.68000001 -0.020268533 1.0424258e-38 325 257
0.0071430802 0.67900002 -0.020238725 6.4681485e-39 326 257
0.0083213197 0.67799997 -0.020208918 6.2837558e-39 327 257
0.0095100794 0.67799997 -0.020208918 6.924103e-39 328 257
0.010698839 0.67799997 -0.020208918 6.7397117e-39 329 257
0.011887599 0.67799997 -0.020208918 5.9117489e-39 330 257
0.013037786 0.676 -0.020149305 5.9117489e-39 331 257
0.014223038 0.676 -0.020149305 6.4624018e-39 332 257
0.015408293 0.676 -0.020149305 6.5545988e-39 333 257
0.016593546 0.676 -0.020149305 6.4616857e-39 334 257
0.017778801 0.676 -0.020149305 6.3691313e-39 335 257
0.018964052 0.676 -0.020149305 6.644998e-39 336 257
0.020149305 0.676 -0.020149305 6.7371936e-39 337 257
0.021334561 0.676 -0.020149305 6.6460756e-39 338 257
0.022586439 0.67799997 -0.020208918 7.0148567e-39 339 257
0.023775198 0.67799997 -0.020208918 7.014135e-39 340 257
0.024963958 0.67799997 -0.020208918 7.2907205e-39 341 257
0.026152719 0.67799997 -0.020208918 7.7502511e-39 342 257
0.027341479 0.67799997 -0.020208918 7.8428069e-39 343 257
0.028530238 0.67799997 -0.020208918 7.5662102e-39 344 257
0.029718997 0.67799997 -0.020208918 7.0130364e-39 345 257
0.030953348 0.67900002 -0.020238725 7.6587589e-39 346 257
0.032143861 0.67900002 -0.020238725 9.1342477e-39 347 257
0.033334374 0.67900002 -0.020238725 1.014587e-38 348 257
0.034575731 0.68000001 -0.020268533 1.0330622e-38 349 257
0.035873197 0.68199998 -0.020328145 1.0607199e-38 350 257
0.037123326 0.68300003 -0.020357953 1.0330972e-38 351 257
0.038320854 0.68300003 -0.020357953 1.0973821e-38 352 257
0.03957624 0.68400002 -0.020387759 1.1526994e-38 353 257
0.040894743 0.68599999 -0.020447372 1.1157096e-38 354 257
0.042158898 0.68699998 -0.020477179 9.589772e-39 355 257
0.043363437 0.68699998 -0.020477179 9.4078793e-39 356 257
0.044827472 0.69099998 -0.020596405 9.3156837e-39 357 257
0.04617228 0.69300002 -0.020656019 1.0973781e-38 358 257
0.047592476 0.69599998 -0.020745439 1.207977e-38 359 257
0.048882935 0.69700003 -0.020775247 1.2997769e-38 360 257
0.050176892 0.69800001 -0.020805053 1.4933877e-38 361 257
0.051400717 0.69800001 -0.020805053 1.9265627e-38 362 257
-0.016092092 0.70599997 -0.022281358 2.009468e-38 307 258
-0.014854239 0.70599997 -0.022281358 1.769869e-38 308 258
-0.013577812 0.704 -0.022218239 1.3826475e-38 309 258
-0.012343466 0.704 -0.022218239 1.0607199e-38 310 258
-0.011109119 0.704 -0.022218239 1.4295384e-38 311 258
-0.0097625591 0.69599998 -0.021965759 1.5402784e-38 312 258
-0.0085422397 0.69599998 -0.021965759 1.4665219e-38 313 258
-0.0073008798 0.69400001 -0.021902639 1.3008823e-38 314 258
-0.0060753003 0.69300002 -0.021871079 1.0795769e-38 315 258
-0.0048462129 0.69099998 -0.021807959 9.5157358e-39 316 258
-0.0036293997 0.69 -0.021776399 9.5157358e-39 317 258
-0.0024090798 0.68699998 -0.021681719 9.5146806e-39 318 258
-0.0012027866 0.68599999 -0.021650158 9.6990719e-39 319 258
0 0.68400002 -0.02158704 1.0434925e-38 320 258
0.00119928 0.68400002 -0.02158704 1.1633468e-38 321 258
0.0023950534 0.68300003 -0.02155548 1.3929452e-38 322 258
0.0035925799 0.68300003 -0.02155548 1.4021647e-38 323 258
0.004783093 0.68199998 -0.021523919 1.3375238e-38 324 258
0.0059613334 0.68000001 -0.0214608 1.1070706e-38 325 258
0.0071535995 0.68000001 -0.0214608 9.5041205e-39 326 258
0.0083458666 0.68000001 -0.0214608 9.4119234e-39 327 258
0.0095100794 0.67799997 -0.021397678 9.4108542e-39 328 258
0.010698839 0.67799997 -0.021397678 9.1339086e-39 329 258
0.011887599 0.67799997 -0.021397678 8.4928552e-39 330 258
0.013076359 0.67799997 -0.021397678 8.4006596e-39 331 258
0.014265119 0.67799997 -0.021397678 9.0409899e-39 332 258
0.015453878 0.67799997 -0.021397678 9.0409899e-39 333 258
0.016642639 0.67799997 -0.021397678 8.7662009e-39 334 258
0.0178314 0.67799997 -0.021397678 8.3052241e-39 335 258
0.019020159 0.67799997 -0.021397678 7.7527748e-39 336 258
0.020208918 0.67799997 -0.021397678 7.2917967e-39 337 258
0.021397678 0.67799997 -0.021397678 6.8344101e-39 338 258
0.022586439 0.67799997 -0.021397678 8.49393e-39 339 258
0.023775198 0.67799997 -0.021397678 1.051683e-38 340 258
0.024963958 0.67799997 -0.021397678 1.1346231e-38 341 258
0.026152719 0.67799997 -0.021397678 1.2081628e-38 342 258
0.027341479 0.67799997 -0.021397678 1.2081628e-38 343 258
0.028572321 0.67900002 -0.021429239 1.1803955e-38 344 258
0.029762832 0.67900002 -0.021429239 1.1250783e-38 345 258
0.030953348 0.67900002 -0.021429239 1.1529163e-38 346 258
0.032191198 0.68000001 -0.0214608 1.1252218e-38 347 258
0.03348165 0.68199998 -0.021523919 1.042209e-38 348 258
0.034677424 0.68199998 -0.021523919 1.042209e-38 349 258
0.035925802 0.68300003 -0.02155548 1.0883426e-38 350 258
0.037177678 0.68400002 -0.02158704 1.079123e-38 351 258
0.038376961 0.68400002 -0.02158704 1.1617391e-38 352 258
0.039691959 0.68599999 -0.021650158 1.2539707e-38 353 258
0.040894743 0.68599999 -0.021650158 1.1341502e-38 354 258
0.042158898 0.68699998 -0.021681719 1.0327708e-38 355 258
0.043426562 0.68800002 -0.021713281 1.0238014e-38 356 258
0.044827472 0.69099998 -0.021807959 1.0883384e-38 357 258
0.04617228 0.69300002 -0.021871079 1.2816266e-38 358 258
0.047592476 0.69599998 -0.021965759 1.355419e-38 359 258
0.048882935 0.69700003 -0.02199732 1.3827177e-38 360 258
0.050176892 0.69800001 -0.02202888 1.5671089e-38 361 258
0.051400717 0.69800001 -0.02202888 1.9634054e-38 362 258
-0.016092092 0.70599997 -0.023519212 2.046382e-38 307 259
-0.014854239 0.70599997 -0.023519212 1.8250791e-38 308 259
-0.013577812 0.704 -0.023452586 1.4009792e-38 309 259
-0.012290866 0.70099998 -0.023352645 9.0377333e-39 310 259
-0.011045999 0.69999999 -0.023319334 1.2264222e-38 311 259
-0.0097906133 0.69800001 -0.023252707 1.4665611e-38 312 259
-0.0085545136 0.69700003 -0.023219392 1.5310981e-38 313 259
-0.0073219193 0.69599998 -0.023186078 1.3931541e-38 314 259
-0.0060840664 0.69400001 -0.023119451 1.0704694e-38 315 259
-0.00486024 0.69300002 -0.02308614 9.4235668e-39 316 259
-0.0036346598 0.69099998 -0.023019511 9.5157624e-39 317 259
-0.0024125867 0.68800002 -0.022919573 9.3285125e-39 318 259
-0.0012045399 0.68699998 -0.022886258 9.9738819e-39 319 259
0 0.68599999 -0.022852944 1.2091963e-38 320 259
0.00119928 0.68400002 -0.022786319 1.319831e-38 321 259
0.0023985601 0.68400002 -0.022786319 1.4482649e-38 322 259
0.0035925799 0.68300003 -0.022753006 1.4205702e-38 323 259
0.0047901068 0.68300003 -0.022753006 1.309938e-38 324 259
0.005978866 0.68199998 -0.022719691 1.0794489e-38 325 259
0.00717464 0.68199998 -0.022719691 1.0333881e-38 326 259
0.0083458666 0.68000001 -0.022653066 1.0149488e-38 327 259
0.009524107 0.67900002 -0.022619752 1.0241683e-38 328 259
0.010714619 0.67900002 -0.022619752 1.0149486e-38 329 259
0.011887599 0.67799997 -0.022586439 1.0517912e-38 330 259
0.013076359 0.67799997 -0.022586439 1.0979251e-38 331 259
0.014265119 0.67799997 -0.022586439 1.1621376e-38 332 259
0.015453878 0.67799997 -0.022586439 1.1160398e-38 333 259
0.016642639 0.67799997 -0.022586439 1.088489e-38 334 259
0.0178314 0.67799997 -0.022586439 1.0607943e-38 335 259
0.019048214 0.67900002 -0.022619752 1.0148044e-38 336 259
0.020208918 0.67799997 -0.022586439 9.6870656e-39 337 259
0.021397678 0.67799997 -0.022586439 9.2282328e-39 338 259
0.022619752 0.67900002 -0.022619752 1.0703363e-38 339 259
0.023810266 0.67900002 -0.022619752 1.3095042e-38 340 259
0.025000781 0.67900002 -0.022619752 1.3648215e-38 341 259
0.026191294 0.67900002 -0.022619752 1.3923723e-38 342 259
0.027381808 0.67900002 -0.022619752 1.4015919e-38 343 259
0.028572321 0.67900002 -0.022619752 1.3463103e-38 344 259
0.029806666 0.68000001 -0.022653066 1.3463103e-38 345 259
0.030998932 0.68000001 -0.022653066 1.3554221e-38 346 259
0.032285877 0.68199998 -0.022719691 1.2632266e-38 347 259
0.033530746 0.68300003 -0.022753006 1.0237703e-38 348 259
0.034728274 0.68300003 -0.022753006 1.0421734e-38 349 259
0.035978399 0.68400002 -0.022786319 1.0423533e-38 350 259
0.037286382 0.68599999 -0.022852944 1.0608283e-38 351 259
0.03848917 0.68599999 -0.022852944 1.1801789e-38 352 259
0.039749816 0.68699998 -0.022886258 1.2539354e-38 353 259
0.040954359 0.68699998 -0.022886258 1.143515e-38 354 259
0.042220265 0.68800002 -0.022919573 1.0789781e-38 355 259
0.043552797 0.69 -0.022986198 1.1525896e-38 356 259
0.044957221 0.69300002 -0.02308614 1.2724439e-38 357 259
0.04617228 0.69300002 -0.02308614 1.3736796e-38 358 259
0.047592476 0.69599998 -0.023186078 1.4197774e-38 359 259
0.048882935 0.69700003 -0.023219392 1.373643e-38 360 259
0.050105009 0.69700003 -0.023219392 1.5488146e-38 361 259
-0.016092092 0.70599997 -0.024757065 2.009648e-38 307 260
-0.014854239 0.70599997 -0.024757065 1.8804318e-38 308 260
-0.013558527 0.70300001 -0.024651866 1.5116133e-38 309 260
-0.012273333 0.69999999 -0.024546666 1.041563e-38 310 260
-0.011045999 0.69999999 -0.024546666 1.0599661e-38 311 260
-0.0097906133 0.69800001 -0.024476532 1.0798079e-38 312 260
-0.0085545136 0.69700003 -0.024441468 1.4117122e-38 313 260
-0.0073219193 0.69599998 -0.0244064 1.4851733e-38 314 260
-0.0060840664 0.69400001 -0.024336265 1.1901833e-38 315 260
-0.00486024 0.69300002 -0.024301201 9.0540977e-39 316 260
-0.0036346598 0.69099998 -0.024231065 8.6853137e-39 317 260
-0.0024195998 0.69 -0.024195999 8.5001938e-39 318 260
-0.0012062934 0.68800002 -0.024125867 9.1455632e-39 319 260
0 0.68699998 -0.024090799 1.27359e-38 320 260
0.0012027866 0.68599999 -0.024055731 1.3566019e-38 321 260
0.0023985601 0.68400002 -0.0239856 1.4666327e-38 322 260
0.0035925799 0.68300003 -0.023950534 1.4205708e-38 323 260
0.0047901068 0.68300003 -0.023950534 1.300791e-38 324 260
0.005978866 0.68199998 -0.023915464 1.005729e-38 325 260
0.00717464 0.68199998 -0.023915464 8.2173473e-39 326 260
0.0083458666 0.68000001 -0.023845334 8.9549124e-39 327 260
0.0095381327 0.68000001 -0.023845334 9.1378617e-39 328 260
0.010714619 0.67900002 -0.023810266 9.3218928e-39 329 260
0.011905133 0.67900002 -0.023810266 9.3204523e-39 330 260
0.013095647 0.67900002 -0.023810266 9.781429e-39 331 260
0.01428616 0.67900002 -0.023810266 1.1165435e-38 332 260
0.015476674 0.67900002 -0.023810266 1.1442024e-38 333 260
0.016667187 0.67900002 -0.023810266 1.2634802e-38 334 260
0.017857701 0.67900002 -0.023810266 1.3372367e-38 335 260
0.019048214 0.67900002 -0.023810266 1.3558188e-38 336 260
0.020238725 0.67900002 -0.023810266 1.3558188e-38 337 260
0.021429239 0.67900002 -0.023810266 1.3740411e-38 338 260
0.022619752 0.67900002 -0.023810266 1.3740411e-38 339 260
0.023845334 0.68000001 -0.023845334 1.3188311e-38 340 260
0.025037598 0.68000001 -0.023845334 1.2819887e-38 341 260
0.026229866 0.68000001 -0.023845334 1.2909929e-38 342 260
0.027422134 0.68000001 -0.023845334 1.263334e-38 343 260
0.028614398 0.68000001 -0.023845334 1.2079095e-38 344 260
0.029894331 0.68199998 -0.023915464 1.1433725e-38 345 260
0.031090107 0.68199998 -0.023915464 1.1339379e-38 346 260
0.032333218 0.68300003 -0.023950534 1.1154986e-38 347 260
0.033530746 0.68300003 -0.023950534 1.0145154e-38 348 260
0.03477912 0.68400002 -0.0239856 1.0421381e-38 349 260
0.035978399 0.68400002 -0.0239856 1.0790877e-38 350 260
0.037286382 0.68599999 -0.024055731 1.1067104e-38 351 260
0.038545277 0.68699998 -0.024090799 1.1435162e-38 352 260
0.039749816 0.68699998 -0.024090799 1.1712107e-38 353 260
0.040954359 0.68699998 -0.024090799 1.143695e-38 354 260
0.042220265 0.68800002 -0.024125867 1.1529145e-38 355 260
0.043552797 0.69 -0.024195999 1.3276897e-38 356 260
0.044957221 0.69300002 -0.024301201 1.382971e-38 357 260
0.046238903 0.69400001 -0.024336265 1.3920464e-38 358 260
0.047455717 0.69400001 -0.024336265 1.401266e-38 359 260
0.048882935 0.69700003 -0.024441468 1.3643151e-38 360 260
0.050105009 0.69700003 -0.024441468 1.4657663e-38 361 260
-0.016023712 0.70300001 -0.025884461 2.0003209e-38 307 261
-0.013558527 0.70300001 -0.025884461 1.5487427e-38 309 261
-0.012273333 0.69999999 -0.025773998 1.0786561e-38 310 261
-0.011045999 0.69999999 -0.025773998 1.0325583e-38 311 261
-0.0097906133 0.69800001 -0.025700359 1.0788726e-38 312 261
-0.0085545136 0.69700003 -0.025663542 1.530631e-38 313 261
-0.00733244 0.69700003 -0.025663542 1.5495686e-38 314 261
-0.0060840664 0.69400001 -0.025553079 1.374397e-38 315 261
-0.0048672534 0.69400001 -0.025553079 1.1996113e-38 316 261
-0.0036451798 0.69300002 -0.02551626 1.0336593e-38 317 261
-0.0024195998 0.69 -0.025405798 8.2257845e-39 318 261
-0.0012062934 0.68800002 -0.02533216 9.4243277e-39 319 261
0 0.68699998 -0.025295338 1.3194733e-38 320 261
0.0012027866 0.68599999 -0.025258519 1.3840102e-38 321 261
0.0023985601 0.68400002 -0.025184879 1.4482296e-38 322 261
0.00359784 0.68400002 -0.025184879 1.4020958e-38 323 261
0.0047901068 0.68300003 -0.02514806 1.2916431e-38 324 261
0.0059876335 0.68300003 -0.02514806 1.0150562e-38 325 261
0.00717464 0.68199998 -0.025111238 7.8496424e-39 326 261
0.0083704125 0.68199998 -0.025111238 8.4024574e-39 327 261
0.009566186 0.68199998 -0.025111238 9.2279021e-39 328 261
0.0107304 0.68000001 -0.025037598 9.2279021e-39 329 261
0.011922667 0.68000001 -0.025037598 9.227179e-39 330 261
0.013095647 0.67900002 -0.025000781 9.227179e-39 331 261
0.01428616 0.67900002 -0.025000781 1.0332801e-38 332 261
0.015476674 0.67900002 -0.025000781 1.097817e-38 333 261
0.016667187 0.67900002 -0.025000781 1.1345862e-38 334 261
0.017883999 0.68000001 -0.025037598 1.2083427e-38 335 261
0.019076265 0.68000001 -0.025037598 1.245184e-38 336 261
0.020268533 0.68000001 -0.025037598 1.245184e-38 337 261
0.0214608 0.68000001 -0.025037598 1.2727348e-38 338 261
0.022653066 0.68000001 -0.025037598 1.2451121e-38 339 261
0.023845334 0.68000001 -0.025037598 1.272555e-38 340 261
0.025037598 0.68000001 -0.025037598 1.2264931e-38 341 261
0.026229866 0.68000001 -0.025037598 1.2356405e-38 342 261
0.027422134 0.68000001 -0.025037598 1.2264209e-38 343 261
0.02869856 0.68199998 -0.025111238 1.1249697e-38 344 261
0.029894331 0.68199998 -0.025111238 1.0328101e-38 345 261
0.031135695 0.68300003 -0.02514806 1.060433e-38 346 261
0.032333218 0.68300003 -0.02514806 1.060433e-38 347 261
0.033579841 0.68400002 -0.025184879 1.0513217e-38 348 261
0.03477912 0.68400002 -0.025184879 1.0789445e-38 349 261
0.036083598 0.68599999 -0.025258519 1.0699044e-38 350 261
0.037340738 0.68699998 -0.025295338 1.079124e-38 351 261
0.038545277 0.68699998 -0.025295338 1.0976341e-38 352 261
0.039807681 0.68800002 -0.02533216 1.1990133e-38 353 261
0.041013971 0.68800002 -0.02533216 1.2632972e-38 354 261
0.042342998 0.69 -0.025405798 1.2909199e-38 355 261
0.043615919 0.69099998 -0.025442619 1.3460932e-38 356 261
0.044957221 0.69300002 -0.02551626 1.3368736e-38 357 261
0.04617228 0.69300002 -0.02551626 1.3459856e-38 358 261
0.047455717 0.69400001 -0.025553079 1.3644247e-38 359 261
0.048812799 0.69599998 -0.025626717 1.2998865e-38 360 261
0.050033119 0.69599998 -0.025626717 1.4197407e-38 361 261
-0.013519952 0.70099998 -0.027039904 1.6132796e-38 309 262
-0.012290866 0.70099998 -0.027039904 1.1525195e-38 310 262
-0.011045999 0.69999999 -0.027001332 1.0511044e-38 311 262
-0.0098186666 0.69999999 -0.027001332 1.0882719e-38 312 262
-0.0085667865 0.69800001 -0.026924185 1.4938967e-38 313 262
-0.0073429602 0.69800001 -0.026924185 1.5403883e-38 314 262
-0.0061015999 0.69599998 -0.026847038 1.503474e-38 315 262
-0.0048672534 0.69400001 -0.026769891 1.4297137e-38 316 262
-0.0036451798 0.69300002 -0.02673132 1.3098954e-38 317 262
-0.0024231065 0.69099998 -0.026654173 1.1814322e-38 318 262
-0.0012097999 0.69 -0.026615599 1.2367137e-38 319 262
0 0.68800002 -0.026538454 1.3470641e-38 320 262
0.0012062934 0.68800002 -0.026538454 1.3839065e-38 321 262
0.0024090798 0.68699998 -0.026499879 1.4481943e-38 322 262
0.00360836 0.68599999 -0.026461305 1.4113159e-38 323 262
0.0047971201 0.68400002 -0.02638416 1.2915712e-38 324 262
0.0059876335 0.68300003 -0.026345588 1.0518265e-38 325 262
0.0071851597 0.68300003 -0.026345588 8.8612678e-39 326 262
0.0083704125 0.68199998 -0.026307013 9.1382148e-39 327 262
0.009566186 0.68199998 -0.026307013 9.597035e-39 328 262
0.010761959 0.68199998 -0.026307013 9.6892306e-39 329 262
0.011957732 0.68199998 -0.026307013 9.6885117e-39 330 262
0.013114933 0.68000001 -0.026229866 9.5041205e-39 331 262
0.014307199 0.68000001 -0.026229866 9.8711107e-39 332 262
0.015499466 0.68000001 -0.026229866 1.0331729e-38 333 262
0.016691733 0.68000001 -0.026229866 9.4115675e-39 334 262
0.017883999 0.68000001 -0.026229866 9.6885145e-39 335 262
0.019076265 0.68000001 -0.026229866 1.0700859e-38 336 262
0.020328145 0.68199998 -0.026307013 1.0700859e-38 337 262
0.0214608 0.68000001 -0.026229866 1.162101e-38 338 262
0.022653066 0.68000001 -0.026229866 1.1989433e-38 339 262
0.023845334 0.68000001 -0.026229866 1.2173458e-38 340 262
0.025111238 0.68199998 -0.026307013 1.2173458e-38 341 262
0.026307013 0.68199998 -0.026307013 1.2267082e-38 342 262
0.027502786 0.68199998 -0.026307013 1.2451474e-38 343 262
0.028740639 0.68300003 -0.026345588 1.1159303e-38 344 262
0.029938167 0.68300003 -0.026345588 9.8685646e-39 345 262
0.031135695 0.68300003 -0.026345588 1.0788008e-38 346 262
0.032380559 0.68400002 -0.02638416 1.0788008e-38 347 262
0.033678025 0.68599999 -0.026461305 1.0788726e-38 348 262
0.034880809 0.68599999 -0.026461305 1.0973117e-38 349 262
0.036136195 0.68699998 -0.026499879 1.0974192e-38 350 262
0.037340738 0.68699998 -0.026499879 1.0789442e-38 351 262
0.038601387 0.68800002 -0.026538454 1.0699031e-38 352 262
0.039807681 0.68800002 -0.026538454 1.2542944e-38 353 262
0.041013971 0.68800002 -0.026538454 1.3646045e-38 354 262
0.042342998 0.69 -0.026615599 1.3369458e-38 355 262
0.043615919 0.69099998 -0.026654173 1.3001752e-38 356 262
0.044957221 0.69300002 -0.02673132 1.2632969e-38 357 262
0.04617228 0.69300002 -0.02673132 1.3274744e-38 358 262
0.047455717 0.69400001 -0.026769891 1.3551332e-38 359 262
0.048812799 0.69599998 -0.026847038 1.3273657e-38 360 262
0.050033119 0.69599998 -0.026847038 1.4748427e-38 361 262
-0.012273333 0.69999999 -0.028228667 1.3643894e-38 310 263
-0.011045999 0.69999999 -0.028228667 1.161559e-38 311 263
-0.0098186666 0.69999999 -0.028228667 1.0055474e-38 312 263
-0.0085913334 0.69999999 -0.028228667 1.4388667e-38 313 263
-0.0073429602 0.69800001 -0.028148014 1.5311344e-38 314 263
-0.0061103669 0.69700003 -0.028107686 1.494292e-38 315 263
-0.0048672534 0.69400001 -0.027986705 1.4666315e-38 316 263
-0.0036451798 0.69300002 -0.027946379 1.4205337e-38 317 263
-0.0024231065 0.69099998 -0.027865725 1.3838349e-38 318 263
-0.0012097999 0.69 -0.027825398 1.3930545e-38 319 263
0 0.69 -0.027825398 1.4206424e-38 320 263
0.0012062934 0.68800002 -0.027744746 1.4206424e-38 321 263
0.0024090798 0.68699998 -0.027704418 1.4482662e-38 322 263
0.00360836 0.68599999 -0.027664091 1.4022043e-38 323 263
0.0048111463 0.68599999 -0.027664091 1.3099377e-38 324 263
0.0059964 0.68400002 -0.027583439 1.1808638e-38 325 263
0.0071851597 0.68300003 -0.027543113 1.134371e-38 326 263
0.0083826864 0.68300003 -0.027543113 1.0883091e-38 327 263
0.0095802136 0.68300003 -0.027543113 9.9672496e-39 328 263
0.010761959 0.68199998 -0.027502786 1.0059445e-38 329 263
0.011957732 0.68199998 -0.027502786 9.9668937e-39 330 263
0.013153506 0.68199998 -0.027502786 9.782501e-39 331 263
0.01434928 0.68199998 -0.027502786 1.0333881e-38 332 263
0.015545053 0.68199998 -0.027502786 1.0517912e-38 333 263
0.016740825 0.68199998 -0.027502786 9.871824e-39 334 263
0.017936599 0.68199998 -0.027502786 1.0424998e-38 335 263
0.019132372 0.68199998 -0.027502786 1.2450774e-38 336 263
0.020328145 0.68199998 -0.027502786 1.2819196e-38 337 263
0.021523919 0.68199998 -0.027502786 1.2636587e-38 338 263
0.022719691 0.68199998 -0.027502786 1.2636587e-38 339 263
0.023915464 0.68199998 -0.027502786 1.282025e-38 340 263
0.025111238 0.68199998 -0.027502786 1.282025e-38 341 263
0.026307013 0.68199998 -0.027502786 1.2637656e-38 342 263
0.027543113 0.68300003 -0.027543113 1.2822049e-38 343 263
0.028740639 0.68300003 -0.027543113 1.1253297e-38 344 263
0.029982001 0.68400002 -0.027583439 9.224993e-39 345 263
0.03118128 0.68400002 -0.027583439 1.0145157e-38 346 263
0.032475237 0.68599999 -0.027664091 1.0513581e-38 347 263
0.033678025 0.68599999 -0.027664091 1.1064234e-38 348 263
0.034931656 0.68699998 -0.027704418 1.1341179e-38 349 263
0.036136195 0.68699998 -0.027704418 1.1433372e-38 350 263
0.037395094 0.68800002 -0.027744746 1.1248981e-38 351 263
0.038601387 0.68800002 -0.027744746 1.1616672e-38 352 263
0.0399234 0.69 -0.027825398 1.3460584e-38 353 263
0.041133199 0.69 -0.027825398 1.2818086e-38 354 263
0.042404365 0.69099998 -0.027865725 1.2172717e-38 355 263
0.043742158 0.69300002 -0.027946379 1.2263832e-38 356 263
0.044957221 0.69300002 -0.027946379 1.2356029e-38 357 263
0.046238903 0.69400001 -0.027986705 1.299888e-38 358 263
0.047455717 0.69400001 -0.027986705 1.3275467e-38 359 263
0.048672531 0.69400001 -0.027986705 1.2906313e-38 360 263
0.049889345 0.69400001 -0.027986705 1.4197052e-38 361 263
-0.016183265 0.70999998 -0.029876797 1.9726621e-38 307 264
-0.013616386 0.70599997 -0.029708479 1.7055838e-38 309 264
-0.012378532 0.70599997 -0.029708479 1.5120102e-38 310 264
-0.011109119 0.704 -0.029624319 1.3091798e-38 311 264
-0.0098326923 0.70099998 -0.029498078 9.3218606e-39 312 264
-0.0086036054 0.70099998 -0.029498078 1.3378108e-38 313 264
-0.0073639993 0.69999999 -0.029455997 1.4943642e-38 314 264
-0.0061103669 0.69700003 -0.02932976 1.457486e-38 315 264
-0.0048812795 0.69599998 -0.029287677 1.4850003e-38 316 264
-0.0036504399 0.69400001 -0.029203519 1.4850003e-38 317 264
-0.00243012 0.69300002 -0.029161438 1.4758523e-38 318 264
-0.0012115532 0.69099998 -0.029077278 1.4758523e-38 319 264
0 0.69 -0.029035198 1.4482296e-38 320 264
0.0012097999 0.69 -0.029035198 1.4482296e-38 321 264
0.0024125867 0.68800002 -0.028951041 1.4390466e-38 322 264
0.0036136196 0.68699998 -0.028908957 1.3929488e-38 323 264
0.0048111463 0.68599999 -0.02886688 1.3191573e-38 324 264
0.0060139326 0.68599999 -0.02886688 1.2546204e-38 325 264
0.0071956799 0.68400002 -0.02878272 1.2451855e-38 326 264
0.0083949603 0.68400002 -0.02878272 1.0977086e-38 327 264
0.0095802136 0.68300003 -0.028740639 1.0519347e-38 328 264
0.01077774 0.68300003 -0.028740639 1.0519347e-38 329 264
0.011975267 0.68300003 -0.028740639 1.0427149e-38 330 264
0.013172794 0.68300003 -0.028740639 1.0334953e-38 331 264
0.014370319 0.68300003 -0.028740639 1.0519344e-38 332 264
0.015567848 0.68300003 -0.028740639 1.0519344e-38 333 264
0.016765373 0.68300003 -0.028740639 1.0149842e-38 334 264
0.017936599 0.68199998 -0.02869856 1.0610461e-38 335 264
0.019132372 0.68199998 -0.02869856 1.2634799e-38 336 264
0.020357953 0.68300003 -0.028740639 1.3096137e-38 337 264
0.02155548 0.68300003 -0.028740639 1.2820616e-38 338 264
0.022753006 0.68300003 -0.028740639 1.2452193e-38 339 264
0.023950534 0.68300003 -0.028740639 1.245219e-38 340 264
0.02514806 0.68300003 -0.028740639 1.2544386e-38 341 264
0.026345588 0.68300003 -0.028740639 1.2913166e-38 342 264
0.027543113 0.68300003 -0.028740639 1.3005361e-38 343 264
0.028740639 0.68300003 -0.028740639 1.1529163e-38 344 264
0.029982001 0.68400002 -0.02878272 9.3161096e-39 345 264
0.031272452 0.68599999 -0.02886688 1.032775e-38 346 264
0.032475237 0.68599999 -0.02886688 1.097312e-38 347 264
0.033727121 0.68699998 -0.028908957 1.1340098e-38 348 264
0.034931656 0.68699998 -0.028908957 1.1617043e-38 349 264
0.0361888 0.68800002 -0.028951041 1.1251136e-38 350 264
0.037395094 0.68800002 -0.028951041 1.115858e-38 351 264
0.038713597 0.69 -0.029035198 1.1802502e-38 352 264
0.0399234 0.69 -0.029035198 1.2724817e-38 353 264
0.041192811 0.69099998 -0.029077278 1.2172714e-38 354 264
0.042404365 0.69099998 -0.029077278 1.1527345e-38 355 264
0.043742158 0.69300002 -0.029161438 1.1802858e-38 356 264
0.044957221 0.69300002 -0.029161438 1.1987249e-38 357 264
0.046238903 0.69400001 -0.029203519 1.2723372e-38 358 264
0.047455717 0.69400001 -0.029203519 1.3276188e-38 359 264
0.048672531 0.69400001 -0.029203519 1.2446763e-38 360 264
-0.016183265 0.70999998 -0.031121666 1.9450391e-38 307 265
-0.014938398 0.70999998 -0.031121666 1.8345858e-38 308 265
-0.013693533 0.70999998 -0.031121666 1.6870728e-38 309 265
-0.012378532 0.70599997 -0.030946331 1.484604e-38 310 265
-0.011140679 0.70599997 -0.030946331 1.420067e-38 311 265
-0.0098607466 0.70300001 -0.030814834 1.1535279e-38 312 265
-0.0086036054 0.70099998 -0.030727165 1.2826018e-38 313 265
-0.0073639993 0.69999999 -0.030683333 1.457486e-38 314 265
-0.006119133 0.69800001 -0.030595668 1.4667056e-38 315 265
-0.0048882933 0.69700003 -0.030551834 1.4758173e-38 316 265
-0.0036504399 0.69400001 -0.030420333 1.4665977e-38 317 265
-0.00243012 0.69300002 -0.0303765 1.4482662e-38 318 265
-0.00121506 0.69300002 -0.0303765 1.4482662e-38 319 265
0 0.69099998 -0.030288832 1.4483018e-38 320 265
0.0012097999 0.69 -0.030244999 1.4483018e-38 321 265
0.0024125867 0.68800002 -0.030157333 1.4299353e-38 322 265
0.0036136196 0.68699998 -0.030113498 1.3653983e-38 323 265
0.0048181596 0.68699998 -0.030113498 1.3374888e-38 324 265
0.0060226996 0.68699998 -0.030113498 1.291391e-38 325 265
0.0072167199 0.68599999 -0.030069664 1.2361462e-38 326 265
0.0084195063 0.68599999 -0.030069664 1.0794136e-38 327 265
0.0095942402 0.68400002 -0.029982001 1.051935e-38 328 265
0.01079352 0.68400002 -0.029982001 1.0611546e-38 329 265
0.0119928 0.68400002 -0.029982001 1.0426796e-38 330 265
0.01319208 0.68400002 -0.029982001 1.0242404e-38 331 265
0.014370319 0.68300003 -0.029938167 1.0333881e-38 332 265
0.015567848 0.68300003 -0.029938167 1.0517912e-38 333 265
0.016765373 0.68300003 -0.029938167 1.0700859e-38 334 265
0.017962901 0.68300003 -0.029938167 1.0700859e-38 335 265
0.019160427 0.68300003 -0.029938167 1.0059442e-38 336 265
0.020357953 0.68300003 -0.029938167 1.0704812e-38 337 265
0.02155548 0.68300003 -0.029938167 1.1348735e-38 338 265
0.022753006 0.68300003 -0.029938167 1.1163985e-38 339 265
0.023950534 0.68300003 -0.029938167 1.1806471e-38 340 265
0.02514806 0.68300003 -0.029938167 1.2544036e-38 341 265
0.026345588 0.68300003 -0.029938167 1.2637303e-38 342 265
0.027583439 0.68400002 -0.029982001 1.27295e-38 343 265
0.02878272 0.68400002 -0.029982001 1.2725903e-38 344 265
0.030069664 0.68599999 -0.030069664 1.1896503e-38 345 265
0.031318039 0.68699998 -0.030113498 1.2905978e-38 346 265
0.032522578 0.68699998 -0.030113498 1.2260609e-38 347 265
0.033727121 0.68699998 -0.030113498 1.1339376e-38 348 265
0.03498251 0.68800002 -0.030157333 1.1524126e-38 349 265
0.0361888 0.68800002 -0.030157333 1.1067104e-38 350 265
0.037503798 0.69 -0.030244999 1.0883072e-38 351 265
0.038713597 0.69 -0.030244999 1.1252205e-38 352 265
0.039981257 0.69099998 -0.030288832 1.2174162e-38 353 265
0.041192811 0.69099998 -0.030288832 1.2173436e-38 354 265
0.042527102 0.69300002 -0.0303765 1.1620262e-38 355 265
0.043742158 0.69300002 -0.0303765 1.1709942e-38 356 265
0.045022093 0.69400001 -0.030420333 1.1525192e-38 357 265
0.046238903 0.69400001 -0.030420333 1.2172717e-38 358 265
0.047592476 0.69599998 -0.030507999 1.2818086e-38 359 265
0.048812799 0.69599998 -0.030507999 1.2722271e-38 360 265
-0.016183265 0.70999998 -0.032366529 1.9450391e-38 307 266
-0.014938398 0.70999998 -0.032366529 1.8529171e-38 308 266
-0.013693533 0.70999998 -0.032366529 1.6593421e-38 309 266
-0.0124136 0.708 -0.03227536 1.3926244e-38 310 266
-0.011140679 0.70599997 -0.032184184 1.4295387e-38 311 266
-0.0098607466 0.70300001 -0.032047424 1.3008258e-38 312 266
-0.0086036054 0.70099998 -0.031956252 1.3561432e-38 313 266
-0.0073639993 0.69999999 -0.031910665 1.4665261e-38 314 266
