# .PCD v.7 - Point Cloud Data file format
FIELDS x y z rgb imX imY
SIZE 4 4 4 4 4 4
TYPE F F F F F F
COUNT 1 1 1 1 1 1
WIDTH 835
HEIGHT 1
VIEWPOINT 0 0 0 1 0 0 0
POINTS 835
DATA ascii
-0.02218668 0.70300001 -0.0036977797 6.0834822e-39 302 243
-0.020983893 0.704 -0.0037030398 5.1618861e-39 303 243
-0.019721493 0.70300001 -0.0036977797 4.6090935e-39 304 243
-0.018436298 0.70099998 -0.0036872597 4.6090935e-39 305 243
-0.017207211 0.70099998 -0.0036872597 7.4703824e-39 306 243
-0.015978126 0.70099998 -0.0036872597 7.3781867e-39 307 243
-0.014749039 0.70099998 -0.0036872597 7.0972586e-39 308 243
-0.013558527 0.70300001 -0.0036977797 7.0972586e-39 309 243
-0.012325933 0.70300001 -0.0036977797 5.718643e-39 310 243
-0.01109334 0.70300001 -0.0036977797 4.7048512e-39 311 243
-0.0098607466 0.70300001 -0.0036977797 5.8998042e-39 312 243
-0.0086281532 0.70300001 -0.0036977797 7.4667698e-39 313 243
-0.0073955595 0.70300001 -0.0036977797 8.1053051e-39 314 243
-0.0061629666 0.70300001 -0.0036977797 8.3818934e-39 315 243
-0.0049303733 0.70300001 -0.0036977797 9.0315816e-39 316 243
-0.0036977797 0.70300001 -0.0036977797 9.5847554e-39 317 243
-0.0024651866 0.70300001 -0.0036977797 8.9393832e-39 318 243
-0.0012325933 0.70300001 -0.0036977797 8.8471875e-39 319 243
0 0.70300001 -0.0036977797 9.1226954e-39 320 243
0.0012325933 0.70300001 -0.0036977797 9.7680648e-39 321 243
0.0024686933 0.704 -0.0037030398 1.0047529e-38 322 243
0.0037135598 0.70599997 -0.0037135598 1.0415951e-38 323 243
0.0049514128 0.70599997 -0.0037135598 1.0968037e-38 324 243
0.0061980332 0.70700002 -0.0037188199 1.0783646e-38 325 243
0.0074376399 0.70700002 -0.0037188199 1.032374e-38 326 243
0.0087140659 0.70999998 -0.0037345996 1.032374e-38 327 243
0.0099589331 0.70999998 -0.0037345996 9.770569e-39 328 243
0.01121958 0.71100003 -0.0037398601 9.1251995e-39 329 243
0.012501267 0.713 -0.0037503797 7.8337545e-39 330 243
0.01377068 0.71399999 -0.0037556398 6.7277671e-39 331 243
0.01506464 0.71600002 -0.00376616 7.0940412e-39 332 243
0.016320027 0.71600002 -0.00376616 7.3709869e-39 333 243
0.017575413 0.71600002 -0.00376616 7.6529632e-39 334 243
0.018857099 0.71700001 -0.0037714199 9.9574938e-39 335 243
0.020114239 0.71700001 -0.0037714199 1.4289248e-38 336 243
-0.048304334 0.72500002 -0.0050846669 1.4937493e-38 282 244
-0.046903417 0.72299999 -0.0050706398 1.4937493e-38 283 244
-0.045572639 0.722 -0.0050636264 1.4752392e-38 284 244
-0.044306733 0.722 -0.0050636264 1.2447862e-38 285 244
-0.042861983 0.71899998 -0.0050425865 9.8714316e-39 286 244
-0.041485619 0.71700001 -0.0050285598 9.9636272e-39 287 244
-0.040172372 0.71600002 -0.0050215465 1.0146223e-38 288 244
-0.038808275 0.71399999 -0.0050075199 1.0146223e-38 289 244
-0.037503798 0.713 -0.0050005065 9.4090115e-39 290 244
-0.036151983 0.71100003 -0.0049864799 8.394861e-39 291 244
-0.034856264 0.70999998 -0.0049794666 8.1193489e-39 292 244
-0.033611398 0.70999998 -0.0049794666 9.4100877e-39 293 244
-0.03227536 0.708 -0.0049654399 1.088305e-38 294 244
-0.030990168 0.70700002 -0.0049584266 1.0975246e-38 295 244
-0.029708479 0.70599997 -0.0049514128 1.1065997e-38 296 244
-0.028470624 0.70599997 -0.0049514128 1.078941e-38 297 244
-0.027155625 0.704 -0.0049373866 1.0512823e-38 298 244
-0.02592128 0.704 -0.0049373866 1.0420627e-38 299 244
-0.024686933 0.704 -0.0049373866 1.0970205e-38 300 244
-0.023452586 0.704 -0.0049373866 1.0785812e-38 301 244
-0.022218239 0.704 -0.0049373866 1.0324841e-38 302 244
-0.020983893 0.704 -0.0049373866 1.0047894e-38 303 244
-0.019749546 0.704 -0.0049373866 9.5872861e-39 304 244
-0.018488899 0.70300001 -0.0049303733 9.311058e-39 305 244
-0.017207211 0.70099998 -0.0049163462 1.023516e-38 306 244
-0.015978126 0.70099998 -0.0049163462 1.0050768e-38 307 244
-0.014791119 0.70300001 -0.0049303733 9.3113705e-39 308 244
-0.013558527 0.70300001 -0.0049303733 8.573804e-39 309 244
-0.012325933 0.70300001 -0.0049303733 8.390133e-39 310 244
-0.01109334 0.70300001 -0.0049303733 8.6667199e-39 311 244
-0.0098607466 0.70300001 -0.0049303733 8.2007223e-39 312 244
-0.0086281532 0.70300001 -0.0049303733 6.5412024e-39 313 244
-0.0073955595 0.70300001 -0.0049303733 7.1865718e-39 314 244
-0.0061717331 0.704 -0.0049373866 9.5836568e-39 315 244
-0.0049373866 0.704 -0.0049373866 1.068893e-38 316 244
-0.0037030398 0.704 -0.0049373866 1.087368e-38 317 244
-0.0024686933 0.704 -0.0049373866 1.0689651e-38 318 244
-0.0012343467 0.704 -0.0049373866 1.050562e-38 319 244
0 0.704 -0.0049373866 1.0229029e-38 320 244
0.0012343467 0.704 -0.0049373866 1.0321225e-38 321 244
0.0024686933 0.704 -0.0049373866 9.9556805e-39 322 244
0.0037135598 0.70599997 -0.0049514128 9.7712878e-39 323 244
0.0049514128 0.70599997 -0.0049514128 9.5858218e-39 324 244
0.0061980332 0.70700002 -0.0049584266 9.4936261e-39 325 244
0.0074376399 0.70700002 -0.0049584266 9.3103139e-39 326 244
0.0087140659 0.70999998 -0.0049794666 9.4025095e-39 327 244
0.0099589331 0.70999998 -0.0049794666 9.0326536e-39 328 244
0.01121958 0.71100003 -0.0049864799 8.2025342e-39 329 244
0.012501267 0.713 -0.0050005065 6.3618712e-39 330 244
0.01377068 0.71399999 -0.0050075199 5.4399149e-39 331 244
0.01506464 0.71600002 -0.0050215465 6.0816914e-39 332 244
0.016320027 0.71600002 -0.0050215465 6.4504725e-39 333 244
0.017599959 0.71700001 -0.0050285598 6.915761e-39 334 244
0.018857099 0.71700001 -0.0050285598 9.4050431e-39 335 244
0.020114239 0.71700001 -0.0050285598 1.4472916e-38 336 244
-0.048304334 0.72500002 -0.0063558333 1.567326e-38 282 245
-0.047033165 0.72500002 -0.0063558333 1.5765456e-38 283 245
-0.04563576 0.72299999 -0.0063382997 1.5122254e-38 284 245
-0.044306733 0.722 -0.0063295332 1.2263829e-38 285 245
-0.042921603 0.72000003 -0.0063120001 9.7785199e-39 286 245
-0.041601337 0.71899998 -0.0063032326 9.7785199e-39 287 245
-0.040228479 0.71700001 -0.0062857 9.4111793e-39 288 245
-0.038916986 0.71600002 -0.0062769335 9.2271482e-39 289 245
-0.037556399 0.71399999 -0.0062593995 8.9494823e-39 290 245
-0.036253672 0.713 -0.0062506334 8.0275246e-39 291 245
-0.034905359 0.71100003 -0.0062330998 7.2870897e-39 292 245
-0.033611398 0.70999998 -0.0062243328 7.471481e-39 293 245
-0.03227536 0.708 -0.0062067998 9.2235455e-39 294 245
-0.031034 0.708 -0.0062067998 1.0145861e-38 295 245
-0.029750559 0.70700002 -0.0061980332 1.1065994e-38 296 245
-0.028470624 0.70599997 -0.0061892662 1.069757e-38 297 245
-0.027232772 0.70599997 -0.0061892662 1.0418103e-38 298 245
-0.02592128 0.704 -0.0061717331 9.957484e-39 299 245
-0.024686933 0.704 -0.0061717331 9.6827047e-39 300 245
-0.023452586 0.704 -0.0061717331 1.0789412e-38 301 245
-0.022218239 0.704 -0.0061717331 1.1892886e-38 302 245
-0.020983893 0.704 -0.0061717331 1.1892886e-38 303 245
-0.019749546 0.704 -0.0061717331 1.180069e-38 304 245
-0.018515198 0.704 -0.0061717331 1.1708495e-38 305 245
-0.017256306 0.70300001 -0.0061629666 1.1986141e-38 306 245
-0.016023712 0.70300001 -0.0061629666 1.1248217e-38 307 245
-0.014791119 0.70300001 -0.0061629666 9.4971812e-39 308 245
-0.013558527 0.70300001 -0.0061629666 9.1287588e-39 309 245
-0.012325933 0.70300001 -0.0061629666 9.9563699e-39 310 245
-0.01109334 0.70300001 -0.0061629666 1.1062359e-38 311 245
-0.0098607466 0.70300001 -0.0061629666 1.1059493e-38 312 245
-0.0086281532 0.70300001 -0.0061629666 7.2794737e-39 313 245
-0.0073955595 0.70300001 -0.0061629666 6.0841577e-39 314 245
-0.0061717331 0.704 -0.0061717331 9.218449e-39 315 245
-0.0049373866 0.704 -0.0061717331 1.0597087e-38 316 245
-0.0037030398 0.704 -0.0061717331 1.0228305e-38 317 245
-0.0024686933 0.704 -0.0061717331 9.9531652e-39 318 245
-0.0012343467 0.704 -0.0061717331 1.0045361e-38 319 245
0 0.704 -0.0061717331 1.0044632e-38 320 245
0.0012343467 0.704 -0.0061717331 9.860601e-39 321 245
0.0024757064 0.70599997 -0.0061892662 8.7575058e-39 322 245
0.0037135598 0.70599997 -0.0061892662 8.1121364e-39 323 245
0.0049584266 0.70700002 -0.0061980332 7.8341272e-39 324 245
0.0061980332 0.70700002 -0.0061980332 8.1107141e-39 325 245
0.0074481601 0.708 -0.0062067998 8.3876527e-39 326 245
0.0087140659 0.70999998 -0.0062243328 8.664241e-39 327 245
0.0099729598 0.71100003 -0.0062330998 8.5702433e-39 328 245
0.01121958 0.71100003 -0.0062330998 8.1092666e-39 329 245
0.012501267 0.713 -0.0062506334 6.4529906e-39 330 245
0.01377068 0.71399999 -0.0062593995 5.8076212e-39 331 245
0.01506464 0.71600002 -0.0062769335 5.4377625e-39 332 245
0.016342819 0.71700001 -0.0062857 5.2537314e-39 333 245
0.017599959 0.71700001 -0.0062857 6.8232025e-39 334 245
0.018857099 0.71700001 -0.0062857 8.943702e-39 335 245
0.020114239 0.71700001 -0.0062857 1.4562944e-38 336 245
-0.049780637 0.72799999 -0.0076585598 1.5581059e-38 281 246
-0.048437584 0.727 -0.0076480396 1.6038797e-38 282 246
-0.047033165 0.72500002 -0.0076270006 1.6038797e-38 283 246
-0.045761999 0.72500002 -0.0076270006 1.5210131e-38 284 246
-0.044306733 0.722 -0.0075954394 1.2628653e-38 285 246
-0.042921603 0.72000003 -0.0075743999 1.0054028e-38 286 246
-0.041601337 0.71899998 -0.0075638802 9.500854e-39 287 246
-0.040228479 0.71700001 -0.0075428397 8.9509229e-39 288 246
-0.038916986 0.71600002 -0.00753232 9.0431185e-39 289 246
-0.037556399 0.71399999 -0.0075112795 8.9494823e-39 290 246
-0.036304519 0.71399999 -0.0075112795 8.3041129e-39 291 246
-0.034905359 0.71100003 -0.0074797203 5.2602306e-39 292 246
-0.033658739 0.71100003 -0.0074797203 4.983285e-39 293 246
-0.032366529 0.70999998 -0.0074691991 5.716534e-39 294 246
-0.031034 0.708 -0.0074481601 6.6388491e-39 295 246
-0.029750559 0.70700002 -0.0074376399 7.1948745e-39 296 246
-0.028510952 0.70700002 -0.0074376399 6.9179289e-39 297 246
-0.027232772 0.70599997 -0.0074271196 7.7412085e-39 298 246
-0.025994917 0.70599997 -0.0074271196 7.1880347e-39 299 246
-0.024686933 0.704 -0.0074060797 6.9218847e-39 300 246
-0.023452586 0.704 -0.0074060797 8.6732416e-39 301 246
-0.022218239 0.704 -0.0074060797 1.0419924e-38 302 246
-0.020983893 0.704 -0.0074060797 1.0788706e-38 303 246
-0.019805651 0.70599997 -0.0074271196 1.0879457e-38 304 246
-0.018515198 0.704 -0.0074060797 1.0326283e-38 305 246
-0.017280852 0.704 -0.0074060797 1.0420622e-38 306 246
-0.016046507 0.704 -0.0074060797 9.9600021e-39 307 246
-0.014812159 0.704 -0.0074060797 9.0358584e-39 308 246
-0.013577812 0.704 -0.0074060797 9.4042821e-39 309 246
-0.012325933 0.70300001 -0.0073955595 1.0141134e-38 310 246
-0.01109334 0.70300001 -0.0073955595 1.106273e-38 311 246
-0.0098747732 0.704 -0.0074060797 1.1246772e-38 312 246
-0.0086404262 0.704 -0.0074060797 8.8496861e-39 313 246
-0.0074060797 0.704 -0.0074060797 7.3770573e-39 314 246
-0.0061717331 0.704 -0.0074060797 8.1146223e-39 315 246
-0.0049373866 0.704 -0.0074060797 8.5730992e-39 316 246
-0.0037030398 0.704 -0.0074060797 7.8355327e-39 317 246
-0.0024686933 0.704 -0.0074060797 7.2798576e-39 318 246
-0.0012343467 0.704 -0.0074060797 7.0958265e-39 319 246
0 0.704 -0.0074060797 7.3713372e-39 320 246
0.0012378532 0.70599997 -0.0074271196 7.8319566e-39 321 246
0.0024757064 0.70599997 -0.0074271196 7.9212838e-39 322 246
0.0037135598 0.70599997 -0.0074271196 7.6446969e-39 323 246
0.0049584266 0.70700002 -0.0074376399 7.185518e-39 324 246
0.0062067998 0.708 -0.0074481601 7.8308874e-39 325 246
0.0074481601 0.708 -0.0074481601 8.0188716e-39 326 246
0.0087140659 0.70999998 -0.0074691991 8.3876527e-39 327 246
0.0099589331 0.70999998 -0.0074691991 8.1117861e-39 328 246
0.01121958 0.71100003 -0.0074797203 7.4664167e-39 329 246
0.012501267 0.713 -0.0075007593 6.3615181e-39 330 246
0.01377068 0.71399999 -0.0075112795 5.623953e-39 331 246
0.01506464 0.71600002 -0.00753232 5.1611798e-39 332 246
0.016342819 0.71700001 -0.0075428397 5.4374066e-39 333 246
0.017599959 0.71700001 -0.0075428397 7.2834548e-39 334 246
0.018857099 0.71700001 -0.0075428397 8.9429761e-39 335 246
0.020114239 0.71700001 -0.0075428397 1.4561496e-38 336 246
-0.049780637 0.72799999 -0.0089349858 1.6313942e-38 281 247
-0.048437584 0.727 -0.0089227129 1.6405763e-38 282 247
-0.047162913 0.727 -0.0089227129 1.6221374e-38 283 247
-0.045761999 0.72500002 -0.0088981669 1.5483827e-38 284 247
-0.044368099 0.72299999 -0.0088736191 1.2994546e-38 285 247
-0.043040827 0.722 -0.0088613462 9.4111793e-39 286 247
-0.041601337 0.71899998 -0.0088245263 8.7658099e-39 287 247
-0.040228479 0.71700001 -0.0087999795 8.3984764e-39 288 247
-0.038916986 0.71600002 -0.0087877065 8.5825075e-39 289 247
-0.037661601 0.71600002 -0.0087877065 8.5817788e-39 290 247
-0.036304519 0.71399999 -0.0087631596 8.3970274e-39 291 247
-0.035003547 0.713 -0.0087508867 7.014093e-39 292 247
-0.033658739 0.71100003 -0.0087263398 5.1701804e-39 293 247
-0.032366529 0.70999998 -0.0087140659 5.3531423e-39 294 247
-0.031034 0.708 -0.008689519 5.4456981e-39 295 247
-0.02979264 0.708 -0.008689519 6.0888997e-39 296 247
-0.028510952 0.70700002 -0.008677247 5.9963453e-39 297 247
-0.027232772 0.70599997 -0.0086649731 6.9154107e-39 298 247
-0.025994917 0.70599997 -0.0086649731 6.8232151e-39 299 247
-0.024757065 0.70599997 -0.0086649731 6.6420706e-39 300 247
-0.023519212 0.70599997 -0.0086649731 7.7480581e-39 301 247
-0.022218239 0.704 -0.0086404262 7.7502133e-39 302 247
-0.020983893 0.704 -0.0086404262 8.1193545e-39 303 247
-0.019805651 0.70599997 -0.0086649731 8.6689228e-39 304 247
-0.018515198 0.704 -0.0086404262 8.5767271e-39 305 247
-0.017280852 0.704 -0.0086404262 9.223879e-39 306 247
-0.016046507 0.704 -0.0086404262 9.1316834e-39 307 247
-0.014812159 0.704 -0.0086404262 7.2866791e-39 308 247
-0.013577812 0.704 -0.0086404262 8.0242442e-39 309 247
-0.012343466 0.704 -0.0086404262 9.6823362e-39 310 247
-0.011109119 0.704 -0.0086404262 9.7745318e-39 311 247
-0.0098747732 0.704 -0.0086404262 9.6819733e-39 312 247
-0.0086404262 0.704 -0.0086404262 8.2064845e-39 313 247
-0.0074060797 0.704 -0.0086404262 7.8380509e-39 314 247
-0.0061717331 0.704 -0.0086404262 8.1146391e-39 315 247
-0.0049373866 0.704 -0.0086404262 8.2976011e-39 316 247
-0.0037030398 0.704 -0.0086404262 7.8369817e-39 317 247
-0.0024686933 0.704 -0.0086404262 7.0965608e-39 318 247
-0.0012378532 0.70599997 -0.0086649731 6.8199753e-39 319 247
0 0.70599997 -0.0086649731 6.819625e-39 320 247
0.0012378532 0.70599997 -0.0086649731 6.9118206e-39 321 247
0.0024757064 0.70599997 -0.0086649731 7.0958419e-39 322 247
0.0037188199 0.70700002 -0.008677247 7.2802346e-39 323 247
0.0049584266 0.70700002 -0.008677247 7.5582466e-39 324 247
0.0062067998 0.708 -0.008689519 8.1114204e-39 325 247
0.0074481601 0.708 -0.008689519 7.929543e-39 326 247
0.0087140659 0.70999998 -0.0087140659 8.1139357e-39 327 247
0.0099589331 0.70999998 -0.0087140659 8.3872814e-39 328 247
0.011251139 0.713 -0.0087508867 7.8341076e-39 329 247
0.012501267 0.713 -0.0087508867 7.0036407e-39 330 247
0.01377068 0.71399999 -0.0087631596 5.9898489e-39 331 247
0.015085679 0.71700001 -0.0087999795 5.4384884e-39 332 247
0.016388407 0.71899998 -0.0088245263 6.2678903e-39 333 247
0.017599959 0.71700001 -0.0087999795 7.3745742e-39 334 247
0.018857099 0.71700001 -0.0087999795 8.8497043e-39 335 247
0.020114239 0.71700001 -0.0087999795 1.4561129e-38 336 247
-0.0499174 0.73000002 -0.010239467 1.6221374e-38 281 248
-0.048504211 0.72799999 -0.010211413 1.6588354e-38 282 248
-0.047162913 0.727 -0.010197386 1.668055e-38 283 248
-0.045888241 0.727 -0.010197386 1.6127393e-38 284 248
-0.044368099 0.72299999 -0.01014128 1.3269687e-38 285 248
-0.043040827 0.722 -0.010127253 8.9505571e-39 286 248
-0.041659199 0.72000003 -0.010099201 8.3051877e-39 287 248
-0.040396802 0.72000003 -0.010099201 8.7643848e-39 288 248
-0.038916986 0.71600002 -0.010043093 8.7643848e-39 289 248
-0.037661601 0.71600002 -0.010043093 8.3988323e-39 290 248
-0.036304519 0.71399999 -0.01001504 8.5828634e-39 291 248
-0.035003547 0.713 -0.010001013 8.672894e-39 292 248
-0.033658739 0.71100003 -0.0099729598 8.7650911e-39 293 248
-0.032366529 0.70999998 -0.0099589331 9.226065e-39 294 248
-0.031121666 0.70999998 -0.0099589331 8.9498383e-39 295 248
-0.02979264 0.708 -0.0099308798 8.4881342e-39 296 248
-0.028510952 0.70700002 -0.0099168532 7.6580148e-39 297 248
-0.027271347 0.70700002 -0.0099168532 8.0235561e-39 298 248
-0.025994917 0.70599997 -0.0099028256 8.2079488e-39 299 248
-0.024757065 0.70599997 -0.0099028256 8.1146826e-39 300 248
-0.023519212 0.70599997 -0.0099028256 7.4693132e-39 301 248
-0.022281358 0.70599997 -0.0099028256 5.4467673e-39 302 248
-0.021043506 0.70599997 -0.0099028256 4.8013978e-39 303 248
-0.019805651 0.70599997 -0.0099028256 4.9825549e-39 304 248
-0.018567799 0.70599997 -0.0099028256 6.2732937e-39 305 248
-0.017329946 0.70599997 -0.0099028256 8.2126207e-39 306 248
-0.016046507 0.704 -0.0098747732 8.4888475e-39 307 248
-0.014812159 0.704 -0.0098747732 6.1806973e-39 308 248
-0.013616386 0.70599997 -0.0099028256 6.7338711e-39 309 248
-0.012378532 0.70599997 -0.0099028256 8.0253386e-39 310 248
-0.011109119 0.704 -0.0098747732 7.1033823e-39 311 248
-0.0098747732 0.704 -0.0098747732 5.6304004e-39 312 248
-0.0086649731 0.70599997 -0.0099028256 6.2757698e-39 313 248
-0.0074271196 0.70599997 -0.0099028256 7.6543729e-39 314 248
-0.0061892662 0.70599997 -0.0099028256 8.2071879e-39 315 248
-0.0049373866 0.704 -0.0098747732 8.300108e-39 316 248
-0.0037030398 0.704 -0.0098747732 7.9313269e-39 317 248
-0.0024757064 0.70599997 -0.0099028256 7.3781685e-39 318 248
-0.0012378532 0.70599997 -0.0099028256 7.2859729e-39 319 248
0 0.70599997 -0.0099028256 7.1937773e-39 320 248
0.0012378532 0.70599997 -0.0099028256 7.654754e-39 321 248
0.0024757064 0.70599997 -0.0099028256 7.5636374e-39 322 248
0.0037188199 0.70700002 -0.0099168532 7.74803e-39 323 248
0.0049584266 0.70700002 -0.0099168532 7.9316982e-39 324 248
0.0062067998 0.708 -0.0099308798 7.9316982e-39 325 248
0.0074691991 0.70999998 -0.0099589331 8.3898023e-39 326 248
0.0087140659 0.70999998 -0.0099589331 8.4819979e-39 327 248
0.0099729598 0.71100003 -0.0099729598 8.1132182e-39 328 248
0.011251139 0.713 -0.010001013 7.3756532e-39 329 248
0.012518799 0.71399999 -0.01001504 6.5444674e-39 330 248
0.013809253 0.71600002 -0.010043093 5.7147067e-39 331 248
0.015085679 0.71700001 -0.01005712 5.8998169e-39 332 248
0.016388407 0.71899998 -0.010085173 6.9139688e-39 333 248
0.017649053 0.71899998 -0.010085173 7.373484e-39 334 248
0.018909698 0.71899998 -0.010085173 9.0330039e-39 335 248
0.020170346 0.71899998 -0.010085173 1.483771e-38 336 248
0.021430992 0.71899998 -0.010085173 1.5944417e-38 337 248
-0.049780637 0.72799999 -0.01148784 1.6588354e-38 281 249
-0.048504211 0.72799999 -0.01148784 1.6679831e-38 282 249
-0.047162913 0.727 -0.01147206 1.6679831e-38 283 249
-0.045888241 0.727 -0.01147206 1.6127749e-38 284 249
-0.044490833 0.72500002 -0.0114405 1.3546271e-38 285 249
-0.043040827 0.722 -0.01139316 9.6830817e-39 286 249
-0.041774917 0.722 -0.01139316 9.2217434e-39 287 249
-0.040396802 0.72000003 -0.011361601 8.6721878e-39 288 249
-0.038971342 0.71700001 -0.01131426 8.5799922e-39 289 249
-0.037661601 0.71600002 -0.01129848 8.0307714e-39 290 249
-0.036406212 0.71600002 -0.01129848 8.214804e-39 291 249
-0.035052639 0.71399999 -0.011266919 8.765454e-39 292 249
-0.033753417 0.713 -0.011251139 8.950204e-39 293 249
-0.032412119 0.71100003 -0.01121958 9.0427528e-39 294 249
-0.031121666 0.70999998 -0.011203799 9.0427528e-39 295 249
-0.02979264 0.708 -0.01117224 8.7654442e-39 296 249
-0.02855128 0.708 -0.01117224 8.5806928e-39 297 249
-0.027271347 0.70700002 -0.011156459 8.5799739e-39 298 249
-0.02603174 0.70700002 -0.011156459 8.5799739e-39 299 249
-0.024792133 0.70700002 -0.011156459 8.8547658e-39 300 249
-0.023552528 0.70700002 -0.011156459 8.5781789e-39 301 249
-0.022281358 0.70599997 -0.011140679 8.1175538e-39 302 249
-0.021043506 0.70599997 -0.011140679 7.8406068e-39 303 249
-0.019833706 0.70700002 -0.011156459 7.005461e-39 304 249
-0.018594101 0.70700002 -0.011156459 7.1898522e-39 305 249
-0.017354494 0.70700002 -0.011156459 8.7629261e-39 306 249
-0.016092092 0.70599997 -0.011140679 9.5004911e-39 307 249
-0.014854239 0.70599997 -0.011140679 7.74803e-39 308 249
-0.013616386 0.70599997 -0.011140679 6.6413223e-39 309 249
-0.012378532 0.70599997 -0.011140679 7.1026606e-39 310 249
-0.011140679 0.70599997 -0.011140679 6.2729e-39 311 249
-0.0099028256 0.70599997 -0.011140679 5.3527387e-39 312 249
-0.0086649731 0.70599997 -0.011140679 6.1824994e-39 313 249
-0.0074271196 0.70599997 -0.011140679 7.5639849e-39 314 249
-0.0061892662 0.70599997 -0.011140679 8.2093543e-39 315 249
-0.0049514128 0.70599997 -0.011140679 8.3015513e-39 316 249
-0.0037135598 0.70599997 -0.011140679 8.1171587e-39 317 249
-0.0024757064 0.70599997 -0.011140679 7.9324115e-39 318 249
-0.0012378532 0.70599997 -0.011140679 7.7483804e-39 319 249
0 0.70599997 -0.011140679 7.4732354e-39 320 249
0.0012378532 0.70599997 -0.011140679 7.5657898e-39 321 249
0.0024792133 0.70700002 -0.011156459 8.0246127e-39 322 249
0.0037188199 0.70700002 -0.011156459 8.0246127e-39 323 249
0.0049654399 0.708 -0.01117224 8.1160923e-39 324 249
0.0062067998 0.708 -0.01117224 8.0235379e-39 325 249
0.0074691991 0.70999998 -0.011203799 8.2983326e-39 326 249
0.0087263398 0.71100003 -0.01121958 8.1139413e-39 327 249
0.010001013 0.713 -0.011251139 7.928471e-39 328 249
0.011266919 0.71399999 -0.011266919 7.375656e-39 329 249
0.012518799 0.71399999 -0.011266919 7.1891081e-39 330 249
0.013828539 0.71700001 -0.01131426 6.8206843e-39 331 249
0.01512776 0.71899998 -0.01134582 6.6377322e-39 332 249
0.0164112 0.72000003 -0.011361601 7.467853e-39 333 249
0.017673599 0.72000003 -0.011361601 8.9386405e-39 334 249
0.018935999 0.72000003 -0.011361601 1.0413772e-38 335 249
0.020198401 0.72000003 -0.011361601 1.5389798e-38 336 249
-0.049780637 0.72799999 -0.012764266 1.6587991e-38 281 250
-0.048504211 0.72799999 -0.012764266 1.6496158e-38 282 250
-0.047227785 0.72799999 -0.012764266 1.6588354e-38 283 250
-0.045888241 0.727 -0.012746733 1.6311777e-38 284 250
-0.044613566 0.727 -0.012746733 1.4006526e-38 285 250
-0.043040827 0.722 -0.012659066 1.0692913e-38 286 250
-0.041774917 0.722 -0.012659066 9.5865673e-39 287 250
-0.040396802 0.72000003 -0.012624 8.3966799e-39 288 250
-0.039080046 0.71899998 -0.012606465 8.2119299e-39 289 250
-0.037819397 0.71899998 -0.012606465 7.846027e-39 290 250
-0.036406212 0.71600002 -0.012553867 7.846027e-39 291 250
-0.035052639 0.71399999 -0.012518799 8.0304155e-39 292 250
-0.033800758 0.71399999 -0.012518799 8.2148068e-39 293 250
-0.032503292 0.713 -0.012501267 8.3062779e-39 294 250
-0.031165501 0.71100003 -0.0124662 8.3062779e-39 295 250
-0.029876797 0.70999998 -0.012448666 8.4899433e-39 296 250
-0.02855128 0.708 -0.0124136 8.4899433e-39 297 250
-0.027309919 0.708 -0.0124136 8.5817732e-39 298 250
-0.026068559 0.708 -0.0124136 8.8583587e-39 299 250
-0.024792133 0.70700002 -0.012396066 9.0409521e-39 300 250
-0.023552528 0.70700002 -0.012396066 9.2253433e-39 301 250
-0.022312919 0.70700002 -0.012396066 9.8685505e-39 302 250
-0.021073313 0.70700002 -0.012396066 9.4994093e-39 303 250
-0.019833706 0.70700002 -0.012396066 7.9284865e-39 304 250
-0.018594101 0.70700002 -0.012396066 7.4678684e-39 305 250
-0.017354494 0.70700002 -0.012396066 8.670006e-39 306 250
-0.016092092 0.70599997 -0.012378532 9.7763521e-39 307 250
-0.014854239 0.70599997 -0.012378532 9.6819887e-39 308 250
-0.013616386 0.70599997 -0.012378532 7.9302731e-39 309 250
-0.012378532 0.70599997 -0.012378532 6.2732657e-39 310 250
-0.011140679 0.70599997 -0.012378532 5.8122876e-39 311 250
-0.0099028256 0.70599997 -0.012378532 5.6300473e-39 312 250
-0.0086649731 0.70599997 -0.012378532 6.8285905e-39 313 250
-0.0074271196 0.70599997 -0.012378532 8.2082879e-39 314 250
-0.0061892662 0.70599997 -0.012378532 8.5767117e-39 315 250
-0.0049514128 0.70599997 -0.012378532 8.3934023e-39 316 250
-0.0037135598 0.70599997 -0.012378532 8.3008479e-39 317 250
-0.0024757064 0.70599997 -0.012378532 8.0253414e-39 318 250
-0.0012396066 0.70700002 -0.012396066 7.9331458e-39 319 250
0 0.70700002 -0.012396066 7.5650835e-39 320 250
0.0012396066 0.70700002 -0.012396066 7.5650835e-39 321 250
0.0024792133 0.70700002 -0.012396066 7.4728907e-39 322 250
0.00372408 0.708 -0.0124136 7.5650863e-39 323 250
0.0049654399 0.708 -0.0124136 7.9309948e-39 324 250
0.0062243328 0.70999998 -0.012448666 7.8387991e-39 325 250
0.0074691991 0.70999998 -0.012448666 7.8387991e-39 326 250
0.0087263398 0.71100003 -0.0124662 7.7462448e-39 327 250
0.010001013 0.713 -0.012501267 7.652966e-39 328 250
0.011266919 0.71399999 -0.012518799 7.468216e-39 329 250
0.012553867 0.71600002 -0.012553867 7.1909088e-39 330 250
0.013828539 0.71700001 -0.0125714 6.9139632e-39 331 250
0.01512776 0.71899998 -0.012606465 7.0061588e-39 332 250
0.0164112 0.72000003 -0.012624 8.0206695e-39 333 250
0.017649053 0.71899998 -0.012606465 1.0321578e-38 334 250
0.018909698 0.71899998 -0.012606465 1.1796709e-38 335 250
0.020170346 0.71899998 -0.012606465 1.5481994e-38 336 250
-0.048504211 0.72799999 -0.014040692 1.6587635e-38 282 251
-0.047227785 0.72799999 -0.014040692 1.6587635e-38 283 251
-0.045888241 0.727 -0.014021406 1.6219941e-38 284 251
-0.044613566 0.727 -0.014021406 1.4376388e-38 285 251
-0.043040827 0.722 -0.013924973 1.1705623e-38 286 251
-0.041774917 0.722 -0.013924973 9.3085384e-39 287 251
-0.040509012 0.722 -0.013924973 7.6598337e-39 288 251
-0.039134402 0.72000003 -0.0138864 7.936422e-39 289 251
-0.037819397 0.71899998 -0.013867113 7.6612771e-39 290 251
-0.036406212 0.71600002 -0.013809253 7.6612771e-39 291 251
-0.035150826 0.71600002 -0.013809253 7.846027e-39 292 251
-0.033800758 0.71399999 -0.01377068 7.9382227e-39 293 251
-0.032503292 0.713 -0.013751393 8.2140837e-39 294 251
-0.031165501 0.71100003 -0.01371282 8.2140837e-39 295 251
-0.029876797 0.70999998 -0.013693533 8.5814229e-39 296 251
-0.028631933 0.70999998 -0.013693533 8.5814229e-39 297 251
-0.027309919 0.708 -0.013654959 8.6728912e-39 298 251
-0.026068559 0.708 -0.013654959 8.6728912e-39 299 251
-0.024827199 0.708 -0.013654959 8.7643708e-39 300 251
-0.023552528 0.70700002 -0.013635674 8.9484033e-39 301 251
-0.022312919 0.70700002 -0.013635674 9.1324316e-39 302 251
-0.021073313 0.70700002 -0.013635674 8.9476803e-39 303 251
-0.019833706 0.70700002 -0.013635674 9.2210245e-39 304 251
-0.018594101 0.70700002 -0.013635674 8.6682095e-39 305 251
-0.017354494 0.70700002 -0.013635674 7.7469763e-39 306 251
-0.016114887 0.70700002 -0.013635674 7.6547806e-39 307 251
-0.01487528 0.70700002 -0.013635674 7.9284893e-39 308 251
-0.013635674 0.70700002 -0.013635674 7.0068931e-39 309 251
-0.012396066 0.70700002 -0.013635674 4.8914229e-39 310 251
-0.011156459 0.70700002 -0.013635674 4.7070316e-39 311 251
-0.0099168532 0.70700002 -0.013635674 5.7193759e-39 312 251
-0.0086649731 0.70599997 -0.013616386 8.1161021e-39 313 251
-0.0074271196 0.70599997 -0.013616386 8.7600296e-39 314 251
-0.0061892662 0.70599997 -0.013616386 8.8522252e-39 315 251
-0.0049584266 0.70700002 -0.013635674 8.3015724e-39 316 251
-0.0037188199 0.70700002 -0.013635674 8.2093767e-39 317 251
-0.0024792133 0.70700002 -0.013635674 8.2083019e-39 318 251
-0.0012396066 0.70700002 -0.013635674 8.0239093e-39 319 251
0 0.70700002 -0.013635674 7.7480427e-39 320 251
0.0012396066 0.70700002 -0.013635674 7.655847e-39 321 251
0.00248272 0.708 -0.013654959 7.4725348e-39 322 251
0.00372408 0.708 -0.013654959 7.3803391e-39 323 251
0.0049794666 0.70999998 -0.013693533 7.7462448e-39 324 251
0.0062243328 0.70999998 -0.013693533 7.6540478e-39 325 251
0.0074797203 0.71100003 -0.01371282 7.6540506e-39 326 251
0.0087263398 0.71100003 -0.01371282 7.4700194e-39 327 251
0.010001013 0.713 -0.013751393 7.3785399e-39 328 251
0.011266919 0.71399999 -0.01377068 7.0097587e-39 329 251
0.012553867 0.71600002 -0.013809253 7.09836e-39 330 251
0.013828539 0.71700001 -0.013828539 6.360795e-39 331 251
0.015085679 0.71700001 -0.013828539 6.2660756e-39 332 251
0.0164112 0.72000003 -0.0138864 7.7415645e-39 333 251
0.017649053 0.71899998 -0.013867113 1.1334649e-38 334 251
0.018909698 0.71899998 -0.013867113 1.2717942e-38 335 251
0.020170346 0.71899998 -0.013867113 1.5482716e-38 336 251
-0.048504211 0.72799999 -0.01531712 1.6312124e-38 282 252
-0.047227785 0.72799999 -0.01531712 1.6312124e-38 283 252
-0.045888241 0.727 -0.015296079 1.6036985e-38 284 252
-0.044613566 0.727 -0.015296079 1.4653692e-38 285 252
-0.043219667 0.72500002 -0.015254001 1.2902366e-38 286 252
-0.041774917 0.722 -0.015190879 9.2145407e-39 287 252
-0.040509012 0.722 -0.015190879 7.0137454e-39 288 252
-0.039134402 0.72000003 -0.0151488 7.8435061e-39 289 252
-0.037871998 0.72000003 -0.0151488 7.5680094e-39 290 252
-0.036457058 0.71700001 -0.015085679 7.6605638e-39 291 252
-0.035150826 0.71600002 -0.01506464 7.4776117e-39 292 252
-0.03389544 0.71600002 -0.01506464 7.4776117e-39 293 252
-0.032548878 0.71399999 -0.015022559 7.8456711e-39 294 252
-0.031253166 0.713 -0.015001519 7.8456711e-39 295 252
-0.029918881 0.71100003 -0.014959441 7.8467431e-39 296 252
-0.028631933 0.70999998 -0.014938398 7.7545475e-39 297 252
-0.027387066 0.70999998 -0.014938398 7.7541817e-39 298 252
-0.026068559 0.708 -0.01489632 7.938573e-39 299 252
-0.024827199 0.708 -0.01489632 8.397033e-39 300 252
-0.023585839 0.708 -0.01489632 8.3044787e-39 301 252
-0.022312919 0.70700002 -0.01487528 8.0296868e-39 302 252
-0.021073313 0.70700002 -0.01487528 8.1222412e-39 303 252
-0.01986176 0.708 -0.01489632 9.1313484e-39 304 252
-0.0186204 0.708 -0.01489632 8.5781761e-39 305 252
-0.017379038 0.708 -0.01489632 6.2732937e-39 306 252
-0.016114887 0.70700002 -0.01487528 4.7056093e-39 307 252
-0.01487528 0.70700002 -0.01487528 5.8094387e-39 308 252
-0.013635674 0.70700002 -0.01487528 5.3484606e-39 309 252
-0.012396066 0.70700002 -0.01487528 3.4152264e-39 310 252
-0.011156459 0.70700002 -0.01487528 2.9542483e-39 311 252
-0.0099168532 0.70700002 -0.01487528 4.4279308e-39 312 252
-0.008677247 0.70700002 -0.01487528 8.576374e-39 313 252
-0.0074376399 0.70700002 -0.01487528 1.0048247e-38 314 252
-0.0061980332 0.70700002 -0.01487528 9.6794663e-39 315 252
-0.0049584266 0.70700002 -0.01487528 9.3124803e-39 316 252
-0.0037188199 0.70700002 -0.01487528 8.9436992e-39 317 252
-0.0024792133 0.70700002 -0.01487528 8.5756453e-39 318 252
-0.00124136 0.708 -0.01489632 8.3908939e-39 319 252
0 0.708 -0.01489632 7.4725376e-39 320 252
0.00124136 0.708 -0.01489632 7.3803419e-39 321 252
0.00248272 0.708 -0.01489632 7.0130014e-39 322 252
0.0037345996 0.70999998 -0.014938398 6.7364145e-39 323 252
0.0049794666 0.70999998 -0.014938398 7.0101273e-39 324 252
0.0062330998 0.71100003 -0.014959441 6.9179317e-39 325 252
0.0074797203 0.71100003 -0.014959441 6.9179289e-39 326 252
0.0087508867 0.713 -0.015001519 7.2870701e-39 327 252
0.01001504 0.71399999 -0.015022559 7.2877764e-39 328 252
0.01129848 0.71600002 -0.01506464 7.1030264e-39 329 252
0.012553867 0.71600002 -0.01506464 7.466051e-39 330 252
0.013828539 0.71700001 -0.015085679 6.8206815e-39 331 252
0.015085679 0.71700001 -0.015085679 6.266063e-39 332 252
0.0164112 0.72000003 -0.0151488 6.726681e-39 333 252
0.017649053 0.71899998 -0.01512776 1.1611948e-38 334 252
0.018909698 0.71899998 -0.01512776 1.2902687e-38 335 252
0.020170346 0.71899998 -0.01512776 1.5299045e-38 336 252
-0.047357533 0.73000002 -0.016639132 1.6403244e-38 283 253
-0.045951359 0.72799999 -0.016593546 1.5944434e-38 284 253
-0.044613566 0.727 -0.016570752 1.5206869e-38 285 253
-0.043219667 0.72500002 -0.016525166 1.3547363e-38 286 253
-0.041832779 0.72299999 -0.01647958 9.0301355e-39 287 253
-0.040509012 0.722 -0.016456785 7.0126482e-39 288 253
-0.039134402 0.72000003 -0.0164112 7.7502133e-39 289 253
-0.037871998 0.72000003 -0.0164112 7.1066571e-39 290 253
-0.036457058 0.71700001 -0.016342819 7.6598309e-39 291 253
-0.035150826 0.71600002 -0.016320027 7.661633e-39 292 253
-0.03389544 0.71600002 -0.016320027 7.7538286e-39 293 253
-0.032548878 0.71399999 -0.016274439 7.5708793e-39 294 253
-0.031253166 0.713 -0.016251646 7.4786837e-39 295 253
-0.030003037 0.713 -0.016251646 8.0296924e-39 296 253
-0.028672259 0.71100003 -0.01620606 7.6609113e-39 297 253
-0.027387066 0.70999998 -0.016183265 7.4739991e-39 298 253
-0.026142199 0.70999998 -0.016183265 6.8286297e-39 299 253
-0.024827199 0.708 -0.01613768 6.4638059e-39 300 253
-0.023585839 0.708 -0.01613768 7.2939253e-39 301 253
-0.022344479 0.708 -0.01613768 7.6609113e-39 302 253
-0.021103119 0.708 -0.01613768 7.4765187e-39 303 253
-0.01986176 0.708 -0.01613768 7.749507e-39 304 253
-0.0186204 0.708 -0.01613768 6.4587682e-39 305 253
-0.017379038 0.708 -0.01613768 3.0489774e-39 306 253
-0.01613768 0.708 -0.01613768 2.3114124e-39 307 253
-0.01489632 0.708 -0.01613768 2.4932897e-39 308 253
-0.013654959 0.708 -0.01613768 2.4010941e-39 309 253
-0.0124136 0.708 -0.01613768 3.1343389e-39 310 253
-0.01117224 0.708 -0.01613768 2.4889709e-39 311 253
-0.0099308798 0.708 -0.01613768 1.9415383e-39 312 253
-0.008689519 0.708 -0.01613768 8.0264498e-39 313 253
-0.0074481601 0.708 -0.01613768 1.11528e-38 314 253
-0.0061980332 0.70700002 -0.016114887 1.0784017e-38 315 253
-0.0049584266 0.70700002 -0.016114887 9.4993897e-39 316 253
-0.0037188199 0.70700002 -0.016114887 8.9462173e-39 317 253
-0.00248272 0.708 -0.01613768 8.4856105e-39 318 253
-0.00124136 0.708 -0.01613768 7.9324367e-39 319 253
0 0.708 -0.01613768 7.1973926e-39 320 253
0.00124136 0.708 -0.01613768 7.0130014e-39 321 253
0.0024897333 0.70999998 -0.016183265 6.9204456e-39 322 253
0.0037345996 0.70999998 -0.016183265 6.4598276e-39 323 253
0.0049864799 0.71100003 -0.01620606 6.6391868e-39 324 253
0.0062330998 0.71100003 -0.01620606 6.2700441e-39 325 253
0.0074797203 0.71100003 -0.01620606 7.0076092e-39 326 253
0.0087631596 0.71399999 -0.016274439 7.5607829e-39 327 253
0.010043093 0.71600002 -0.016320027 7.655847e-39 328 253
0.01129848 0.71600002 -0.016320027 7.3796203e-39 329 253
0.012553867 0.71600002 -0.016320027 8.204688e-39 330 253
0.013828539 0.71700001 -0.016342819 7.8359069e-39 331 253
0.015085679 0.71700001 -0.016342819 7.7433343e-39 332 253
0.016456785 0.722 -0.016456785 8.7578464e-39 333 253
0.017722692 0.722 -0.016456785 1.1796332e-38 334 253
0.0189886 0.722 -0.016456785 1.2810486e-38 335 253
-0.047227785 0.72799999 -0.017869972 1.6219932e-38 283 254
-0.045951359 0.72799999 -0.017869972 1.5852235e-38 284 254
-0.044613566 0.727 -0.017845426 1.4838442e-38 285 254
-0.043219667 0.72500002 -0.017796334 1.2999212e-38 286 254
-0.041832779 0.72299999 -0.017747238 1.0878712e-38 287 254
-0.040509012 0.722 -0.017722692 9.12738e-39 288 254
-0.039243106 0.722 -0.017722692 8.7589576e-39 289 254
-0.037871998 0.72000003 -0.017673599 7.8431306e-39 290 254
-0.036558751 0.71899998 -0.017649053 8.9498383e-39 291 254
-0.035199918 0.71700001 -0.017599959 1.0050791e-38 292 254
-0.03389544 0.71600002 -0.017575413 9.9585952e-39 293 254
-0.032640055 0.71600002 -0.017575413 8.4881496e-39 294 254
-0.031296998 0.71399999 -0.017526319 7.9349759e-39 295 254
-0.030003037 0.713 -0.017501773 7.5669136e-39 296 254
-0.028672259 0.71100003 -0.01745268 6.8293486e-39 297 254
-0.027387066 0.70999998 -0.017428132 5.7240758e-39 298 254
-0.026142199 0.70999998 -0.017428132 5.0787064e-39 299 254
-0.024897331 0.70999998 -0.017428132 5.9084685e-39 300 254
-0.023585839 0.708 -0.017379038 8.3055535e-39 301 254
-0.022344479 0.708 -0.017379038 8.8547714e-39 302 254
-0.021103119 0.708 -0.017379038 8.3934331e-39 303 254
-0.019917866 0.70999998 -0.017428132 6.8261116e-39 304 254
-0.018672999 0.70999998 -0.017428132 5.4431771e-39 305 254
-0.017428132 0.70999998 -0.017428132 3.8769402e-39 306 254
-0.01613768 0.708 -0.017379038 3.7847446e-39 307 254
-0.01489632 0.708 -0.017379038 3.3219742e-39 308 254
-0.013654959 0.708 -0.017379038 3.2294198e-39 309 254
-0.0124136 0.708 -0.017379038 3.3212511e-39 310 254
-0.01117224 0.708 -0.017379038 2.7680787e-39 311 254
-0.0099589331 0.70999998 -0.017428132 1.8507874e-39 312 254
-0.008689519 0.708 -0.017379038 5.9073965e-39 313 254
-0.0074481601 0.708 -0.017379038 1.023409e-38 314 254
-0.0062067998 0.708 -0.017379038 1.087946e-38 315 254
-0.0049654399 0.708 -0.017379038 1.1429015e-38 316 254
-0.00372408 0.708 -0.017379038 1.0875842e-38 317 254
-0.00248272 0.708 -0.017379038 1.032339e-38 318 254
-0.0012448666 0.70999998 -0.017428132 9.8624115e-39 319 254
0 0.70999998 -0.017428132 9.4021592e-39 320 254
0.0012448666 0.70999998 -0.017428132 8.941181e-39 321 254
0.0024897333 0.70999998 -0.017428132 8.0213925e-39 322 254
0.0037398601 0.71100003 -0.01745268 7.0072406e-39 323 254
0.0049864799 0.71100003 -0.01745268 5.6271802e-39 324 254
0.0062330998 0.71100003 -0.01745268 5.9956026e-39 325 254
0.0075007593 0.713 -0.017501773 8.6606285e-39 326 254
0.0087877065 0.71600002 -0.017575413 1.050454e-38 327 254
0.01005712 0.71700001 -0.017599959 9.953884e-39 328 254
0.01131426 0.71700001 -0.017599959 9.953884e-39 329 254
0.0125714 0.71700001 -0.017599959 9.9538812e-39 330 254
0.013867113 0.71899998 -0.017649053 9.8616856e-39 331 254
0.01512776 0.71899998 -0.017649053 1.0229376e-38 332 254
0.016456785 0.722 -0.017722692 1.0690355e-38 333 254
0.017747238 0.72299999 -0.017747238 1.1152759e-38 334 254
0.019014901 0.72299999 -0.017747238 1.2075074e-38 335 254
-0.047227785 0.72799999 -0.0191464 1.6219932e-38 283 255
-0.045951359 0.72799999 -0.0191464 1.5577079e-38 284 255
-0.044613566 0.727 -0.019120099 1.410159e-38 285 255
-0.043219667 0.72500002 -0.0190675 1.2722624e-38 286 255
-0.041832779 0.72299999 -0.019014901 1.2907015e-38 287 255
-0.040509012 0.722 -0.0189886 1.2628285e-38 288 255
-0.039243106 0.722 -0.0189886 1.2074751e-38 289 255
-0.037871998 0.72000003 -0.018935999 1.1157836e-38 290 255
-0.036558751 0.71899998 -0.018909698 1.1803206e-38 291 255
-0.035199918 0.71700001 -0.018857099 1.2445707e-38 292 255
-0.033942781 0.71700001 -0.018857099 1.1800337e-38 293 255
-0.032640055 0.71600002 -0.0188308 8.7625729e-39 294 255
-0.031296998 0.71399999 -0.018778199 7.1948871e-39 295 255
-0.030003037 0.713 -0.018751899 4.7070568e-39 296 255
-0.028752912 0.713 -0.018751899 3.1397311e-39 297 255
-0.027425639 0.71100003 -0.0186993 1.394498e-39 298 255
-0.026142199 0.70999998 -0.018672999 1.9476717e-39 299 255
-0.024897331 0.70999998 -0.018672999 6.6442342e-39 300 255
-0.023585839 0.708 -0.0186204 9.8710813e-39 301 255
-0.022344479 0.708 -0.0186204 9.9589455e-39 302 255
-0.021103119 0.708 -0.0186204 8.852598e-39 303 255
-0.019917866 0.70999998 -0.018672999 6.9168597e-39 304 255
-0.018672999 0.70999998 -0.018672999 5.994902e-39 305 255
-0.017428132 0.70999998 -0.018672999 5.2580628e-39 306 255
-0.016183265 0.70999998 -0.018672999 4.6126934e-39 307 255
-0.014938398 0.70999998 -0.018672999 3.8769304e-39 308 255
-0.013693533 0.70999998 -0.018672999 3.7843761e-39 309 255
-0.012448666 0.70999998 -0.018672999 4.0602427e-39 310 255
-0.011203799 0.70999998 -0.018672999 4.5208607e-39 311 255
-0.0099589331 0.70999998 -0.018672999 5.2598593e-39 312 255
-0.0087140659 0.70999998 -0.018672999 5.1676636e-39 313 255
-0.0074691991 0.70999998 -0.018672999 7.840597e-39 314 255
-0.0062243328 0.70999998 -0.018672999 1.0237325e-38 315 255
-0.0049794666 0.70999998 -0.018672999 1.1429732e-38 316 255
-0.0037345996 0.70999998 -0.018672999 1.1153503e-38 317 255
-0.0024897333 0.70999998 -0.018672999 1.1336806e-38 318 255
-0.0012448666 0.70999998 -0.018672999 1.105986e-38 319 255
0 0.70999998 -0.018672999 1.0966942e-38 320 255
0.0012448666 0.70999998 -0.018672999 1.0413768e-38 321 255
0.0024932399 0.71100003 -0.0186993 8.572746e-39 322 255
0.0037398601 0.71100003 -0.0186993 7.0976146e-39 323 255
0.0049864799 0.71100003 -0.0186993 4.7995649e-39 324 255
0.0062506334 0.713 -0.018751899 5.9981067e-39 325 255
0.0075112795 0.71399999 -0.018778199 9.58114e-39 326 255
0.0087877065 0.71600002 -0.0188308 1.1609444e-38 327 255
0.01005712 0.71700001 -0.018857099 1.1335368e-38 328 255
0.01131426 0.71700001 -0.018857099 1.1151337e-38 329 255
0.0125714 0.71700001 -0.018857099 1.1427917e-38 330 255
0.013867113 0.71899998 -0.018909698 1.1427917e-38 331 255
0.01512776 0.71899998 -0.018909698 1.1613017e-38 332 255
0.0164112 0.72000003 -0.018935999 1.1520822e-38 333 255
0.017673599 0.72000003 -0.018935999 1.0232948e-38 334 255
0.018935999 0.72000003 -0.018935999 1.0786122e-38 335 255
0.020198401 0.72000003 -0.018935999 1.4654384e-38 336 255
-0.045888241 0.727 -0.020394772 1.5760739e-38 284 256
-0.044613566 0.727 -0.020394772 1.3456208e-38 285 256
-0.043219667 0.72500002 -0.020338668 1.1342911e-38 286 256
-0.041832779 0.72299999 -0.020282559 1.2080476e-38 287 256
-0.040509012 0.722 -0.020254506 1.2907739e-38 288 256
-0.039243106 0.722 -0.020254506 1.2538956e-38 289 256
-0.037871998 0.72000003 -0.020198401 1.2263098e-38 290 256
-0.036609601 0.72000003 -0.020198401 1.2539325e-38 291 256
-0.035298105 0.71899998 -0.020170346 1.1985805e-38 292 256
-0.033942781 0.71700001 -0.020114239 1.1524826e-38 293 256
-0.032640055 0.71600002 -0.020086186 8.0250023e-39 294 256
-0.031384666 0.71600002 -0.020086186 6.6420678e-39 295 256
-0.030045118 0.71399999 -0.020030079 4.6134165e-39 296 256
-0.028752912 0.713 -0.020002026 3.4148733e-39 297 256
-0.027425639 0.71100003 -0.01994592 2.5869231e-39 298 256
-0.026142199 0.70999998 -0.019917866 2.8635114e-39 299 256
-0.024897331 0.70999998 -0.019917866 6.3669285e-39 300 256
-0.023652466 0.70999998 -0.019917866 1.0423536e-38 301 256
-0.022344479 0.708 -0.01986176 1.161558e-38 302 256
-0.021103119 0.708 -0.01986176 1.0601068e-38 303 256
-0.019917866 0.70999998 -0.019917866 9.21634e-39 304 256
-0.018672999 0.70999998 -0.019917866 7.9256012e-39 305 256
-0.017428132 0.70999998 -0.019917866 6.5441143e-39 306 256
-0.016183265 0.70999998 -0.019917866 6.082776e-39 307 256
-0.014938398 0.70999998 -0.019917866 4.7052435e-39 308 256
-0.013693533 0.70999998 -0.019917866 4.6130465e-39 309 256
-0.012448666 0.70999998 -0.019917866 4.7052464e-39 310 256
-0.011203799 0.70999998 -0.019917866 5.5346469e-39 311 256
-0.0099589331 0.70999998 -0.019917866 6.5466352e-39 312 256
-0.0087140659 0.70999998 -0.019917866 6.1774926e-39 313 256
-0.0074691991 0.70999998 -0.019917866 8.112142e-39 314 256
-0.0062243328 0.70999998 -0.019917866 1.1062404e-38 315 256
-0.0049794666 0.70999998 -0.019917866 1.1521567e-38 316 256
-0.0037345996 0.70999998 -0.019917866 1.124462e-38 317 256
-0.0024897333 0.70999998 -0.019917866 1.13368e-38 318 256
-0.0012448666 0.70999998 -0.019917866 1.1152409e-38 319 256
0 0.71100003 -0.01994592 1.0969094e-38 320 256
0.00124662 0.71100003 -0.01994592 1.0692506e-38 321 256
0.0024932399 0.71100003 -0.01994592 1.0046064e-38 322 256
0.0037398601 0.71100003 -0.01994592 9.1237492e-39 323 256
0.0050005065 0.713 -0.020002026 8.1121238e-39 324 256
0.0062506334 0.713 -0.020002026 8.6652976e-39 325 256
0.0075112795 0.71399999 -0.020030079 1.0228658e-38 326 256
0.0087877065 0.71600002 -0.020086186 1.1150254e-38 327 256
0.01005712 0.71700001 -0.020114239 1.1059846e-38 328 256
0.01131426 0.71700001 -0.020114239 1.1059846e-38 329 256
0.012606465 0.71899998 -0.020170346 1.1152396e-38 330 256
0.013867113 0.71899998 -0.020170346 1.1152396e-38 331 256
0.01512776 0.71899998 -0.020170346 1.0785758e-38 332 256
0.0164112 0.72000003 -0.020198401 1.0324781e-38 333 256
0.017673599 0.72000003 -0.020198401 8.7599567e-39 334 256
0.018935999 0.72000003 -0.020198401 9.9581398e-39 335 256
-0.044674929 0.72799999 -0.021699252 1.327145e-38 285 257
-0.043219667 0.72500002 -0.021609833 1.0145778e-38 286 257
-0.041832779 0.72299999 -0.021550218 1.0883343e-38 287 257
-0.040509012 0.722 -0.021520413 1.2080111e-38 288 257
-0.039243106 0.722 -0.021520413 1.272548e-38 289 257
-0.037871998 0.72000003 -0.021460801 1.2540755e-38 290 257
-0.036609601 0.72000003 -0.021460801 1.2448558e-38 291 257
-0.035298105 0.71899998 -0.021430992 1.1618091e-38 292 257
-0.03403746 0.71899998 -0.021430992 1.0788331e-38 293 257
-0.032685637 0.71700001 -0.021371379 8.7607554e-39 294 257
-0.031384666 0.71600002 -0.021341572 7.7462448e-39 295 257
-0.030045118 0.71399999 -0.021281958 6.2693253e-39 296 257
-0.028752912 0.713 -0.021252153 4.9785864e-39 297 257
-0.027425639 0.71100003 -0.021192541 3.8729746e-39 298 257
-0.026179021 0.71100003 -0.021192541 3.4123551e-39 299 257
-0.024897331 0.70999998 -0.021162732 4.8910753e-39 300 257
-0.023652466 0.70999998 -0.021162732 1.0146226e-38 301 257
-0.022407599 0.70999998 -0.021162732 1.226095e-38 302 257
-0.021162732 0.70999998 -0.021162732 1.1984003e-38 303 257
-0.019917866 0.70999998 -0.021162732 1.0966608e-38 304 257
-0.018672999 0.70999998 -0.021162732 9.399641e-39 305 257
-0.017428132 0.70999998 -0.021162732 7.7419302e-39 306 257
-0.016183265 0.70999998 -0.021162732 6.635584e-39 307 257
-0.014938398 0.70999998 -0.021162732 5.5335609e-39 308 257
-0.013693533 0.70999998 -0.021162732 5.4410065e-39 309 257
-0.012448666 0.70999998 -0.021162732 6.2682463e-39 310 257
-0.011203799 0.70999998 -0.021162732 6.2682463e-39 311 257
-0.0099589331 0.70999998 -0.021162732 6.4511914e-39 312 257
-0.0087140659 0.70999998 -0.021162732 6.635584e-39 313 257
-0.0074691991 0.70999998 -0.021162732 8.2039845e-39 314 257
-0.0062243328 0.70999998 -0.021162732 1.0324485e-38 315 257
-0.0049794666 0.70999998 -0.021162732 1.1153873e-38 316 257
-0.0037345996 0.70999998 -0.021162732 1.1061676e-38 317 257
-0.0024932399 0.71100003 -0.021192541 1.1244973e-38 318 257
-0.00124662 0.71100003 -0.021192541 1.1244973e-38 319 257
0 0.71100003 -0.021192541 1.1244605e-38 320 257
0.00124662 0.71100003 -0.021192541 1.1152409e-38 321 257
0.0024932399 0.71100003 -0.021192541 1.1151693e-38 322 257
0.0037503797 0.713 -0.021252153 1.1335724e-38 323 257
0.0050075199 0.71399999 -0.021281958 1.105914e-38 324 257
0.0062593995 0.71399999 -0.021281958 1.0874749e-38 325 257
0.00753232 0.71600002 -0.021341572 1.1150254e-38 326 257
0.0087999795 0.71700001 -0.021371379 1.1242808e-38 327 257
0.010085173 0.71899998 -0.021430992 1.1060213e-38 328 257
0.01134582 0.71899998 -0.021430992 1.1060213e-38 329 257
0.012606465 0.71899998 -0.021430992 1.0877251e-38 330 257
0.013867113 0.71899998 -0.021430992 1.06925e-38 331 257
0.01512776 0.71899998 -0.021430992 9.5904334e-39 332 257
0.0164112 0.72000003 -0.021460801 9.129814e-39 333 257
0.017673599 0.72000003 -0.021460801 8.391865e-39 334 257
0.018935999 0.72000003 -0.021460801 9.8673538e-39 335 257
-0.041832779 0.72299999 -0.02281788 9.8684469e-39 287 258
-0.040565118 0.72299999 -0.02281788 1.0055725e-38 288 258
-0.039243106 0.722 -0.022786319 1.0885844e-38 289 258
-0.0379772 0.722 -0.022786319 1.1988281e-38 290 258
-0.036609601 0.72000003 -0.022723202 1.2357422e-38 291 258
-0.035298105 0.71899998 -0.022691639 1.2538956e-38 292 258
-0.03403746 0.71899998 -0.022691639 1.2262369e-38 293 258
-0.032685637 0.71700001 -0.02262852 1.2351693e-38 294 258
-0.031384666 0.71600002 -0.022596961 1.1245706e-38 295 258
-0.03012928 0.71600002 -0.022596961 9.6776699e-39 296 258
-0.028793238 0.71399999 -0.022533838 8.0181499e-39 297 258
-0.027502786 0.713 -0.022502279 6.4508382e-39 298 258
-0.026179021 0.71100003 -0.022439159 4.1463076e-39 299 258
-0.024932399 0.71100003 -0.022439159 2.2217181e-39 300 258
-0.023652466 0.70999998 -0.022407599 7.3846733e-39 301 258
-0.022407599 0.70999998 -0.022407599 1.0972377e-38 302 258
-0.021162732 0.70999998 -0.022407599 1.1709942e-38 303 258
-0.019917866 0.70999998 -0.022407599 1.1521582e-38 304 258
-0.018672999 0.70999998 -0.022407599 1.0230844e-38 305 258
-0.017428132 0.70999998 -0.022407599 8.7571555e-39 306 258
-0.016183265 0.70999998 -0.022407599 8.0195905e-39 307 258
-0.014938398 0.70999998 -0.022407599 7.650815e-39 308 258
-0.013693533 0.70999998 -0.022407599 7.5586179e-39 309 258
-0.012448666 0.70999998 -0.022407599 7.4660636e-39 310 258
-0.011203799 0.70999998 -0.022407599 7.1898368e-39 311 258
-0.0099589331 0.70999998 -0.022407599 7.0057987e-39 312 258
-0.0087140659 0.70999998 -0.022407599 6.9132429e-39 313 258
-0.0074691991 0.70999998 -0.022407599 5.7197388e-39 314 258
-0.0062243328 0.70999998 -0.022407599 7.1952276e-39 315 258
-0.0049794666 0.70999998 -0.022407599 9.4972387e-39 316 258
-0.0037398601 0.71100003 -0.022439159 9.8663813e-39 317 258
-0.0024932399 0.71100003 -0.022439159 1.0876198e-38 318 258
-0.00124662 0.71100003 -0.022439159 1.1060589e-38 319 258
0 0.71100003 -0.022439159 1.1336806e-38 320 258
0.00124662 0.71100003 -0.022439159 1.1152056e-38 321 258
0.0025002533 0.713 -0.022502279 1.1152056e-38 322 258
