# .PCD v.7 - Point Cloud Data file format
FIELDS x y z rgb imX imY
SIZE 4 4 4 4 4 4
TYPE F F F F F F
COUNT 1 1 1 1 1 1
WIDTH 834
HEIGHT 1
VIEWPOINT 0 0 0 1 0 0 0
POINTS 834
DATA ascii
0.011975267 0.68300003 -0.052691177 1.061226e-38 330 284
0.013172794 0.68300003 -0.052691177 1.1902999e-38 331 284
0.014370319 0.68300003 -0.052691177 1.2177036e-38 332 284
0.015545053 0.68199998 -0.052614026 1.2453262e-38 333 284
0.016740825 0.68199998 -0.052614026 1.2820234e-38 334 284
0.017936599 0.68199998 -0.052614026 1.2358896e-38 335 284
0.019076265 0.68000001 -0.052459732 9.9704516e-39 336 284
0.020268533 0.68000001 -0.052459732 1.043143e-38 337 284
0.021523919 0.68199998 -0.052614026 1.1442685e-38 338 284
0.022719691 0.68199998 -0.052614026 1.135049e-38 339 284
0.023915464 0.68199998 -0.052614026 1.2085188e-38 340 284
0.025111238 0.68199998 -0.052614026 1.1624209e-38 341 284
0.026307013 0.68199998 -0.052614026 9.7828513e-39 342 284
0.027502786 0.68199998 -0.052614026 9.2296776e-39 343 284
0.02869856 0.68199998 -0.052614026 9.5044694e-39 344 284
0.029894331 0.68199998 -0.052614026 9.688862e-39 345 284
0.031090107 0.68199998 -0.052614026 9.414073e-39 346 284
0.032285877 0.68199998 -0.052614026 9.7828541e-39 347 284
0.033530746 0.68300003 -0.052691177 9.6895865e-39 348 284
0.034728274 0.68300003 -0.052691177 9.5048365e-39 349 284
0.035925802 0.68300003 -0.052691177 1.0423198e-38 350 284
0.037177678 0.68400002 -0.05276832 1.060759e-38 351 284
0.03848917 0.68599999 -0.05292261 1.0701215e-38 352 284
0.039691959 0.68599999 -0.05292261 1.0977802e-38 353 284
0.040894743 0.68599999 -0.05292261 1.0793045e-38 354 284
0.042158898 0.68699998 -0.052999757 1.0239871e-38 355 284
0.043363437 0.68699998 -0.052999757 8.578923e-39 356 284
0.044632856 0.68800002 -0.053076908 6.6428147e-39 357 284
0.045839146 0.68800002 -0.053076908 6.4613144e-39 358 284
0.047182199 0.69 -0.053231198 7.1066838e-39 359 284
0.048602402 0.69300002 -0.053462639 9.2246553e-39 360 284
0.049889345 0.69400001 -0.053539783 9.9625805e-39 361 284
0.051327083 0.69700003 -0.053771228 1.014947e-38 362 284
0.052624546 0.69800001 -0.053848371 1.0610448e-38 363 284
0.054002665 0.69999999 -0.054002665 1.290848e-38 364 284
0.055545598 0.704 -0.054311249 1.5121535e-38 365 284
0.056779943 0.704 -0.054311249 1.760575e-38 366 284
-0.0049093333 0.69999999 -0.055229999 1.4109194e-38 316 285
-0.0036819996 0.69999999 -0.055229999 1.3924804e-38 317 285
-0.0024476533 0.69800001 -0.0550722 1.2638402e-38 318 285
-0.0012220733 0.69700003 -0.054993302 1.1716087e-38 319 285
0 0.69599998 -0.054914396 1.0799547e-38 320 285
0.0012203199 0.69599998 -0.054914396 1.0799547e-38 321 285
0.0024336267 0.69400001 -0.054756597 1.0157421e-38 322 285
0.0036451798 0.69300002 -0.054677699 1.0526202e-38 323 285
0.00486024 0.69300002 -0.054677699 1.1536037e-38 324 285
0.0060577663 0.69099998 -0.054519895 1.1443841e-38 325 285
0.0072587994 0.69 -0.054440998 1.162966e-38 326 285
0.0084440531 0.68800002 -0.054283202 1.1814052e-38 327 285
0.0096503468 0.68800002 -0.054283202 1.1625342e-38 328 285
0.010825079 0.68599999 -0.054125395 9.781429e-39 329 285
0.012027865 0.68599999 -0.054125395 1.0520069e-38 330 285
0.01319208 0.68400002 -0.053967599 1.19952e-38 331 285
0.01439136 0.68400002 -0.053967599 1.1809345e-38 332 285
0.015567848 0.68300003 -0.053888701 1.1624593e-38 333 285
0.016765373 0.68300003 -0.053888701 1.1807171e-38 334 285
0.017962901 0.68300003 -0.053888701 1.1069606e-38 335 285
0.019132372 0.68199998 -0.053809796 8.5839144e-39 336 285
0.020328145 0.68199998 -0.053809796 9.3214794e-39 337 285
0.021523919 0.68199998 -0.053809796 1.0798391e-38 338 285
0.022753006 0.68300003 -0.053888701 1.1167174e-38 339 285
0.023950534 0.68300003 -0.053888701 1.1626728e-38 340 285
0.02514806 0.68300003 -0.053888701 1.1350139e-38 341 285
0.026345588 0.68300003 -0.053888701 1.0335659e-38 342 285
0.027543113 0.68300003 -0.053888701 9.50554e-39 343 285
0.028740639 0.68300003 -0.053888701 9.2293272e-39 344 285
0.029938167 0.68300003 -0.053888701 9.4137199e-39 345 285
0.031135695 0.68300003 -0.053888701 9.3222459e-39 346 285
0.032333218 0.68300003 -0.053888701 9.5066372e-39 347 285
0.033530746 0.68300003 -0.053888701 1.0241683e-38 348 285
0.034728274 0.68300003 -0.053888701 1.0334237e-38 349 285
0.035978399 0.68400002 -0.053967599 1.0610817e-38 350 285
0.037286382 0.68599999 -0.054125395 1.0795208e-38 351 285
0.03848917 0.68599999 -0.054125395 1.0887756e-38 352 285
0.039749816 0.68699998 -0.054204296 1.0703363e-38 353 285
0.040954359 0.68699998 -0.054204296 1.0793042e-38 354 285
0.042158898 0.68699998 -0.054204296 1.0239868e-38 355 285
0.043363437 0.68699998 -0.054204296 9.1328128e-39 356 285
0.0447626 0.69 -0.054440998 7.4736516e-39 357 285
0.045972396 0.69 -0.054440998 7.8402831e-39 358 285
0.047387339 0.69300002 -0.054677699 8.8544337e-39 359 285
0.048672531 0.69400001 -0.054756597 1.0421031e-38 360 285
0.050033119 0.69599998 -0.054914396 1.0882369e-38 361 285
0.051327083 0.69700003 -0.054993302 1.1712826e-38 362 285
0.052624546 0.69800001 -0.0550722 1.2081969e-38 363 285
0.054002665 0.69999999 -0.055229999 1.3462004e-38 364 285
0.055545598 0.704 -0.055545598 1.5121885e-38 365 285
0.056779943 0.704 -0.055545598 1.7330961e-38 366 285
0.058014292 0.704 -0.055545598 1.8437308e-38 367 285
-0.0049093333 0.69999999 -0.056457333 1.5306642e-38 316 286
-0.0036819996 0.69999999 -0.056457333 1.5675425e-38 317 286
-0.0024476533 0.69800001 -0.056296028 1.5214112e-38 318 286
-0.0012238267 0.69800001 -0.056296028 1.3923373e-38 319 286
0 0.69700003 -0.056215372 1.0337124e-38 320 286
0.0012203199 0.69599998 -0.056134716 1.0244569e-38 321 286
0.0024406398 0.69599998 -0.056134716 9.6953641e-39 322 286
0.0036504399 0.69400001 -0.055973411 9.5109728e-39 323 286
0.00486024 0.69300002 -0.055892758 9.3283766e-39 324 286
0.0060753003 0.69300002 -0.055892758 1.0065942e-38 325 286
0.0072693196 0.69099998 -0.055731449 1.0525478e-38 326 286
0.0084686 0.69 -0.055650797 1.0802065e-38 327 286
0.0096503468 0.68800002 -0.055489492 1.0891739e-38 328 286
0.010840859 0.68699998 -0.055408835 1.024637e-38 329 286
0.012045399 0.68699998 -0.055408835 1.098177e-38 330 286
0.013230653 0.68599999 -0.055328183 1.1073967e-38 331 286
0.01443344 0.68599999 -0.055328183 1.1073943e-38 332 286
0.015636226 0.68599999 -0.055328183 1.0889912e-38 333 286
0.016839013 0.68599999 -0.055328183 1.0794467e-38 334 286
0.0179892 0.68400002 -0.055166878 9.872512e-39 335 286
0.019160427 0.68300003 -0.055086225 9.5040812e-39 336 286
0.020357953 0.68300003 -0.055086225 1.0426038e-38 337 286
0.02155548 0.68300003 -0.055086225 1.0706216e-38 338 286
0.022753006 0.68300003 -0.055086225 1.1167193e-38 339 286
0.023950534 0.68300003 -0.055086225 1.1166489e-38 340 286
0.02514806 0.68300003 -0.055086225 1.1443436e-38 341 286
0.026345588 0.68300003 -0.055086225 1.134766e-38 342 286
0.027543113 0.68300003 -0.055086225 1.1163269e-38 343 286
0.028740639 0.68300003 -0.055086225 1.1163991e-38 344 286
0.029938167 0.68300003 -0.055086225 1.0887405e-38 345 286
0.03118128 0.68400002 -0.055166878 1.1163991e-38 346 286
0.032380559 0.68400002 -0.055166878 1.1256186e-38 347 286
0.033579841 0.68400002 -0.055166878 1.1255465e-38 348 286
0.03477912 0.68400002 -0.055166878 1.1071073e-38 349 286
0.036083598 0.68599999 -0.055328183 1.0428224e-38 350 286
0.037286382 0.68599999 -0.055328183 1.0520419e-38 351 286
0.038545277 0.68699998 -0.055408835 1.0610817e-38 352 286
0.039749816 0.68699998 -0.055408835 1.0610817e-38 353 286
0.040954359 0.68699998 -0.055408835 1.0332432e-38 354 286
0.042220265 0.68800002 -0.055489492 1.0055845e-38 355 286
0.043426562 0.68800002 -0.055489492 9.5930693e-39 356 286
0.044827472 0.69099998 -0.055731449 8.6714717e-39 357 286
0.046039023 0.69099998 -0.055731449 9.2196078e-39 358 286
0.047387339 0.69300002 -0.055892758 9.4958346e-39 359 286
0.048672531 0.69400001 -0.055973411 1.1339379e-38 360 286
0.050105009 0.69700003 -0.056215372 1.2169139e-38 361 286
0.051400717 0.69800001 -0.056296028 1.3921913e-38 362 286
0.052775331 0.69999999 -0.056457333 1.3921913e-38 363 286
0.054079808 0.70099998 -0.056537982 1.4014445e-38 364 286
0.0554667 0.70300001 -0.056699295 1.5489216e-38 365 286
0.056779943 0.704 -0.056779943 1.7330958e-38 366 286
0.058014292 0.704 -0.056779943 1.8345469e-38 367 286
-0.0061366665 0.69999999 -0.05768466 1.456689e-38 315 287
-0.0036819996 0.69999999 -0.05768466 1.4851412e-38 317 287
-0.0024546667 0.69999999 -0.05768466 1.4295753e-38 318 287
-0.0012238267 0.69800001 -0.057519849 1.3465991e-38 319 287
0 0.69700003 -0.05743745 8.0347511e-39 320 287
0.0012220733 0.69700003 -0.05743745 7.7581628e-39 321 287
0.0024406398 0.69599998 -0.057355035 8.9509649e-39 322 287
0.0036504399 0.69400001 -0.057190225 8.4899867e-39 323 287
0.0048672534 0.69400001 -0.057190225 6.1058484e-39 324 287
0.0060753003 0.69300002 -0.057107817 8.5951304e-39 325 287
0.0072903596 0.69300002 -0.057107817 1.1350928e-38 326 287
0.008480873 0.69099998 -0.056942999 1.1166178e-38 327 287
0.0096783992 0.69 -0.0568606 1.1166531e-38 328 287
0.010856641 0.68800002 -0.056695789 1.1074336e-38 329 287
0.012062933 0.68800002 -0.056695789 9.9669119e-39 330 287
0.013249939 0.68699998 -0.056613375 8.3073906e-39 331 287
0.014454478 0.68699998 -0.056613375 9.044936e-39 332 287
0.015636226 0.68599999 -0.056530971 9.8746966e-39 333 287
0.016839013 0.68599999 -0.056530971 9.1353183e-39 334 287
0.018041799 0.68599999 -0.056530971 8.0289708e-39 335 287
0.019244585 0.68599999 -0.056530971 8.0322106e-39 336 287
0.020387759 0.68400002 -0.056366164 1.0244906e-38 337 287
0.02158704 0.68400002 -0.056366164 1.1257613e-38 338 287
0.022852944 0.68599999 -0.056530971 1.1165417e-38 339 287
0.0239856 0.68400002 -0.056366164 1.0890997e-38 340 287
0.025184879 0.68400002 -0.056366164 1.0614411e-38 341 287
0.02638416 0.68400002 -0.056366164 1.0889922e-38 342 287
0.027583439 0.68400002 -0.056366164 1.0797726e-38 343 287
0.02878272 0.68400002 -0.056366164 1.0522216e-38 344 287
0.029982001 0.68400002 -0.056366164 1.0337824e-38 345 287
0.031272452 0.68599999 -0.056530971 1.0429301e-38 346 287
0.032475237 0.68599999 -0.056530971 1.0429301e-38 347 287
0.033678025 0.68599999 -0.056530971 1.0612613e-38 348 287
0.034880809 0.68599999 -0.056530971 1.0520416e-38 349 287
0.036083598 0.68599999 -0.056530971 1.0427868e-38 350 287
0.037340738 0.68699998 -0.056613375 1.0335672e-38 351 287
0.038545277 0.68699998 -0.056613375 1.0334234e-38 352 287
0.039807681 0.68800002 -0.056695789 1.0149842e-38 353 287
0.041013971 0.68800002 -0.056695789 9.7821353e-39 354 287
0.042220265 0.68800002 -0.056695789 9.3211571e-39 355 287
0.043552797 0.69 -0.0568606 9.2264392e-39 356 287
0.044827472 0.69099998 -0.056942999 8.5810697e-39 357 287
0.04617228 0.69300002 -0.057107817 8.5771083e-39 358 287
0.047455717 0.69400001 -0.057190225 7.7469889e-39 359 287
0.048812799 0.69599998 -0.057355035 8.8558406e-39 360 287
0.050105009 0.69700003 -0.05743745 1.0976341e-38 361 287
0.051400717 0.69800001 -0.057519849 1.4015178e-38 362 287
0.052775331 0.69999999 -0.05768466 1.3831147e-38 363 287
0.054002665 0.69999999 -0.05768466 1.2912405e-38 364 287
0.055308893 0.70099998 -0.057767071 1.4848513e-38 365 287
0.056779943 0.704 -0.058014292 1.7791213e-38 366 287
-0.0049163462 0.70099998 -0.058996156 1.2734496e-38 316 288
-0.0036872597 0.70099998 -0.058996156 1.411743e-38 317 288
-0.0024546667 0.69999999 -0.058911994 1.3652531e-38 318 288
-0.0012238267 0.69800001 -0.058743682 1.2730575e-38 319 288
0 0.69800001 -0.058743682 6.4670555e-39 320 288
0.0012238267 0.69800001 -0.058743682 4.4387516e-39 321 288
0.0024441467 0.69700003 -0.05865952 5.7158586e-39 322 288
0.0036609597 0.69599998 -0.058575355 4.5173154e-39 323 288
0.0048672534 0.69400001 -0.058407038 1.9610107e-39 324 288
0.0060840664 0.69400001 -0.058407038 7.4927485e-39 325 288
0.0072903596 0.69300002 -0.058322877 1.1901931e-38 326 288
0.008480873 0.69099998 -0.058154557 1.1256562e-38 327 288
0.0096924258 0.69099998 -0.058154557 9.4166066e-39 328 288
0.010888199 0.69 -0.058070395 7.9418366e-39 329 288
0.012062933 0.68800002 -0.057902083 5.8184841e-39 330 288
0.013249939 0.68699998 -0.057817914 3.1444521e-39 331 288
0.014454478 0.68699998 -0.057817914 2.9615056e-39 332 288
0.015659019 0.68699998 -0.057817914 3.5146794e-39 333 288
0.01686356 0.68699998 -0.057817914 3.4203159e-39 334 288
0.018041799 0.68599999 -0.057733759 2.7749465e-39 335 288
0.019244585 0.68599999 -0.057733759 2.2321872e-39 336 288
0.020447372 0.68599999 -0.057733759 7.2107512e-39 337 288
0.021650158 0.68599999 -0.057733759 1.1901203e-38 338 288
0.022852944 0.68599999 -0.057733759 1.1809007e-38 339 288
0.024055731 0.68599999 -0.057733759 1.0706259e-38 340 288
0.025258519 0.68599999 -0.057733759 1.0429314e-38 341 288
0.026461305 0.68599999 -0.057733759 1.0429317e-38 342 288
0.027664091 0.68599999 -0.057733759 1.0337121e-38 343 288
0.02886688 0.68599999 -0.057733759 1.0336401e-38 344 288
0.030069664 0.68599999 -0.057733759 1.0336401e-38 345 288
0.031318039 0.68699998 -0.057817914 1.0427514e-38 346 288
0.032522578 0.68699998 -0.057817914 1.0427514e-38 347 288
0.033727121 0.68699998 -0.057817914 1.0152007e-38 348 288
0.034931656 0.68699998 -0.057817914 1.0244202e-38 349 288
0.036136195 0.68699998 -0.057817914 1.0151288e-38 350 288
0.037340738 0.68699998 -0.057817914 9.9668965e-39 351 288
0.038601387 0.68800002 -0.057902083 9.7821451e-39 352 288
0.039807681 0.68800002 -0.057902083 9.7821451e-39 353 288
0.041013971 0.68800002 -0.057902083 9.4144388e-39 354 288
0.042342998 0.69 -0.058070395 9.138212e-39 355 288
0.043615919 0.69099998 -0.058154557 8.5843081e-39 356 288
0.044957221 0.69300002 -0.058322877 7.2935693e-39 357 288
0.04617228 0.69300002 -0.058322877 7.4722027e-39 358 288
0.047455717 0.69400001 -0.058407038 6.8268332e-39 359 288
0.048812799 0.69599998 -0.058575355 7.6605372e-39 360 288
0.050176892 0.69800001 -0.058743682 1.033421e-38 361 288
0.051400717 0.69800001 -0.058743682 1.3279764e-38 362 288
0.052775331 0.69999999 -0.058911994 1.2818785e-38 363 288
0.054002665 0.69999999 -0.058911994 1.162417e-38 364 288
0.055229999 0.69999999 -0.058911994 1.4574072e-38 365 288
0.056457333 0.69999999 -0.058911994 1.8344018e-38 366 288
-0.0049303733 0.70300001 -0.06039707 1.1261517e-38 316 289
-0.0036977797 0.70300001 -0.06039707 1.2828844e-38 317 289
-0.0024581731 0.70099998 -0.060225245 1.4298604e-38 318 289
-0.0012273333 0.69999999 -0.060139328 1.3653235e-38 319 289
0 0.69999999 -0.060139328 1.2172729e-38 320 289
0.0012238267 0.69800001 -0.059967503 8.8536868e-39 321 289
0.0024476533 0.69800001 -0.059967503 4.8947075e-39 322 289
0.00366622 0.69700003 -0.05988159 3.1429905e-39 323 289
0.0048812795 0.69599998 -0.059795678 3.7930417e-39 324 289
0.0060840664 0.69400001 -0.059623852 1.0523683e-38 325 289
0.0072903596 0.69300002 -0.05953794 1.4293247e-38 326 289
0.0085054198 0.69300002 -0.05953794 1.254189e-38 327 289
0.0096924258 0.69099998 -0.059366114 9.6913844e-39 328 289
0.010888199 0.69 -0.059280202 8.0315043e-39 329 289
0.012062933 0.68800002 -0.059108373 5.7284367e-39 330 289
0.013269227 0.68800002 -0.059108373 3.7923284e-39 331 289
0.014454478 0.68699998 -0.059022456 3.7898271e-39 332 289
0.015659019 0.68699998 -0.059022456 3.8820227e-39 333 289
0.01686356 0.68699998 -0.059022456 3.8809479e-39 334 289
0.018068098 0.68699998 -0.059022456 3.1433829e-39 335 289
0.019272638 0.68699998 -0.059022456 1.3070107e-39 336 289
0.020477179 0.68699998 -0.059022456 6.3777689e-39 337 289
0.021681719 0.68699998 -0.059022456 1.2728449e-38 338 289
0.022886258 0.68699998 -0.059022456 1.3373819e-38 339 289
0.024090799 0.68699998 -0.059022456 1.2729516e-38 340 289
0.025295338 0.68699998 -0.059022456 1.2084146e-38 341 289
0.026499879 0.68699998 -0.059022456 1.1164714e-38 342 289
0.027704418 0.68699998 -0.059022456 1.0795931e-38 343 289
0.028908957 0.68699998 -0.059022456 9.9683384e-39 344 289
0.030113498 0.68699998 -0.059022456 9.8761428e-39 345 289
0.031318039 0.68699998 -0.059022456 9.6013566e-39 346 289
0.032522578 0.68699998 -0.059022456 9.4166066e-39 347 289
0.033727121 0.68699998 -0.059022456 9.0478269e-39 348 289
0.034931656 0.68699998 -0.059022456 8.77124e-39 349 289
0.0361888 0.68800002 -0.059108373 9.0453101e-39 350 289
0.037395094 0.68800002 -0.059108373 9.1375058e-39 351 289
0.038601387 0.68800002 -0.059108373 9.5059211e-39 352 289
0.039807681 0.68800002 -0.059108373 9.7821479e-39 353 289
0.041133199 0.69 -0.059280202 1.005764e-38 354 289
0.042404365 0.69099998 -0.059366114 1.0149836e-38 355 289
0.043615919 0.69099998 -0.059366114 1.0149098e-38 356 289
0.044957221 0.69300002 -0.05953794 9.4115325e-39 357 289
0.046238903 0.69400001 -0.059623852 9.4986932e-39 358 289
0.047592476 0.69599998 -0.059795678 9.4986932e-39 359 289
0.048882935 0.69700003 -0.05988159 1.1620262e-38 360 289
0.050176892 0.69800001 -0.059967503 1.2357827e-38 361 289
0.051400717 0.69800001 -0.059967503 1.2452504e-38 362 289
0.052775331 0.69999999 -0.060139328 1.1991528e-38 363 289
0.054002665 0.69999999 -0.060139328 1.226629e-38 364 289
0.055229999 0.69999999 -0.060139328 1.5585333e-38 365 289
0.056457333 0.69999999 -0.060139328 1.8896469e-38 366 289
-0.0049373866 0.704 -0.061717331 1.1166782e-38 316 290
-0.0037030398 0.704 -0.061717331 1.1996544e-38 317 290
-0.0024581731 0.70099998 -0.06145433 1.3839772e-38 318 290
-0.0012273333 0.69999999 -0.061366666 1.4669532e-38 319 290
0 0.69999999 -0.061366666 1.4846393e-38 320 290
0.0012273333 0.69999999 -0.061366666 1.2357111e-38 321 290
0.0024476533 0.69800001 -0.061191335 7.8417054e-39 322 290
0.00366622 0.69700003 -0.061103668 4.6148584e-39 323 290
0.0048882933 0.69700003 -0.061103668 4.1557033e-39 324 290
0.0061015999 0.69599998 -0.061015997 1.1070017e-38 325 290
0.0073008798 0.69400001 -0.060840666 1.5122659e-38 326 290
0.0085054198 0.69300002 -0.060752999 1.3463496e-38 327 290
0.0097204801 0.69300002 -0.060752999 1.1622455e-38 328 290
0.01090398 0.69099998 -0.060577665 9.8703778e-39 329 290
0.012097999 0.69 -0.060489997 7.5683808e-39 330 290
0.013269227 0.68800002 -0.060314666 6.0014138e-39 331 290
0.014475521 0.68800002 -0.060314666 5.3557081e-39 332 290
0.015659019 0.68699998 -0.060226995 4.8025343e-39 333 290
0.01686356 0.68699998 -0.060226995 5.1695218e-39 334 290
0.018068098 0.68699998 -0.060226995 4.8929349e-39 335 290
0.019272638 0.68699998 -0.060226995 2.9643656e-39 336 290
0.020477179 0.68699998 -0.060226995 6.2834097e-39 337 290
0.021681719 0.68699998 -0.060226995 1.1438783e-38 338 290
0.022886258 0.68699998 -0.060226995 1.3559282e-38 339 290
0.024090799 0.68699998 -0.060226995 1.4202834e-38 340 290
0.025295338 0.68699998 -0.060226995 1.3373073e-38 341 290
0.026499879 0.68699998 -0.060226995 1.2361442e-38 342 290
0.027704418 0.68699998 -0.060226995 1.180827e-38 343 290
0.028908957 0.68699998 -0.060226995 1.0979604e-38 344 290
0.030113498 0.68699998 -0.060226995 1.0610461e-38 345 290
0.031318039 0.68699998 -0.060226995 1.0335322e-38 346 290
0.032569919 0.68800002 -0.060314666 9.8743449e-39 347 290
0.033776212 0.68800002 -0.060314666 8.4006624e-39 348 290
0.03498251 0.68800002 -0.060314666 7.2943148e-39 349 290
0.0361888 0.68800002 -0.060314666 7.3854343e-39 350 290
0.037395094 0.68800002 -0.060314666 8.6761731e-39 351 290
0.038713597 0.69 -0.060489997 1.0424277e-38 352 290
0.0399234 0.69 -0.060489997 1.0885256e-38 353 290
0.041192811 0.69099998 -0.060577665 1.1254019e-38 354 290
0.042527102 0.69300002 -0.060752999 1.1438411e-38 355 290
0.043742158 0.69300002 -0.060752999 1.2082319e-38 356 290
0.045022093 0.69400001 -0.060840666 1.2450741e-38 357 290
0.046238903 0.69400001 -0.060840666 1.2815562e-38 358 290
0.047592476 0.69599998 -0.061015997 1.2631171e-38 359 290
0.048882935 0.69700003 -0.061103668 1.3555627e-38 360 290
0.050176892 0.69800001 -0.061191335 1.3002454e-38 361 290
0.051400717 0.69800001 -0.061191335 1.0981303e-38 362 290
0.052775331 0.69999999 -0.061366666 1.0889106e-38 363 290
0.054002665 0.69999999 -0.061366666 1.3003845e-38 364 290
0.055229999 0.69999999 -0.061366666 1.6322888e-38 365 290
0.056457333 0.69999999 -0.061366666 1.9356731e-38 366 290
-0.0049373866 0.704 -0.062951677 1.2911644e-38 316 291
-0.0037030398 0.704 -0.062951677 1.2451025e-38 317 291
-0.0024581731 0.70099998 -0.062683418 1.107927e-38 318 291
-0.0012290865 0.70099998 -0.062683418 1.2462563e-38 319 291
0 0.69999999 -0.062593997 1.4574112e-38 320 291
0.0012273333 0.69999999 -0.062593997 1.4113494e-38 321 291
0.0024546667 0.69999999 -0.062593997 1.3828288e-38 322 291
0.0036714801 0.69800001 -0.062415157 9.8638758e-39 323 291
0.0048882933 0.69700003 -0.062325738 3.2445272e-39 324 291
0.0061015999 0.69599998 -0.062236317 6.7476024e-39 325 291
0.0073008798 0.69400001 -0.06205748 1.2912493e-38 326 291
0.0085176928 0.69400001 -0.06205748 1.3926286e-38 327 291
0.0097204801 0.69300002 -0.061968062 1.3739357e-38 328 291
0.010935539 0.69300002 -0.061968062 1.1895446e-38 329 291
0.012115533 0.69099998 -0.061789215 9.2246553e-39 330 291
0.013327086 0.69099998 -0.061789215 7.3811028e-39 331 291
0.014517599 0.69 -0.061699796 5.8170324e-39 332 291
0.015681813 0.68800002 -0.06152096 5.3560556e-39 333 291
0.016888106 0.68800002 -0.06152096 6.0010621e-39 334 291
0.0180944 0.68800002 -0.06152096 7.1996039e-39 335 291
0.019300694 0.68800002 -0.06152096 7.5683808e-39 336 291
0.020506985 0.68800002 -0.06152096 7.8449677e-39 337 291
0.021713281 0.68800002 -0.06152096 9.3236781e-39 338 291
0.022919573 0.68800002 -0.06152096 1.2365775e-38 339 291
0.024125867 0.68800002 -0.06152096 1.4387945e-38 340 291
0.02533216 0.68800002 -0.06152096 1.3558185e-38 341 291
0.026538454 0.68800002 -0.06152096 1.337487e-38 342 291
0.027744746 0.68800002 -0.06152096 1.3282673e-38 343 291
0.028951041 0.68800002 -0.06152096 1.3371998e-38 344 291
0.030157333 0.68800002 -0.06152096 1.3003215e-38 345 291
0.031363625 0.68800002 -0.06152096 1.2357492e-38 346 291
0.032569919 0.68800002 -0.06152096 1.115895e-38 347 291
0.033776212 0.68800002 -0.06152096 8.7611632e-39 348 291
0.03498251 0.68800002 -0.06152096 8.0235982e-39 349 291
0.036293998 0.69 -0.061699796 6.7418501e-39 350 291
0.037503798 0.69 -0.061699796 9.0463821e-39 351 291
0.038769703 0.69099998 -0.061789215 1.2449325e-38 352 291
0.039981257 0.69099998 -0.061789215 1.3370922e-38 353 291
0.041312039 0.69300002 -0.061968062 1.3280509e-38 354 291
0.042527102 0.69300002 -0.061968062 1.3095758e-38 355 291
0.043805279 0.69400001 -0.06205748 1.3371256e-38 356 291
0.045022093 0.69400001 -0.06205748 1.3555648e-38 357 291
0.046372157 0.69599998 -0.062236317 1.392154e-38 358 291
0.047660861 0.69700003 -0.062325738 1.3276171e-38 359 291
0.048953064 0.69800001 -0.062415157 1.2358138e-38 360 291
0.050176892 0.69800001 -0.062415157 1.1620573e-38 361 291
0.051400717 0.69800001 -0.062415157 9.5997885e-39 362 291
0.052775331 0.69999999 -0.062593997 1.0982723e-38 363 291
0.054002665 0.69999999 -0.062593997 1.4661571e-38 364 291
0.055229999 0.69999999 -0.062593997 1.7150853e-38 365 291
0.056457333 0.69999999 -0.062593997 1.9356378e-38 366 291
-0.0037030398 0.704 -0.064186029 1.3093142e-38 317 292
-0.0024581731 0.70099998 -0.063912503 1.0433128e-38 318 292
-0.0012290865 0.70099998 -0.063912503 1.1446921e-38 319 292
0 0.70099998 -0.063912503 1.3196182e-38 320 292
0.0012273333 0.69999999 -0.063821331 1.4210334e-38 321 292
0.0024546667 0.69999999 -0.063821331 1.5584674e-38 322 292
0.0036714801 0.69800001 -0.063638985 1.355637e-38 323 292
0.0048882933 0.69700003 -0.06354782 8.0304155e-39 324 292
0.0061103669 0.69700003 -0.06354782 6.8315136e-39 325 292
0.0073219193 0.69599998 -0.063456632 8.5879277e-39 326 292
0.0085176928 0.69400001 -0.063274294 1.2091362e-38 327 292
0.0097345067 0.69400001 -0.063274294 1.4662039e-38 328 292
0.010935539 0.69300002 -0.063183114 1.3094355e-38 329 292
0.012150601 0.69300002 -0.063183114 1.106748e-38 330 292
0.013327086 0.69099998 -0.063000768 9.1313723e-39 331 292
0.014538639 0.69099998 -0.063000768 7.2910708e-39 332 292
0.015727401 0.69 -0.062909603 6.4616703e-39 333 292
0.0169372 0.69 -0.062909603 6.6467804e-39 334 292
0.0180944 0.68800002 -0.06272725 7.6605736e-39 335 292
0.019300694 0.68800002 -0.06272725 8.3977757e-39 336 292
0.020506985 0.68800002 -0.06272725 8.0286331e-39 337 292
0.021713281 0.68800002 -0.06272725 8.0358259e-39 338 292
0.022919573 0.68800002 -0.06272725 1.1170119e-38 339 292
0.024125867 0.68800002 -0.06272725 1.438867e-38 340 292
0.02533216 0.68800002 -0.06272725 1.3743301e-38 341 292
0.026615599 0.69 -0.062909603 1.3467419e-38 342 292
0.027744746 0.68800002 -0.06272725 1.3744004e-38 343 292
0.028951041 0.68800002 -0.06272725 1.4476894e-38 344 292
0.030157333 0.68800002 -0.06272725 1.4292863e-38 345 292
0.031363625 0.68800002 -0.06272725 1.3554221e-38 346 292
0.032664597 0.69 -0.062909603 1.2355679e-38 347 292
0.0338744 0.69 -0.062909603 1.0421381e-38 348 292
0.035084199 0.69 -0.062909603 9.4075892e-39 349 292
0.036346599 0.69099998 -0.063000768 8.0307686e-39 350 292
0.03755815 0.69099998 -0.063000768 1.0150909e-38 351 292
0.038769703 0.69099998 -0.063000768 1.3186514e-38 352 292
0.039981257 0.69099998 -0.063000768 1.3924079e-38 353 292
0.041312039 0.69300002 -0.063183114 1.3465251e-38 354 292
0.042588469 0.69400001 -0.063274294 1.3373055e-38 355 292
0.043805279 0.69400001 -0.063274294 1.3649272e-38 356 292
0.045022093 0.69400001 -0.063274294 1.3556718e-38 357 292
0.046438783 0.69700003 -0.06354782 1.3280111e-38 358 292
0.047660861 0.69700003 -0.06354782 1.2634742e-38 359 292
0.048953064 0.69800001 -0.063638985 1.0612501e-38 360 292
0.050320663 0.69999999 -0.063821331 9.9671319e-39 361 292
0.051547997 0.69999999 -0.063821331 9.8760027e-39 362 292
0.052850723 0.70099998 -0.063912503 1.2181252e-38 363 292
0.054079808 0.70099998 -0.063912503 1.6134553e-38 364 292
0.055308893 0.70099998 -0.063912503 1.7793716e-38 365 292
0.056537982 0.70099998 -0.063912503 1.8987966e-38 366 292
-0.0037030398 0.704 -0.065420374 1.4566502e-38 317 293
-0.0024651866 0.70300001 -0.065327443 1.1626984e-38 318 293
-0.0012325933 0.70300001 -0.065327443 1.1442234e-38 319 293
0 0.70099998 -0.065141588 1.0527136e-38 320 293
0.0012290865 0.70099998 -0.065141588 1.1172505e-38 321 293
0.0024546667 0.69999999 -0.065048665 1.2550462e-38 322 293
0.0036819996 0.69999999 -0.065048665 1.3195831e-38 323 293
0.0048953067 0.69800001 -0.06486281 1.3921913e-38 324 293
0.006119133 0.69800001 -0.06486281 9.5887183e-39 325 293
0.00733244 0.69700003 -0.064769886 8.6542091e-40 326 293
0.0085422397 0.69599998 -0.064676955 4.7376374e-39 327 293
0.0097345067 0.69400001 -0.064491108 1.1898331e-38 328 293
0.01095132 0.69400001 -0.064491108 1.2451505e-38 329 293
0.012150601 0.69300002 -0.064398177 1.2173105e-38 330 293
0.01336566 0.69300002 -0.064398177 1.1251149e-38 331 293
0.014538639 0.69099998 -0.06421233 1.0423552e-38 332 293
0.015750192 0.69099998 -0.06421233 9.9625735e-39 333 293
0.0169372 0.69 -0.064119399 9.3172083e-39 334 293
0.018146999 0.69 -0.064119399 8.7640345e-39 335 293
0.019356798 0.69 -0.064119399 8.0279142e-39 336 293
0.020566599 0.69 -0.064119399 7.2903491e-39 337 293
0.021776399 0.69 -0.064119399 5.1835165e-39 338 293
0.022986198 0.69 -0.064119399 8.3181679e-39 339 293
0.024195999 0.69 -0.064119399 1.3189774e-38 340 293
0.025405798 0.69 -0.064119399 1.392734e-38 341 293
0.026615599 0.69 -0.064119399 1.383513e-38 342 293
0.027825398 0.69 -0.064119399 1.365038e-38 343 293
0.029035198 0.69 -0.064119399 1.3650015e-38 344 293
0.030244999 0.69 -0.064119399 1.374221e-38 345 293
0.031454802 0.69 -0.064119399 1.4016275e-38 346 293
0.032711938 0.69099998 -0.06421233 1.3924079e-38 347 293
0.033923492 0.69099998 -0.06421233 1.3831884e-38 348 293
0.035135046 0.69099998 -0.06421233 1.3647494e-38 349 293
0.036451802 0.69300002 -0.064398177 1.3372702e-38 350 293
0.037666857 0.69300002 -0.064398177 1.3465256e-38 351 293
0.03888192 0.69300002 -0.064398177 1.3373411e-38 352 293
0.04009698 0.69300002 -0.064398177 1.3373411e-38 353 293
0.041371655 0.69400001 -0.064491108 1.3648548e-38 354 293
0.042588469 0.69400001 -0.064491108 1.3371959e-38 355 293
0.043931518 0.69599998 -0.064676955 1.2636894e-38 356 293
0.045151837 0.69599998 -0.064676955 1.2176275e-38 357 293
0.046438783 0.69700003 -0.064769886 1.0614312e-38 358 293
0.047729239 0.69800001 -0.06486281 1.0153694e-38 359 293
0.048953064 0.69800001 -0.06486281 9.1441885e-39 360 293
0.050320663 0.69999999 -0.065048665 9.5126109e-39 361 293
0.051547997 0.69999999 -0.065048665 1.2454259e-38 362 293
0.053001512 0.70300001 -0.065327443 1.4298171e-38 363 293
0.054079808 0.70099998 -0.065141588 1.751355e-38 364 293
0.055308893 0.70099998 -0.065141588 1.8343671e-38 365 293
-0.0024651866 0.70300001 -0.066560037 1.3741723e-38 318 294
-0.0012325933 0.70300001 -0.066560037 1.2635375e-38 319 294
0 0.70300001 -0.066560037 1.089334e-38 320 294
0.0012290865 0.70099998 -0.066370681 1.089334e-38 321 294
0.0024581731 0.70099998 -0.066370681 1.1262906e-38 322 294
0.0036819996 0.69999999 -0.066275999 1.2092666e-38 323 294
0.0049093333 0.69999999 -0.066275999 1.3376982e-38 324 294
0.006119133 0.69800001 -0.066086642 1.1348678e-38 325 294
0.00733244 0.69700003 -0.06599196 4.6364244e-39 326 294
0.0085422397 0.69599998 -0.065897278 6.1115559e-39 327 294
0.0097625591 0.69599998 -0.065897278 9.9665265e-39 328 294
0.01095132 0.69400001 -0.065707922 1.116507e-38 329 294
0.012168133 0.69400001 -0.065707922 1.1346581e-38 330 294
0.01336566 0.69300002 -0.06561324 1.0793408e-38 331 294
0.014580719 0.69300002 -0.06561324 1.1438061e-38 332 294
0.015750192 0.69099998 -0.065423876 1.1899038e-38 333 294
0.016961746 0.69099998 -0.065423876 1.0607577e-38 334 294
0.0181733 0.69099998 -0.065423876 1.0423186e-38 335 294
0.019384852 0.69099998 -0.065423876 1.0330271e-38 336 294
0.020596405 0.69099998 -0.065423876 9.3157593e-39 337 294
0.021807959 0.69099998 -0.065423876 6.3759318e-39 338 294
0.023019511 0.69099998 -0.065423876 7.9432589e-39 339 294
0.024231065 0.69099998 -0.065423876 1.061226e-38 340 294
0.025442619 0.69099998 -0.065423876 1.1902999e-38 341 294
0.026654173 0.69099998 -0.065423876 1.3374522e-38 342 294
0.027865725 0.69099998 -0.065423876 1.3374522e-38 343 294
0.029077278 0.69099998 -0.065423876 1.3924807e-38 344 294
0.030288832 0.69099998 -0.065423876 1.4108838e-38 345 294
0.031500384 0.69099998 -0.065423876 1.3832963e-38 346 294
0.03280662 0.69300002 -0.06561324 1.4293582e-38 347 294
0.034021679 0.69300002 -0.06561324 1.4293219e-38 348 294
0.035236739 0.69300002 -0.06561324 1.4108469e-38 349 294
0.036451802 0.69300002 -0.06561324 1.4108822e-38 350 294
0.037666857 0.69300002 -0.06561324 1.4108822e-38 351 294
0.03888192 0.69300002 -0.06561324 1.3465601e-38 352 294
0.04009698 0.69300002 -0.06561324 1.3096817e-38 353 294
0.041371655 0.69400001 -0.065707922 1.2729814e-38 354 294
0.042588469 0.69400001 -0.065707922 1.217664e-38 355 294
0.043931518 0.69599998 -0.065897278 1.1351148e-38 356 294
0.045151837 0.69599998 -0.065897278 1.0798333e-38 357 294
0.046438783 0.69700003 -0.06599196 9.8795634e-39 358 294
0.047729239 0.69800001 -0.066086642 9.5107822e-39 359 294
0.048953064 0.69800001 -0.066086642 9.9714087e-39 360 294
0.050392549 0.70099998 -0.066370681 1.1169593e-38 361 294
0.051768921 0.70300001 -0.066560037 1.4754131e-38 362 294
0.053001512 0.70300001 -0.066560037 1.5860478e-38 363 294
0.054234106 0.70300001 -0.066560037 1.7147293e-38 364 294
-0.0012343467 0.704 -0.067889065 1.4843086e-38 319 295
0 0.70300001 -0.067792632 1.2547495e-38 320 295
0.0012290865 0.70099998 -0.067599766 1.2086157e-38 321 295
0.0024581731 0.70099998 -0.067599766 1.061894e-38 322 295
0.0036819996 0.69999999 -0.067503333 1.061894e-38 323 295
0.0049093333 0.69999999 -0.067503333 1.0527506e-38 324 295
0.006119133 0.69800001 -0.06731046 1.0804451e-38 325 295
0.0073429602 0.69800001 -0.06731046 1.1445907e-38 326 295
0.0085545136 0.69700003 -0.067214034 1.1445907e-38 327 295
0.0097625591 0.69599998 -0.067117594 1.1535254e-38 328 295
0.010982879 0.69599998 -0.067117594 1.1443057e-38 329 295
0.012168133 0.69400001 -0.066924736 1.0796984e-38 330 295
0.013384946 0.69400001 -0.066924736 1.0520398e-38 331 295
0.01460176 0.69400001 -0.066924736 1.134873e-38 332 295
0.015795778 0.69300002 -0.066828303 1.1809708e-38 333 295
0.01701084 0.69300002 -0.066828303 1.088524e-38 334 295
0.018225901 0.69300002 -0.066828303 1.1161467e-38 335 295
0.01944096 0.69300002 -0.066828303 1.2264575e-38 336 295
0.020656019 0.69300002 -0.066828303 1.1803955e-38 337 295
0.021807959 0.69099998 -0.06663543 1.024059e-38 338 295
0.023019511 0.69099998 -0.06663543 9.1342421e-39 339 295
0.024231065 0.69099998 -0.06663543 8.2187668e-39 340 295
0.025442619 0.69099998 -0.06663543 9.7864513e-39 341 295
0.02673132 0.69300002 -0.066828303 1.2362165e-38 342 295
0.027865725 0.69099998 -0.06663543 1.3284122e-38 343 295
0.029077278 0.69099998 -0.06663543 1.3926244e-38 344 295
0.0303765 0.69300002 -0.066828303 1.3650018e-38 345 295
0.031591557 0.69300002 -0.066828303 1.3650012e-38 346 295
0.03280662 0.69300002 -0.066828303 1.3742566e-38 347 295
0.034021679 0.69300002 -0.066828303 1.3741836e-38 348 295
0.035287585 0.69400001 -0.066924736 1.3465251e-38 349 295
0.036504399 0.69400001 -0.066924736 1.3557071e-38 350 295
0.037721213 0.69400001 -0.066924736 1.3188647e-38 351 295
0.038938027 0.69400001 -0.066924736 1.2637247e-38 352 295
0.040154841 0.69400001 -0.066924736 1.1991878e-38 353 295
0.041490879 0.69599998 -0.067117594 1.0890527e-38 354 295
0.042711195 0.69599998 -0.067117594 1.0429908e-38 355 295
0.043931518 0.69599998 -0.067117594 9.5133144e-39 356 295
0.045151837 0.69599998 -0.067117594 9.5133144e-39 357 295
0.046438783 0.69700003 -0.067214034 9.879576e-39 358 295
0.047729239 0.69800001 -0.06731046 1.0063969e-38 359 295
0.048953064 0.69800001 -0.06731046 1.2455341e-38 360 295
0.050392549 0.70099998 -0.067599766 1.3930112e-38 361 295
0.051768921 0.70300001 -0.067792632 1.6409725e-38 362 295
0.053076904 0.704 -0.067889065 1.6686671e-38 363 295
0.054311249 0.704 -0.067889065 1.714514e-38 364 295
0 0.704 -0.06912341 1.4661546e-38 320 296
0.0012325933 0.70300001 -0.069025226 1.4200568e-38 321 296
0.0024581731 0.70099998 -0.068828844 1.1906067e-38 322 296
0.0036819996 0.69999999 -0.068730667 1.11685e-38 323 296
0.0049093333 0.69999999 -0.068730667 9.8842479e-39 324 296
0.006119133 0.69800001 -0.068534292 1.0160836e-38 325 296
0.0073429602 0.69800001 -0.068534292 1.0344556e-38 326 296
0.0085545136 0.69700003 -0.068436109 1.0344556e-38 327 296
0.0097765867 0.69700003 -0.068436109 1.0527549e-38 328 296
0.010982879 0.69599998 -0.068337917 1.0619745e-38 329 296
0.0122032 0.69599998 -0.068337917 1.0892751e-38 330 296
0.013384946 0.69400001 -0.068141542 1.0892751e-38 331 296
0.01460176 0.69400001 -0.068141542 1.1444137e-38 332 296
0.015818574 0.69400001 -0.068141542 1.1536333e-38 333 296
0.01701084 0.69300002 -0.068043359 1.1258319e-38 334 296
0.018225901 0.69300002 -0.068043359 1.1258319e-38 335 296
0.01944096 0.69300002 -0.068043359 1.2176682e-38 336 296
0.020656019 0.69300002 -0.068043359 1.199229e-38 337 296
0.021871079 0.69300002 -0.068043359 1.1532032e-38 338 296
0.02308614 0.69300002 -0.068043359 1.1071054e-38 339 296
0.024301201 0.69300002 -0.068043359 9.8750288e-39 340 296
0.02551626 0.69300002 -0.068043359 1.0796984e-38 341 296
0.02673132 0.69300002 -0.068043359 1.20852e-38 342 296
0.027946379 0.69300002 -0.068043359 1.3099711e-38 343 296
0.029161438 0.69300002 -0.068043359 1.3466688e-38 344 296
0.0303765 0.69300002 -0.068043359 1.3190462e-38 345 296
0.031591557 0.69300002 -0.068043359 1.2915304e-38 346 296
0.03280662 0.69300002 -0.068043359 1.2915304e-38 347 296
0.034070771 0.69400001 -0.068141542 1.2639782e-38 348 296
0.035287585 0.69400001 -0.068141542 1.2271001e-38 349 296
0.036504399 0.69400001 -0.068141542 1.1904351e-38 350 296
0.037721213 0.69400001 -0.068141542 1.1443373e-38 351 296
0.038938027 0.69400001 -0.068141542 1.0617889e-38 352 296
0.040154841 0.69400001 -0.068141542 1.0156911e-38 353 296
0.041490879 0.69599998 -0.068337917 1.0156154e-38 354 296
0.042711195 0.69599998 -0.068337917 1.0063599e-38 355 296
0.043931518 0.69599998 -0.068337917 9.6973301e-39 356 296
0.045151837 0.69599998 -0.068337917 1.0066473e-38 357 296
0.046372157 0.69599998 -0.068337917 1.1351854e-38 358 296
0.047729239 0.69800001 -0.068534292 1.2274171e-38 359 296
0.049373865 0.704 -0.06912341 1.5122206e-38 360 296
0.050608214 0.704 -0.06912341 1.567538e-38 361 296
0.051989835 0.70599997 -0.069319785 1.6408657e-38 362 296
0.053227689 0.70599997 -0.069319785 1.6500854e-38 363 296
0.0024651866 0.70300001 -0.070257813 1.3929001e-38 322 297
0.0036872597 0.70099998 -0.070057929 1.2730457e-38 323 297
0.0049163462 0.70099998 -0.070057929 1.116885e-38 324 297
0.0061366665 0.69999999 -0.069957994 1.0984819e-38 325 297
0.0073429602 0.69800001 -0.069758117 9.883529e-39 326 297
0.0085667865 0.69800001 -0.069758117 9.883529e-39 327 297
0.0097765867 0.69700003 -0.069658175 9.4243782e-39 328 297
0.01099866 0.69700003 -0.069658175 9.7013252e-39 329 297
0.0122032 0.69599998 -0.069558233 1.0435662e-38 330 297
0.013423519 0.69599998 -0.069558233 1.071225e-38 331 297
0.014643839 0.69599998 -0.069558233 1.0986694e-38 332 297
0.015818574 0.69400001 -0.069358356 1.1262921e-38 333 297
0.017035386 0.69400001 -0.069358356 1.1446616e-38 334 297
0.0182522 0.69400001 -0.069358356 1.1538811e-38 335 297
0.019469013 0.69400001 -0.069358356 1.1995846e-38 336 297
0.020685827 0.69400001 -0.069358356 1.1903651e-38 337 297
0.021871079 0.69300002 -0.069258414 1.1628153e-38 338 297
0.02308614 0.69300002 -0.069258414 1.1535956e-38 339 297
0.024301201 0.69300002 -0.069258414 1.1442685e-38 340 297
0.02551626 0.69300002 -0.069258414 1.1258294e-38 341 297
0.02673132 0.69300002 -0.069258414 1.1811101e-38 342 297
0.027946379 0.69300002 -0.069258414 1.227172e-38 343 297
0.029161438 0.69300002 -0.069258414 1.2364253e-38 344 297
0.0303765 0.69300002 -0.069258414 1.2087666e-38 345 297
0.031591557 0.69300002 -0.069258414 1.1812492e-38 346 297
0.032853961 0.69400001 -0.069358356 1.1812492e-38 347 297
0.034070771 0.69400001 -0.069358356 1.135436e-38 348 297
0.035287585 0.69400001 -0.069358356 1.0801186e-38 349 297
0.036609598 0.69599998 -0.069558233 1.0617842e-38 350 297
0.037721213 0.69400001 -0.069358356 1.0341615e-38 351 297
0.038938027 0.69400001 -0.069358356 9.3317622e-39 352 297
0.040154841 0.69400001 -0.069358356 9.4239578e-39 353 297
0.041490879 0.69599998 -0.069558233 1.0065011e-38 354 297
0.042711195 0.69599998 -0.069558233 1.0157207e-38 355 297
0.043931518 0.69599998 -0.069558233 1.098413e-38 356 297
0.045151837 0.69599998 -0.069558233 1.199828e-38 357 297
0.046372157 0.69599998 -0.069558233 1.3743222e-38 358 297
0.0049163462 0.70099998 -0.071287021 1.4661546e-38 324 298
0.0061366665 0.69999999 -0.071185328 1.4108372e-38 325 298
0.0073639993 0.69999999 -0.071185328 1.1814249e-38 326 298
0.0085667865 0.69800001 -0.07098195 1.1076325e-38 327 298
0.0097906133 0.69800001 -0.07098195 9.6994853e-39 328 298
0.01099866 0.69700003 -0.070880257 9.6072897e-39 329 298
0.012220734 0.69700003 -0.070880257 9.7923998e-39 330 298
0.013442807 0.69700003 -0.070880257 9.976791e-39 331 298
0.014643839 0.69599998 -0.070778556 1.0251602e-38 332 298
0.015864158 0.69599998 -0.070778556 1.0435994e-38 333 298
0.017035386 0.69400001 -0.07057517 1.0802281e-38 334 298
0.0182522 0.69400001 -0.07057517 1.0894476e-38 335 298
0.019469013 0.69400001 -0.07057517 1.1077089e-38 336 298
0.020685827 0.69400001 -0.07057517 1.1077089e-38 337 298
0.021902639 0.69400001 -0.07057517 1.0801947e-38 338 298
0.023119451 0.69400001 -0.07057517 1.0801947e-38 339 298
0.024301201 0.69300002 -0.070473477 1.0709394e-38 340 298
0.02551626 0.69300002 -0.070473477 1.0709394e-38 341 298
0.026769891 0.69400001 -0.07057517 1.0341325e-38 342 298
0.027946379 0.69300002 -0.070473477 1.0341325e-38 343 298
0.029161438 0.69300002 -0.070473477 1.0342025e-38 344 298
0.0303765 0.69300002 -0.070473477 1.0157634e-38 345 298
0.031591557 0.69300002 -0.070473477 1.0342349e-38 346 298
0.032853961 0.69400001 -0.07057517 1.0526742e-38 347 298
0.034070771 0.69400001 -0.07057517 1.0802941e-38 348 298
0.035389278 0.69599998 -0.070778556 1.0526352e-38 349 298
0.036609598 0.69599998 -0.070778556 1.0526337e-38 350 298
0.037829921 0.69599998 -0.070778556 1.0434141e-38 351 298
0.039050236 0.69599998 -0.070778556 9.6072728e-39 352 298
0.040270556 0.69599998 -0.070778556 1.0160088e-38 353 298
0.041490879 0.69599998 -0.070778556 1.1719898e-38 354 298
0.042711195 0.69599998 -0.070778556 1.2180877e-38 355 298
0.043931518 0.69599998 -0.070778556 1.3558814e-38 356 298
0.045151837 0.69599998 -0.070778556 1.4480412e-38 357 298
0.046372157 0.69599998 -0.070778556 1.5581043e-38 358 298
0.0061629666 0.70300001 -0.072723009 1.5214052e-38 325 299
0.0073745195 0.70099998 -0.072516106 1.4847384e-38 326 299
0.0085913334 0.69999999 -0.072412662 1.4017622e-38 327 299
0.0097906133 0.69800001 -0.072205767 1.2732934e-38 328 299
0.01101444 0.69800001 -0.072205767 1.1903533e-38 329 299
0.012238266 0.69800001 -0.072205767 1.1260652e-38 330 299
0.013462093 0.69800001 -0.072205767 1.0984426e-38 331 299
0.01466488 0.69700003 -0.072102323 1.025047e-38 332 299
0.015864158 0.69599998 -0.071998879 1.025047e-38 333 299
0.017084479 0.69599998 -0.071998879 9.9746274e-39 334 299
0.018304799 0.69599998 -0.071998879 1.0066823e-38 335 299
0.019525118 0.69599998 -0.071998879 1.0342726e-38 336 299
0.020685827 0.69400001 -0.071791984 1.0342726e-38 337 299
0.021902639 0.69400001 -0.071791984 1.0067231e-38 338 299
0.023119451 0.69400001 -0.071791984 1.0067231e-38 339 299
0.024336265 0.69400001 -0.071791984 1.0068659e-38 340 299
0.025553079 0.69400001 -0.071791984 9.7920733e-39 341 299
0.026769891 0.69400001 -0.071791984 9.6977098e-39 342 299
0.027986705 0.69400001 -0.071791984 9.6055142e-39 343 299
0.029203519 0.69400001 -0.071791984 9.2388631e-39 344 299
0.0303765 0.69300002 -0.07168854 8.9619174e-39 345 299
0.031591557 0.69300002 -0.07168854 9.7909326e-39 346 299
0.032853961 0.69400001 -0.071791984 1.006788e-38 347 299
0.034070771 0.69400001 -0.071791984 1.0801832e-38 348 299
0.035287585 0.69400001 -0.071791984 1.0801832e-38 349 299
0.036504399 0.69400001 -0.071791984 1.1352854e-38 350 299
0.037721213 0.69400001 -0.071791984 1.1352854e-38 351 299
0.039050236 0.69599998 -0.071998879 1.1903561e-38 352 299
0.040270556 0.69599998 -0.071998879 1.2364899e-38 353 299
0.041490879 0.69599998 -0.071998879 1.3373714e-38 354 299
0.042711195 0.69599998 -0.071998879 1.3834692e-38 355 299
0.043931518 0.69599998 -0.071998879 1.4936749e-38 356 299
0.0073955595 0.70300001 -0.073955595 1.6590875e-38 326 300
0.0085913334 0.69999999 -0.073639996 1.8158201e-38 327 300
0.0098186666 0.69999999 -0.073639996 1.7426011e-38 328 300
0.011045999 0.69999999 -0.073639996 1.6688446e-38 329 300
0.012238266 0.69800001 -0.073429599 1.5400556e-38 330 300
0.013462093 0.69800001 -0.073429599 1.4386404e-38 331 300
0.01468592 0.69800001 -0.073429599 1.2550014e-38 332 300
0.015886955 0.69700003 -0.073324397 1.1628056e-38 333 300
0.017084479 0.69599998 -0.073219195 1.0983387e-38 334 300
0.018304799 0.69599998 -0.073219195 1.0983387e-38 335 300
0.019525118 0.69599998 -0.073219195 1.0710025e-38 336 300
0.020685827 0.69400001 -0.073008798 1.0525633e-38 337 300
0.021902639 0.69400001 -0.073008798 1.0067542e-38 338 300
0.023119451 0.69400001 -0.073008798 1.0436685e-38 339 300
0.024336265 0.69400001 -0.073008798 1.0344502e-38 340 300
0.025553079 0.69400001 -0.073008798 1.0068273e-38 341 300
0.026769891 0.69400001 -0.073008798 1.0526026e-38 342 300
0.027986705 0.69400001 -0.073008798 1.0526026e-38 343 300
0.029203519 0.69400001 -0.073008798 1.0434552e-38 344 300
0.030420333 0.69400001 -0.073008798 1.0526747e-38 345 300
0.031637147 0.69400001 -0.073008798 1.1539823e-38 346 300
0.032853961 0.69400001 -0.073008798 1.1724214e-38 347 300
0.034070771 0.69400001 -0.073008798 1.2640428e-38 348 300
0.035287585 0.69400001 -0.073008798 1.2917017e-38 349 300
0.036504399 0.69400001 -0.073008798 1.3742479e-38 350 300
0.037721213 0.69400001 -0.073008798 1.3926872e-38 351 300
0.039050236 0.69599998 -0.073219195 1.5027848e-38 352 300
0.040270556 0.69599998 -0.073219195 1.5027848e-38 353 300
0.041610107 0.69800001 -0.073429599 1.502607e-38 354 300
0.042711195 0.69599998 -0.073219195 1.4933875e-38 355 300
0.043931518 0.69599998 -0.073219195 1.456726e-38 356 300
0.011045999 0.69999999 -0.07486733 1.6506255e-38 329 301
0.012273333 0.69999999 -0.07486733 1.7425305e-38 330 301
0.013500666 0.69999999 -0.07486733 1.6872131e-38 331 301
0.01468592 0.69800001 -0.074653424 1.586263e-38 332 301
0.015909746 0.69800001 -0.074653424 1.5401652e-38 333 301
0.017109027 0.69700003 -0.074546471 1.5583856e-38 334 301
0.018331099 0.69700003 -0.074546471 1.5030682e-38 335 301
0.019553173 0.69700003 -0.074546471 1.4294527e-38 336 301
0.020745439 0.69599998 -0.074439511 1.4017581e-38 337 301
0.021965759 0.69599998 -0.074439511 1.3467277e-38 338 301
0.023186078 0.69599998 -0.074439511 1.319105e-38 339 301
0.024336265 0.69400001 -0.074225612 1.2455653e-38 340 301
0.025553079 0.69400001 -0.074225612 1.208651e-38 341 301
0.026769891 0.69400001 -0.074225612 1.1902495e-38 342 301
0.027986705 0.69400001 -0.074225612 1.2179083e-38 343 301
0.029203519 0.69400001 -0.074225612 1.3558073e-38 344 301
0.030420333 0.69400001 -0.074225612 1.4018691e-38 345 301
0.031637147 0.69400001 -0.074225612 1.4570076e-38 346 301
0.032853961 0.69400001 -0.074225612 1.4662272e-38 347 301
0.011045999 0.69999999 -0.076094657 1.5032572e-38 329 302
0.012273333 0.69999999 -0.076094657 1.7885229e-38 330 302
0.013519952 0.70099998 -0.076203369 1.8807187e-38 331 302
0.014727999 0.69999999 -0.076094657 1.8532744e-38 332 302
0.015955333 0.69999999 -0.076094657 1.8532744e-38 333 302
0.017182667 0.69999999 -0.076094657 1.8900792e-38 334 302
0.018409999 0.69999999 -0.076094657 1.788628e-38 335 302
0.019581227 0.69800001 -0.075877249 1.650226e-38 336 302
0.020745439 0.69599998 -0.075659841 1.6040923e-38 337 302
0.021965759 0.69599998 -0.075659841 1.5213686e-38 338 302
0.023186078 0.69599998 -0.075659841 1.4844902e-38 339 302
0.024336265 0.69400001 -0.075442426 1.4015143e-38 340 302
0.025553079 0.69400001 -0.075442426 1.3000991e-38 341 302
0.026769891 0.69400001 -0.075442426 1.2359218e-38 342 302
0.027986705 0.69400001 -0.075442426 1.2912392e-38 343 302
0.029203519 0.69400001 -0.075442426 1.5304805e-38 344 302
0.030420333 0.69400001 -0.075442426 1.6318959e-38 345 302
0.011045999 0.69999999 -0.077321991 1.4288167e-38 329 303
0.012273333 0.69999999 -0.077321991 1.5210128e-38 330 303
0.013500666 0.69999999 -0.077321991 1.6132443e-38 331 303
0.014749039 0.70099998 -0.077432454 1.6501942e-38 332 303
0.015955333 0.69999999 -0.077321991 1.6686333e-38 333 303
0.017182667 0.69999999 -0.077321991 1.6779232e-38 334 303
0.018409999 0.69999999 -0.077321991 1.6318614e-38 335 303
0.019581227 0.69800001 -0.077101074 1.5946587e-38 336 303
0.020775247 0.69700003 -0.076990619 1.5116468e-38 337 303
0.021965759 0.69599998 -0.076880157 1.3922609e-38 338 303
0.023186078 0.69599998 -0.076880157 1.327724e-38 339 303
0.024336265 0.69400001 -0.07665924 1.3644232e-38 340 303
0.025553079 0.69400001 -0.07665924 1.2906667e-38 341 303
0.02673132 0.69300002 -0.076548778 1.253968e-38 342 303
0.027946379 0.69300002 -0.076548778 1.3277245e-38 343 303
0.029203519 0.69400001 -0.07665924 1.4935326e-38 344 303
0.011045999 0.69999999 -0.078549333 1.4376388e-38 329 304
0.012273333 0.69999999 -0.078549333 1.3364403e-38 330 304
0.013500666 0.69999999 -0.078549333 1.3825382e-38 331 304
0.014749039 0.70099998 -0.078661539 1.4011943e-38 332 304
0.015955333 0.69999999 -0.078549333 1.4472563e-38 333 304
0.017182667 0.69999999 -0.078549333 1.3920817e-38 334 304
0.018409999 0.69999999 -0.078549333 1.4381797e-38 335 304
0.019581227 0.69800001 -0.078324907 1.834115e-38 336 304
0.020775247 0.69700003 -0.078212693 1.8156759e-38 337 304
0.021965759 0.69599998 -0.078100473 1.6955692e-38 338 304
0.023186078 0.69599998 -0.078100473 1.4282019e-38 339 304
0.024336265 0.69400001 -0.077876054 1.3087448e-38 340 304
0.025553079 0.69400001 -0.077876054 1.345587e-38 341 304
0.02673132 0.69300002 -0.077763841 1.2812669e-38 342 304
0.027946379 0.69300002 -0.077763841 1.3458038e-38 343 304
