# .PCD v.7 - Point Cloud Data file format
FIELDS x y z rgb imX imY
SIZE 4 4 4 4 4 4
TYPE F F F F F F
COUNT 1 1 1 1 1 1
WIDTH 857
HEIGHT 1
VIEWPOINT 0 0 0 1 0 0 0
POINTS 857
DATA ascii
0.0010888199 0.62099999 0.089283235 1.9271408e-38 321 158
0.0021776399 0.62099999 0.089283235 1.9361428e-38 322 158
0.0032611999 0.62 0.089139462 1.9177397e-38 323 158
0.0043482664 0.62 0.089139462 1.9820603e-38 324 158
0.0054265666 0.61900002 0.088995695 1.9820603e-38 325 158
0.0065118801 0.61900002 0.088995695 1.9911718e-38 326 158
0.0075971936 0.61900002 0.088995695 2.0003915e-38 327 158
0.0086825071 0.61900002 0.088995695 2.0004634e-38 328 158
0.0097520389 0.61799997 0.088851914 2.0004634e-38 329 158
0.010835599 0.61799997 0.088851914 1.9820603e-38 330 158
0.011880586 0.616 0.088564374 1.9820603e-38 331 158
0.01296064 0.616 0.088564374 1.9820603e-38 332 158
0.014086278 0.61799997 0.088851914 1.9820603e-38 333 158
0.015169838 0.61799997 0.088851914 1.9728768e-38 334 158
0.016253399 0.61799997 0.088851914 1.9728768e-38 335 158
0.017336959 0.61799997 0.088851914 1.9636571e-38 336 158
0.018420519 0.61799997 0.088851914 1.9636571e-38 337 158
0.01953564 0.61900002 0.088995695 1.9636208e-38 338 158
0.020620953 0.61900002 0.088995695 1.9636208e-38 339 158
0.021706266 0.61900002 0.088995695 1.9728047e-38 340 158
0.0228284 0.62 0.089139462 1.9728047e-38 341 158
0.023876892 0.61900002 0.088995695 1.926636e-38 342 158
0.024962207 0.61900002 0.088995695 1.8160371e-38 343 158
0.026089599 0.62 0.089139462 1.6784293e-38 344 158
0.027220499 0.62099999 0.089283235 1.7245272e-38 345 158
0 0.62099999 0.088194415 1.9826752e-38 320 159
0.0010870666 0.62 0.088052399 1.9918948e-38 321 159
0.0021741332 0.62 0.088052399 2.0101164e-38 322 159
0.00325594 0.61900002 0.087910376 1.9824579e-38 323 159
0.0043412535 0.61900002 0.087910376 2.028267e-38 324 159
0.0054265666 0.61900002 0.087910376 2.0006082e-38 325 159
0.0065013594 0.61799997 0.087768354 1.9913164e-38 326 159
0.0075849192 0.61799997 0.087768354 1.9913164e-38 327 159
0.0086684795 0.61799997 0.087768354 1.9913162e-38 328 159
0.0097204801 0.616 0.087484315 1.9913162e-38 329 159
0.010800533 0.616 0.087484315 1.9820966e-38 330 159
0.0118613 0.61500001 0.0873423 1.972877e-38 331 159
0.012939599 0.61500001 0.0873423 1.9820966e-38 332 159
0.014040694 0.616 0.087484315 1.9820966e-38 333 159
0.015169838 0.61799997 0.087768354 1.9637651e-38 334 159
0.016253399 0.61799997 0.087768354 1.9637651e-38 335 159
0.017336959 0.61799997 0.087768354 1.9637651e-38 336 159
0.018420519 0.61799997 0.087768354 1.9637651e-38 337 159
0.019504078 0.61799997 0.087768354 2.0004634e-38 338 159
0.020587638 0.61799997 0.087768354 2.0004634e-38 339 159
0.021706266 0.61900002 0.087910376 1.945146e-38 340 159
0.022791579 0.61900002 0.087910376 1.8898287e-38 341 159
0.023876892 0.61900002 0.087910376 1.7333852e-38 342 159
0.024962207 0.61900002 0.087910376 1.6411894e-38 343 159
0.02604752 0.61900002 0.087910376 1.5681186e-38 344 159
0.027220499 0.62099999 0.088194415 1.6603142e-38 345 159
-0.0010888199 0.62099999 0.087105595 1.8079015e-38 319 160
0 0.62099999 0.087105595 1.8264834e-38 320 160
0.0010870666 0.62 0.08696533 1.8725812e-38 321 160
0.0021741332 0.62 0.08696533 1.9827471e-38 322 160
0.00325594 0.61900002 0.086825065 1.9643081e-38 323 160
0.0043412535 0.61900002 0.086825065 1.9917133e-38 324 160
0.0054177996 0.61799997 0.086684793 1.9824579e-38 325 160
0.0064803199 0.616 0.086404264 1.9730937e-38 326 160
0.0075603728 0.616 0.086404264 1.9823132e-38 327 160
0.0086404262 0.616 0.086404264 2.0006445e-38 328 160
0.0097046997 0.61500001 0.086263999 1.9822414e-38 329 160
0.010783 0.61500001 0.086263999 1.9913883e-38 330 160
0.011842013 0.61400002 0.086123735 1.9913883e-38 331 160
0.01291856 0.61400002 0.086123735 2.0005713e-38 332 160
0.0140179 0.61500001 0.086263999 2.0005713e-38 333 160
0.015096201 0.61500001 0.086263999 1.9821685e-38 334 160
0.016174501 0.61500001 0.086263999 1.9545458e-38 335 160
0.017252799 0.61500001 0.086263999 1.9545827e-38 336 160
0.018360905 0.616 0.086404264 1.9177044e-38 337 160
0.019504078 0.61799997 0.086684793 1.9085921e-38 338 160
0.020587638 0.61799997 0.086684793 1.8624944e-38 339 160
0.021671198 0.61799997 0.086684793 1.8440551e-38 340 160
0.022754759 0.61799997 0.086684793 1.7426401e-38 341 160
0.023838319 0.61799997 0.086684793 1.6228948e-38 342 160
0.024921879 0.61799997 0.086684793 1.5399547e-38 343 160
0.02604752 0.61900002 0.086825065 1.5679744e-38 344 160
-0.0010888199 0.62099999 0.086016774 1.7802429e-38 319 161
0 0.62 0.08587826 1.7253569e-38 320 161
0.0010853134 0.61900002 0.085739754 1.743832e-38 321 161
0.0021706268 0.61900002 0.085739754 1.835703e-38 322 161
0.0032506797 0.61799997 0.085601233 1.8633256e-38 323 161
0.0043342398 0.61799997 0.085601233 1.97342e-38 324 161
0.0054002665 0.616 0.085324213 1.9826396e-38 325 161
0.0064697997 0.61500001 0.085185699 2.0194093e-38 326 161
0.0075481003 0.61500001 0.085185699 2.0194093e-38 327 161
0.0086263996 0.61500001 0.085185699 2.019409e-38 328 161
0.0097046997 0.61500001 0.085185699 2.0101894e-38 329 161
0.010783 0.61500001 0.085185699 1.9916777e-38 330 161
0.011842013 0.61400002 0.085047185 1.9916777e-38 331 161
0.01291856 0.61400002 0.085047185 2.0100445e-38 332 161
0.013995107 0.61400002 0.085047185 1.9639468e-38 333 161
0.015096201 0.61500001 0.085185699 1.9455076e-38 334 161
0.016174501 0.61500001 0.085185699 1.917813e-38 335 161
0.017252799 0.61500001 0.085185699 1.8626038e-38 336 161
0.018360905 0.616 0.085324213 1.7980669e-38 337 161
0.01944096 0.616 0.085324213 1.7887028e-38 338 161
0.020587638 0.61799997 0.085601233 1.7241659e-38 339 161
0.021671198 0.61799997 0.085601233 1.6324742e-38 340 161
0.022754759 0.61799997 0.085601233 1.5402784e-38 341 161
0.023838319 0.61799997 0.085601233 1.5492829e-38 342 161
0.024921879 0.61799997 0.085601233 1.5216601e-38 343 161
0.026005438 0.61799997 0.085601233 1.5861617e-38 344 161
-0.0010888199 0.62099999 0.084927954 1.7433651e-38 319 162
0 0.62 0.084791198 1.7343972e-38 320 162
0.0010853134 0.61900002 0.084654443 1.7436168e-38 321 162
0.0021706268 0.61900002 0.084654443 1.7711673e-38 322 162
0.0032506797 0.61799997 0.084517673 1.7896424e-38 323 162
0.0043202131 0.616 0.084244154 1.8355597e-38 324 162
0.0054002665 0.616 0.084244154 1.8539989e-38 325 162
0.0064697997 0.61500001 0.084107399 1.9090279e-38 326 162
0.0075481003 0.61500001 0.084107399 1.9090279e-38 327 162
0.0086263996 0.61500001 0.084107399 1.8814765e-38 328 162
0.0096889194 0.61400002 0.083970644 1.8999155e-38 329 162
0.010765467 0.61400002 0.083970644 1.8906235e-38 330 162
0.011842013 0.61400002 0.083970644 1.8721842e-38 331 162
0.01291856 0.61400002 0.083970644 1.8720402e-38 332 162
0.013995107 0.61400002 0.083970644 1.8351618e-38 333 162
0.015071654 0.61400002 0.083970644 1.7982837e-38 334 162
0.016174501 0.61500001 0.084107399 1.7890641e-38 335 162
0.017252799 0.61500001 0.084107399 1.7705529e-38 336 162
0.018331099 0.61500001 0.084107399 1.7152356e-38 337 162
0.01944096 0.616 0.084244154 1.6782851e-38 338 162
0.020521011 0.616 0.084244154 1.6413709e-38 339 162
0.021671198 0.61799997 0.084517673 1.6229678e-38 340 162
0.022681119 0.616 0.084244154 1.5952731e-38 341 162
0.023761172 0.616 0.084244154 1.5585027e-38 342 162
0.024921879 0.61799997 0.084517673 1.5216245e-38 343 162
0.026005438 0.61799997 0.084517673 1.6045649e-38 344 162
-0.0010888199 0.62099999 0.083839133 1.7433651e-38 319 163
0 0.62099999 0.083839133 1.725142e-38 320 163
0.0010870666 0.62 0.083704136 1.725142e-38 321 163
0.0021706268 0.61900002 0.083569124 1.725142e-38 322 163
0.0032506797 0.61799997 0.083434112 1.7159225e-38 323 163
0.0043202131 0.616 0.083164103 1.6882991e-38 324 163
0.0054002665 0.616 0.083164103 1.6975188e-38 325 163
0.0064697997 0.61500001 0.083029099 1.7342169e-38 326 163
0.0075481003 0.61500001 0.083029099 1.7342169e-38 327 163
0.0086263996 0.61500001 0.083029099 1.7342169e-38 328 163
0.0096889194 0.61400002 0.082894087 1.7342169e-38 329 163
0.010765467 0.61400002 0.082894087 1.7524761e-38 330 163
0.011842013 0.61400002 0.082894087 1.7248534e-38 331 163
0.01291856 0.61400002 0.082894087 1.7063774e-38 332 163
0.013995107 0.61400002 0.082894087 1.6787186e-38 333 163
0.015071654 0.61400002 0.082894087 1.6602789e-38 334 163
0.0161482 0.61400002 0.082894087 1.6326561e-38 335 163
0.017224746 0.61400002 0.082894087 1.6508072e-38 336 163
0.018331099 0.61500001 0.083029099 1.6231845e-38 337 163
0.019409399 0.61500001 0.083029099 1.5771583e-38 338 163
0.020521011 0.616 0.083164103 1.5310964e-38 339 163
0.021601066 0.616 0.083164103 1.5769421e-38 340 163
0.0226443 0.61500001 0.083029099 1.5677226e-38 341 163
0.0237226 0.61500001 0.083029099 1.5768339e-38 342 163
0.024921879 0.61799997 0.083434112 1.5399916e-38 343 163
0.026005438 0.61799997 0.083434112 1.6044929e-38 344 163
-0.0010905733 0.62199998 0.082883567 1.7434014e-38 319 164
0 0.62099999 0.082750313 1.7342897e-38 320 164
0.0010870666 0.62 0.082617059 1.7435093e-38 321 164
0.0021706268 0.61900002 0.082483813 1.7343616e-38 322 164
0.0032506797 0.61799997 0.082350552 1.725142e-38 323 164
0.0043342398 0.61799997 0.082350552 1.7158503e-38 324 164
0.0054002665 0.616 0.082084045 1.7066306e-38 325 164
0.0064697997 0.61500001 0.081950799 1.715706e-38 326 164
0.0075481003 0.61500001 0.081950799 1.715706e-38 327 164
0.0086263996 0.61500001 0.081950799 1.6973389e-38 328 164
0.0096889194 0.61400002 0.081817545 1.6881193e-38 329 164
0.010765467 0.61400002 0.081817545 1.6696446e-38 330 164
0.011842013 0.61400002 0.081817545 1.6696446e-38 331 164
0.01291856 0.61400002 0.081817545 1.6604239e-38 332 164
0.013995107 0.61400002 0.081817545 1.6419489e-38 333 164
0.015071654 0.61400002 0.081817545 1.6326925e-38 334 164
0.0161482 0.61400002 0.081817545 1.6050697e-38 335 164
0.017224746 0.61400002 0.081817545 1.6324763e-38 336 164
0.018331099 0.61500001 0.081950799 1.6232208e-38 337 164
0.019409399 0.61500001 0.081950799 1.6047094e-38 338 164
0.020521011 0.616 0.082084045 1.5678672e-38 339 164
0.021601066 0.616 0.082084045 1.5952736e-38 340 164
0.0226443 0.61500001 0.081950799 1.5952736e-38 341 164
0.0237226 0.61500001 0.081950799 1.5584308e-38 342 164
0.024921879 0.61799997 0.082350552 1.5215166e-38 343 164
0.026005438 0.61799997 0.082350552 1.5769065e-38 344 164
-0.0010905733 0.62199998 0.081792995 1.7618761e-38 319 165
0 0.62099999 0.0816615 1.7435812e-38 320 165
0.0010870666 0.62 0.081529997 1.7343616e-38 321 165
0.0021706268 0.61900002 0.081398502 1.7435449e-38 322 165
0.00325594 0.61900002 0.081398502 1.7343253e-38 323 165
0.0043342398 0.61799997 0.081266992 1.7341815e-38 324 165
0.0054002665 0.616 0.081004001 1.7065587e-38 325 165
0.0064697997 0.61500001 0.080872498 1.6973392e-38 326 165
0.0075481003 0.61500001 0.080872498 1.6881196e-38 327 165
0.0086263996 0.61500001 0.080872498 1.6881196e-38 328 165
0.0096889194 0.61400002 0.080741003 1.6789e-38 329 165
0.010765467 0.61400002 0.080741003 1.6512767e-38 330 165
0.011842013 0.61400002 0.080741003 1.6512767e-38 331 165
0.01291856 0.61400002 0.080741003 1.6512041e-38 332 165
0.013995107 0.61400002 0.080741003 1.6419845e-38 333 165
0.015071654 0.61400002 0.080741003 1.6234731e-38 334 165
0.016174501 0.61500001 0.080872498 1.5958145e-38 335 165
0.017252799 0.61500001 0.080872498 1.6141092e-38 336 165
0.018331099 0.61500001 0.080872498 1.5956701e-38 337 165
0.019409399 0.61500001 0.080872498 1.6230762e-38 338 165
0.020521011 0.616 0.081004001 1.586234e-38 339 165
0.021671198 0.61799997 0.081266992 1.6044929e-38 340 165
0.022681119 0.616 0.081004001 1.5860538e-38 341 165
0.023761172 0.616 0.081004001 1.5491757e-38 342 165
0.024921879 0.61799997 0.081266992 1.5215168e-38 343 165
0.026005438 0.61799997 0.081266992 1.5861268e-38 344 165
-0.0010888199 0.62099999 0.080572672 1.7248902e-38 319 166
0 0.62099999 0.080572672 1.725142e-38 320 166
0.0010870666 0.62 0.080442935 1.7343616e-38 321 166
0.0021706268 0.61900002 0.080313183 1.7709878e-38 322 166
0.00325594 0.61900002 0.080313183 1.7525847e-38 323 166
0.0043342398 0.61799997 0.080183432 1.7158503e-38 324 166
0.0054002665 0.616 0.079923943 1.7066306e-38 325 166
0.0064697997 0.61500001 0.079794198 1.7064508e-38 326 166
0.0075481003 0.61500001 0.079794198 1.7064508e-38 327 166
0.0086263996 0.61500001 0.079794198 1.6880477e-38 328 166
0.0096889194 0.61400002 0.079664454 1.6880477e-38 329 166
0.010765467 0.61400002 0.079664454 1.6696799e-38 330 166
0.011842013 0.61400002 0.079664454 1.6512767e-38 331 166
0.01291856 0.61400002 0.079664454 1.6419489e-38 332 166
0.013995107 0.61400002 0.079664454 1.6143262e-38 333 166
0.015071654 0.61400002 0.079664454 1.614326e-38 334 166
0.016174501 0.61500001 0.079794198 1.5958867e-38 335 166
0.017252799 0.61500001 0.079794198 1.6049618e-38 336 166
0.018360905 0.616 0.079923943 1.5773032e-38 337 166
0.01944096 0.616 0.079923943 1.6046378e-38 338 166
0.020587638 0.61799997 0.080183432 1.5861987e-38 339 166
0.021671198 0.61799997 0.080183432 1.5860182e-38 340 166
0.022754759 0.61799997 0.080183432 1.5767986e-38 341 166
0.023838319 0.61799997 0.080183432 1.5674709e-38 342 166
0.024921879 0.61799997 0.080183432 1.5397762e-38 343 166
0.026005438 0.61799997 0.080183432 1.6136776e-38 344 166
-0.0010888199 0.62099999 0.079483859 1.6696084e-38 319 167
0 0.62099999 0.079483859 1.6881562e-38 320 167
0.0010870666 0.62 0.079355866 1.715815e-38 321 167
0.0021741332 0.62 0.079355866 1.7159225e-38 322 167
0.00325594 0.61900002 0.079227872 1.6975194e-38 323 167
0.0043412535 0.61900002 0.079227872 1.7433651e-38 324 167
0.0054177996 0.61799997 0.079099871 1.7248899e-38 325 167
0.0064697997 0.61500001 0.078715898 1.7248181e-38 326 167
0.0075481003 0.61500001 0.078715898 1.7063789e-38 327 167
0.0086263996 0.61500001 0.078715898 1.6788998e-38 328 167
0.0096889194 0.61400002 0.078587912 1.6788998e-38 329 167
0.010765467 0.61400002 0.078587912 1.6879747e-38 330 167
0.011842013 0.61400002 0.078587912 1.6695716e-38 331 167
0.01291856 0.61400002 0.078587912 1.6511322e-38 332 167
0.013995107 0.61400002 0.078587912 1.6419126e-38 333 167
0.015071654 0.61400002 0.078587912 1.6234731e-38 334 167
0.016174501 0.61500001 0.078715898 1.5958145e-38 335 167
0.017252799 0.61500001 0.078715898 1.6324763e-38 336 167
0.018360905 0.616 0.078843892 1.6140013e-38 337 167
0.01944096 0.616 0.078843892 1.6322239e-38 338 167
0.020587638 0.61799997 0.079099871 1.5861621e-38 339 167
0.021671198 0.61799997 0.079099871 1.6135327e-38 340 167
0.022791579 0.61900002 0.079227872 1.5950936e-38 341 167
0.023876892 0.61900002 0.079227872 1.5490313e-38 342 167
0.024962207 0.61900002 0.079227872 1.5029337e-38 343 167
0.02604752 0.61900002 0.079227872 1.6044577e-38 344 167
-0.0010888199 0.62099999 0.078395031 1.6880474e-38 319 168
0 0.62099999 0.078395031 1.7064511e-38 320 168
0.0010870666 0.62 0.078268796 1.7156707e-38 321 168
0.0021741332 0.62 0.078268796 1.7066306e-38 322 168
0.00325594 0.61900002 0.078142561 1.7066306e-38 323 168
0.0043412535 0.61900002 0.078142561 1.7065587e-38 324 168
0.0054265666 0.61900002 0.078142561 1.6881196e-38 325 168
0.0064803199 0.616 0.077763841 1.6880477e-38 326 168
0.0075603728 0.616 0.077763841 1.6788281e-38 327 168
0.0086263996 0.61500001 0.077637598 1.6696446e-38 328 168
0.0096889194 0.61400002 0.077511355 1.6696446e-38 329 168
0.010765467 0.61400002 0.077511355 1.669536e-38 330 168
0.011842013 0.61400002 0.077511355 1.669536e-38 331 168
0.01291856 0.61400002 0.077511355 1.641877e-38 332 168
0.013995107 0.61400002 0.077511355 1.6326575e-38 333 168
0.015071654 0.61400002 0.077511355 1.6050341e-38 334 168
0.016174501 0.61500001 0.077637598 1.5958145e-38 335 168
0.017252799 0.61500001 0.077637598 1.6048896e-38 336 168
0.018360905 0.616 0.077763841 1.5772308e-38 337 168
0.019504078 0.61799997 0.078016311 1.5954536e-38 338 168
0.020587638 0.61799997 0.078016311 1.5585393e-38 339 168
0.021706266 0.61900002 0.078142561 1.5767267e-38 340 168
0.022791579 0.61900002 0.078142561 1.5582876e-38 341 168
0.023876892 0.61900002 0.078142561 1.5397762e-38 342 168
0.024962207 0.61900002 0.078142561 1.5121535e-38 343 168
0.02604752 0.61900002 0.078142561 1.5861265e-38 344 168
0.027264331 0.62199998 0.078521274 1.7152003e-38 345 168
0 0.62099999 0.077306218 1.6788644e-38 320 169
0.0010870666 0.62 0.077181734 1.6788644e-38 321 169
0.0021741332 0.62 0.077181734 1.688084e-38 322 169
0.00325594 0.61900002 0.07705725 1.688084e-38 323 169
0.0043412535 0.61900002 0.07705725 1.6788644e-38 324 169
0.0054265666 0.61900002 0.07705725 1.6788644e-38 325 169
0.0065013594 0.61799997 0.076932758 1.6696449e-38 326 169
0.0075603728 0.616 0.076683782 1.6420221e-38 327 169
0.0086404262 0.616 0.076683782 1.6420221e-38 328 169
0.0097046997 0.61500001 0.076559298 1.6420221e-38 329 169
0.010783 0.61500001 0.076559298 1.651169e-38 330 169
0.0118613 0.61500001 0.076559298 1.6235105e-38 331 169
0.01291856 0.61400002 0.076434813 1.6234378e-38 332 169
0.013995107 0.61400002 0.076434813 1.6050346e-38 333 169
0.015096201 0.61500001 0.076559298 1.614146e-38 334 169
0.016253399 0.61799997 0.076932758 1.5957069e-38 335 169
0.017336959 0.61799997 0.076932758 1.5955983e-38 336 169
0.018420519 0.61799997 0.076932758 1.5679037e-38 337 169
0.019504078 0.61799997 0.076932758 1.5677588e-38 338 169
0.020620953 0.61900002 0.07705725 1.5401362e-38 339 169
0.021706266 0.61900002 0.07705725 1.5859819e-38 340 169
0.0228284 0.62 0.077181734 1.5582873e-38 341 169
0.023876892 0.61900002 0.07705725 1.5398841e-38 342 169
0.024962207 0.61900002 0.07705725 1.521445e-38 343 169
0.02604752 0.61900002 0.07705725 1.586234e-38 344 169
0.027264331 0.62199998 0.077430703 1.715272e-38 345 169
0 0.62099999 0.076217398 1.6788647e-38 320 170
0.0010888199 0.62099999 0.076217398 1.6788647e-38 321 170
0.0021741332 0.62 0.076094665 1.6788647e-38 322 170
0.0032611999 0.62 0.076094665 1.6512419e-38 323 170
0.0043482664 0.62 0.076094665 1.6512416e-38 324 170
0.0054265666 0.61900002 0.075971931 1.6512416e-38 325 170
0.0065118801 0.61900002 0.075971931 1.660353e-38 326 170
0.0075849192 0.61799997 0.075849198 1.660353e-38 327 170
0.0086684795 0.61799997 0.075849198 1.660353e-38 328 170
0.0097204801 0.616 0.075603731 1.660353e-38 329 170
0.010800533 0.616 0.075603731 1.651169e-38 330 170
0.011880586 0.616 0.075603731 1.6142909e-38 331 170
0.01296064 0.616 0.075603731 1.5958151e-38 332 170
0.014040694 0.616 0.075603731 1.5865597e-38 333 170
0.015169838 0.61799997 0.075849198 1.6048543e-38 334 170
0.016253399 0.61799997 0.075849198 1.5771955e-38 335 170
0.017365014 0.61900002 0.075971931 1.5954901e-38 336 170
0.018450327 0.61900002 0.075971931 1.558612e-38 337 170
0.01953564 0.61900002 0.075971931 1.5585393e-38 338 170
0.020654265 0.62 0.076094665 1.5309166e-38 339 170
0.021741332 0.62 0.076094665 1.5859816e-38 340 170
0.022865219 0.62099999 0.076217398 1.5767621e-38 341 170
0.023954039 0.62099999 0.076217398 1.5399197e-38 342 170
0.02504286 0.62099999 0.076217398 1.5214447e-38 343 170
0.02621584 0.62300003 0.076462865 1.5677588e-38 344 170
0.027308168 0.62300003 0.076462865 1.6968327e-38 345 170
0 0.62400001 0.075491518 1.6788644e-38 320 171
0.00109408 0.62400001 0.075491518 1.688084e-38 321 171
0.0021811465 0.62199998 0.075249553 1.6697531e-38 322 171
0.0032664598 0.62099999 0.075128578 1.6973757e-38 323 171
0.0043482664 0.62 0.075007595 1.6606051e-38 324 171
0.0054353331 0.62 0.075007595 1.6237627e-38 325 171
0.0065118801 0.61900002 0.07488662 1.6420218e-38 326 171
0.0075971936 0.61900002 0.07488662 1.6420218e-38 327 171
0.0086825071 0.61900002 0.07488662 1.6511334e-38 328 171
0.0097678201 0.61900002 0.07488662 1.6419139e-38 329 171
0.010835599 0.61799997 0.074765638 1.6143631e-38 330 171
0.011919159 0.61799997 0.074765638 1.6051077e-38 331 171
0.013002719 0.61799997 0.074765638 1.5866318e-38 332 171
0.014086278 0.61799997 0.074765638 1.5774123e-38 333 171
0.015169838 0.61799997 0.074765638 1.5957069e-38 334 171
0.016279699 0.61900002 0.07488662 1.5680482e-38 335 171
0.017365014 0.61900002 0.07488662 1.5954545e-38 336 171
0.018450327 0.61900002 0.07488662 1.5678319e-38 337 171
0.01953564 0.61900002 0.07488662 1.5769065e-38 338 171
0.020654265 0.62 0.075007595 1.5584674e-38 339 171
0.021776399 0.62099999 0.075128578 1.5767621e-38 340 171
0.022865219 0.62099999 0.075128578 1.5675425e-38 341 171
0.023992613 0.62199998 0.075249553 1.5582509e-38 342 171
0.025083186 0.62199998 0.075249553 1.5121532e-38 343 171
0.02621584 0.62300003 0.075370543 1.5217336e-38 344 171
0.027308168 0.62300003 0.075370543 1.623149e-38 345 171
0 0.625 0.074516661 1.6605332e-38 320 172
0.0010958333 0.625 0.074516661 1.6697528e-38 321 172
0.0021846534 0.62300003 0.074278213 1.6514934e-38 322 172
0.0032717197 0.62199998 0.074158981 1.6791161e-38 323 172
0.0043552797 0.62099999 0.074039757 1.6791517e-38 324 172
0.0054353331 0.62 0.073920533 1.633054e-38 325 172
0.0065118801 0.61900002 0.073801309 1.6605685e-38 326 172
0.0075971936 0.61900002 0.073801309 1.6421293e-38 327 172
0.0086825071 0.61900002 0.073801309 1.6695363e-38 328 172
0.0097678201 0.61900002 0.073801309 1.6603167e-38 329 172
0.010853133 0.61900002 0.073801309 1.623618e-38 330 172
0.011938446 0.61900002 0.073801309 1.6143625e-38 331 172
0.013002719 0.61799997 0.073682077 1.6326208e-38 332 172
0.014086278 0.61799997 0.073682077 1.6234012e-38 333 172
0.015169838 0.61799997 0.073682077 1.6141092e-38 334 172
0.016279699 0.61900002 0.073801309 1.6048896e-38 335 172
0.017393066 0.62 0.073920533 1.5956703e-38 336 172
0.018480133 0.62 0.073920533 1.5679756e-38 337 172
0.019567199 0.62 0.073920533 1.586234e-38 338 172
0.020687578 0.62099999 0.074039757 1.5585393e-38 339 172
0.021776399 0.62099999 0.074039757 1.6043128e-38 340 172
0.022902038 0.62199998 0.074158981 1.5674705e-38 341 172
0.023992613 0.62199998 0.074158981 1.5765468e-38 342 172
0.025123514 0.62300003 0.074278213 1.5304491e-38 343 172
0.02621584 0.62300003 0.074278213 1.4755642e-38 344 172
0.027308168 0.62300003 0.074278213 1.5861631e-38 345 172
0 0.625 0.07342083 1.7250348e-38 320 173
0.0010958333 0.625 0.07342083 1.6604979e-38 321 173
0.0021846534 0.62300003 0.073185883 1.6697894e-38 322 173
0.0032717197 0.62199998 0.07306841 1.6697894e-38 323 173
0.0043552797 0.62099999 0.072950937 1.6514934e-38 324 173
0.0054353331 0.62 0.072833464 1.6514934e-38 325 173
0.0065223998 0.62 0.072833464 1.6697528e-38 326 173
0.0075971936 0.61900002 0.07271599 1.6513137e-38 327 173
0.0086825071 0.61900002 0.07271599 1.6881196e-38 328 173
0.0097678201 0.61900002 0.07271599 1.6881196e-38 329 173
0.010853133 0.61900002 0.07271599 1.6696435e-38 330 173
0.011938446 0.61900002 0.07271599 1.6511685e-38 331 173
0.01302376 0.61900002 0.07271599 1.6235455e-38 332 173
0.014109073 0.61900002 0.07271599 1.5958867e-38 333 173
0.015194387 0.61900002 0.07271599 1.5958145e-38 334 173
0.016306 0.62 0.072833464 1.5773754e-38 335 173
0.017393066 0.62 0.072833464 1.5589356e-38 336 173
0.018480133 0.62 0.072833464 1.5220933e-38 337 173
0.019567199 0.62 0.072833464 1.5586473e-38 338 173
0.020687578 0.62099999 0.072950937 1.5494276e-38 339 173
0.021811465 0.62199998 0.07306841 1.5767623e-38 340 173
0.022902038 0.62199998 0.07306841 1.5767623e-38 341 173
0.024031186 0.62300003 0.073185883 1.5582873e-38 342 173
0.025123514 0.62300003 0.073185883 1.5398841e-38 343 173
0.02621584 0.62300003 0.073185883 1.4570526e-38 344 173
0.027308168 0.62300003 0.073185883 1.4847112e-38 345 173
0.0010958333 0.625 0.072324999 1.6883013e-38 321 174
0.0021881601 0.62400001 0.072209284 1.6606777e-38 322 174
0.0032717197 0.62199998 0.071977831 1.6514581e-38 323 174
0.0043622931 0.62199998 0.071977831 1.6698603e-38 324 174
0.0054440997 0.62099999 0.071862116 1.6698603e-38 325 174
0.0065329196 0.62099999 0.071862116 1.6881193e-38 326 174
0.0076094666 0.62 0.071746401 1.6881193e-38 327 174
0.0086965328 0.62 0.071746401 1.6881549e-38 328 174
0.0097993789 0.62099999 0.071862116 1.6788995e-38 329 174
0.010870666 0.62 0.071746401 1.6879744e-38 330 174
0.011957733 0.62 0.071746401 1.6603517e-38 331 174
0.0130448 0.62 0.071746401 1.6602792e-38 332 174
0.014131867 0.62 0.071746401 1.6418402e-38 333 174
0.015218933 0.62 0.071746401 1.6416958e-38 334 174
0.016332299 0.62099999 0.071862116 1.6232208e-38 335 174
0.017421119 0.62099999 0.071862116 1.5955977e-38 336 174
0.018509939 0.62099999 0.071862116 1.5679391e-38 337 174
0.019598758 0.62099999 0.071862116 1.6137845e-38 338 174
0.020720892 0.62199998 0.071977831 1.5861617e-38 339 174
0.021811465 0.62199998 0.071977831 1.6044566e-38 340 174
0.022938859 0.62300003 0.072093561 1.5952012e-38 341 174
0.024031186 0.62300003 0.072093561 1.5675069e-38 342 174
0.025163841 0.62400001 0.072209284 1.4937504e-38 343 174
0.02621584 0.62300003 0.072093561 1.3098629e-38 344 174
0.027308168 0.62300003 0.072093561 1.2914598e-38 345 174
0.0010993399 0.62699997 0.071457095 1.6791894e-38 321 175
0.0021916665 0.625 0.071229167 1.7711678e-38 322 175
0.00327698 0.62300003 0.071001239 1.7435093e-38 323 175
0.0043622931 0.62199998 0.070887268 1.725142e-38 324 175
0.0054528662 0.62199998 0.070887268 1.6975194e-38 325 175
0.0065434393 0.62199998 0.070887268 1.6882997e-38 326 175
0.00762174 0.62099999 0.070773296 1.6882997e-38 327 175
0.0087105595 0.62099999 0.070773296 1.6881912e-38 328 175
0.0097993789 0.62099999 0.070773296 1.6697881e-38 329 175
0.010888199 0.62099999 0.070773296 1.6696799e-38 330 175
0.011996306 0.62199998 0.070887268 1.6420571e-38 331 175
0.013065839 0.62099999 0.070773296 1.641877e-38 332 175
0.01415466 0.62099999 0.070773296 1.6234378e-38 333 175
0.01524348 0.62099999 0.070773296 1.6234009e-38 334 175
0.016332299 0.62099999 0.070773296 1.6049618e-38 335 175
0.017421119 0.62099999 0.070773296 1.6324763e-38 336 175
0.018509939 0.62099999 0.070773296 1.6140013e-38 337 175
0.019630319 0.62199998 0.070887268 1.6506989e-38 338 175
0.020720892 0.62199998 0.070887268 1.6506989e-38 339 175
0.021811465 0.62199998 0.070887268 1.6688135e-38 340 175
0.022938859 0.62300003 0.071001239 1.6042765e-38 341 175
0.02406976 0.62400001 0.071115203 1.4200288e-38 342 175
0.025163841 0.62400001 0.071115203 1.161881e-38 343 175
0.0263 0.625 0.071229167 9.5080287e-39 344 175
0.027483499 0.62699997 0.071457095 1.1997311e-38 345 175
0.0021986798 0.62699997 0.070357755 1.485506e-38 322 176
0.0054528662 0.62199998 0.069796689 1.6882641e-38 325 176
0.0065434393 0.62199998 0.069796689 1.7066309e-38 326 176
0.00762174 0.62099999 0.069684476 1.7158506e-38 327 176
0.0087105595 0.62099999 0.069684476 1.7434367e-38 328 176
0.0097993789 0.62099999 0.069684476 1.7158139e-38 329 176
0.010888199 0.62099999 0.069684476 1.706414e-38 330 176
0.011996306 0.62199998 0.069796689 1.6879747e-38 331 176
0.013086879 0.62199998 0.069796689 1.7062694e-38 332 176
0.014177452 0.62199998 0.069796689 1.6786467e-38 333 176
0.015268027 0.62199998 0.069796689 1.6785382e-38 334 176
0.016358599 0.62199998 0.069796689 1.6509154e-38 335 176
0.017449172 0.62199998 0.069796689 1.6691747e-38 336 176
0.018539745 0.62199998 0.069796689 1.6507356e-38 337 176
0.019630319 0.62199998 0.069796689 1.6504832e-38 338 176
0.020720892 0.62199998 0.069796689 1.5582876e-38 339 176
0.021846535 0.62300003 0.069908909 1.419885e-38 340 176
0.022938859 0.62300003 0.069908909 1.2170546e-38 341 176
0.024108332 0.625 0.070133328 9.3185956e-39 342 176
0.025204165 0.625 0.070133328 8.1200524e-39 343 176
0.0263 0.625 0.070133328 1.1532735e-38 344 176
0.027483499 0.62699997 0.070357755 1.4943974e-38 345 176
0.0065434393 0.62199998 0.06870611 1.6328022e-38 326 177
0.0076340134 0.62199998 0.06870611 1.6789e-38 327 177
0.0087245861 0.62199998 0.06870611 1.7616593e-38 328 177
0.0098151593 0.62199998 0.06870611 1.770879e-38 329 177
0.010905732 0.62199998 0.06870611 1.7707344e-38 330 177
0.011996306 0.62199998 0.06870611 1.7430398e-38 331 177
0.013086879 0.62199998 0.06870611 1.76137e-38 332 177
0.014177452 0.62199998 0.06870611 1.7429668e-38 333 177
0.015268027 0.62199998 0.06870611 1.715272e-38 334 177
0.016358599 0.62199998 0.06870611 1.6599905e-38 335 177
0.017449172 0.62199998 0.06870611 1.6413356e-38 336 177
0.018539745 0.62199998 0.06870611 1.5583955e-38 337 177
0.019661881 0.62300003 0.06881658 1.4844225e-38 338 177
0.020754207 0.62300003 0.06881658 1.2908117e-38 339 177
0.021846535 0.62300003 0.06881658 9.3167977e-39 340 177
0.022975679 0.62400001 0.068927035 7.7494706e-39 341 177
0.024108332 0.625 0.069037497 7.4750529e-39 342 177
0.025204165 0.625 0.069037497 9.7799422e-39 343 177
0.0263 0.625 0.069037497 1.5214818e-38 344 177
0.027483499 0.62699997 0.069258414 1.7980687e-38 345 177
0.0087386137 0.62300003 0.067724258 1.1626395e-38 328 178
0.0098151593 0.62199998 0.067615546 1.236396e-38 329 178
0.010905732 0.62199998 0.067615546 1.3098279e-38 330 178
0.011996306 0.62199998 0.067615546 1.2914248e-38 331 178
0.013086879 0.62199998 0.067615546 1.3188308e-38 332 178
0.014177452 0.62199998 0.067615546 1.2635493e-38 333 178
0.015268027 0.62199998 0.067615546 1.2356382e-38 334 178
0.016358599 0.62199998 0.067615546 1.1434426e-38 335 178
0.017477227 0.62300003 0.067724258 1.0327721e-38 336 178
0.018569553 0.62300003 0.067724258 9.1291792e-39 337 178
0.019661881 0.62300003 0.067724258 9.5851183e-39 338 178
0.020754207 0.62300003 0.067724258 8.9397489e-39 339 178
0.021846535 0.62300003 0.067724258 7.4786416e-39 340 178
0.022975679 0.62400001 0.067832954 8.5853493e-39 341 178
0.024108332 0.625 0.067941666 1.2632975e-38 342 178
0.025163841 0.62400001 0.067832954 1.5582876e-38 343 178
0.026257919 0.62400001 0.067832954 1.7243122e-38 344 178
0.011996306 0.62199998 0.066524968 9.1327974e-39 331 179
0.013086879 0.62199998 0.066524968 9.2231755e-39 332 179
0.014177452 0.62199998 0.066524968 8.6703619e-39 333 179
0.015268027 0.62199998 0.066524968 8.6689129e-39 334 179
0.016358599 0.62199998 0.066524968 6.7328047e-39 335 179
0.017477227 0.62300003 0.066631928 6.0892472e-39 336 179
0.018569553 0.62300003 0.066631928 6.0892472e-39 337 179
0.019661881 0.62300003 0.066631928 7.6511835e-39 338 179
0.020754207 0.62300003 0.066631928 8.6653354e-39 339 179
0.021881601 0.62400001 0.066738874 9.1352987e-39 340 179
0.023012498 0.625 0.066845834 1.1163603e-38 341 179
0.024031186 0.62300003 0.066631928 1.4659846e-38 342 179
0.025123514 0.62300003 0.066631928 1.7056934e-38 343 179
0.026257919 0.62400001 0.066738874 1.7059821e-38 344 179
0.014245833 0.625 0.065749995 1.1250037e-38 333 180
0.015341667 0.625 0.065749995 1.1619896e-38 334 180
0.016490098 0.62699997 0.065960392 1.2080514e-38 335 180
0.017589439 0.62699997 0.065960392 1.2725886e-38 336 180
0.018718587 0.62800002 0.066065602 1.3002833e-38 337 180
0.019788118 0.62699997 0.065960392 1.4014106e-38 338 180
0.020887459 0.62699997 0.065960392 1.4475082e-38 339 180
0.021986797 0.62699997 0.065960392 1.4477603e-38 340 180
0.023012498 0.625 0.065749995 1.4293214e-38 341 180
0.024031186 0.62300003 0.065539598 1.4936433e-38 342 180
0.025123514 0.62300003 0.065539598 1.5950585e-38 343 180
0.015439852 0.62900001 0.065067954 1.4016628e-38 334 181
0.016569 0.63 0.065171398 1.4201021e-38 335 181
0.017673599 0.63 0.065171398 1.4293569e-38 336 181
0.018748393 0.62900001 0.065067954 1.4293569e-38 337 181
0.019819681 0.62800002 0.064964511 1.4844222e-38 338 181
0.020920772 0.62800002 0.064964511 1.5028253e-38 339 181
0.022021867 0.62800002 0.064964511 1.484531e-38 340 181
0.023012498 0.625 0.064654164 1.484531e-38 341 181
0.02406976 0.62400001 0.06455072 1.5214818e-38 342 181
0.025163841 0.62400001 0.06455072 1.5860187e-38 343 181
0.0263 0.625 0.064654164 1.5493923e-38 344 181
0.016569 0.63 0.064066797 1.5861268e-38 335 182
0.017673599 0.63 0.064066797 1.5769068e-38 336 182
0.018778199 0.63 0.064066797 1.5492122e-38 337 182
0.019851239 0.62900001 0.063965112 1.5398841e-38 338 182
0.020920772 0.62800002 0.063863412 1.5306645e-38 339 182
0.022021867 0.62800002 0.063863412 1.5307367e-38 340 182
0.023122961 0.62800002 0.063863412 1.5491759e-38 341 182
0.024185479 0.62699997 0.063761711 1.5767989e-38 342 182
0.025204165 0.625 0.063558333 1.6137132e-38 343 182
0.0263 0.625 0.063558333 1.6046375e-38 344 182
0.017701652 0.63099998 0.063062139 1.5861631e-38 336 183
0.018778199 0.63 0.062962197 1.5861631e-38 337 183
0.0198828 0.63 0.062962197 1.5769788e-38 338 183
0.020954086 0.62900001 0.062862262 1.5677591e-38 339 183
0.022056932 0.62900001 0.062862262 1.5584321e-38 340 183
0.023122961 0.62800002 0.06276232 1.5769071e-38 341 183
0.024224052 0.62800002 0.06276232 1.5678674e-38 342 183
0.025284817 0.62699997 0.062662378 1.6047097e-38 343 183
0.026384158 0.62699997 0.062662378 1.595598e-38 344 183
0.018778199 0.63 0.061857596 1.6323691e-38 337 184
0.0198828 0.63 0.061857596 1.6415161e-38 338 184
0.020954086 0.62900001 0.061759409 1.6230409e-38 339 184
0.022056932 0.62900001 0.061759409 1.5862703e-38 340 184
0.023122961 0.62800002 0.061661225 1.6047094e-38 341 184
0.024224052 0.62800002 0.061661225 1.6322961e-38 342 184
0.025284817 0.62699997 0.061563037 1.6322961e-38 343 184
0.026384158 0.62699997 0.061563037 1.6231845e-38 344 184
0.0198828 0.63 0.060752999 1.6232208e-38 338 185
0.020987399 0.63 0.060752999 1.6140013e-38 339 185
0.022056932 0.62900001 0.060656566 1.6139648e-38 340 185
0.02315978 0.62900001 0.060656566 1.6324041e-38 341 185
0.024224052 0.62800002 0.060560133 1.6324041e-38 342 185
0.025325146 0.62800002 0.060560133 1.6324041e-38 343 185
0.0070483997 0.67000002 -0.012922067 1.3464172e-38 326 251
0.0081863133 0.667 -0.012864206 1.3187944e-38 327 251
0.0093557863 0.667 -0.012864206 1.3373411e-38 328 251
-0.015476674 0.67900002 -0.01428616 1.1807381e-38 307 252
-0.014265119 0.67799997 -0.014265119 1.0430872e-38 308 252
-0.013037786 0.676 -0.014223038 9.970254e-39 309 252
-0.011852534 0.676 -0.014223038 8.7731597e-39 310 252
0.0070168395 0.667 -0.014033679 1.0979549e-38 326 252
0.0081740404 0.66600001 -0.014012639 1.1347971e-38 327 252
0.0093417596 0.66600001 -0.014012639 1.180895e-38 328 252
0.040238999 0.67500001 -0.014202001 1.0331163e-38 354 252
0.041422497 0.67500001 -0.014202001 1.0238967e-38 355 252
0.042606 0.67500001 -0.014202001 1.1159525e-38 356 252
-0.016667187 0.67900002 -0.015476674 1.1807384e-38 306 253
-0.015453878 0.67799997 -0.015453878 1.1623352e-38 307 253
-0.014265119 0.67799997 -0.015453878 1.0157517e-38 308 253
-0.013037786 0.676 -0.015408293 9.7883739e-39 309 253
-0.011852534 0.676 -0.015408293 9.1451652e-39 310 253
-0.0106515 0.67500001 -0.0153855 8.7763883e-39 311 253
-0.0094679995 0.67500001 -0.0153855 8.0399233e-39 312 253
0.0023389466 0.667 -0.015203152 4.9042966e-39 322 253
0.0035031599 0.66600001 -0.01518036 5.0886893e-39 323 253
0.0046708798 0.66600001 -0.01518036 4.9961391e-39 324 253
0.0058385995 0.66600001 -0.01518036 4.8117478e-39 325 253
0.0070063197 0.66600001 -0.01518036 4.6284356e-39 326 253
0.0081740404 0.66600001 -0.01518036 5.089055e-39 327 253
0.009285653 0.662 -0.015089186 5.8266228e-39 328 253
0.01043058 0.66100001 -0.015066394 6.4719922e-39 329 253
0.011589534 0.66100001 -0.015066394 7.479317e-39 330 253
0.037703678 0.67199999 -0.01531712 9.5982695e-39 352 253
0.03888192 0.67199999 -0.01531712 1.0151443e-38 353 253
0.040179387 0.67400002 -0.015362706 1.0700294e-38 354 253
0.041422497 0.67500001 -0.0153855 1.0424067e-38 355 253
0.042606 0.67500001 -0.0153855 1.1527227e-38 356 253
-0.016667187 0.67900002 -0.016667187 1.1899214e-38 306 254
-0.015453878 0.67799997 -0.016642639 1.1714822e-38 307 254
-0.014265119 0.67799997 -0.016642639 1.0615609e-38 308 254
-0.013037786 0.676 -0.016593546 1.0523415e-38 309 254
-0.011852534 0.676 -0.016593546 9.5135834e-39 310 254
-0.0106515 0.67500001 -0.016569 9.2373595e-39 311 254
-0.0094679995 0.67500001 -0.016569 8.9614943e-39 312 254
0.0023389466 0.667 -0.016372627 4.9960844e-39 322 254
0.0035031599 0.66600001 -0.016348081 4.9038888e-39 323 254
0.0046708798 0.66600001 -0.016348081 4.8120645e-39 324 254
0.0058385995 0.66600001 -0.016348081 4.7198675e-39 325 254
0.0070063197 0.66600001 -0.016348081 4.5354762e-39 326 254
0.0081372196 0.66299999 -0.016274439 4.5354762e-39 327 254
0.009285653 0.662 -0.016249891 5.5489051e-39 328 254
0.01043058 0.66100001 -0.016225345 6.5630584e-39 329 254
0.011589534 0.66100001 -0.016225345 7.1126323e-39 330 254
0.012748486 0.66100001 -0.016225345 6.1910347e-39 331 254
0.01390744 0.66100001 -0.016225345 5.3627202e-39 332 254
0.015066394 0.66100001 -0.016225345 5.7315013e-39 333 254
0.032696161 0.66600001 -0.016348081 9.8720328e-39 348 254
0.03386388 0.66600001 -0.016348081 9.9645885e-39 349 254
0.035136797 0.66799998 -0.016397171 1.0424783e-38 350 254
0.036308024 0.66799998 -0.016397171 1.0332588e-38 351 254
0.037647571 0.671 -0.016470812 1.0609152e-38 352 254
0.03888192 0.67199999 -0.01649536 1.0701705e-38 353 254
0.040179387 0.67400002 -0.016544454 1.0792477e-38 354 254
0.041422497 0.67500001 -0.016569 1.0239303e-38 355 254
0.042606 0.67500001 -0.016569 1.1435031e-38 356 254
0.043854371 0.676 -0.016593546 1.3739921e-38 357 254
-0.016667187 0.67900002 -0.017857701 1.2268015e-38 306 255
-0.015453878 0.67799997 -0.0178314 1.1899232e-38 307 255
-0.014265119 0.67799997 -0.0178314 1.0431225e-38 308 255
-0.013037786 0.676 -0.017778801 1.0431225e-38 309 255
-0.011852534 0.676 -0.017778801 9.4221067e-39 310 255
-0.0106515 0.67500001 -0.0177525 9.2377182e-39 311 255
-0.0094259195 0.67199999 -0.017673599 8.8700175e-39 312 255
-0.00824768 0.67199999 -0.017673599 8.5937935e-39 313 255
-0.0070694401 0.67199999 -0.017673599 8.4094079e-39 314 255
0.0023354399 0.66600001 -0.017515799 5.0897262e-39 322 255
0.0035031599 0.66600001 -0.017515799 4.8131393e-39 323 255
0.0046708798 0.66600001 -0.017515799 5.7304265e-39 324 255
0.0058385995 0.66600001 -0.017515799 5.7304265e-39 325 255
0.0070063197 0.66600001 -0.017515799 5.7304265e-39 326 255
0.0081372196 0.66299999 -0.017436899 6.099209e-39 327 255
0.009285653 0.662 -0.017410601 6.654531e-39 328 255
0.01043058 0.66100001 -0.0173843 6.9311179e-39 329 255
0.011589534 0.66100001 -0.0173843 7.2995347e-39 330 255
0.012748486 0.66100001 -0.0173843 7.0225876e-39 331 255
0.01390744 0.66100001 -0.0173843 6.8364069e-39 332 255
0.015066394 0.66100001 -0.0173843 7.1126351e-39 333 255
0.016225345 0.66100001 -0.0173843 9.5079418e-39 334 255
0.017410601 0.662 -0.017410601 9.6001388e-39 335 255
0.020892721 0.662 -0.017410601 1.0154394e-38 338 255
0.022053426 0.662 -0.017410601 1.0154394e-38 339 255
0.025612691 0.66399997 -0.0174632 1.0428103e-38 342 255
0.026776904 0.66399997 -0.0174632 9.5983424e-39 343 255
0.027941117 0.66399997 -0.0174632 9.1377047e-39 344 255
0.02910533 0.66399997 -0.0174632 9.4139315e-39 345 255
0.030360719 0.66600001 -0.017515799 9.5972283e-39 346 255
0.031528439 0.66600001 -0.017515799 9.1362516e-39 347 255
0.032696161 0.66600001 -0.017515799 1.033261e-38 348 255
0.03386388 0.66600001 -0.017515799 1.0609197e-38 349 255
0.035136797 0.66799998 -0.017568398 1.0792827e-38 350 255
0.036308024 0.66799998 -0.017568398 1.0792827e-38 351 255
0.037647571 0.671 -0.0176473 1.1068691e-38 352 255
0.03888192 0.67199999 -0.017673599 1.1068691e-38 353 255
0.040179387 0.67400002 -0.0177262 1.1067283e-38 354 255
0.041422497 0.67500001 -0.0177525 1.088289e-38 355 255
0.042606 0.67500001 -0.0177525 1.1620513e-38 356 255
0.043854371 0.676 -0.017778801 1.3648817e-38 357 255
0.045039624 0.676 -0.017778801 1.7332743e-38 358 255
0.046224877 0.676 -0.017778801 1.9361047e-38 359 255
-0.016691733 0.68000001 -0.019076265 1.2543893e-38 306 256
-0.015476674 0.67900002 -0.019048214 1.1898523e-38 307 256
-0.014265119 0.67799997 -0.019020159 1.0340476e-38 308 256
-0.013037786 0.676 -0.018964052 1.024828e-38 309 256
-0.011852534 0.676 -0.018964052 9.4221067e-39 310 256
-0.01063572 0.67400002 -0.018907947 9.3299124e-39 311 256
-0.0094259195 0.67199999 -0.018851839 9.2377182e-39 312 256
-0.00824768 0.67199999 -0.018851839 9.145524e-39 313 256
-0.0070589199 0.671 -0.018823786 8.687064e-39 314 256
-0.0058736666 0.67000002 -0.018795732 8.5948697e-39 315 256
-0.0046778931 0.667 -0.018711573 8.7763883e-39 316 256
-0.0035031599 0.66600001 -0.018683519 8.5916411e-39 317 256
-0.0023354399 0.66600001 -0.018683519 9.1394297e-39 318 256
-0.00116772 0.66600001 -0.018683519 8.863203e-39 319 256
0 0.66600001 -0.018683519 8.6781209e-39 320 256
0.0011642133 0.66399997 -0.018627413 8.2175015e-39 321 256
0.0023284266 0.66399997 -0.018627413 6.6552344e-39 322 256
0.0034926396 0.66399997 -0.018627413 6.1942563e-39 323 256
0.0046568532 0.66399997 -0.018627413 6.6527163e-39 324 256
0.0058210664 0.66399997 -0.018627413 6.5601619e-39 325 256
0.0069852793 0.66399997 -0.018627413 6.4690481e-39 326 256
0.0081249457 0.662 -0.018571306 6.6530792e-39 327 256
0.009285653 0.662 -0.018571306 6.5641178e-39 328 256
0.01043058 0.66100001 -0.018543253 6.9325402e-39 329 256
0.011589534 0.66100001 -0.018543253 7.1165615e-39 330 256
0.012748486 0.66100001 -0.018543253 6.839976e-39 331 256
0.01390744 0.66100001 -0.018543253 6.3779245e-39 332 256
0.015066394 0.66100001 -0.018543253 6.5623157e-39 333 256
0.016225345 0.66100001 -0.018543253 1.0060378e-38 334 256
0.017410601 0.662 -0.018571306 1.0244768e-38 335 256
0.018571306 0.662 -0.018571306 1.0060397e-38 336 256
0.019732011 0.662 -0.018571306 1.0152592e-38 337 256
0.020892721 0.662 -0.018571306 1.0703968e-38 338 256
0.022053426 0.662 -0.018571306 1.0796164e-38 339 256
0.0232492 0.66299999 -0.018599359 1.134717e-38 340 256
0.024448479 0.66399997 -0.018627413 1.134717e-38 341 256
0.025612691 0.66399997 -0.018627413 1.1621567e-38 342 256
0.026776904 0.66399997 -0.018627413 1.1160947e-38 343 256
0.027941117 0.66399997 -0.018627413 1.125203e-38 344 256
0.02910533 0.66399997 -0.018627413 1.1159834e-38 345 256
0.030360719 0.66600001 -0.018683519 1.0882522e-38 346 256
0.031528439 0.66600001 -0.018683519 1.0421544e-38 347 256
0.032745253 0.667 -0.018711573 1.0885393e-38 348 256
0.033914726 0.667 -0.018711573 1.0977589e-38 349 256
0.035241999 0.67000002 -0.018795732 1.1343483e-38 350 256
0.036471087 0.671 -0.018823786 1.143568e-38 351 256
0.037703678 0.67199999 -0.018851839 1.1252383e-38 352 256
0.038997639 0.67400002 -0.018907947 1.1252383e-38 353 256
0.040179387 0.67400002 -0.018907947 1.1158778e-38 354 256
0.041422497 0.67500001 -0.018935999 1.1250974e-38 355 256
0.042669121 0.676 -0.018964052 1.1989302e-38 356 256
0.043854371 0.676 -0.018964052 1.3741019e-38 357 256
0.045039624 0.676 -0.018964052 1.7608251e-38 358 256
-0.016691733 0.68000001 -0.020268533 1.254533e-38 306 257
-0.015476674 0.67900002 -0.020238725 1.153082e-38 307 257
-0.014265119 0.67799997 -0.020208918 1.0431602e-38 308 257
-0.013037786 0.676 -0.020149305 1.0339406e-38 309 257
-0.011852534 0.676 -0.020149305 9.8802192e-39 310 257
-0.01063572 0.67400002 -0.020089693 9.6039924e-39 311 257
-0.0094259195 0.67199999 -0.020030079 9.5121485e-39 312 257
-0.00824768 0.67199999 -0.020030079 9.4199543e-39 313 257
-0.0070589199 0.671 -0.020000271 8.6874227e-39 314 257
-0.0058736666 0.67000002 -0.019970467 8.6874227e-39 315 257
-0.0046778931 0.667 -0.019881045 8.8693e-39 316 257
-0.0035031599 0.66600001 -0.019851239 8.7771058e-39 317 257
-0.0023354399 0.66600001 -0.019851239 9.5092885e-39 318 257
-0.00116772 0.66600001 -0.019851239 9.3248972e-39 319 257
0 0.66600001 -0.019851239 9.5085724e-39 320 257
0.0011642133 0.66399997 -0.019791625 9.4163768e-39 321 257
0.0023284266 0.66399997 -0.019791625 8.5898573e-39 322 257
0.0034926396 0.66399997 -0.019791625 8.313269e-39 323 257
0.0046568532 0.66399997 -0.019791625 7.9444879e-39 324 257
0.0058210664 0.66399997 -0.019791625 7.7600994e-39 325 257
0.0069747595 0.66299999 -0.019761819 7.8519419e-39 326 257
0.0081249457 0.662 -0.019732011 7.7597449e-39 327 257
0.009285653 0.662 -0.019732011 7.4845999e-39 328 257
0.01044636 0.662 -0.019732011 7.761547e-39 329 257
0.011589534 0.66100001 -0.019702207 8.1285246e-39 330 257
0.012748486 0.66100001 -0.019702207 7.8522979e-39 331 257
0.01390744 0.66100001 -0.019702207 7.5742816e-39 332 257
0.015089186 0.662 -0.019732011 7.6664773e-39 333 257
0.016249891 0.662 -0.019732011 1.0243304e-38 334 257
0.017410601 0.662 -0.019732011 1.0427695e-38 335 257
0.018571306 0.662 -0.019732011 1.0978017e-38 336 257
0.019732011 0.662 -0.019732011 1.1162409e-38 337 257
0.020892721 0.662 -0.019732011 1.1254957e-38 338 257
0.022053426 0.662 -0.019732011 1.1162762e-38 339 257
0.0232492 0.66299999 -0.019761819 1.1989613e-38 340 257
0.024448479 0.66399997 -0.019791625 1.1989613e-38 341 257
0.025612691 0.66399997 -0.019791625 1.2173964e-38 342 257
0.026776904 0.66399997 -0.019791625 1.1989573e-38 343 257
0.027941117 0.66399997 -0.019791625 1.2632762e-38 344 257
0.02910533 0.66399997 -0.019791625 1.235582e-38 345 257
0.030360719 0.66600001 -0.019851239 1.1894849e-38 346 257
0.03157578 0.667 -0.019881045 1.1802655e-38 347 257
0.032745253 0.667 -0.019881045 1.1436748e-38 348 257
0.033914726 0.667 -0.019881045 1.1344554e-38 349 257
0.035241999 0.67000002 -0.019970467 1.1710838e-38 350 257
0.036471087 0.671 -0.020000271 1.2079619e-38 351 257
0.037703678 0.67199999 -0.020030079 1.1804147e-38 352 257
0.038997639 0.67400002 -0.020089693 1.15272e-38 353 257
0.040238999 0.67500001 -0.020119499 1.0883283e-38 354 257
0.041422497 0.67500001 -0.020119499 1.1160228e-38 355 257
0.042669121 0.676 -0.020149305 1.2632516e-38 356 257
0.043984115 0.67799997 -0.020208918 1.4292038e-38 357 257
0.045172878 0.67799997 -0.020208918 1.7883759e-38 358 257
0.046430022 0.67900002 -0.020238725 1.9543641e-38 359 257
-0.015476674 0.67900002 -0.021429239 1.1991823e-38 307 258
-0.01428616 0.67900002 -0.021429239 1.1073397e-38 308 258
-0.013037786 0.676 -0.021334561 1.0889006e-38 309 258
-0.011852534 0.676 -0.021334561 1.0063897e-38 310 258
-0.01063572 0.67400002 -0.021271439 9.8791472e-39 311 258
-0.0094539737 0.67400002 -0.021271439 9.5121485e-39 312 258
-0.00824768 0.67199999 -0.021208318 9.4199543e-39 313 258
-0.0070589199 0.671 -0.021176759 8.6874227e-39 314 258
-0.0058736666 0.67000002 -0.0211452 8.6874227e-39 315 258
-0.0046849065 0.66799998 -0.021082079 9.1448065e-39 316 258
-0.0035084197 0.667 -0.021050518 9.2370021e-39 317 258
-0.0023354399 0.66600001 -0.02101896 9.7862383e-39 318 258
-0.00116772 0.66600001 -0.02101896 9.6936839e-39 319 258
0 0.66600001 -0.02101896 9.235933e-39 320 258
0.0011642133 0.66399997 -0.020955838 9.0515403e-39 321 258
0.0023284266 0.66399997 -0.020955838 8.5023168e-39 322 258
0.0034926396 0.66399997 -0.020955838 8.6867052e-39 323 258
0.0046568532 0.66399997 -0.020955838 9.9709701e-39 324 258
0.0058210664 0.66399997 -0.020955838 9.6947433e-39 325 258
0.0069747595 0.66299999 -0.020924279 9.8773521e-39 326 258
0.0081372196 0.66299999 -0.020924279 9.9695477e-39 327 258
0.009285653 0.662 -0.020892721 1.0062115e-38 328 258
0.01044636 0.662 -0.020892721 1.0062115e-38 329 258
0.011607066 0.662 -0.020892721 1.0244708e-38 330 258
0.012767773 0.662 -0.020892721 1.0336904e-38 331 258
0.01392848 0.662 -0.020892721 1.0611342e-38 332 258
0.015089186 0.662 -0.020892721 1.0611342e-38 333 258
0.016249891 0.662 -0.020892721 1.1346406e-38 334 258
0.017410601 0.662 -0.020892721 1.1162015e-38 335 258
0.018571306 0.662 -0.020892721 1.134534e-38 336 258
0.019732011 0.662 -0.020892721 1.1713762e-38 337 258
0.020892721 0.662 -0.020892721 1.1990332e-38 338 258
0.022053426 0.662 -0.020892721 1.2174725e-38 339 258
0.0232492 0.66299999 -0.020924279 1.2909378e-38 340 258
0.024411658 0.66299999 -0.020924279 1.2724985e-38 341 258
0.025612691 0.66399997 -0.020955838 1.2541667e-38 342 258
0.026776904 0.66399997 -0.020955838 1.2541667e-38 343 258
0.027941117 0.66399997 -0.020955838 1.2633883e-38 344 258
0.02910533 0.66399997 -0.020955838 1.2541686e-38 345 258
0.030360719 0.66600001 -0.02101896 1.2356948e-38 346 258
0.03157578 0.667 -0.021050518 1.2172557e-38 347 258
0.032745253 0.667 -0.021050518 1.1805219e-38 348 258
0.034067266 0.67000002 -0.0211452 1.1805219e-38 349 258
0.0352946 0.671 -0.021176759 1.2355195e-38 350 258
0.036525436 0.67199999 -0.021208318 1.3276791e-38 351 258
0.037703678 0.67199999 -0.021208318 1.3092791e-38 352 258
0.038997639 0.67400002 -0.021271439 1.2724369e-38 353 258
0.040238999 0.67500001 -0.021303 1.2448855e-38 354 258
0.041483864 0.676 -0.021334561 1.2448855e-38 355 258
0.042669121 0.676 -0.021334561 1.3277908e-38 356 258
