# .PCD v.7 - Point Cloud Data file format
FIELDS x y z rgb imX imY
SIZE 4 4 4 4 4 4
TYPE F F F F F F
COUNT 1 1 1 1 1 1
WIDTH 846
HEIGHT 1
VIEWPOINT 0 0 0 1 0 0 0
POINTS 846
DATA ascii
0.013549759 0.64399999 0.10726893 1.5022455e-38 332 145
0.0045306133 0.64600003 0.10646942 1.7331684e-38 324 146
0.0056632664 0.64600003 0.10646942 1.7608269e-38 325 146
0.0067748795 0.64399999 0.10613978 1.751715e-38 326 146
0.0079040267 0.64399999 0.10613978 1.7793378e-38 327 146
0.0090331733 0.64399999 0.10613978 1.797633e-38 328 146
0.01016232 0.64399999 0.10613978 1.7699743e-38 329 146
0.011291467 0.64399999 0.10613978 1.7054727e-38 330 146
0.012420613 0.64399999 0.10613978 1.6501553e-38 331 146
0.013549759 0.64399999 0.10613978 1.6498307e-38 332 146
0.014724494 0.64600003 0.10646942 1.5484515e-38 333 146
0.0022653067 0.64600003 0.10533676 1.8531675e-38 322 147
0.00339796 0.64600003 0.10533676 1.8439479e-38 323 147
0.0045306133 0.64600003 0.10533676 1.8622428e-38 324 147
0.0056632664 0.64600003 0.10533676 1.8622428e-38 325 147
0.0067748795 0.64399999 0.10501064 1.7979577e-38 326 147
0.0079040267 0.64399999 0.10501064 1.7979577e-38 327 147
0.0090331733 0.64399999 0.10501064 1.8529874e-38 328 147
0.01016232 0.64399999 0.10501064 1.8529874e-38 329 147
0.011291467 0.64399999 0.10501064 1.8439832e-38 330 147
0.012420613 0.64399999 0.10501064 1.8347637e-38 331 147
0.013549759 0.64399999 0.10501064 1.8438382e-38 332 147
0.01463332 0.64200002 0.10468452 1.7885208e-38 333 147
0.01575896 0.64200002 0.10468452 1.7696481e-38 334 147
0.016884599 0.64200002 0.10468452 1.6221351e-38 335 147
0.01801024 0.64200002 0.10468452 1.4930244e-38 336 147
0.019106071 0.64099997 0.10452145 1.4745851e-38 337 147
0 0.64300001 0.10372019 1.8898302e-38 320 148
0.00112564 0.64200002 0.10355888 1.9082695e-38 321 148
0.00225128 0.64200002 0.10355888 1.8898655e-38 322 148
0.00337692 0.64200002 0.10355888 1.8714624e-38 323 148
0.00450256 0.64200002 0.10355888 1.8347281e-38 324 148
0.0056369668 0.64300001 0.10372019 1.8255085e-38 325 148
0.0067643598 0.64300001 0.10372019 1.8254732e-38 326 148
0.0078917528 0.64300001 0.10372019 1.8254732e-38 327 148
0.0090331733 0.64399999 0.10388149 1.8254013e-38 328 148
0.01016232 0.64399999 0.10388149 1.8254013e-38 329 148
0.011291467 0.64399999 0.10388149 1.8346562e-38 330 148
0.012420613 0.64399999 0.10388149 1.8346562e-38 331 148
0.013549759 0.64399999 0.10388149 1.853058e-38 332 148
0.01463332 0.64200002 0.10355888 1.853058e-38 333 148
0.01575896 0.64200002 0.10355888 1.8528766e-38 334 148
0.016858298 0.64099997 0.10339756 1.7699005e-38 335 148
0.017982185 0.64099997 0.10339756 1.6956748e-38 336 148
0.019106071 0.64099997 0.10339756 1.566601e-38 337 148
0.020229958 0.64099997 0.10339756 1.4562905e-38 338 148
-0.00112564 0.64200002 0.10243323 1.8809338e-38 319 149
0 0.64200002 0.10243323 1.8715343e-38 320 149
0.0011238866 0.64099997 0.10227368 1.8530593e-38 321 149
0.0022477731 0.64099997 0.10227368 1.8347637e-38 322 149
0.00337692 0.64200002 0.10243323 1.8347637e-38 323 149
0.00450256 0.64200002 0.10243323 1.8347281e-38 324 149
0.0056281998 0.64200002 0.10243323 1.8347281e-38 325 149
0.00675384 0.64200002 0.10243323 1.8347283e-38 326 149
0.0078917528 0.64300001 0.10259279 1.8347283e-38 327 149
0.0090191467 0.64300001 0.10259279 1.8530593e-38 328 149
0.01014654 0.64300001 0.10259279 1.8530593e-38 329 149
0.011273934 0.64300001 0.10259279 1.8530946e-38 330 149
0.012420613 0.64399999 0.10275234 1.8346915e-38 331 149
0.013549759 0.64399999 0.10275234 1.8071043e-38 332 149
0.014678906 0.64399999 0.10275234 1.8071043e-38 333 149
0.01575896 0.64200002 0.10243323 1.8713174e-38 334 149
0.016858298 0.64099997 0.10227368 1.8620977e-38 335 149
0.017982185 0.64099997 0.10227368 1.8802113e-38 336 149
0.019106071 0.64099997 0.10227368 1.7050396e-38 337 149
0.020229958 0.64099997 0.10227368 1.5483783e-38 338 149
0.021353846 0.64099997 0.10227368 1.4562186e-38 339 149
-0.0033663998 0.63999999 0.10099199 1.9265627e-38 317 150
-0.0022442664 0.63999999 0.10099199 1.8899736e-38 318 150
-0.0011238866 0.64099997 0.1011498 1.8899736e-38 319 150
0 0.64200002 0.1013076 1.8440195e-38 320 150
0.0011238866 0.64099997 0.1011498 1.8348e-38 321 150
0.0022477731 0.64099997 0.1011498 1.8532028e-38 322 150
0.00337692 0.64200002 0.1013076 1.8439832e-38 323 150
0.00450256 0.64200002 0.1013076 1.8163968e-38 324 150
0.0056281998 0.64200002 0.1013076 1.8163968e-38 325 150
0.00675384 0.64200002 0.1013076 1.8347283e-38 326 150
0.0078917528 0.64300001 0.1014654 1.8347283e-38 327 150
0.0090191467 0.64300001 0.1014654 1.8623144e-38 328 150
0.01014654 0.64300001 0.1014654 1.8530949e-38 329 150
0.011273934 0.64300001 0.1014654 1.8347987e-38 330 150
0.012401327 0.64300001 0.1014654 1.8347987e-38 331 150
0.013549759 0.64399999 0.10162319 1.8255435e-38 332 150
0.014656113 0.64300001 0.1014654 1.8255435e-38 333 150
0.01575896 0.64200002 0.1013076 1.8346915e-38 334 150
0.016858298 0.64099997 0.1011498 1.8254719e-38 335 150
0.017982185 0.64099997 0.1011498 1.8896475e-38 336 150
0.019106071 0.64099997 0.1011498 1.8158551e-38 337 150
0.020229958 0.64099997 0.1011498 1.7050393e-38 338 150
0.021353846 0.64099997 0.1011498 1.5298316e-38 339 150
-0.0044745067 0.63800001 0.099557772 1.8712821e-38 316 151
-0.00335588 0.63800001 0.099557772 1.9911362e-38 317 151
-0.0022442664 0.63999999 0.099869862 1.8532751e-38 318 151
-0.0011238866 0.64099997 0.1000259 1.8440195e-38 319 151
0 0.64099997 0.1000259 1.8440551e-38 320 151
0.0011238866 0.64099997 0.1000259 1.8440551e-38 321 151
0.0022477731 0.64099997 0.1000259 1.8716059e-38 322 151
0.0033716597 0.64099997 0.1000259 1.8532028e-38 323 151
0.0044955462 0.64099997 0.1000259 1.8532031e-38 324 151
0.0056194332 0.64099997 0.1000259 1.8532031e-38 325 151
0.00675384 0.64200002 0.10018196 1.8532031e-38 326 151
0.0078794798 0.64200002 0.10018196 1.8532031e-38 327 151
0.0090191467 0.64300001 0.100338 1.8716415e-38 328 151
0.01014654 0.64300001 0.100338 1.8532025e-38 329 151
0.011273934 0.64300001 0.100338 1.8532378e-38 330 151
0.012401327 0.64300001 0.100338 1.8440183e-38 331 151
0.01352872 0.64300001 0.100338 1.8347987e-38 332 151
0.014656113 0.64300001 0.100338 1.8347987e-38 333 151
0.01575896 0.64200002 0.10018196 1.8346912e-38 334 151
0.016884599 0.64200002 0.10018196 1.8254716e-38 335 151
0.017982185 0.64099997 0.1000259 1.8620977e-38 336 151
0.019106071 0.64099997 0.1000259 1.8528781e-38 337 151
0.020229958 0.64099997 0.1000259 1.8433696e-38 338 151
0.021353846 0.64099997 0.1000259 1.6128805e-38 339 151
-0.0044745067 0.63800001 0.098439142 1.8991931e-38 316 152
-0.00335588 0.63800001 0.098439142 1.9175962e-38 317 152
-0.0022442664 0.63999999 0.09874773 1.8256886e-38 318 152
-0.0011238866 0.64099997 0.098902017 1.8256886e-38 319 152
0 0.64099997 0.098902017 1.8440195e-38 320 152
0.0011238866 0.64099997 0.098902017 1.8532751e-38 321 152
0.0022442664 0.63999999 0.09874773 1.8532395e-38 322 152
0.0033663998 0.63999999 0.09874773 1.8532395e-38 323 152
0.0044955462 0.64099997 0.098902017 1.8715707e-38 324 152
0.0056194332 0.64099997 0.098902017 1.8715707e-38 325 152
0.0067433193 0.64099997 0.098902017 1.8532751e-38 326 152
0.0078672068 0.64099997 0.098902017 1.8532751e-38 327 152
0.00900512 0.64200002 0.099056318 1.8532028e-38 328 152
0.01013076 0.64200002 0.099056318 1.8716059e-38 329 152
0.0112564 0.64200002 0.099056318 1.8532025e-38 330 152
0.01238204 0.64200002 0.099056318 1.8439829e-38 331 152
0.01350768 0.64200002 0.099056318 1.8348353e-38 332 152
0.014656113 0.64300001 0.099210612 1.8348353e-38 333 152
0.01575896 0.64200002 0.099056318 1.8346915e-38 334 152
0.016884599 0.64200002 0.099056318 1.8254719e-38 335 152
0.017982185 0.64099997 0.098902017 1.8162522e-38 336 152
0.019106071 0.64099997 0.098902017 1.8162522e-38 337 152
0.020229958 0.64099997 0.098902017 1.8528415e-38 338 152
0.021353846 0.64099997 0.098902017 1.6684503e-38 339 152
0.022512799 0.64200002 0.099056318 1.5116808e-38 340 152
-0.0056106662 0.63999999 0.097625598 2.0277624e-38 315 153
-0.0044745067 0.63800001 0.097320519 1.9545827e-38 316 153
-0.00335588 0.63800001 0.097320519 1.8900457e-38 317 153
-0.0022442664 0.63999999 0.097625598 1.8440198e-38 318 153
-0.0011238866 0.64099997 0.097778134 1.8440198e-38 319 153
0 0.63999999 0.097625598 1.8532751e-38 320 153
0.0011221332 0.63999999 0.097625598 1.8532751e-38 321 153
0.0022442664 0.63999999 0.097625598 1.8716063e-38 322 153
0.0033663998 0.63999999 0.097625598 1.8808259e-38 323 153
0.0044885329 0.63999999 0.097625598 1.8807536e-38 324 153
0.0056194332 0.64099997 0.097778134 1.8899733e-38 325 153
0.0067433193 0.64099997 0.097778134 1.8808256e-38 326 153
0.0078672068 0.64099997 0.097778134 1.8716059e-38 327 153
0.0089910924 0.64099997 0.097778134 1.8807536e-38 328 153
0.01013076 0.64200002 0.097930677 1.871534e-38 329 153
0.0112564 0.64200002 0.097930677 1.8532025e-38 330 153
0.01238204 0.64200002 0.097930677 1.8439829e-38 331 153
0.01350768 0.64200002 0.097930677 1.8439829e-38 332 153
0.01463332 0.64200002 0.097930677 1.8439829e-38 333 153
0.015734414 0.64099997 0.097778134 1.8530946e-38 334 153
0.016858298 0.64099997 0.097778134 1.8346915e-38 335 153
0.017954132 0.63999999 0.097625598 1.8438029e-38 336 153
0.019076265 0.63999999 0.097625598 1.8438029e-38 337 153
0.020198399 0.63999999 0.097625598 1.8897921e-38 338 153
0.021320533 0.63999999 0.097625598 1.7514986e-38 339 153
0.022512799 0.64200002 0.097930677 1.6222077e-38 340 153
-0.0056106662 0.63999999 0.096503459 2.0557088e-38 315 154
-0.0044885329 0.63999999 0.096503459 1.926996e-38 316 154
-0.0033663998 0.63999999 0.096503459 1.8716786e-38 317 154
-0.0022442664 0.63999999 0.096503459 1.8533114e-38 318 154
-0.0011221332 0.63999999 0.096503459 1.8533114e-38 319 154
0 0.63999999 0.096503459 1.8533114e-38 320 154
0.0011221332 0.63999999 0.096503459 1.8533114e-38 321 154
0.0022442664 0.63999999 0.096503459 1.8807903e-38 322 154
0.0033663998 0.63999999 0.096503459 1.8807903e-38 323 154
0.0044885329 0.63999999 0.096503459 1.8899736e-38 324 154
0.0056106662 0.63999999 0.096503459 1.8899736e-38 325 154
0.0067327996 0.63999999 0.096503459 1.8807543e-38 326 154
0.0078549329 0.63999999 0.096503459 1.8807543e-38 327 154
0.0089770658 0.63999999 0.096503459 1.8715343e-38 328 154
0.010114979 0.64099997 0.096654251 1.880754e-38 329 154
0.011238866 0.64099997 0.096654251 1.8532028e-38 330 154
0.012362752 0.64099997 0.096654251 1.8532028e-38 331 154
0.013486639 0.64099997 0.096654251 1.8532031e-38 332 154
0.014610525 0.64099997 0.096654251 1.8439476e-38 333 154
0.015734414 0.64099997 0.096654251 1.8439476e-38 334 154
0.016858298 0.64099997 0.096654251 1.8347281e-38 335 154
0.017954132 0.63999999 0.096503459 1.8346562e-38 336 154
0.019016653 0.63800001 0.096201889 1.8254366e-38 337 154
0.02013528 0.63800001 0.096201889 1.86217e-38 338 154
0.021253906 0.63800001 0.096201889 1.8160722e-38 339 154
0.022372533 0.63800001 0.096201889 1.6960011e-38 340 154
-0.0067117601 0.63800001 0.095083259 1.595127e-38 314 155
-0.0055931332 0.63800001 0.095083259 2.0100074e-38 315 155
-0.0044674934 0.63700002 0.094934233 1.9179562e-38 316 155
-0.0033506199 0.63700002 0.094934233 1.8441997e-38 317 155
-0.0022337467 0.63700002 0.094934233 1.853347e-38 318 155
-0.0011186267 0.63800001 0.095083259 1.853347e-38 319 155
0 0.63800001 0.095083259 1.8717142e-38 320 155
0.0011186267 0.63800001 0.095083259 1.8717142e-38 321 155
0.0022372534 0.63800001 0.095083259 1.8717142e-38 322 155
0.00335588 0.63800001 0.095083259 1.8717142e-38 323 155
0.0044745067 0.63800001 0.095083259 1.8900454e-38 324 155
0.0055931332 0.63800001 0.095083259 1.8808259e-38 325 155
0.0067117601 0.63800001 0.095083259 1.8807903e-38 326 155
0.0078181131 0.63700002 0.094934233 1.8715707e-38 327 155
0.0089349868 0.63700002 0.094934233 1.880754e-38 328 155
0.0100992 0.63999999 0.095381327 1.880754e-38 329 155
0.011221332 0.63999999 0.095381327 1.8715696e-38 330 155
0.012343466 0.63999999 0.095381327 1.8715696e-38 331 155
0.013465599 0.63999999 0.095381327 1.8532028e-38 332 155
0.014610525 0.64099997 0.095530361 1.8532028e-38 333 155
0.015734414 0.64099997 0.095530361 1.8623144e-38 334 155
0.016858298 0.64099997 0.095530361 1.8530949e-38 335 155
0.017954132 0.63999999 0.095381327 1.8346915e-38 336 155
0.019016653 0.63800001 0.095083259 1.8254719e-38 337 155
0.02013528 0.63800001 0.095083259 1.8162522e-38 338 155
0.021253906 0.63800001 0.095083259 1.8070327e-38 339 155
0.022372533 0.63800001 0.095083259 1.6778863e-38 340 155
-0.0078181131 0.63700002 0.093817361 1.4195588e-38 313 156
-0.0067012399 0.63700002 0.093817361 1.6044914e-38 314 156
-0.0055931332 0.63800001 0.093964644 2.0193357e-38 315 156
-0.0044674934 0.63700002 0.093817361 1.9547994e-38 316 156
-0.0033506199 0.63700002 0.093817361 1.8533843e-38 317 156
-0.0022337467 0.63700002 0.093817361 1.8625309e-38 318 156
-0.0011168733 0.63700002 0.093817361 1.8625309e-38 319 156
0 0.63700002 0.093817361 1.8717142e-38 320 156
0.0011168733 0.63700002 0.093817361 1.8717142e-38 321 156
0.0022337467 0.63700002 0.093817361 1.8716786e-38 322 156
0.0033506199 0.63700002 0.093817361 1.8716786e-38 323 156
0.0044674934 0.63700002 0.093817361 1.8716786e-38 324 156
0.0055931332 0.63800001 0.093964644 1.8624591e-38 325 156
0.0067012399 0.63700002 0.093817361 1.8807903e-38 326 156
0.0078181131 0.63700002 0.093817361 1.8807903e-38 327 156
0.0089349868 0.63700002 0.093817361 1.8808259e-38 328 156
0.01006764 0.63800001 0.093964644 1.8808259e-38 329 156
0.011186266 0.63800001 0.093964644 1.8532028e-38 330 156
0.012304893 0.63800001 0.093964644 1.8532028e-38 331 156
0.01342352 0.63800001 0.093964644 1.8532028e-38 332 156
0.014542148 0.63800001 0.093964644 1.8532028e-38 333 156
0.015709866 0.63999999 0.094259195 1.8532028e-38 334 156
0.016831998 0.63999999 0.094259195 1.8439832e-38 335 156
0.017898027 0.63800001 0.093964644 1.8530946e-38 336 156
0.019016653 0.63800001 0.093964644 1.8346915e-38 337 156
0.02013528 0.63800001 0.093964644 1.8163243e-38 338 156
0.021220595 0.63700002 0.093817361 1.7886656e-38 339 156
0.022337466 0.63700002 0.093817361 1.6687389e-38 340 156
-0.0089770658 0.63999999 0.093137063 1.447182e-38 312 157
-0.0078181131 0.63700002 0.092700489 1.4933158e-38 313 157
-0.0067012399 0.63700002 0.092700489 1.6230031e-38 314 157
-0.0055931332 0.63800001 0.092846014 2.0102247e-38 315 157
-0.0044674934 0.63700002 0.092700489 1.9547994e-38 316 157
-0.0033506199 0.63700002 0.092700489 1.8810069e-38 317 157
-0.0022337467 0.63700002 0.092700489 1.8900457e-38 318 157
-0.0011168733 0.63700002 0.092700489 1.8900457e-38 319 157
0 0.63700002 0.092700489 1.8716786e-38 320 157
0.0011168733 0.63700002 0.092700489 1.8716786e-38 321 157
0.0022337467 0.63700002 0.092700489 1.8625312e-38 322 157
0.0033506199 0.63700002 0.092700489 1.8625312e-38 323 157
0.0044674934 0.63700002 0.092700489 1.8808985e-38 324 157
0.0055843666 0.63700002 0.092700489 1.8716789e-38 325 157
0.0067012399 0.63700002 0.092700489 1.8716786e-38 326 157
0.0078058392 0.63599998 0.092554957 1.8716786e-38 327 157
0.0089209592 0.63599998 0.092554957 1.8808259e-38 328 157
0.01005186 0.63700002 0.092700489 1.8716063e-38 329 157
0.011168733 0.63700002 0.092700489 1.8715343e-38 330 157
0.012285607 0.63700002 0.092700489 1.8715343e-38 331 157
0.01340248 0.63700002 0.092700489 1.880754e-38 332 157
0.014519353 0.63700002 0.092700489 1.8715343e-38 333 157
0.015636226 0.63700002 0.092700489 1.8532031e-38 334 157
0.0167531 0.63700002 0.092700489 1.8439476e-38 335 157
0.017869974 0.63700002 0.092700489 1.8530949e-38 336 157
0.018986847 0.63700002 0.092700489 1.8530949e-38 337 157
0.020072158 0.63599998 0.092554957 1.8347281e-38 338 157
0.021120653 0.634 0.092263907 1.7701911e-38 339 157
0.022232266 0.634 0.092263907 1.6043822e-38 340 157
-0.0089770658 0.63999999 0.092014931 1.4654414e-38 312 158
-0.007830387 0.63800001 0.091727383 1.5761121e-38 313 158
-0.0067117601 0.63800001 0.091727383 1.6231115e-38 314 158
-0.0055931332 0.63800001 0.091727383 1.9826746e-38 315 158
-0.0044745067 0.63800001 0.091727383 1.918173e-38 316 158
-0.0033506199 0.63700002 0.09158361 1.8536361e-38 317 158
-0.0022302398 0.63599998 0.091439828 1.8809335e-38 318 158
-0.0011151199 0.63599998 0.091439828 1.8809335e-38 319 158
0 0.63599998 0.091439828 1.8717142e-38 320 158
0.0011151199 0.63599998 0.091439828 1.8717142e-38 321 158
0.0022302398 0.63599998 0.091439828 1.8900101e-38 322 158
0.0033453598 0.63599998 0.091439828 1.8900101e-38 323 158
0.0044604796 0.63599998 0.091439828 1.8625309e-38 324 158
0.0055755996 0.63599998 0.091439828 1.8717505e-38 325 158
0.0067012399 0.63700002 0.09158361 1.8717142e-38 326 158
0.0078058392 0.63599998 0.091439828 1.8717142e-38 327 158
0.0089209592 0.63599998 0.091439828 1.8899738e-38 328 158
0.010036079 0.63599998 0.091439828 1.8807543e-38 329 158
0.011151199 0.63599998 0.091439828 1.880754e-38 330 158
0.012266319 0.63599998 0.091439828 1.880754e-38 331 158
0.013381439 0.63599998 0.091439828 1.8716063e-38 332 158
0.014496559 0.63599998 0.091439828 1.8532031e-38 333 158
0.015611678 0.63599998 0.091439828 1.8440195e-38 334 158
0.016726799 0.63599998 0.091439828 1.8348e-38 335 158
0.017841918 0.63599998 0.091439828 1.8530593e-38 336 158
0.018957037 0.63599998 0.091439828 1.8530593e-38 337 158
0.0200406 0.63499999 0.091296062 1.8439482e-38 338 158
0.021054026 0.63200003 0.090864748 1.7148743e-38 339 158
0.022162134 0.63200003 0.090864748 1.5674679e-38 340 158
-0.0089910924 0.64099997 0.091034815 1.4563297e-38 312 159
-0.0078549329 0.63999999 0.090892799 1.6222818e-38 313 159
-0.0067327996 0.63999999 0.090892799 1.6232564e-38 314 159
-0.0055931332 0.63800001 0.090608761 1.9366856e-38 315 159
-0.0044674934 0.63700002 0.090466738 1.9000231e-38 316 159
-0.0033506199 0.63700002 0.090466738 1.8723644e-38 317 159
-0.0022302398 0.63599998 0.090324715 1.8902622e-38 318 159
-0.0011151199 0.63599998 0.090324715 1.853384e-38 319 159
0 0.63599998 0.090324715 1.8534196e-38 320 159
0.0011151199 0.63599998 0.090324715 1.8442e-38 321 159
0.0022302398 0.63599998 0.090324715 1.8900101e-38 322 159
0.0033453598 0.63599998 0.090324715 1.8992297e-38 323 159
0.0044604796 0.63599998 0.090324715 1.8625309e-38 324 159
0.0055755996 0.63599998 0.090324715 1.8717505e-38 325 159
0.0066907196 0.63599998 0.090324715 1.8717505e-38 326 159
0.0078058392 0.63599998 0.090324715 1.8625309e-38 327 159
0.0089209592 0.63599998 0.090324715 1.8899738e-38 328 159
0.010036079 0.63599998 0.090324715 1.8899738e-38 329 159
0.011133666 0.63499999 0.090182692 1.8807903e-38 330 159
0.012247032 0.63499999 0.090182692 1.8715707e-38 331 159
0.0133604 0.63499999 0.090182692 1.8715707e-38 332 159
0.014473766 0.63499999 0.090182692 1.8531675e-38 333 159
0.015611678 0.63599998 0.090324715 1.8439479e-38 334 159
0.016726799 0.63599998 0.090324715 1.8439479e-38 335 159
0.017813865 0.63499999 0.090182692 1.8530593e-38 336 159
0.018927233 0.63499999 0.090182692 1.8715343e-38 337 159
0.020009039 0.634 0.090040676 1.8622794e-38 338 159
0.021054026 0.63200003 0.089756638 1.659449e-38 339 159
0.022162134 0.63200003 0.089756638 1.4844923e-38 340 159
-0.0078794798 0.64200002 0.090051197 1.6224616e-38 313 160
-0.0067433193 0.64099997 0.089910932 1.5866668e-38 314 160
-0.0056106662 0.63999999 0.08977066 1.8171919e-38 315 160
-0.0044674934 0.63700002 0.089349866 1.808225e-38 316 160
-0.0033506199 0.63700002 0.089349866 1.808225e-38 317 160
-0.0022302398 0.63599998 0.089209594 1.8813319e-38 318 160
-0.0011151199 0.63599998 0.089209594 1.8444178e-38 319 160
0 0.63599998 0.089209594 1.9084851e-38 320 160
0.0011151199 0.63599998 0.089209594 1.8992297e-38 321 160
0.0022302398 0.63599998 0.089209594 1.8899738e-38 322 160
0.0033453598 0.63599998 0.089209594 1.8991934e-38 323 160
0.0044604796 0.63599998 0.089209594 1.8717508e-38 324 160
0.0055755996 0.63599998 0.089209594 1.8625312e-38 325 160
0.0066907196 0.63599998 0.089209594 1.8716786e-38 326 160
0.0078058392 0.63599998 0.089209594 1.8716786e-38 327 160
0.0089209592 0.63599998 0.089209594 1.8900454e-38 328 160
0.0100203 0.63499999 0.089069329 1.8808259e-38 329 160
0.011133666 0.63499999 0.089069329 1.880754e-38 330 160
0.012247032 0.63499999 0.089069329 1.880754e-38 331 160
0.0133604 0.63499999 0.089069329 1.8532031e-38 332 160
0.014473766 0.63499999 0.089069329 1.8532031e-38 333 160
0.015611678 0.63599998 0.089209594 1.8623147e-38 334 160
0.016726799 0.63599998 0.089209594 1.8623147e-38 335 160
0.017813865 0.63499999 0.089069329 1.8623144e-38 336 160
0.018927233 0.63499999 0.089069329 1.8346918e-38 337 160
0.020009039 0.634 0.088929065 1.7151261e-38 338 160
0.021054026 0.63200003 0.088648535 1.5215153e-38 339 160
0.022162134 0.63200003 0.088648535 1.410808e-38 340 160
-0.0067433193 0.64099997 0.088787034 1.5590807e-38 314 161
-0.0056106662 0.63999999 0.088648528 1.7342524e-38 315 161
-0.0044674934 0.63700002 0.088232994 1.6703284e-38 316 161
-0.0033506199 0.63700002 0.088232994 1.7440851e-38 317 161
-0.0022302398 0.63599998 0.088094473 1.9000601e-38 318 161
-0.0011151199 0.63599998 0.088094473 1.8539623e-38 319 161
0 0.63599998 0.088094473 1.8994818e-38 320 161
0.0011151199 0.63599998 0.088094473 1.853384e-38 321 161
0.0022302398 0.63599998 0.088094473 1.8716063e-38 322 161
0.0033453598 0.63599998 0.088094473 1.8808259e-38 323 161
0.0044604796 0.63599998 0.088094473 1.8900457e-38 324 161
0.0055755996 0.63599998 0.088094473 1.8900457e-38 325 161
0.0066907196 0.63599998 0.088094473 1.8717142e-38 326 161
0.0078058392 0.63599998 0.088094473 1.8717142e-38 327 161
0.0089069325 0.63499999 0.087955967 1.8900454e-38 328 161
0.0100203 0.63499999 0.087955967 1.8900454e-38 329 161
0.011133666 0.63499999 0.087955967 1.880754e-38 330 161
0.012247032 0.63499999 0.087955967 1.8715343e-38 331 161
0.0133604 0.63499999 0.087955967 1.8532031e-38 332 161
0.014473766 0.63499999 0.087955967 1.8532031e-38 333 161
0.015611678 0.63599998 0.088094473 1.8532028e-38 334 161
0.016726799 0.63599998 0.088094473 1.8716059e-38 335 161
0.017813865 0.63499999 0.087955967 1.8715707e-38 336 161
0.018927233 0.63499999 0.087955967 1.7240936e-38 337 161
0.0200406 0.63499999 0.087955967 1.5492107e-38 338 161
-0.0067433193 0.64099997 0.087663151 1.5498259e-38 314 162
-0.0056106662 0.63999999 0.087526396 1.7158139e-38 315 162
-0.0044745067 0.63800001 0.087252878 1.6610019e-38 316 162
-0.0033506199 0.63700002 0.087116122 1.7163192e-38 317 162
-0.0022302398 0.63599998 0.086979352 1.7898222e-38 318 162
-0.0011151199 0.63599998 0.086979352 1.8082253e-38 319 162
0 0.63599998 0.086979352 1.8906591e-38 320 162
0.0011151199 0.63599998 0.086979352 1.8537808e-38 321 162
0.0022302398 0.63599998 0.086979352 1.8901899e-38 322 162
0.0033453598 0.63599998 0.086979352 1.8625312e-38 323 162
0.0044604796 0.63599998 0.086979352 1.8991934e-38 324 162
0.0055668331 0.63499999 0.086842597 1.8899738e-38 325 162
0.0066801999 0.63499999 0.086842597 1.8900101e-38 326 162
0.0077935657 0.63499999 0.086842597 1.8807906e-38 327 162
0.0089069325 0.63499999 0.086842597 1.8624591e-38 328 162
0.0100203 0.63499999 0.086842597 1.8624591e-38 329 162
0.011133666 0.63499999 0.086842597 1.8899736e-38 330 162
0.012247032 0.63499999 0.086842597 1.880754e-38 331 162
0.0133604 0.63499999 0.086842597 1.8716063e-38 332 162
0.014473766 0.63499999 0.086842597 1.8716063e-38 333 162
0.015611678 0.63599998 0.086979352 1.8440195e-38 334 162
0.016726799 0.63599998 0.086979352 1.8071773e-38 335 162
0.017813865 0.63499999 0.086842597 1.7609365e-38 336 162
0.018927233 0.63499999 0.086842597 1.6134235e-38 337 162
0.020072158 0.63599998 0.086979352 1.4476879e-38 338 162
-0.0067433193 0.64099997 0.086539268 1.559082e-38 314 163
-0.0056194332 0.64099997 0.086539268 1.7158506e-38 315 163
-0.0044745067 0.63800001 0.086134247 1.6334158e-38 316 163
-0.0033506199 0.63700002 0.08599925 1.651855e-38 317 163
-0.0022337467 0.63700002 0.08599925 1.6794408e-38 318 163
-0.0011151199 0.63599998 0.085864238 1.734758e-38 319 163
0 0.63599998 0.085864238 1.8541791e-38 320 163
0.0011151199 0.63599998 0.085864238 1.8357398e-38 321 163
0.0022302398 0.63599998 0.085864238 1.8997712e-38 322 163
0.0033453598 0.63599998 0.085864238 1.8628928e-38 323 163
0.0044604796 0.63599998 0.085864238 1.8810425e-38 324 163
0.0055668331 0.63499999 0.085729234 1.8626394e-38 325 163
0.0066801999 0.63499999 0.085729234 1.8717508e-38 326 163
0.0077935657 0.63499999 0.085729234 1.8717508e-38 327 163
0.0089069325 0.63499999 0.085729234 1.8625312e-38 328 163
0.010004519 0.634 0.085594222 1.8625312e-38 329 163
0.011116133 0.634 0.085594222 1.8625309e-38 330 163
0.012227747 0.634 0.085594222 1.8533114e-38 331 163
0.0133604 0.63499999 0.085729234 1.8625312e-38 332 163
0.014473766 0.63499999 0.085729234 1.8625312e-38 333 163
0.015587131 0.63499999 0.085729234 1.7981025e-38 334 163
0.016700499 0.63499999 0.085729234 1.6966514e-38 335 163
0.017813865 0.63499999 0.085729234 1.5674702e-38 336 163
0.018927233 0.63499999 0.085729234 1.466055e-38 337 163
0.020072158 0.63599998 0.085864238 1.3556358e-38 338 163
-0.00675384 0.64200002 0.085548639 1.5131644e-38 314 164
-0.0056194332 0.64099997 0.085415386 1.6883361e-38 315 164
-0.0044885329 0.63999999 0.085282132 1.5966815e-38 316 164
-0.00335588 0.63800001 0.085015625 1.6059011e-38 317 164
-0.0022337467 0.63700002 0.084882379 1.6058292e-38 318 164
-0.0011168733 0.63700002 0.084882379 1.6334877e-38 319 164
0 0.63599998 0.084749117 1.6886961e-38 320 164
0.0011151199 0.63599998 0.084749117 1.6886961e-38 321 164
0.0022302398 0.63599998 0.084749117 1.7896777e-38 322 164
0.0033453598 0.63599998 0.084749117 1.7896777e-38 323 164
0.0044604796 0.63599998 0.084749117 1.853853e-38 324 164
0.0055668331 0.63499999 0.084615864 1.835378e-38 325 164
0.0066801999 0.63499999 0.084615864 1.8628562e-38 326 164
0.0077935657 0.63499999 0.084615864 1.8536008e-38 327 164
0.0089069325 0.63499999 0.084615864 1.8534564e-38 328 164
0.010004519 0.634 0.08448261 1.8442369e-38 329 164
0.011116133 0.634 0.08448261 1.8165783e-38 330 164
0.012227747 0.634 0.08448261 1.798139e-38 331 164
0.0133604 0.63499999 0.084615864 1.7336385e-38 332 164
0.014473766 0.63499999 0.084615864 1.7336385e-38 333 164
0.015587131 0.63499999 0.084615864 1.5679025e-38 334 164
0.016700499 0.63499999 0.084615864 1.5033655e-38 335 164
0.017813865 0.63499999 0.084615864 1.3926229e-38 336 164
0.018927233 0.63499999 0.084615864 1.3649282e-38 337 164
0.020072158 0.63599998 0.084749117 1.3648197e-38 338 164
0.021187279 0.63599998 0.084749117 1.3832228e-38 339 164
-0.0067643598 0.64300001 0.084554501 1.5223842e-38 314 165
-0.0056194332 0.64099997 0.084291495 1.6514581e-38 315 165
-0.0044955462 0.64099997 0.084291495 1.5781704e-38 316 165
-0.0033663998 0.63999999 0.08416 1.5873901e-38 317 165
-0.0022372534 0.63800001 0.083897002 1.578135e-38 318 165
-0.0011168733 0.63700002 0.083765499 1.5873547e-38 319 165
0 0.63700002 0.083765499 1.6241604e-38 320 165
0.0011151199 0.63599998 0.083633989 1.6334158e-38 321 165
0.0022302398 0.63599998 0.083633989 1.716067e-38 322 165
0.0033453598 0.63599998 0.083633989 1.7345421e-38 323 165
0.0044604796 0.63599998 0.083633989 1.8079736e-38 324 165
0.0055668331 0.63499999 0.083502494 1.7987541e-38 325 165
0.0066801999 0.63499999 0.083502494 1.8445628e-38 326 165
0.0077935657 0.63499999 0.083502494 1.8169401e-38 327 165
0.0089069325 0.63499999 0.083502494 1.8260149e-38 328 165
0.0100203 0.63499999 0.083502494 1.7983202e-38 329 165
0.011133666 0.63499999 0.083502494 1.7431103e-38 330 165
0.012247032 0.63499999 0.083502494 1.6877931e-38 331 165
0.0133604 0.63499999 0.083502494 1.6141092e-38 332 165
0.014496559 0.63599998 0.083633989 1.5680112e-38 333 165
0.015611678 0.63599998 0.083633989 1.4113144e-38 334 165
0.016726799 0.63599998 0.083633989 1.3744001e-38 335 165
0.017841918 0.63599998 0.083633989 1.3281578e-38 336 165
0.018957037 0.63599998 0.083633989 1.3097547e-38 337 165
0.020072158 0.63599998 0.083633989 1.3648203e-38 338 165
0.021187279 0.63599998 0.083633989 1.3648203e-38 339 165
-0.00679592 0.64600003 0.083816342 1.559155e-38 314 166
-0.0056632664 0.64600003 0.083816342 1.6882288e-38 315 166
-0.00450256 0.64200002 0.083297364 1.5597307e-38 316 166
-0.0033716597 0.64099997 0.083167605 1.5689502e-38 317 166
-0.0022477731 0.64099997 0.083167605 1.5780985e-38 318 166
-0.0011221332 0.63999999 0.083037868 1.5688789e-38 319 166
0 0.63800001 0.082778372 1.5872101e-38 320 166
0.0011168733 0.63700002 0.082648627 1.5872101e-38 321 166
0.0022337467 0.63700002 0.082648627 1.6147962e-38 322 166
0.0033453598 0.63599998 0.082518876 1.5871736e-38 323 166
0.0044604796 0.63599998 0.082518876 1.5778814e-38 324 166
0.0055755996 0.63599998 0.082518876 1.5594423e-38 325 166
0.0066907196 0.63599998 0.082518876 1.6236189e-38 326 166
0.0077935657 0.63499999 0.082389124 1.6052158e-38 327 166
0.0089069325 0.63499999 0.082389124 1.6142906e-38 328 166
0.0100203 0.63499999 0.082389124 1.5774123e-38 329 166
0.011133666 0.63499999 0.082389124 1.5222381e-38 330 166
0.012247032 0.63499999 0.082389124 1.485324e-38 331 166
0.013381439 0.63599998 0.082518876 1.4574858e-38 332 166
0.014496559 0.63599998 0.082518876 1.4482662e-38 333 166
0.015611678 0.63599998 0.082518876 1.3652531e-38 334 166
0.0167531 0.63700002 0.082648627 1.3560336e-38 335 166
0.017869974 0.63700002 0.082648627 1.3834033e-38 336 166
0.018986847 0.63700002 0.082648627 1.3649282e-38 337 166
0.020198399 0.63999999 0.083037868 1.3648919e-38 338 166
0.021720294 0.65200001 0.084594823 1.3556723e-38 339 166
0.022863466 0.65200001 0.084594823 1.4107373e-38 340 166
0.024006641 0.65200001 0.084594823 1.4199569e-38 341 166
-0.00679592 0.64600003 0.08268369 1.5316761e-38 314 167
-0.0056632664 0.64600003 0.08268369 1.6515303e-38 315 167
-0.0045165867 0.64399999 0.082427703 1.5688783e-38 316 167
-0.00337692 0.64200002 0.082171716 1.5688783e-38 317 167
-0.0022477731 0.64099997 0.082043722 1.5688433e-38 318 167
-0.0011221332 0.63999999 0.081915729 1.5596238e-38 319 167
0 0.63800001 0.081659749 1.559624e-38 320 167
0.0011186267 0.63800001 0.081659749 1.5688436e-38 321 167
0.0022337467 0.63700002 0.081531756 1.5688436e-38 322 167
0.0033506199 0.63700002 0.081531756 1.559624e-38 323 167
0.0044604796 0.63599998 0.081403755 1.5594791e-38 324 167
0.0055755996 0.63599998 0.081403755 1.5318206e-38 325 167
0.0066907196 0.63599998 0.081403755 1.5684823e-38 326 167
0.0078058392 0.63599998 0.081403755 1.5407876e-38 327 167
0.0089209592 0.63599998 0.081403755 1.4946534e-38 328 167
0.010036079 0.63599998 0.081403755 1.4854337e-38 329 167
0.011151199 0.63599998 0.081403755 1.476177e-38 330 167
0.012266319 0.63599998 0.081403755 1.4392986e-38 331 167
0.01340248 0.63700002 0.081531756 1.4022759e-38 332 167
0.014519353 0.63700002 0.081531756 1.3838367e-38 333 167
0.015636226 0.63700002 0.081531756 1.383728e-38 334 167
0.0167531 0.63700002 0.081531756 1.3560333e-38 335 167
0.017898027 0.63800001 0.081659749 1.3834033e-38 336 167
0.019016653 0.63800001 0.081659749 1.3649282e-38 337 167
0.020229958 0.64099997 0.082043722 1.3648919e-38 338 167
0.021653665 0.64999998 0.083195657 1.3464528e-38 339 167
0.022793332 0.64999998 0.083195657 1.355672e-38 340 167
0.023896178 0.64899999 0.08306767 1.3741112e-38 341 167
0.025034092 0.64899999 0.08306767 1.4200641e-38 342 167
-0.00679592 0.64600003 0.081551038 1.5039464e-38 314 168
-0.0056632664 0.64600003 0.081551038 1.660715e-38 315 168
-0.0045306133 0.64600003 0.081551038 1.6240161e-38 316 168
-0.00337692 0.64200002 0.081046082 1.6147965e-38 317 168
-0.00225128 0.64200002 0.081046082 1.5688789e-38 318 168
-0.0011238866 0.64099997 0.080919832 1.5596235e-38 319 168
0 0.64099997 0.080919832 1.5596235e-38 320 168
0.0011221332 0.63999999 0.080793597 1.5596235e-38 321 168
0.0022372534 0.63800001 0.080541119 1.5779906e-38 322 168
0.00335588 0.63800001 0.080541119 1.5872101e-38 323 168
0.0044674934 0.63700002 0.080414884 1.5779181e-38 324 168
0.0055843666 0.63700002 0.080414884 1.5594789e-38 325 168
0.0067012399 0.63700002 0.080414884 1.5592269e-38 326 168
0.0078181131 0.63700002 0.080414884 1.5500073e-38 327 168
0.0089349868 0.63700002 0.080414884 1.5222763e-38 328 168
0.010036079 0.63599998 0.080288634 1.485434e-38 329 168
0.011151199 0.63599998 0.080288634 1.4393713e-38 330 168
0.012285607 0.63700002 0.080414884 1.4024571e-38 331 168
0.01340248 0.63700002 0.080414884 1.3838012e-38 332 168
0.014542148 0.63800001 0.080541119 1.3469588e-38 333 168
0.015660774 0.63800001 0.080541119 1.38362e-38 334 168
0.016779399 0.63800001 0.080541119 1.3467419e-38 335 168
0.017954132 0.63999999 0.080793597 1.3648566e-38 336 168
0.019106071 0.64099997 0.080919832 1.355637e-38 337 168
0.020261521 0.64200002 0.081046082 1.36482e-38 338 168
0.021620352 0.64899999 0.081929758 1.36482e-38 339 168
0.022793332 0.64999998 0.082055993 1.3648197e-38 340 168
0.023896178 0.64899999 0.081929758 1.3924783e-38 341 168
0.025034092 0.64899999 0.081929758 1.4292842e-38 342 168
-0.00679592 0.64600003 0.080418386 1.4210063e-38 314 169
-0.0056632664 0.64600003 0.080418386 1.6791541e-38 315 169
-0.0045306133 0.64600003 0.080418386 1.6608948e-38 316 169
-0.0033874398 0.64399999 0.08016941 1.6332002e-38 317 169
-0.00225128 0.64200002 0.079920441 1.5780982e-38 318 169
-0.00112564 0.64200002 0.079920441 1.5688786e-38 319 169
0 0.64099997 0.079795949 1.5412922e-38 320 169
0.0011238866 0.64099997 0.079795949 1.5412922e-38 321 169
0.0022442664 0.63999999 0.079671465 1.5779906e-38 322 169
0.0033663998 0.63999999 0.079671465 1.5779906e-38 323 169
0.0044745067 0.63800001 0.079422489 1.5686986e-38 324 169
0.0055931332 0.63800001 0.079422489 1.5502593e-38 325 169
0.0067327996 0.63999999 0.079671465 1.5684102e-38 326 169
0.0078549329 0.63999999 0.079671465 1.5499709e-38 327 169
0.0089490134 0.63800001 0.079422489 1.5315315e-38 328 169
0.01006764 0.63800001 0.079422489 1.4762141e-38 329 169
0.011186266 0.63800001 0.079422489 1.4301516e-38 330 169
0.012343466 0.63999999 0.079671465 1.4024571e-38 331 169
0.013465599 0.63999999 0.079671465 1.3929488e-38 332 169
0.014587732 0.63999999 0.079671465 1.3560704e-38 333 169
0.015709866 0.63999999 0.079671465 1.3835481e-38 334 169
0.016858298 0.64099997 0.079795949 1.3650731e-38 335 169
0.017982185 0.64099997 0.079795949 1.392443e-38 336 169
0.019165685 0.64300001 0.080044925 1.392443e-38 337 169
0.020387759 0.64600003 0.080418386 1.3923708e-38 338 169
0.021620352 0.64899999 0.080791838 1.3739317e-38 339 169
0.022758266 0.64899999 0.080791838 1.3464528e-38 340 169
0.023896178 0.64899999 0.080791838 1.3741115e-38 341 169
0.025034092 0.64899999 0.080791838 1.4016978e-38 342 169
-0.0056720334 0.64700001 0.079408467 1.6422754e-38 315 170
-0.0045306133 0.64600003 0.079285733 1.6976292e-38 316 170
-0.00339796 0.64600003 0.079285733 1.669971e-38 317 170
-0.0022653067 0.64600003 0.079285733 1.6057213e-38 318 170
-0.0011273933 0.64300001 0.078917533 1.587318e-38 319 170
0 0.64300001 0.078917533 1.5780982e-38 320 170
0.00112564 0.64200002 0.0787948 1.5596591e-38 321 170
0.0022477731 0.64099997 0.078672059 1.5686632e-38 322 170
0.0033716597 0.64099997 0.078672059 1.5594435e-38 323 170
0.0044885329 0.63999999 0.078549333 1.5593717e-38 324 170
0.0056106662 0.63999999 0.078549333 1.5409325e-38 325 170
0.0067433193 0.64099997 0.078672059 1.5500073e-38 326 170
0.0078549329 0.63999999 0.078549333 1.5223845e-38 327 170
0.0089770658 0.63999999 0.078549333 1.4947609e-38 328 170
0.0100992 0.63999999 0.078549333 1.4394435e-38 329 170
0.011221332 0.63999999 0.078549333 1.4391911e-38 330 170
0.012362752 0.64099997 0.078672059 1.4115324e-38 331 170
0.013486639 0.64099997 0.078672059 1.4113154e-38 332 170
0.014610525 0.64099997 0.078672059 1.3836927e-38 333 170
0.015734414 0.64099997 0.078672059 1.4019146e-38 334 170
0.016884599 0.64200002 0.0787948 1.3742561e-38 335 170
0.01801024 0.64200002 0.0787948 1.3925507e-38 336 170
0.019255107 0.64600003 0.079285733 1.383331e-38 337 170
0.020387759 0.64600003 0.079285733 1.3923708e-38 338 170
0.021620352 0.64899999 0.079653934 1.3739317e-38 339 170
0.022758266 0.64899999 0.079653934 1.3371973e-38 340 170
0.023896178 0.64899999 0.079653934 1.3648919e-38 341 170
-0.0056807999 0.648 0.078395039 1.4488798e-38 315 171
-0.0045376266 0.64700001 0.078274064 1.6516397e-38 316 171
-0.00339796 0.64600003 0.078153081 1.697701e-38 317 171
-0.0022653067 0.64600003 0.078153081 1.6241607e-38 318 171
-0.0011326533 0.64600003 0.078153081 1.6057216e-38 319 171
0 0.64399999 0.077911116 1.5873178e-38 320 171
0.0011273933 0.64300001 0.077790141 1.5688786e-38 321 171
0.00225128 0.64200002 0.077669159 1.5779187e-38 322 171
0.00337692 0.64200002 0.077669159 1.5686632e-38 323 171
0.00450256 0.64200002 0.077669159 1.5318209e-38 324 171
0.0056281998 0.64200002 0.077669159 1.5041263e-38 325 171
0.00675384 0.64200002 0.077669159 1.4674627e-38 326 171
0.0078794798 0.64200002 0.077669159 1.4029258e-38 327 171
0.0089910924 0.64099997 0.077548169 1.4395154e-38 328 171
0.010114979 0.64099997 0.077548169 1.384198e-38 329 171
0.0112564 0.64200002 0.077669159 1.4483028e-38 330 171
0.01238204 0.64200002 0.077669159 1.4298997e-38 331 171
0.01350768 0.64200002 0.077669159 1.438902e-38 332 171
0.01463332 0.64200002 0.077669159 1.4020239e-38 333 171
0.01575896 0.64200002 0.077669159 1.4111342e-38 334 171
0.016910899 0.64300001 0.077790141 1.3926951e-38 335 171
0.018038293 0.64300001 0.077790141 1.3926226e-38 336 171
0.019255107 0.64600003 0.078153081 1.3741833e-38 337 171
0.020387759 0.64600003 0.078153081 1.36482e-38 338 171
-0.0056720334 0.64700001 0.077139653 1.364968e-38 315 172
-0.0045306133 0.64600003 0.077020429 1.4858322e-38 316 172
-0.00339796 0.64600003 0.077020429 1.6517832e-38 317 172
-0.0022653067 0.64600003 0.077020429 1.6425638e-38 318 172
-0.0011326533 0.64600003 0.077020429 1.624125e-38 319 172
0 0.64600003 0.077020429 1.6057213e-38 320 172
0.0011273933 0.64300001 0.076662742 1.587318e-38 321 172
0.0022547867 0.64300001 0.076662742 1.5872099e-38 322 172
0.0033821799 0.64300001 0.076662742 1.5503676e-38 323 172
0.0045095733 0.64300001 0.076662742 1.5227085e-38 324 172
0.0056369668 0.64300001 0.076662742 1.49505e-38 325 172
0.0067643598 0.64300001 0.076662742 1.4858657e-38 326 172
0.0078917528 0.64300001 0.076662742 1.4213288e-38 327 172
0.00900512 0.64200002 0.076543517 1.4670296e-38 328 172
0.01013076 0.64200002 0.076543517 1.4301513e-38 329 172
0.011273934 0.64300001 0.076662742 1.4667412e-38 330 172
0.012420613 0.64399999 0.076781973 1.4574858e-38 331 172
0.01352872 0.64300001 0.076662742 1.475708e-38 332 172
0.014656113 0.64300001 0.076662742 1.4480494e-38 333 172
0.015808053 0.64399999 0.076781973 1.4111339e-38 334 172
0.0169372 0.64399999 0.076781973 1.4019143e-38 335 172
0.018066347 0.64399999 0.076781973 1.3834386e-38 336 172
0.019255107 0.64600003 0.077020429 1.3649635e-38 337 172
0.020387759 0.64600003 0.077020429 1.3280859e-38 338 172
-0.0056720334 0.64700001 0.07600525 1.0783334e-38 315 173
-0.0045306133 0.64600003 0.075887777 1.0070258e-38 316 173
-0.00339796 0.64600003 0.075887777 1.3481855e-38 317 173
-0.0022653067 0.64600003 0.075887777 1.6333444e-38 318 173
-0.0011326533 0.64600003 0.075887777 1.6794056e-38 319 173
0 0.64600003 0.075887777 1.6242326e-38 320 173
0.0011291467 0.64399999 0.075652823 1.578135e-38 321 173
0.0022582933 0.64399999 0.075652823 1.5873183e-38 322 173
0.0033874398 0.64399999 0.075652823 1.5596238e-38 323 173
0.0045165867 0.64399999 0.075652823 1.5778465e-38 324 173
0.0056457333 0.64399999 0.075652823 1.5778465e-38 325 173
0.0067748795 0.64399999 0.075652823 1.5410032e-38 326 173
0.0079040267 0.64399999 0.075652823 1.4949053e-38 327 173
0.0090191467 0.64300001 0.07553535 1.5406789e-38 328 173
0.01014654 0.64300001 0.07553535 1.5130201e-38 329 173
0.011291467 0.64399999 0.075652823 1.5311347e-38 330 173
0.012420613 0.64399999 0.075652823 1.5035118e-38 331 173
0.013549759 0.64399999 0.075652823 1.5033315e-38 332 173
0.014678906 0.64399999 0.075652823 1.44805e-38 333 173
0.015857147 0.64600003 0.075887777 1.3836197e-38 334 173
0.016989801 0.64600003 0.075887777 1.3744001e-38 335 173
0.018122453 0.64600003 0.075887777 1.3650718e-38 336 173
0.019255107 0.64600003 0.075887777 1.2820956e-38 337 173
-0.0045306133 0.64600003 0.074755117 8.1280005e-39 316 174
-0.00339796 0.64600003 0.074755117 1.1908021e-38 317 174
-0.0022653067 0.64600003 0.074755117 1.4395546e-38 318 174
-0.0011326533 0.64600003 0.074755117 1.633165e-38 319 174
0 0.64700001 0.07487084 1.6608233e-38 320 174
0.0011326533 0.64600003 0.074755117 1.6608233e-38 321 174
0.0022653067 0.64600003 0.074755117 1.6240888e-38 322 174
0.0033874398 0.64399999 0.074523672 1.6148692e-38 323 174
0.0045165867 0.64399999 0.074523672 1.6147962e-38 324 174
0.0056457333 0.64399999 0.074523672 1.5779181e-38 325 174
0.0067748795 0.64399999 0.074523672 1.5318915e-38 326 174
0.0079040267 0.64399999 0.074523672 1.5134165e-38 327 174
0.0090331733 0.64399999 0.074523672 1.5590823e-38 328 174
0.01016232 0.64399999 0.074523672 1.5314596e-38 329 174
0.011326533 0.64600003 0.074755117 1.5129479e-38 330 174
0.012459187 0.64600003 0.074755117 1.4852892e-38 331 174
0.01359184 0.64600003 0.074755117 1.5033321e-38 332 174
0.014724494 0.64600003 0.074755117 1.4756373e-38 333 174
0.015857147 0.64600003 0.074755117 1.411171e-38 334 174
0.016989801 0.64600003 0.074755117 1.3558538e-38 335 174
0.018122453 0.64600003 0.074755117 1.2820966e-38 336 174
0.019255107 0.64600003 0.074755117 1.2360348e-38 337 174
-0.00113616 0.648 0.073850393 1.2827479e-38 319 175
0 0.64700001 0.073736429 1.4856154e-38 320 175
0.0011326533 0.64600003 0.073622465 1.5778112e-38 321 175
0.0022653067 0.64600003 0.073622465 1.6607869e-38 322 175
0.00339796 0.64600003 0.073622465 1.6700064e-38 323 175
0.0045306133 0.64600003 0.073622465 1.6332355e-38 324 175
0.0056632664 0.64600003 0.073622465 1.6147962e-38 325 175
0.00679592 0.64600003 0.073622465 1.6237638e-38 326 175
0.0079285735 0.64600003 0.073622465 1.6145443e-38 327 175
0.0090612266 0.64600003 0.073622465 1.5959963e-38 328 175
0.01019388 0.64600003 0.073622465 1.5683374e-38 329 175
0.011326533 0.64600003 0.073622465 1.5681205e-38 330 175
0.012459187 0.64600003 0.073622465 1.5220227e-38 331 175
0.01359184 0.64600003 0.073622465 1.5033668e-38 332 175
0.014724494 0.64600003 0.073622465 1.4480494e-38 333 175
0.015881693 0.64700001 0.073736429 1.3373777e-38 334 175
0.016989801 0.64600003 0.073622465 1.2359626e-38 335 175
0.018122453 0.64600003 0.073622465 1.0886294e-38 336 175
0 0.648 0.072714239 1.2546572e-38 320 176
0.00113616 0.648 0.072714239 1.3376333e-38 321 176
0.0022688133 0.64700001 0.072602026 1.3838757e-38 322 176
0.0034032199 0.64700001 0.072602026 1.4761072e-38 323 176
0.0045376266 0.64700001 0.072602026 1.5314962e-38 324 176
0.0056720334 0.64700001 0.072602026 1.5314962e-38 325 176
0.0068064397 0.64700001 0.072602026 1.5589385e-38 326 176
0.0079285735 0.64600003 0.072489813 1.5312797e-38 327 176
0.0090612266 0.64600003 0.072489813 1.5403542e-38 328 176
0.01019388 0.64600003 0.072489813 1.5035118e-38 329 176
0.011326533 0.64600003 0.072489813 1.4756361e-38 330 176
0.012459187 0.64600003 0.072489813 1.3926241e-38 331 176
0.01359184 0.64600003 0.072489813 1.3096114e-38 332 176
0.014747286 0.64700001 0.072602026 1.2635137e-38 333 176
0.015881693 0.64700001 0.072602026 1.1439468e-38 334 176
0.00227232 0.648 0.071578078 1.0240239e-38 322 177
0.00340848 0.648 0.071578078 1.1530978e-38 323 177
0.0045376266 0.64700001 0.071467623 1.2731319e-38 324 177
0.0056720334 0.64700001 0.071467623 1.3007908e-38 325 177
0.0068064397 0.64700001 0.071467623 1.328269e-38 326 177
0.0079408465 0.64700001 0.071467623 1.3098658e-38 327 177
0.0090752533 0.64700001 0.071467623 1.3097926e-38 328 177
0.01020966 0.64700001 0.071467623 1.2637306e-38 329 177
0.011344067 0.64700001 0.071467623 1.2082682e-38 330 177
0.012478473 0.64700001 0.071467623 1.0791943e-38 331 177
0.013612879 0.64700001 0.071467623 1.0238775e-38 332 177
0.014747286 0.64700001 0.071467623 1.0146579e-38 333 177
0.0056720334 0.64700001 0.070333213 1.1713909e-38 325 178
0.0068064397 0.64700001 0.070333213 1.1712829e-38 326 178
0.0079408465 0.64700001 0.070333213 1.1712829e-38 327 178
0.0090752533 0.64700001 0.070333213 1.1713179e-38 328 178
0.01020966 0.64700001 0.070333213 1.1529148e-38 329 178
0.011344067 0.64700001 0.070333213 1.1712095e-38 330 178
0.012478473 0.64700001 0.070333213 1.161954e-38 331 178
0.013612879 0.64700001 0.070333213 1.1990839e-38 332 178
0.014770079 0.648 0.070441917 1.2912796e-38 333 178
0.0068169599 0.648 0.069305755 1.2816637e-38 326 179
0.0079531204 0.648 0.069305755 1.2724442e-38 327 179
0.0090892799 0.648 0.069305755 1.2356735e-38 328 179
0.010225439 0.648 0.069305755 1.2725518e-38 329 179
0.0113616 0.648 0.069305755 1.3369808e-38 330 179
0.0079776663 0.64999998 0.068379998 1.6684888e-38 327 180
0.0091173323 0.64999998 0.068379998 1.6318624e-38 328 180
-0.025598666 0.73000002 0.019199001 1.3834775e-38 300 225
-0.024252106 0.72799999 0.0191464 1.3189405e-38 301 225
-0.022944121 0.727 0.019120099 1.1260092e-38 302 225
-0.021669446 0.727 0.019120099 1.0430331e-38 303 225
-0.020394772 0.727 0.019120099 9.698133e-39 304 225
-0.019014901 0.72299999 0.019014901 1.0436057e-38 305 225
-0.017747238 0.72299999 0.019014901 1.2183475e-38 306 225
-0.01647958 0.72299999 0.019014901 1.227567e-38 307 225
-0.026804959 0.72799999 0.017869972 1.5029352e-38 299 226
-0.025528532 0.72799999 0.017869972 1.4110288e-38 300 226
-0.024252106 0.72799999 0.017869972 1.3649311e-38 301 226
-0.022944121 0.727 0.017845426 1.2454697e-38 302 226
-0.021669446 0.727 0.017845426 1.199336e-38 303 226
-0.020394772 0.727 0.017845426 1.024877e-38 304 226
-0.019014901 0.72299999 0.017747238 9.6959554e-39 305 226
-0.017747238 0.72299999 0.017747238 1.0342038e-38 306 226
-0.01647958 0.72299999 0.017747238 1.1540581e-38 307 226
-0.015211919 0.72299999 0.017747238 1.2915652e-38 308 226
-0.01394426 0.72299999 0.017747238 1.208589e-38 309 226
-0.026804959 0.72799999 0.016593546 1.5397056e-38 299 227
-0.025528532 0.72799999 0.016593546 1.4478349e-38 300 227
-0.024252106 0.72799999 0.016593546 1.4109566e-38 301 227
-0.022944121 0.727 0.016570752 1.3557462e-38 302 227
-0.021669446 0.727 0.016570752 1.3280875e-38 303 227
-0.020422826 0.72799999 0.016593546 1.264121e-38 304 227
-0.019120099 0.727 0.016570752 1.1811448e-38 305 227
-0.017796334 0.72500002 0.016525166 9.6973777e-39 306 227
-0.01647958 0.72299999 0.01647958 1.0066162e-38 307 227
-0.015211919 0.72299999 0.01647958 1.0986691e-38 308 227
-0.013924973 0.722 0.016456785 1.1355473e-38 309 227
-0.012659066 0.722 0.016456785 1.2269552e-38 310 227
-0.01139316 0.722 0.016456785 1.1808934e-38 311 227
-0.010127253 0.722 0.016456785 1.2448565e-38 312 227
-0.0088613462 0.722 0.016456785 1.2079423e-38 313 227
-0.025528532 0.72799999 0.01531712 1.4754936e-38 300 228
-0.024252106 0.72799999 0.01531712 1.4570544e-38 301 228
-0.022944121 0.727 0.015296079 1.374438e-38 302 228
-0.021669446 0.727 0.015296079 1.3836577e-38 303 228
-0.020422826 0.72799999 0.01531712 1.3745781e-38 304 228
-0.0191464 0.72799999 0.01531712 1.2455042e-38 305 228
-0.017845426 0.727 0.015296079 9.1449046e-39 306 228
-0.016525166 0.72500002 0.015254001 9.1449046e-39 307 228
-0.015254001 0.72500002 0.015254001 1.0066841e-38 308 228
-0.013924973 0.722 0.015190879 1.0620015e-38 309 228
-0.012659066 0.722 0.015190879 1.0618632e-38 310 228
-0.01139316 0.722 0.015190879 1.0894859e-38 311 228
-0.010127253 0.722 0.015190879 1.18093e-38 312 228
-0.0088613462 0.722 0.015190879 1.1993691e-38 313 228
0.028158534 0.73000002 0.0153592 1.0429876e-38 342 228
0.029438468 0.73000002 0.0153592 1.098341e-38 343 228
-0.025528532 0.72799999 0.014040692 1.493897e-38 300 229
-0.024252106 0.72799999 0.014040692 1.4662743e-38 301 229
-0.022975679 0.72799999 0.014040692 1.4020611e-38 302 229
-0.021699252 0.72799999 0.014040692 1.4297197e-38 303 229
-0.020478934 0.73000002 0.014079267 1.4298607e-38 304 229
-0.0191464 0.72799999 0.014040692 1.2730923e-38 305 229
-0.017869972 0.72799999 0.014040692 9.1438382e-39 306 229
-0.016570752 0.727 0.014021406 9.3278693e-39 307 229
-0.015254001 0.72500002 0.013982833 9.4236215e-39 308 229
-0.01394426 0.72299999 0.01394426 9.6080127e-39 309 229
-0.012676599 0.72299999 0.01394426 9.2410463e-39 310 229
-0.01139316 0.722 0.013924973 9.5176346e-39 311 229
