# .PCD v.7 - Point Cloud Data file format
FIELDS x y z rgb imX imY
SIZE 4 4 4 4 4 4
TYPE F F F F F F
COUNT 1 1 1 1 1 1
WIDTH 825
HEIGHT 1
VIEWPOINT 0 0 0 1 0 0 0
POINTS 825
DATA ascii
0.0011852533 0.676 -0.0047410131 7.7408456e-39 321 244
0.0023705065 0.676 -0.0047410131 7.9252242e-39 322 244
0.0035557596 0.676 -0.0047410131 7.0958237e-39 323 244
0.0047550397 0.67799997 -0.0047550397 5.6278823e-39 324 244
0.0059437994 0.67799997 -0.0047550397 7.3792405e-39 325 244
0.0071325595 0.67799997 -0.0047550397 9.6801754e-39 326 244
0.0083213197 0.67799997 -0.0047550397 1.0048598e-38 327 244
0.0095100794 0.67799997 -0.0047550397 1.0323371e-38 328 244
0.010714619 0.67900002 -0.0047620535 1.0323371e-38 329 244
0.011905133 0.67900002 -0.0047620535 1.0506674e-38 330 244
0.013095647 0.67900002 -0.0047620535 1.0506674e-38 331 244
0.01428616 0.67900002 -0.0047620535 1.0690705e-38 332 244
0.015499466 0.68000001 -0.0047690663 1.0506674e-38 333 244
0.016740825 0.68199998 -0.004783093 1.0506324e-38 334 244
0.017936599 0.68199998 -0.004783093 1.0506324e-38 335 244
0.019160427 0.68300003 -0.0047901068 1.068928e-38 336 244
0.020387759 0.68400002 -0.0047971201 1.068928e-38 337 244
0.021650158 0.68599999 -0.0048111463 1.0872598e-38 338 244
0.022886258 0.68699998 -0.0048181596 9.3056307e-39 339 244
0.024090799 0.68699998 -0.0048181596 7.7401169e-39 340 244
0.02533216 0.68800002 -0.0048251734 7.9245082e-39 341 244
0.026538454 0.68800002 -0.0048251734 7.8312377e-39 342 244
0.027825398 0.69 -0.0048391996 7.5546495e-39 343 244
0.029035198 0.69 -0.0048391996 1.0228676e-38 344 244
0.0303765 0.69300002 -0.00486024 1.3086742e-38 345 244
-0.037884273 0.69700003 -0.0061103669 1.6129546e-38 289 245
-0.036662199 0.69700003 -0.0061103669 1.6221742e-38 290 245
-0.035440128 0.69700003 -0.0061103669 1.6590525e-38 291 245
-0.034218054 0.69700003 -0.0061103669 1.5116471e-38 292 245
-0.032948639 0.69599998 -0.0061015999 1.2903415e-38 293 245
-0.031728316 0.69599998 -0.0061015999 6.9096276e-39 294 245
-0.0303765 0.69300002 -0.0060753003 4.3285087e-39 295 245
-0.029077278 0.69099998 -0.0060577663 3.7796677e-39 296 245
-0.027744746 0.68800002 -0.0060314666 4.701624e-39 297 245
-0.026538454 0.68800002 -0.0060314666 5.4384884e-39 298 245
-0.025295338 0.68699998 -0.0060226996 4.7009233e-39 299 245
-0.024055731 0.68599999 -0.0060139326 4.2413871e-39 300 245
-0.022852944 0.68599999 -0.0060139326 4.8867565e-39 301 245
-0.021650158 0.68599999 -0.0060139326 4.7956427e-39 302 245
-0.020387759 0.68400002 -0.0059964 3.7811321e-39 303 245
-0.019160427 0.68300003 -0.0059876335 2.8591814e-39 304 245
-0.017962901 0.68300003 -0.0059876335 4.0577245e-39 305 245
-0.016740825 0.68199998 -0.005978866 4.0591707e-39 306 245
-0.015499466 0.68000001 -0.0059613334 4.2432018e-39 307 245
-0.01428616 0.67900002 -0.0059525664 5.2562649e-39 308 245
-0.013095647 0.67900002 -0.0059525664 4.7952868e-39 309 245
-0.011887599 0.67799997 -0.0059437994 5.3437788e-39 310 245
-0.010698839 0.67799997 -0.0059437994 5.3437788e-39 311 245
-0.0095100794 0.67799997 -0.0059437994 3.6878476e-39 312 245
-0.0083213197 0.67799997 -0.0059437994 4.9785864e-39 313 245
-0.0071325595 0.67799997 -0.0059437994 7.0940384e-39 314 245
-0.0059262668 0.676 -0.0059262668 6.448669e-39 315 245
-0.0047410131 0.676 -0.0059262668 4.9749865e-39 316 245
-0.0035557596 0.676 -0.0059262668 5.5281603e-39 317 245
-0.0023705065 0.676 -0.0059262668 5.6246747e-39 318 245
-0.0011852533 0.676 -0.0059262668 5.809066e-39 319 245
0 0.676 -0.0059262668 5.8051003e-39 320 245
0.0011852533 0.676 -0.0059262668 5.2519265e-39 321 245
0.0023705065 0.676 -0.0059262668 5.0657374e-39 322 245
0.0035557596 0.676 -0.0059262668 4.5125636e-39 323 245
0.0047550397 0.67799997 -0.0059437994 1.5745312e-39 324 245
0.0059437994 0.67799997 -0.0059437994 4.616987e-39 325 245
0.0071325595 0.67799997 -0.0059437994 8.7593051e-39 326 245
0.0083213197 0.67799997 -0.0059437994 9.5894245e-39 327 245
0.0095100794 0.67799997 -0.0059437994 9.9560336e-39 328 245
0.010714619 0.67900002 -0.0059525664 1.0048229e-38 329 245
0.011905133 0.67900002 -0.0059525664 1.0505968e-38 330 245
0.013114933 0.68000001 -0.0059613334 1.0505968e-38 331 245
0.014307199 0.68000001 -0.0059613334 1.0505968e-38 332 245
0.015545053 0.68199998 -0.005978866 1.0505968e-38 333 245
0.016740825 0.68199998 -0.005978866 1.0505968e-38 334 245
0.017962901 0.68300003 -0.0059876335 1.0505968e-38 335 245
0.019160427 0.68300003 -0.0059876335 1.068928e-38 336 245
0.020387759 0.68400002 -0.0059964 1.0597084e-38 337 245
0.021650158 0.68599999 -0.0060139326 1.0779676e-38 338 245
0.022886258 0.68699998 -0.0060226996 9.4892961e-39 339 245
0.024090799 0.68699998 -0.0060226996 8.1081764e-39 340 245
0.02533216 0.68800002 -0.0060314666 7.9237865e-39 341 245
0.026615599 0.69 -0.0060489997 7.5557327e-39 342 245
0.027825398 0.69 -0.0060489997 7.0021987e-39 343 245
0.029077278 0.69099998 -0.0060577663 1.0043563e-38 344 245
0.0303765 0.69300002 -0.0060753003 1.3178214e-38 345 245
-0.037884273 0.69700003 -0.00733244 1.6588001e-38 289 246
-0.036662199 0.69700003 -0.00733244 1.6496884e-38 290 246
-0.035440128 0.69700003 -0.00733244 1.6773471e-38 291 246
-0.034218054 0.69700003 -0.00733244 1.5206871e-38 292 246
-0.032948639 0.69599998 -0.0073219193 1.3731381e-38 293 246
-0.031728316 0.69599998 -0.0073219193 1.1519768e-38 294 246
-0.030420333 0.69400001 -0.0073008798 9.2148784e-39 295 246
-0.029161438 0.69300002 -0.0072903596 7.2794919e-39 296 246
-0.027825398 0.69 -0.0072587994 7.0025449e-39 297 246
-0.026538454 0.68800002 -0.0072377604 5.3473647e-39 298 246
-0.025295338 0.68699998 -0.0072272392 4.2410186e-39 299 246
-0.024055731 0.68599999 -0.0072167199 3.778967e-39 300 246
-0.022852944 0.68599999 -0.0072167199 5.1619015e-39 301 246
-0.021650158 0.68599999 -0.0072167199 4.8889075e-39 302 246
-0.020447372 0.68599999 -0.0072167199 4.1513425e-39 303 246
-0.01918848 0.68400002 -0.0071956799 4.5154573e-39 304 246
-0.017962901 0.68300003 -0.0071851597 4.8842384e-39 305 246
-0.016740825 0.68199998 -0.00717464 4.5154629e-39 306 246
-0.015545053 0.68199998 -0.00717464 4.9760823e-39 307 246
-0.014307199 0.68000001 -0.0071535995 5.71652e-39 308 246
-0.013114933 0.68000001 -0.0071535995 4.5179782e-39 309 246
-0.011905133 0.67900002 -0.0071430802 2.6701182e-39 310 246
-0.010698839 0.67799997 -0.0071325595 2.6701182e-39 311 246
-0.0095100794 0.67799997 -0.0071325595 2.0294179e-39 312 246
-0.0083213197 0.67799997 -0.0071325595 6.8235906e-39 313 246
-0.0071325595 0.67799997 -0.0071325595 8.8439631e-39 314 246
-0.0059262668 0.676 -0.0071115191 7.9220069e-39 315 246
-0.0047410131 0.676 -0.0071115191 6.0813439e-39 316 246
-0.0035557596 0.676 -0.0071115191 4.513658e-39 317 246
-0.0023705065 0.676 -0.0071115191 2.4929128e-39 318 246
-0.0011852533 0.676 -0.0071115191 2.7695011e-39 319 246
0 0.676 -0.0071115191 3.6867686e-39 320 246
0.0011887599 0.67799997 -0.0071325595 3.6867686e-39 321 246
0.0023705065 0.676 -0.0071115191 5.6153182e-39 322 246
0.0035557596 0.676 -0.0071115191 6.3528833e-39 323 246
0.0047550397 0.67799997 -0.0071325595 4.0591413e-39 324 246
0.0059437994 0.67799997 -0.0071325595 5.165849e-39 325 246
0.0071325595 0.67799997 -0.0071325595 8.2068558e-39 326 246
0.0083213197 0.67799997 -0.0071325595 9.6819859e-39 327 246
0.009524107 0.67900002 -0.0071430802 1.0047876e-38 328 246
0.010714619 0.67900002 -0.0071430802 1.0047876e-38 329 246
0.011905133 0.67900002 -0.0071430802 1.0506689e-38 330 246
0.013114933 0.68000001 -0.0071535995 1.0414494e-38 331 246
0.014307199 0.68000001 -0.0071535995 1.0505968e-38 332 246
0.015545053 0.68199998 -0.00717464 1.0505968e-38 333 246
0.016740825 0.68199998 -0.00717464 1.050597e-38 334 246
0.017962901 0.68300003 -0.0071851597 1.050597e-38 335 246
0.019160427 0.68300003 -0.0071851597 1.0689283e-38 336 246
0.020447372 0.68599999 -0.0072167199 1.0597087e-38 337 246
0.021650158 0.68599999 -0.0072167199 1.0321578e-38 338 246
0.022886258 0.68699998 -0.0072272392 9.0308389e-39 339 246
0.024125867 0.68800002 -0.0072377604 8.2003692e-39 340 246
0.025405798 0.69 -0.0072587994 8.2925648e-39 341 246
0.026615599 0.69 -0.0072587994 7.5560816e-39 342 246
0.027865725 0.69099998 -0.0072693196 6.7263209e-39 343 246
0.029077278 0.69099998 -0.0072693196 9.9517176e-39 344 246
0.0303765 0.69300002 -0.0072903596 1.327076e-38 345 246
-0.037884273 0.69700003 -0.0085545136 1.6863143e-38 289 247
-0.036662199 0.69700003 -0.0085545136 1.6772029e-38 290 247
-0.035440128 0.69700003 -0.0085545136 1.6956062e-38 291 247
-0.034218054 0.69700003 -0.0085545136 1.4653342e-38 292 247
-0.032948639 0.69599998 -0.0085422397 1.3547353e-38 293 247
-0.031637147 0.69400001 -0.0085176928 1.2351331e-38 294 247
-0.030420333 0.69400001 -0.0085176928 1.2166581e-38 295 247
-0.029161438 0.69300002 -0.0085054198 1.0966591e-38 296 247
-0.027825398 0.69 -0.0084686 9.5836568e-39 297 247
-0.026538454 0.68800002 -0.0084440531 6.5440919e-39 298 247
-0.02533216 0.68800002 -0.0084440531 4.3317555e-39 299 247
-0.024090799 0.68699998 -0.0084317802 3.8646733e-39 300 247
-0.022852944 0.68599999 -0.0084195063 6.9993247e-39 301 247
-0.021650158 0.68599999 -0.0084195063 5.7143508e-39 302 247
-0.020447372 0.68599999 -0.0084195063 4.7923931e-39 303 247
-0.01918848 0.68400002 -0.0083949603 4.3303486e-39 304 247
-0.017962901 0.68300003 -0.0083826864 4.6987724e-39 305 247
-0.016765373 0.68300003 -0.0083826864 5.7143536e-39 306 247
-0.015545053 0.68199998 -0.0083704125 6.267526e-39 307 247
-0.01434928 0.68199998 -0.0083704125 7.3738707e-39 308 247
-0.013153506 0.68199998 -0.0083704125 5.8991008e-39 309 247
-0.011922667 0.68000001 -0.0083458666 3.7735889e-39 310 247
-0.010714619 0.67900002 -0.0083335936 3.5895577e-39 311 247
-0.0095100794 0.67799997 -0.0083213197 2.7651879e-39 312 247
-0.0083213197 0.67799997 -0.0083213197 7.8355874e-39 313 247
-0.0071325595 0.67799997 -0.0083213197 9.2138247e-39 314 247
-0.0059437994 0.67799997 -0.0083213197 7.9230859e-39 315 247
-0.0047550397 0.67799997 -0.0083213197 6.3568518e-39 316 247
-0.0035662798 0.67799997 -0.0083213197 4.3285479e-39 317 247
-0.0023775198 0.67799997 -0.0083213197 2.8602534e-39 318 247
-0.0011887599 0.67799997 -0.0083213197 3.1368416e-39 319 247
0 0.67799997 -0.0083213197 3.8700879e-39 320 247
0.0011887599 0.67799997 -0.0083213197 4.0544777e-39 321 247
0.0023705065 0.676 -0.0082967728 4.9757124e-39 322 247
0.0035557596 0.676 -0.0082967728 5.6210818e-39 323 247
0.0047550397 0.67799997 -0.0083213197 4.5212012e-39 324 247
0.0059437994 0.67799997 -0.0083213197 5.3509619e-39 325 247
0.0071325595 0.67799997 -0.0083213197 8.480926e-39 326 247
0.0083213197 0.67799997 -0.0083213197 9.9556959e-39 327 247
0.009524107 0.67900002 -0.0083335936 9.6801698e-39 328 247
0.010714619 0.67900002 -0.0083335936 9.9567553e-39 329 247
0.011905133 0.67900002 -0.0083335936 1.050597e-38 330 247
0.013114933 0.68000001 -0.0083458666 1.050597e-38 331 247
0.014307199 0.68000001 -0.0083458666 1.050597e-38 332 247
0.015545053 0.68199998 -0.0083704125 1.050597e-38 333 247
0.016765373 0.68300003 -0.0083826864 1.050597e-38 334 247
0.017962901 0.68300003 -0.0083826864 1.050597e-38 335 247
0.01918848 0.68400002 -0.0083949603 1.0872951e-38 336 247
0.020447372 0.68599999 -0.0084195063 1.0872951e-38 337 247
0.021681719 0.68699998 -0.0084317802 1.0596364e-38 338 247
0.022886258 0.68699998 -0.0084317802 9.2134295e-39 339 247
0.024125867 0.68800002 -0.0084440531 7.6489947e-39 340 247
0.025405798 0.69 -0.0084686 7.9255802e-39 341 247
0.026654173 0.69099998 -0.008480873 7.7401113e-39 342 247
0.027946379 0.69300002 -0.0085054198 7.1872963e-39 343 247
0.029161438 0.69300002 -0.0085054198 1.0504519e-38 344 247
0.0303765 0.69300002 -0.0085054198 1.3546974e-38 345 247
-0.037884273 0.69700003 -0.0097765867 1.6954973e-38 289 248
-0.036662199 0.69700003 -0.0097765867 1.6956418e-38 290 248
-0.035440128 0.69700003 -0.0097765867 1.7048613e-38 291 248
-0.034218054 0.69700003 -0.0097765867 1.4192717e-38 292 248
-0.032948639 0.69599998 -0.0097625591 1.2256608e-38 293 248
-0.031637147 0.69400001 -0.0097345067 1.1890345e-38 294 248
-0.030420333 0.69400001 -0.0097345067 1.2535715e-38 295 248
-0.029161438 0.69300002 -0.0097204801 1.2535362e-38 296 248
-0.027825398 0.69 -0.0096783992 1.1889992e-38 297 248
-0.026538454 0.68800002 -0.0096503468 1.0230838e-38 298 248
-0.02533216 0.68800002 -0.0096503468 7.7419148e-39 299 248
-0.024090799 0.68699998 -0.0096363192 4.9839618e-39 300 248
-0.022852944 0.68599999 -0.0096222926 5.5367769e-39 301 248
-0.021650158 0.68599999 -0.0096222926 5.9923684e-39 302 248
-0.020447372 0.68599999 -0.0096222926 4.7938252e-39 303 248
-0.01918848 0.68400002 -0.0095942402 4.4243309e-39 304 248
-0.017962901 0.68300003 -0.0095802136 5.0697003e-39 305 248
-0.016765373 0.68300003 -0.0095802136 7.7433735e-39 306 248
-0.015567848 0.68300003 -0.0095802136 7.8359279e-39 307 248
-0.01434928 0.68199998 -0.009566186 7.655131e-39 308 248
-0.013153506 0.68199998 -0.009566186 6.0874451e-39 309 248
-0.011957732 0.68199998 -0.009566186 5.800434e-39 310 248
-0.0107304 0.68000001 -0.0095381327 5.7082383e-39 311 248
-0.009524107 0.67900002 -0.009524107 3.0449991e-39 312 248
-0.0083213197 0.67799997 -0.0095100794 6.8246598e-39 313 248
-0.0071325595 0.67799997 -0.0095100794 8.8443317e-39 314 248
-0.0059437994 0.67799997 -0.0095100794 6.8160278e-39 315 248
-0.0047550397 0.67799997 -0.0095100794 5.0686339e-39 316 248
-0.0035662798 0.67799997 -0.0095100794 4.3310688e-39 317 248
-0.0023775198 0.67799997 -0.0095100794 3.4123495e-39 318 248
-0.0011887599 0.67799997 -0.0095100794 3.3201539e-39 319 248
0 0.67799997 -0.0095100794 3.8704438e-39 320 248
0.0011887599 0.67799997 -0.0095100794 4.2388662e-39 321 248
0.0023775198 0.67799997 -0.0095100794 5.1600994e-39 322 248
0.0035662798 0.67799997 -0.0095100794 5.6214377e-39 323 248
0.0047550397 0.67799997 -0.0095100794 4.1531418e-39 324 248
0.0059525664 0.67900002 -0.009524107 5.2591292e-39 325 248
0.0071325595 0.67799997 -0.0095100794 8.8486323e-39 326 248
0.0083213197 0.67799997 -0.0095100794 1.0231567e-38 327 248
0.009524107 0.67900002 -0.009524107 1.0322668e-38 328 248
0.0107304 0.68000001 -0.0095381327 1.0322668e-38 329 248
0.011922667 0.68000001 -0.0095381327 1.0505614e-38 330 248
0.013153506 0.68199998 -0.009566186 1.0413419e-38 331 248
0.01434928 0.68199998 -0.009566186 1.050597e-38 332 248
0.015545053 0.68199998 -0.009566186 1.050597e-38 333 248
0.016765373 0.68300003 -0.0095802136 1.068928e-38 334 248
0.017962901 0.68300003 -0.0095802136 1.068928e-38 335 248
0.01918848 0.68400002 -0.0095942402 1.068928e-38 336 248
0.020447372 0.68599999 -0.0096222926 1.0781834e-38 337 248
0.021681719 0.68699998 -0.0096363192 1.0597087e-38 338 248
0.022886258 0.68699998 -0.0096363192 9.2141512e-39 339 248
0.024125867 0.68800002 -0.0096503468 7.9266592e-39 340 248
0.025442619 0.69099998 -0.0096924258 7.9266592e-39 341 248
0.02673132 0.69300002 -0.0097204801 8.1081736e-39 342 248
0.027986705 0.69400001 -0.0097345067 7.739391e-39 343 248
0.02932976 0.69700003 -0.0097765867 1.1056976e-38 344 248
-0.039330769 0.70099998 -0.011061779 1.6954973e-38 288 249
-0.038101684 0.70099998 -0.011061779 1.6954973e-38 289 249
-0.036662199 0.69700003 -0.01099866 1.6772026e-38 290 249
-0.035440128 0.69700003 -0.01099866 1.7048613e-38 291 249
-0.034218054 0.69700003 -0.01099866 1.4377104e-38 292 249
-0.032948639 0.69599998 -0.010982879 1.1795626e-38 293 249
-0.031728316 0.69599998 -0.010982879 9.6783705e-39 294 249
-0.030420333 0.69400001 -0.01095132 9.9553175e-39 295 249
-0.029161438 0.69300002 -0.010935539 9.9578497e-39 296 249
-0.027865725 0.69099998 -0.01090398 1.0142242e-38 297 249
-0.026615599 0.69 -0.010888199 1.0602147e-38 298 249
-0.02533216 0.68800002 -0.010856641 1.032556e-38 299 249
-0.024090799 0.68699998 -0.010840859 8.7618246e-39 300 249
-0.022886258 0.68699998 -0.010840859 8.8540203e-39 301 249
-0.021681719 0.68699998 -0.010840859 9.3074454e-39 302 249
-0.020477179 0.68699998 -0.010840859 7.5557299e-39 303 249
-0.019244585 0.68599999 -0.010825079 5.8998042e-39 304 249
-0.0179892 0.68400002 -0.01079352 5.8072499e-39 305 249
-0.016765373 0.68300003 -0.01077774 5.9026909e-39 306 249
-0.015567848 0.68300003 -0.01077774 6.640256e-39 307 249
-0.014370319 0.68300003 -0.01077774 7.5604172e-39 308 249
-0.013172794 0.68300003 -0.01077774 6.0849284e-39 309 249
-0.011957732 0.68199998 -0.010761959 6.0780971e-39 310 249
-0.0107304 0.68000001 -0.0107304 6.6312708e-39 311 249
-0.009524107 0.67900002 -0.010714619 3.8761975e-39 312 249
-0.0083335936 0.67900002 -0.010714619 3.6921664e-39 313 249
-0.0071430802 0.67900002 -0.010714619 6.539448e-39 314 249
-0.0059437994 0.67799997 -0.010698839 5.6171315e-39 315 249
-0.0047550397 0.67799997 -0.010698839 4.7934889e-39 316 249
-0.0035662798 0.67799997 -0.010698839 4.0559239e-39 317 249
-0.0023775198 0.67799997 -0.010698839 2.8595345e-39 318 249
-0.0011887599 0.67799997 -0.010698839 2.9517301e-39 319 249
0 0.67799997 -0.010698839 3.5023844e-39 320 249
0.0011887599 0.67799997 -0.010698839 3.6864155e-39 321 249
0.0023775198 0.67799997 -0.010698839 4.9746362e-39 322 249
0.0035715401 0.67900002 -0.010714619 6.0813439e-39 323 249
0.0047620535 0.67900002 -0.010714619 4.796356e-39 324 249
0.0059525664 0.67900002 -0.010714619 4.8885516e-39 325 249
0.0071325595 0.67799997 -0.010698839 7.6533289e-39 326 249
0.0083213197 0.67799997 -0.010698839 9.4050459e-39 327 249
0.0095381327 0.68000001 -0.0107304 1.0598535e-38 328 249
0.010761959 0.68199998 -0.010761959 1.0506339e-38 329 249
0.011957732 0.68199998 -0.010761959 1.0414494e-38 330 249
0.013153506 0.68199998 -0.010761959 1.0321939e-38 331 249
0.01434928 0.68199998 -0.010761959 1.050597e-38 332 249
0.015567848 0.68300003 -0.01077774 1.0413775e-38 333 249
0.016765373 0.68300003 -0.01077774 1.0413772e-38 334 249
0.0179892 0.68400002 -0.01079352 1.0413772e-38 335 249
0.01918848 0.68400002 -0.01079352 1.068928e-38 336 249
0.020447372 0.68599999 -0.010825079 1.0597084e-38 337 249
0.021681719 0.68699998 -0.010840859 1.0136828e-38 338 249
0.022919573 0.68800002 -0.010856641 9.4914583e-39 339 249
0.024195999 0.69 -0.010888199 9.029411e-39 340 249
0.02551626 0.69300002 -0.010935539 8.5684314e-39 341 249
0.026769891 0.69400001 -0.01095132 8.1074575e-39 342 249
0.028107686 0.69700003 -0.01099866 7.8305105e-39 343 249
0.02932976 0.69700003 -0.01099866 1.0965144e-38 344 249
0.030551834 0.69700003 -0.01099866 1.3823567e-38 345 249
-0.038101684 0.70099998 -0.012290866 1.6771301e-38 289 250
-0.036872596 0.70099998 -0.012290866 1.6679831e-38 290 250
-0.035490975 0.69800001 -0.012238266 1.6956418e-38 291 250
-0.034267146 0.69800001 -0.012238266 1.4378187e-38 292 250
-0.03299598 0.69700003 -0.012220734 1.2442079e-38 293 250
-0.031728316 0.69599998 -0.0122032 8.4794798e-39 294 250
-0.030420333 0.69400001 -0.012168133 7.8341104e-39 295 250
-0.029161438 0.69300002 -0.012150601 7.7433763e-39 296 250
-0.027865725 0.69099998 -0.012115533 8.7578884e-39 297 250
-0.026615599 0.69 -0.012097999 9.4061403e-39 298 250
-0.02533216 0.68800002 -0.012062933 1.0789076e-38 299 250
-0.024090799 0.68699998 -0.012045399 1.1525545e-38 300 250
-0.022886258 0.68699998 -0.012045399 1.1617741e-38 301 250
-0.021681719 0.68699998 -0.012045399 1.1245353e-38 302 250
-0.020477179 0.68699998 -0.012045399 9.3092447e-39 303 250
-0.019244585 0.68599999 -0.012027865 7.0994166e-39 304 250
-0.0179892 0.68400002 -0.0119928 5.8086778e-39 305 250
-0.016789921 0.68400002 -0.0119928 5.3484213e-39 306 250
-0.01559064 0.68400002 -0.0119928 5.6250096e-39 307 250
-0.014370319 0.68300003 -0.011975267 7.3691862e-39 308 250
-0.013172794 0.68300003 -0.011975267 6.5394241e-39 309 250
-0.011975267 0.68300003 -0.011975267 5.8980218e-39 310 250
-0.010761959 0.68199998 -0.011957732 6.7277825e-39 311 250
-0.0095381327 0.68000001 -0.011922667 4.8871097e-39 312 250
-0.0083335936 0.67900002 -0.011905133 3.1353927e-39 313 250
-0.0071430802 0.67900002 -0.011905133 4.4200177e-39 314 250
-0.0059525664 0.67900002 -0.011905133 4.7888002e-39 315 250
-0.0047550397 0.67799997 -0.011887599 4.3325136e-39 316 250
-0.0035662798 0.67799997 -0.011887599 3.3180015e-39 317 250
-0.0023775198 0.67799997 -0.011887599 2.213812e-39 318 250
-0.0011887599 0.67799997 -0.011887599 2.6747901e-39 319 250
0 0.67799997 -0.011887599 3.1343207e-39 320 250
0.0011905134 0.67900002 -0.011905133 3.1343207e-39 321 250
0.0023810267 0.67900002 -0.011905133 5.0668318e-39 322 250
0.0035715401 0.67900002 -0.011905133 6.4497663e-39 323 250
0.0047620535 0.67900002 -0.011905133 4.7956399e-39 324 250
0.0059613334 0.68000001 -0.011922667 4.7034443e-39 325 250
0.0071535995 0.68000001 -0.011922667 6.8235654e-39 326 250
0.0083458666 0.68000001 -0.011922667 9.1288149e-39 327 250
0.0095381327 0.68000001 -0.011922667 1.0230828e-38 328 250
0.010761959 0.68199998 -0.011957732 1.0138633e-38 329 250
0.011957732 0.68199998 -0.011957732 1.013863e-38 330 250
0.013153506 0.68199998 -0.011957732 1.0046433e-38 331 250
0.014370319 0.68300003 -0.011975267 1.0046077e-38 332 250
0.015567848 0.68300003 -0.011975267 9.9538812e-39 333 250
0.016789921 0.68400002 -0.0119928 1.013791e-38 334 250
0.0179892 0.68400002 -0.0119928 1.013791e-38 335 250
0.019244585 0.68599999 -0.012027865 1.0321939e-38 336 250
0.020447372 0.68599999 -0.012027865 1.0137907e-38 337 250
0.021681719 0.68699998 -0.012045399 9.8620387e-39 338 250
0.022919573 0.68800002 -0.012062933 9.4010606e-39 339 250
0.024231065 0.69099998 -0.012115533 9.2138008e-39 340 250
0.025553079 0.69400001 -0.012168133 8.7528241e-39 341 250
0.026885614 0.69700003 -0.012220734 8.200372e-39 342 250
0.028148014 0.69800001 -0.012238266 7.9237865e-39 343 250
0.029371841 0.69800001 -0.012238266 1.087403e-38 344 250
-0.039330769 0.70099998 -0.013519952 1.6771301e-38 288 251
-0.038101684 0.70099998 -0.013519952 1.6771301e-38 289 251
-0.036872596 0.70099998 -0.013519952 1.6587635e-38 290 251
-0.035592664 0.69999999 -0.013500666 1.6772026e-38 291 251
-0.034267146 0.69800001 -0.013462093 1.4838089e-38 292 251
-0.03299598 0.69700003 -0.013442807 1.354735e-38 293 251
-0.031728316 0.69599998 -0.013423519 1.0968406e-38 294 251
-0.030507999 0.69599998 -0.013423519 9.2170477e-39 295 251
-0.029161438 0.69300002 -0.01336566 7.835209e-39 296 251
-0.027865725 0.69099998 -0.013327086 8.6646096e-39 297 251
-0.026615599 0.69 -0.0133078 8.3927086e-39 298 251
-0.02533216 0.68800002 -0.013269227 9.4990562e-39 299 251
-0.024090799 0.68699998 -0.013249939 1.0879104e-38 300 251
-0.022886258 0.68699998 -0.013249939 1.1432278e-38 301 251
-0.021681719 0.68699998 -0.013249939 1.0877289e-38 302 251
-0.020477179 0.68699998 -0.013249939 8.6645941e-39 303 251
-0.019244585 0.68599999 -0.013230653 6.2732461e-39 304 251
-0.0179892 0.68400002 -0.01319208 6.9186155e-39 305 251
-0.016789921 0.68400002 -0.01319208 9.2184714e-39 306 251
-0.01559064 0.68400002 -0.01319208 7.2823631e-39 307 251
-0.01439136 0.68400002 -0.01319208 5.9876811e-39 308 251
-0.01319208 0.68400002 -0.01319208 7.2784199e-39 309 251
-0.011975267 0.68300003 -0.013172794 8.9408307e-39 310 251
-0.010761959 0.68199998 -0.013153506 9.2170589e-39 311 251
-0.0095381327 0.68000001 -0.013114933 8.4812917e-39 312 251
-0.0083458666 0.68000001 -0.013114933 7.7437267e-39 313 251
-0.0071535995 0.68000001 -0.013114933 7.6490101e-39 314 251
-0.0059525664 0.67900002 -0.013095647 7.2805877e-39 315 251
-0.0047620535 0.67900002 -0.013095647 6.9154107e-39 316 251
-0.0035662798 0.67799997 -0.013076359 6.5469883e-39 317 251
-0.0023775198 0.67799997 -0.013076359 6.5444702e-39 318 251
-0.0011905134 0.67900002 -0.013095647 6.7285013e-39 319 251
0 0.67900002 -0.013095647 6.7299335e-39 320 251
0.0011905134 0.67900002 -0.013095647 6.7299335e-39 321 251
0.0023810267 0.67900002 -0.013095647 8.0181555e-39 322 251
0.0035715401 0.67900002 -0.013095647 8.5709706e-39 323 251
0.0047620535 0.67900002 -0.013095647 7.8362782e-39 324 251
0.0059613334 0.68000001 -0.013114933 7.8362782e-39 325 251
0.0071535995 0.68000001 -0.013114933 8.756787e-39 326 251
0.0083458666 0.68000001 -0.013114933 9.9553302e-39 327 251
0.009566186 0.68199998 -0.013153506 1.0230825e-38 328 251
0.010761959 0.68199998 -0.013153506 9.9542371e-39 329 251
0.011975267 0.68300003 -0.013172794 9.8602451e-39 330 251
0.013172794 0.68300003 -0.013172794 9.7680494e-39 331 251
0.014370319 0.68300003 -0.013172794 9.9506442e-39 332 251
0.015567848 0.68300003 -0.013172794 1.0226872e-38 333 251
0.016789921 0.68400002 -0.01319208 1.0136112e-38 334 251
0.018041799 0.68599999 -0.013230653 1.0320503e-38 335 251
0.019244585 0.68599999 -0.013230653 1.0045711e-38 336 251
0.020447372 0.68599999 -0.013230653 1.0045711e-38 337 251
0.021681719 0.68699998 -0.013249939 9.8609639e-39 338 251
0.022919573 0.68800002 -0.013269227 9.4003445e-39 339 251
0.024301201 0.69300002 -0.01336566 9.0294138e-39 340 251
0.025553079 0.69400001 -0.013384946 8.5680755e-39 341 251
0.026885614 0.69700003 -0.013442807 8.2918488e-39 342 251
0.028148014 0.69800001 -0.013462093 8.1996531e-39 343 251
0.029371841 0.69800001 -0.013462093 1.0965146e-38 344 251
0.030595668 0.69800001 -0.013462093 1.3823211e-38 345 251
-0.038264744 0.704 -0.014812159 1.6771301e-38 289 252
-0.037030395 0.704 -0.014812159 1.6679108e-38 290 252
-0.035643511 0.70099998 -0.014749039 1.6863499e-38 291 252
-0.034365334 0.69999999 -0.014727999 1.4838092e-38 292 252
-0.033043321 0.69800001 -0.01468592 1.3915777e-38 293 252
-0.03177391 0.69700003 -0.01466488 1.1707773e-38 294 252
-0.030551834 0.69700003 -0.01466488 1.0785815e-38 295 252
-0.029203519 0.69400001 -0.01460176 8.9433488e-39 296 252
-0.027946379 0.69300002 -0.014580719 8.4820106e-39 297 252
-0.026654173 0.69099998 -0.014538639 7.1026788e-39 298 252
-0.025405798 0.69 -0.014517599 8.0246365e-39 299 252
-0.024195999 0.69 -0.014517599 9.9564246e-39 300 252
-0.022919573 0.68800002 -0.014475521 1.0325207e-38 301 252
-0.021713281 0.68800002 -0.014475521 9.6816173e-39 302 252
-0.020477179 0.68699998 -0.014454478 7.5611178e-39 303 252
-0.019272638 0.68699998 -0.014454478 6.5509092e-39 304 252
-0.018041799 0.68599999 -0.01443344 8.579213e-39 305 252
-0.016839013 0.68599999 -0.01443344 1.133969e-38 306 252
-0.015636226 0.68599999 -0.01443344 1.0141147e-38 307 252
-0.01443344 0.68599999 -0.01443344 6.0834696e-39 308 252
-0.01319208 0.68400002 -0.01439136 7.0972614e-39 309 252
-0.0119928 0.68400002 -0.01439136 1.023192e-38 310 252
-0.01077774 0.68300003 -0.014370319 1.0692898e-38 311 252
-0.009566186 0.68199998 -0.01434928 1.0234441e-38 312 252
-0.0083704125 0.68199998 -0.01434928 1.0234441e-38 313 252
-0.0071535995 0.68000001 -0.014307199 1.0417034e-38 314 252
-0.0059613334 0.68000001 -0.014307199 9.6794691e-39 315 252
-0.0047620535 0.67900002 -0.01428616 9.6801852e-39 316 252
-0.0035715401 0.67900002 -0.01428616 9.7727396e-39 317 252
-0.0023810267 0.67900002 -0.01428616 9.8631345e-39 318 252
-0.0011905134 0.67900002 -0.01428616 9.7709375e-39 319 252
0 0.67900002 -0.01428616 9.772371e-39 320 252
0.0011922666 0.68000001 -0.014307199 9.9564022e-39 321 252
0.0023845332 0.68000001 -0.014307199 1.0323743e-38 322 252
0.0035767998 0.68000001 -0.014307199 1.0415938e-38 323 252
0.0047690663 0.68000001 -0.014307199 9.9567497e-39 324 252
0.005978866 0.68199998 -0.01434928 9.7727185e-39 325 252
0.00717464 0.68199998 -0.01434928 9.9567525e-39 326 252
0.0083704125 0.68199998 -0.01434928 9.6805257e-39 327 252
0.009566186 0.68199998 -0.01434928 9.6783705e-39 328 252
0.010761959 0.68199998 -0.01434928 9.0330011e-39 329 252
0.011975267 0.68300003 -0.014370319 8.755338e-39 330 252
0.013172794 0.68300003 -0.014370319 8.3869156e-39 331 252
0.014370319 0.68300003 -0.014370319 8.5705936e-39 332 252
0.01559064 0.68400002 -0.01439136 8.8475407e-39 333 252
0.016789921 0.68400002 -0.01439136 9.1244933e-39 334 252
0.018041799 0.68599999 -0.01443344 9.2170477e-39 335 252
0.019244585 0.68599999 -0.01443344 9.4025123e-39 336 252
0.020477179 0.68699998 -0.014454478 9.3103167e-39 337 252
0.021713281 0.68800002 -0.014475521 9.2173952e-39 338 252
0.022986198 0.69 -0.014517599 8.9408083e-39 339 252
0.024301201 0.69300002 -0.014580719 9.0279789e-39 340 252
0.025553079 0.69400001 -0.01460176 8.4751638e-39 341 252
0.026885614 0.69700003 -0.01466488 7.9237893e-39 342 252
0.028148014 0.69800001 -0.01468592 7.6468423e-39 343 252
0.029371841 0.69800001 -0.01468592 1.0872948e-38 344 252
0.030595668 0.69800001 -0.01468592 1.3638817e-38 345 252
-0.037030395 0.704 -0.016046507 1.6587635e-38 290 253
-0.035745207 0.70300001 -0.016023712 1.6772026e-38 291 253
-0.034414422 0.70099998 -0.015978126 1.4838092e-38 292 253
-0.033043321 0.69800001 -0.015909746 1.3731384e-38 293 253
-0.031819493 0.69800001 -0.015909746 1.1432628e-38 294 253
-0.030551834 0.69700003 -0.015886955 1.1340432e-38 295 253
-0.029287677 0.69599998 -0.015864158 1.0419201e-38 296 253
-0.027986705 0.69400001 -0.015818574 9.4972443e-39 297 253
-0.026654173 0.69099998 -0.015750192 8.7586017e-39 298 253
-0.025405798 0.69 -0.015727401 8.574209e-39 299 253
-0.024195999 0.69 -0.015727401 8.6638907e-39 300 253
-0.022919573 0.68800002 -0.015681813 8.9404776e-39 301 253
-0.021713281 0.68800002 -0.015681813 8.4838098e-39 302 253
-0.020506985 0.68800002 -0.015681813 8.115386e-39 303 253
-0.019272638 0.68699998 -0.015659019 8.2097271e-39 304 253
-0.018068098 0.68699998 -0.015659019 9.5926615e-39 305 253
-0.01686356 0.68699998 -0.015659019 1.1062757e-38 306 253
-0.015659019 0.68699998 -0.015659019 1.0878364e-38 307 253
-0.014454478 0.68699998 -0.015659019 7.1026606e-39 308 253
-0.013230653 0.68599999 -0.015636226 6.6413223e-39 309 253
-0.0119928 0.68400002 -0.01559064 8.760024e-39 310 253
-0.01077774 0.68300003 -0.015567848 8.760024e-39 311 253
-0.0095802136 0.68300003 -0.015567848 8.2083019e-39 312 253
-0.0083704125 0.68199998 -0.015545053 8.8536713e-39 313 253
-0.00717464 0.68199998 -0.015545053 9.1295352e-39 314 253
-0.005978866 0.68199998 -0.015545053 9.1295352e-39 315 253
-0.0047690663 0.68000001 -0.015499466 1.0507786e-38 316 253
-0.0035767998 0.68000001 -0.015499466 1.0507786e-38 317 253
-0.0023845332 0.68000001 -0.015499466 1.0416304e-38 318 253
-0.0011922666 0.68000001 -0.015499466 1.0232273e-38 319 253
0 0.68000001 -0.015499466 1.0784365e-38 320 253
0.0011922666 0.68000001 -0.015499466 1.0784365e-38 321 253
0.0023845332 0.68000001 -0.015499466 1.0050753e-38 322 253
0.0035767998 0.68000001 -0.015499466 9.9581972e-39 323 253
0.004783093 0.68199998 -0.015545053 9.6819705e-39 324 253
0.005978866 0.68199998 -0.015545053 9.6819705e-39 325 253
0.00717464 0.68199998 -0.015545053 9.5876196e-39 326 253
0.0083704125 0.68199998 -0.015545053 9.034806e-39 327 253
0.009566186 0.68199998 -0.015545053 8.1096183e-39 328 253
0.01077774 0.68300003 -0.015567848 6.8188809e-39 329 253
0.011975267 0.68300003 -0.015567848 6.6359372e-39 330 253
0.013172794 0.68300003 -0.015567848 6.6359372e-39 331 253
0.014370319 0.68300003 -0.015567848 6.2703916e-39 332 253
0.01559064 0.68400002 -0.01559064 7.1927081e-39 333 253
0.016839013 0.68599999 -0.015636226 8.936865e-39 334 253
0.018068098 0.68699998 -0.015659019 9.3978432e-39 335 253
0.019272638 0.68699998 -0.015659019 8.8493385e-39 336 253
0.020506985 0.68800002 -0.015681813 9.1255653e-39 337 253
0.021776399 0.69 -0.015727401 9.032648e-39 338 253
0.023019511 0.69099998 -0.015750192 8.6642256e-39 339 253
0.024336265 0.69400001 -0.015818574 8.5691559e-39 340 253
0.025626717 0.69599998 -0.015864158 8.200372e-39 341 253
0.026885614 0.69700003 -0.015886955 7.6457535e-39 342 253
0.028107686 0.69700003 -0.015886955 6.8159942e-39 343 253
0.029371841 0.69800001 -0.015909746 1.0321928e-38 344 253
0.030595668 0.69800001 -0.015909746 1.3733168e-38 345 253
-0.037030395 0.704 -0.017280852 1.6678752e-38 290 254
-0.035796054 0.704 -0.017280852 1.6863143e-38 291 254
-0.034414422 0.70099998 -0.017207211 1.4653342e-38 292 254
-0.033137999 0.69999999 -0.017182667 1.3455157e-38 293 254
-0.031819493 0.69800001 -0.017133573 1.1433347e-38 294 254
-0.030551834 0.69700003 -0.017109027 1.115712e-38 295 254
-0.029287677 0.69599998 -0.017084479 1.0421722e-38 296 254
-0.028067358 0.69599998 -0.017084479 9.7763521e-39 297 254
-0.02673132 0.69300002 -0.01701084 9.2231755e-39 298 254
-0.025442619 0.69099998 -0.016961746 8.4856105e-39 299 254
-0.024195999 0.69 -0.0169372 7.5607829e-39 300 254
-0.022986198 0.69 -0.0169372 7.5607829e-39 301 254
-0.021776399 0.69 -0.0169372 8.1161077e-39 302 254
-0.020506985 0.68800002 -0.016888106 8.3005004e-39 303 254
-0.019300694 0.68800002 -0.016888106 8.2104501e-39 304 254
-0.018068098 0.68699998 -0.01686356 9.3167977e-39 305 254
-0.01686356 0.68699998 -0.01686356 1.0048973e-38 306 254
-0.015659019 0.68699998 -0.01686356 9.7723864e-39 307 254
-0.014454478 0.68699998 -0.01686356 6.4580073e-39 308 254
-0.013230653 0.68599999 -0.016839013 6.273616e-39 309 254
-0.0119928 0.68400002 -0.016789921 8.4830699e-39 310 254
-0.01077774 0.68300003 -0.016765373 8.4830699e-39 311 254
-0.0095802136 0.68300003 -0.016765373 7.9281207e-39 312 254
-0.0083826864 0.68300003 -0.016765373 7.8359251e-39 313 254
-0.0071851597 0.68300003 -0.016765373 7.6522569e-39 314 254
-0.005978866 0.68199998 -0.016740825 8.5742118e-39 315 254
-0.004783093 0.68199998 -0.016740825 1.0045729e-38 316 254
-0.0035767998 0.68000001 -0.016691733 9.9535337e-39 317 254
-0.0023845332 0.68000001 -0.016691733 9.1244961e-39 318 254
-0.0011922666 0.68000001 -0.016691733 8.5713237e-39 319 254
0 0.68199998 -0.016740825 9.2170477e-39 320 254
0.0011957732 0.68199998 -0.016740825 9.8624171e-39 321 254
0.0023915465 0.68199998 -0.016740825 9.220279e-39 322 254
0.00358732 0.68199998 -0.016740825 9.3128334e-39 323 254
0.004783093 0.68199998 -0.016740825 9.8631317e-39 324 254
0.005978866 0.68199998 -0.016740825 9.5869036e-39 325 254
0.00717464 0.68199998 -0.016740825 9.493273e-39 326 254
0.0083704125 0.68199998 -0.016740825 8.0185031e-39 327 254
0.0095802136 0.68300003 -0.016765373 7.4639028e-39 328 254
0.01079352 0.68400002 -0.016789921 6.4497508e-39 329 254
0.0119928 0.68400002 -0.016789921 5.254816e-39 330 254
0.01319208 0.68400002 -0.016789921 4.8860349e-39 331 254
0.01443344 0.68599999 -0.016839013 4.9818262e-39 332 254
0.015636226 0.68599999 -0.016839013 6.2725651e-39 333 254
0.016839013 0.68599999 -0.016839013 7.1905585e-39 334 254
0.018068098 0.68699998 -0.01686356 7.7433735e-39 335 254
0.019272638 0.68699998 -0.01686356 8.1135854e-39 336 254
0.020506985 0.68800002 -0.016888106 8.2983354e-39 337 254
0.021807959 0.69099998 -0.016961746 8.2976067e-39 338 254
0.02308614 0.69300002 -0.01701084 7.8366285e-39 339 254
0.024336265 0.69400001 -0.017035386 8.1078232e-39 340 254
0.025626717 0.69599998 -0.017084479 7.5546495e-39 341 254
0.026885614 0.69700003 -0.017109027 6.7263153e-39 342 254
0.028107686 0.69700003 -0.017109027 6.0809459e-39 343 254
0.029371841 0.69800001 -0.017133573 1.0871862e-38 344 254
0.030595668 0.69800001 -0.017133573 1.4559328e-38 345 254
-0.037135597 0.70599997 -0.018567799 1.649544e-38 290 255
-0.035897743 0.70599997 -0.018567799 1.6587635e-38 291 255
-0.034659892 0.70599997 -0.018567799 1.4470029e-38 292 255
-0.033137999 0.69999999 -0.018409999 1.3087095e-38 293 255
-0.031819493 0.69800001 -0.0183574 1.0789781e-38 294 255
-0.030595668 0.69800001 -0.0183574 1.0605031e-38 295 255
-0.02932976 0.69700003 -0.018331099 9.9611133e-39 296 255
-0.028067358 0.69599998 -0.018304799 9.5001352e-39 297 255
-0.02673132 0.69300002 -0.018225901 9.4082927e-39 298 255
-0.025442619 0.69099998 -0.0181733 9.03915e-39 299 255
-0.024195999 0.69 -0.018146999 8.1157518e-39 300 255
-0.022986198 0.69 -0.018146999 7.5625794e-39 301 255
-0.021776399 0.69 -0.018146999 8.117551e-39 302 255
-0.020506985 0.68800002 -0.0180944 8.2097467e-39 303 255
-0.019300694 0.68800002 -0.0180944 8.2093767e-39 304 255
-0.0180944 0.68800002 -0.0180944 7.9327898e-39 305 255
-0.016888106 0.68800002 -0.0180944 6.5480547e-39 306 255
-0.015659019 0.68699998 -0.018068098 5.7182927e-39 307 255
-0.014454478 0.68699998 -0.018068098 5.5353335e-39 308 255
-0.013230653 0.68599999 -0.018041799 6.1807029e-39 309 255
-0.012027865 0.68599999 -0.018041799 8.5766991e-39 310 255
-0.01079352 0.68400002 -0.0179892 8.3919477e-39 311 255
-0.0095942402 0.68400002 -0.0179892 7.4660538e-39 312 255
-0.0083949603 0.68400002 -0.0179892 7.2813038e-39 313 255
-0.0071851597 0.68300003 -0.017962901 7.0962049e-39 314 255
-0.0059876335 0.68300003 -0.017962901 7.3731519e-39 315 255
-0.0047901068 0.68300003 -0.017962901 7.7415645e-39 316 255
-0.00358732 0.68199998 -0.017936599 7.3727833e-39 317 255
-0.0023915465 0.68199998 -0.017936599 6.8185334e-39 318 255
-0.0011975267 0.68300003 -0.017962901 6.4497508e-39 319 255
0 0.68300003 -0.017962901 6.7259804e-39 320 255
0.0011975267 0.68300003 -0.017962901 7.3713498e-39 321 255
0.0023915465 0.68199998 -0.017936599 6.640256e-39 322 255
0.00358732 0.68199998 -0.017936599 7.4700166e-39 323 255
0.0047901068 0.68300003 -0.017962901 8.6667549e-39 324 255
0.0059876335 0.68300003 -0.017962901 8.6667549e-39 325 255
0.0071851597 0.68300003 -0.017962901 8.7546388e-39 326 255
0.0083826864 0.68300003 -0.017962901 7.2795073e-39 327 255
0.0095942402 0.68400002 -0.0179892 6.3572049e-39 328 255
0.01079352 0.68400002 -0.0179892 5.1586617e-39 329 255
0.012027865 0.68599999 -0.018041799 3.687863e-39 330 255
0.013230653 0.68599999 -0.018041799 3.8722557e-39 331 255
0.01443344 0.68599999 -0.018041799 4.2435521e-39 332 255
0.015636226 0.68599999 -0.018041799 5.1658672e-39 333 255
0.01686356 0.68699998 -0.018068098 7.0029274e-39 334 255
0.0180944 0.68800002 -0.0180944 7.9245236e-39 335 255
0.019300694 0.68800002 -0.0180944 8.0210254e-39 336 255
0.020566599 0.69 -0.018146999 8.3894492e-39 337 255
0.021807959 0.69099998 -0.0181733 8.1117861e-39 338 255
0.02308614 0.69300002 -0.018225901 7.5586123e-39 339 255
0.024336265 0.69400001 -0.0182522 7.5553795e-39 340 255
0.025663542 0.69700003 -0.018331099 7.2784325e-39 341 255
0.026885614 0.69700003 -0.018331099 7.0018288e-39 342 255
0.028107686 0.69700003 -0.018331099 7.0018288e-39 343 255
0.029371841 0.69800001 -0.0183574 1.1333203e-38 344 255
0.030595668 0.69800001 -0.0183574 1.4283823e-38 345 255
-0.037188202 0.70700002 -0.019833706 1.6219932e-38 290 256
-0.035948593 0.70700002 -0.019833706 1.6496158e-38 291 256
-0.034708988 0.70700002 -0.019833706 1.465406e-38 292 256
-0.03318534 0.70099998 -0.019665385 1.3363322e-38 293 256
-0.031910665 0.69999999 -0.019637333 1.0697585e-38 294 256
-0.030595668 0.69800001 -0.019581227 1.0328804e-38 295 256
-0.02932976 0.69700003 -0.019553173 9.7767207e-39 296 256
-0.028067358 0.69599998 -0.019525118 9.4079395e-39 297 256
-0.026769891 0.69400001 -0.019469013 9.4086556e-39 298 256
-0.02551626 0.69300002 -0.01944096 8.9480362e-39 299 256
-0.024231065 0.69099998 -0.019384852 8.578532e-39 300 256
-0.023019511 0.69099998 -0.019384852 8.4859762e-39 301 256
-0.021776399 0.69 -0.019356798 8.4863322e-39 302 256
-0.020566599 0.69 -0.019356798 8.4863322e-39 303 256
-0.019300694 0.68800002 -0.019300694 7.9327898e-39 304 256
-0.0180944 0.68800002 -0.019300694 7.5640073e-39 305 256
-0.016888106 0.68800002 -0.019300694 5.6278963e-39 306 256
-0.015681813 0.68800002 -0.019300694 5.1669181e-39 307 256
-0.014454478 0.68699998 -0.019272638 6.3629432e-39 308 256
-0.013230653 0.68599999 -0.019244585 7.5614864e-39 309 256
-0.012027865 0.68599999 -0.019244585 9.3124775e-39 310 256
-0.01079352 0.68400002 -0.01918848 8.7593051e-39 311 256
-0.0095942402 0.68400002 -0.01918848 7.9291927e-39 312 256
-0.0083949603 0.68400002 -0.01918848 7.2838233e-39 313 256
-0.0071956799 0.68400002 -0.01918848 7.1001607e-39 314 256
-0.0059876335 0.68300003 -0.019160427 7.1923577e-39 315 256
-0.0047901068 0.68300003 -0.019160427 7.1001551e-39 316 256
-0.0035925799 0.68300003 -0.019160427 6.8235682e-39 317 256
-0.0023950534 0.68300003 -0.019160427 6.6381036e-39 318 256
-0.0011975267 0.68300003 -0.019160427 6.6381036e-39 319 256
0 0.68300003 -0.019160427 6.72923e-39 320 256
0.0011975267 0.68300003 -0.019160427 7.0054582e-39 321 256
0.0023950534 0.68300003 -0.019160427 7.0068931e-39 322 256
0.0035925799 0.68300003 -0.019160427 7.6522625e-39 323 256
0.0047901068 0.68300003 -0.019160427 8.2057866e-39 324 256
0.0059876335 0.68300003 -0.019160427 8.1132322e-39 325 256
0.0071851597 0.68300003 -0.019160427 8.0177996e-39 326 256
0.0083826864 0.68300003 -0.019160427 6.5426681e-39 327 256
0.0095942402 0.68400002 -0.01918848 5.3462956e-39 328 256
0.01079352 0.68400002 -0.01918848 4.4239805e-39 329 256
0.012027865 0.68599999 -0.019244585 3.5981883e-39 330 256
0.013230653 0.68599999 -0.019244585 3.690384e-39 331 256
0.014454478 0.68699998 -0.019272638 3.7822237e-39 332 256
0.015659019 0.68699998 -0.019272638 4.2432018e-39 333 256
0.01686356 0.68699998 -0.019272638 5.4410093e-39 334 256
0.0180944 0.68800002 -0.019300694 6.5473569e-39 335 256
0.019300694 0.68800002 -0.019300694 7.7455245e-39 336 256
0.020596405 0.69099998 -0.019384852 7.7455245e-39 337 256
0.021871079 0.69300002 -0.01944096 7.7437295e-39 338 256
0.02308614 0.69300002 -0.01944096 7.09836e-39 339 256
0.024336265 0.69400001 -0.019469013 7.3713498e-39 340 256
0.025663542 0.69700003 -0.019553173 7.0029274e-39 341 256
0.026885614 0.69700003 -0.019553173 7.0958237e-39 342 256
0.028107686 0.69700003 -0.019553173 7.6489975e-39 343 256
0.02932976 0.69700003 -0.019553173 1.161015e-38 344 256
0.030814834 0.70300001 -0.019721493 1.4191628e-38 345 256
-0.035948593 0.70700002 -0.021073313 1.6587991e-38 291 257
-0.034708988 0.70700002 -0.021073313 1.5022123e-38 292 257
-0.03332736 0.704 -0.020983893 1.3915777e-38 293 257
-0.031956252 0.70099998 -0.020894472 1.0787983e-38 294 257
-0.030683333 0.69999999 -0.020864666 1.0327005e-38 295 257
-0.029371841 0.69800001 -0.020805053 9.1309953e-39 296 257
-0.028107686 0.69700003 -0.020775247 8.8547686e-39 297 257
-0.026847038 0.69599998 -0.020745439 8.4881468e-39 298 257
-0.02551626 0.69300002 -0.020656019 8.5803425e-39 299 257
-0.024231065 0.69099998 -0.020596405 8.6721752e-39 300 257
-0.023019511 0.69099998 -0.020596405 8.0268058e-39 301 257
-0.021807959 0.69099998 -0.020596405 7.9328067e-39 302 257
-0.020566599 0.69 -0.020566599 8.0250023e-39 303 257
-0.019300694 0.68800002 -0.020506985 7.7480455e-39 304 257
-0.0180944 0.68800002 -0.020506985 6.6416979e-39 305 257
-0.016888106 0.68800002 -0.020506985 5.5371454e-39 306 257
-0.015681813 0.68800002 -0.020506985 5.9062881e-39 307 257
-0.014454478 0.68699998 -0.020477179 7.3785371e-39 308 257
-0.013230653 0.68599999 -0.020447372 8.3930491e-39 309 257
-0.012027865 0.68599999 -0.020447372 9.3146453e-39 310 257
-0.010825079 0.68599999 -0.020447372 8.7614715e-39 311 257
-0.0096222926 0.68599999 -0.020447372 8.3004976e-39 312 257
-0.0083949603 0.68400002 -0.020387759 7.9317136e-39 313 257
-0.0071956799 0.68400002 -0.020387759 7.7480427e-39 314 257
-0.0059964 0.68400002 -0.020387759 7.655847e-39 315 257
-0.0047901068 0.68300003 -0.020357953 7.656203e-39 316 257
-0.0035925799 0.68300003 -0.020357953 7.5640073e-39 317 257
-0.0023950534 0.68300003 -0.020357953 7.2877736e-39 318 257
-0.0011975267 0.68300003 -0.020357953 7.1033823e-39 319 257
0 0.68300003 -0.020357953 7.3788874e-39 320 257
0.0011975267 0.68300003 -0.020357953 7.4714418e-39 321 257
0.0023950534 0.68300003 -0.020357953 7.7465979e-39 322 257
0.0035925799 0.68300003 -0.020357953 7.9309892e-39 323 257
0.0047901068 0.68300003 -0.020357953 7.930992e-39 324 257
0.0059964 0.68400002 -0.020387759 7.6544037e-39 325 257
0.0071956799 0.68400002 -0.020387759 7.925604e-39 326 257
0.0083949603 0.68400002 -0.020387759 6.6348652e-39 327 257
0.0096222926 0.68599999 -0.020447372 5.2548188e-39 328 257
0.010825079 0.68599999 -0.020447372 4.6094494e-39 329 257
0.012045399 0.68699998 -0.020477179 4.0580875e-39 330 257
0.013249939 0.68699998 -0.020477179 3.6896651e-39 331 257
0.014454478 0.68699998 -0.020477179 3.5963961e-39 332 257
0.015659019 0.68699998 -0.020477179 3.9648199e-39 333 257
0.016888106 0.68800002 -0.020506985 5.1651455e-39 334 257
0.018146999 0.69 -0.020566599 6.2714931e-39 335 257
0.019356798 0.69 -0.020566599 7.0097644e-39 336 257
0.020596405 0.69099998 -0.020596405 7.0097644e-39 337 257
0.021871079 0.69300002 -0.020656019 7.283473e-39 338 257
0.023119451 0.69400001 -0.020685827 6.8224962e-39 339 257
0.0244064 0.69599998 -0.020745439 6.9125269e-39 340 257
0.025663542 0.69700003 -0.020775247 7.096558e-39 341 257
0.026885614 0.69700003 -0.020775247 7.6497163e-39 342 257
0.028107686 0.69700003 -0.020775247 8.2028901e-39 343 257
0.029582238 0.70300001 -0.020954086 1.1794541e-38 344 257
0.030814834 0.70300001 -0.020954086 1.4376019e-38 345 257
-0.034708988 0.70700002 -0.022312919 1.5482379e-38 292 258
-0.033422034 0.70599997 -0.022281358 1.4468227e-38 293 258
-0.031956252 0.70099998 -0.022123558 1.0233011e-38 294 258
-0.030683333 0.69999999 -0.022091998 8.1128721e-39 295 258
-0.029371841 0.69800001 -0.02202888 5.3534954e-39 296 258
-0.028107686 0.69700003 -0.02199732 7.0133769e-39 297 258
-0.026847038 0.69599998 -0.021965759 7.5687115e-39 298 258
-0.025553079 0.69400001 -0.021902639 7.7534629e-39 299 258
-0.024301201 0.69300002 -0.021871079 7.5661948e-39 300 258
-0.023019511 0.69099998 -0.021807959 5.2613026e-39 301 258
-0.021807959 0.69099998 -0.021807959 5.0733156e-39 302 258
-0.020566599 0.69 -0.021776399 5.1655112e-39 303 258
-0.019356798 0.69 -0.021776399 4.4301014e-39 304 258
-0.0180944 0.68800002 -0.021713281 3.8769276e-39 305 258
-0.016888106 0.68800002 -0.021713281 4.6155647e-39 306 258
-0.015681813 0.68800002 -0.021713281 6.0906947e-39 307 258
-0.014475521 0.68800002 -0.021713281 8.5778061e-39 308 258
-0.013249939 0.68699998 -0.021681719 8.5778061e-39 309 258
-0.012045399 0.68699998 -0.021681719 8.4874098e-39 310 258
-0.010825079 0.68599999 -0.021650158 8.3030171e-39 311 258
-0.0096222926 0.68599999 -0.021650158 8.3937806e-39 312 258
-0.0083949603 0.68400002 -0.02158704 8.1175538e-39 313 258
-0.0071956799 0.68400002 -0.02158704 8.0253582e-39 314 258
-0.0059964 0.68400002 -0.02158704 7.8406068e-39 315 258
-0.0047901068 0.68300003 -0.02155548 7.565815e-39 316 258
-0.0035925799 0.68300003 -0.02155548 7.6583708e-39 317 258
-0.0023950534 0.68300003 -0.02155548 7.3821342e-39 318 258
-0.0011975267 0.68300003 -0.02155548 7.3821342e-39 319 258
0 0.68300003 -0.02155548 7.5658024e-39 320 258
0.0011975267 0.68300003 -0.02155548 7.5658024e-39 321 258
0.0023950534 0.68300003 -0.02155548 7.5650863e-39 322 258
0.0035925799 0.68300003 -0.02155548 7.7491174e-39 323 258
0.0047901068 0.68300003 -0.02155548 8.0231904e-39 324 258
0.0059964 0.68400002 -0.02158704 7.7462448e-39 325 258
0.0071956799 0.68400002 -0.02158704 8.6613726e-39 326 258
0.0083949603 0.68400002 -0.02158704 7.4628294e-39 327 258
0.0096222926 0.68599999 -0.021650158 5.0718681e-39 328 258
0.010825079 0.68599999 -0.021650158 4.4264987e-39 329 258
0.012045399 0.68699998 -0.021681719 3.7807817e-39 330 258
0.013249939 0.68699998 -0.021681719 3.5967492e-39 331 258
0.014475521 0.68800002 -0.021713281 3.5967492e-39 332 258
0.015681813 0.68800002 -0.021713281 4.5183468e-39 333 258
0.016888106 0.68800002 -0.021713281 5.9012686e-39 334 258
0.018146999 0.69 -0.021776399 6.546638e-39 335 258
0.019356798 0.69 -0.021776399 6.7328145e-39 336 258
0.020656019 0.69300002 -0.021871079 6.9175659e-39 337 258
0.021871079 0.69300002 -0.021871079 7.0076064e-39 338 258
0.023119451 0.69400001 -0.021902639 6.5469883e-39 339 258
0.0244064 0.69599998 -0.021965759 7.1880347e-39 340 258
0.025663542 0.69700003 -0.02199732 7.5568173e-39 341 258
0.026885614 0.69700003 -0.02199732 8.4773162e-39 342 258
0.028107686 0.69700003 -0.02199732 8.9379342e-39 343 258
0.029582238 0.70300001 -0.02218668 1.1794544e-38 344 258
0.030858666 0.704 -0.022218239 1.4375663e-38 345 258
0.032093015 0.704 -0.022218239 1.6311397e-38 346 258
-0.034708988 0.70700002 -0.023552528 1.5574206e-38 292 259
-0.03332736 0.704 -0.023452586 1.4744444e-38 293 259
-0.031956252 0.70099998 -0.023352645 1.0137573e-38 294 259
-0.030683333 0.69999999 -0.023319334 7.0029218e-39 295 259
-0.029455997 0.69999999 -0.023319334 4.2413871e-39 296 259
-0.028148014 0.69800001 -0.023252707 7.4682342e-39 297 259
-0.026885614 0.69700003 -0.023219392 9.6809293e-39 298 259
-0.025626717 0.69599998 -0.023186078 9.0355599e-39 299 259
-0.024301201 0.69300002 -0.02308614 7.6544303e-39 300 259
-0.023019511 0.69099998 -0.023019511 4.7960057e-39 301 259
