# .PCD v.7 - Point Cloud Data file format
FIELDS x y z rgb imX imY
SIZE 4 4 4 4 4 4
TYPE F F F F F F
COUNT 1 1 1 1 1 1
WIDTH 848
HEIGHT 1
VIEWPOINT 0 0 0 1 0 0 0
POINTS 848
DATA ascii
0.017813865 0.63499999 0.087955967 1.8716059e-38 336 161
0.018927233 0.63499999 0.087955967 1.7241289e-38 337 161
0.0200406 0.63499999 0.087955967 1.6044914e-38 338 161
0.021120653 0.634 0.087817445 1.4385034e-38 339 161
0.022232266 0.634 0.087817445 1.364747e-38 340 161
-0.00675384 0.64200002 0.087799914 1.5311344e-38 314 162
-0.0055931332 0.63800001 0.087252878 1.8077571e-38 315 162
-0.0044745067 0.63800001 0.087252878 1.6334158e-38 316 162
-0.00335588 0.63800001 0.087252878 1.6334158e-38 317 162
-0.0022372534 0.63800001 0.087252878 1.688625e-38 318 162
-0.0011168733 0.63700002 0.087116122 1.7439416e-38 319 162
0 0.63700002 0.087116122 1.8542512e-38 320 162
0.0011168733 0.63700002 0.087116122 1.8265927e-38 321 162
0.0022302398 0.63599998 0.086979352 1.9273575e-38 322 162
0.0033453598 0.63599998 0.086979352 1.8996987e-38 323 162
0.0044604796 0.63599998 0.086979352 1.936288e-38 324 162
0.0055755996 0.63599998 0.086979352 1.8994099e-38 325 162
0.0066907196 0.63599998 0.086979352 1.8993016e-38 326 162
0.0077935657 0.63499999 0.086842597 1.908557e-38 327 162
0.0089069325 0.63499999 0.086842597 1.9084495e-38 328 162
0.0100203 0.63499999 0.086842597 1.8900104e-38 329 162
0.011116133 0.634 0.086705834 1.8808632e-38 330 162
0.012227747 0.634 0.086705834 1.8716436e-38 331 162
0.013339359 0.634 0.086705834 1.8716792e-38 332 162
0.014473766 0.63499999 0.086842597 1.8624596e-38 333 162
0.015587131 0.63499999 0.086842597 1.8531675e-38 334 162
0.016726799 0.63599998 0.086979352 1.8255088e-38 335 162
0.017813865 0.63499999 0.086842597 1.7608644e-38 336 162
0.018927233 0.63499999 0.086842597 1.6225709e-38 337 162
0.0200406 0.63499999 0.086842597 1.4661982e-38 338 162
0.021120653 0.634 0.086705834 1.3924058e-38 339 162
0.022232266 0.634 0.086705834 1.4014812e-38 340 162
-0.0067643598 0.64300001 0.086809285 1.4942934e-38 314 163
-0.0056281998 0.64200002 0.08667428 1.7616607e-38 315 163
-0.0044745067 0.63800001 0.086134247 1.6240891e-38 316 163
-0.00335588 0.63800001 0.086134247 1.6424921e-38 317 163
-0.0022372534 0.63800001 0.086134247 1.6425997e-38 318 163
-0.0011186267 0.63800001 0.086134247 1.6794415e-38 319 163
0 0.63700002 0.08599925 1.7623446e-38 320 163
0.0011168733 0.63700002 0.08599925 1.771564e-38 321 163
0.0022337467 0.63700002 0.08599925 1.8909134e-38 322 163
0.0033453598 0.63599998 0.085864238 1.8909134e-38 323 163
0.0044604796 0.63599998 0.085864238 1.9734203e-38 324 163
0.0055755996 0.63599998 0.085864238 1.9181029e-38 325 163
0.0066907196 0.63599998 0.085864238 1.9088108e-38 326 163
0.0077935657 0.63499999 0.085729234 1.8903717e-38 327 163
0.0089069325 0.63499999 0.085729234 1.9178862e-38 328 163
0.0100203 0.63499999 0.085729234 1.9086666e-38 329 163
0.011133666 0.63499999 0.085729234 1.8994821e-38 330 163
0.012247032 0.63499999 0.085729234 1.8902625e-38 331 163
0.013339359 0.634 0.085594222 1.8626757e-38 332 163
0.014450972 0.634 0.085594222 1.8442366e-38 333 163
0.015587131 0.63499999 0.085729234 1.7703726e-38 334 163
0.016726799 0.63599998 0.085864238 1.6505541e-38 335 163
0.017813865 0.63499999 0.085729234 1.5490308e-38 336 163
0.018927233 0.63499999 0.085729234 1.4660547e-38 337 163
0.020072158 0.63599998 0.085864238 1.3648916e-38 338 163
0.021120653 0.634 0.085594222 1.3464525e-38 339 163
0.022232266 0.634 0.085594222 1.4014092e-38 340 163
-0.00679592 0.64600003 0.086081654 1.4759624e-38 314 164
-0.0056457333 0.64399999 0.085815147 1.7248905e-38 315 164
-0.0044955462 0.64099997 0.085415386 1.5966099e-38 316 164
-0.0033663998 0.63999999 0.085282132 1.6058295e-38 317 164
-0.0022372534 0.63800001 0.085015625 1.6333803e-38 318 164
-0.0011186267 0.63800001 0.085015625 1.6518191e-38 319 164
0 0.63800001 0.085015625 1.6702579e-38 320 164
0.0011168733 0.63700002 0.084882379 1.6794774e-38 321 164
0.0022337467 0.63700002 0.084882379 1.734614e-38 322 164
0.0033453598 0.63599998 0.084749117 1.734614e-38 323 164
0.0044604796 0.63599998 0.084749117 1.8079736e-38 324 164
0.0055755996 0.63599998 0.084749117 1.7803508e-38 325 164
0.0066907196 0.63599998 0.084749117 1.7987171e-38 326 164
0.0077935657 0.63499999 0.084615864 1.7987171e-38 327 164
0.0089069325 0.63499999 0.084615864 1.8352711e-38 328 164
0.0100203 0.63499999 0.084615864 1.8168319e-38 329 164
0.011133666 0.63499999 0.084615864 1.7983558e-38 330 164
0.012247032 0.63499999 0.084615864 1.752258e-38 331 164
0.013339359 0.634 0.08448261 1.715272e-38 332 164
0.014450972 0.634 0.08448261 1.6968327e-38 333 164
0.015587131 0.63499999 0.084615864 1.5494999e-38 334 164
0.016726799 0.63599998 0.084749117 1.4941826e-38 335 164
0.017813865 0.63499999 0.084615864 1.3928027e-38 336 164
0.018927233 0.63499999 0.084615864 1.3558885e-38 337 164
0.020072158 0.63599998 0.084749117 1.3924427e-38 338 164
0.021187279 0.63599998 0.084749117 1.36482e-38 339 164
-0.0079531204 0.648 0.085211992 1.4015922e-38 313 165
-0.00679592 0.64600003 0.084949002 1.4852539e-38 314 165
-0.0056632664 0.64600003 0.084949002 1.6973038e-38 315 165
-0.00450256 0.64200002 0.084422998 1.5873183e-38 316 165
-0.00337692 0.64200002 0.084422998 1.6057216e-38 317 165
-0.0022477731 0.64099997 0.084291495 1.6057937e-38 318 165
-0.0011221332 0.63999999 0.08416 1.6241967e-38 319 165
0 0.63800001 0.083897002 1.6242326e-38 320 165
0.0011186267 0.63800001 0.083897002 1.6242326e-38 321 165
0.0022337467 0.63700002 0.083765499 1.6517468e-38 322 165
0.0033506199 0.63700002 0.083765499 1.6517468e-38 323 165
0.0044604796 0.63599998 0.083633989 1.6700414e-38 324 165
0.0055755996 0.63599998 0.083633989 1.679261e-38 325 165
0.0066907196 0.63599998 0.083633989 1.7343619e-38 326 165
0.0078058392 0.63599998 0.083633989 1.7251423e-38 327 165
0.0089209592 0.63599998 0.083633989 1.7248534e-38 328 165
0.0100203 0.63499999 0.083502494 1.6971947e-38 329 165
0.011133666 0.63499999 0.083502494 1.678683e-38 330 165
0.012247032 0.63499999 0.083502494 1.6325852e-38 331 165
0.0133604 0.63499999 0.083502494 1.5680482e-38 332 165
0.014473766 0.63499999 0.083502494 1.5403895e-38 333 165
0.015611678 0.63599998 0.083633989 1.4298623e-38 334 165
0.016726799 0.63599998 0.083633989 1.3929841e-38 335 165
0.017813865 0.63499999 0.083502494 1.4018793e-38 336 165
0.018927233 0.63499999 0.083502494 1.3650012e-38 337 165
0.02013528 0.63800001 0.083897002 1.3924074e-38 338 165
0.021253906 0.63800001 0.083897002 1.3647847e-38 339 165
-0.0090752533 0.64700001 0.083946094 1.4475106e-38 312 166
-0.0079408465 0.64700001 0.083946094 1.4475106e-38 313 166
-0.0068064397 0.64700001 0.083946094 1.4944381e-38 314 166
-0.0056720334 0.64700001 0.083946094 1.688049e-38 315 166
-0.0045165867 0.64399999 0.083556846 1.5596956e-38 316 166
-0.0033821799 0.64300001 0.083427109 1.5781348e-38 317 166
-0.00225128 0.64200002 0.083297364 1.6149411e-38 318 166
-0.0011238866 0.64099997 0.083167605 1.6241607e-38 319 166
0 0.64099997 0.083167605 1.64242e-38 320 166
0.0011221332 0.63999999 0.083037868 1.6239808e-38 321 166
0.0022442664 0.63999999 0.083037868 1.6056493e-38 322 166
0.00335588 0.63800001 0.082778372 1.6056493e-38 323 166
0.0044674934 0.63700002 0.082648627 1.587138e-38 324 166
0.0055843666 0.63700002 0.082648627 1.5686988e-38 325 166
0.0066907196 0.63599998 0.082518876 1.5869578e-38 326 166
0.0078058392 0.63599998 0.082518876 1.5777382e-38 327 166
0.0089209592 0.63599998 0.082518876 1.5408229e-38 328 166
0.0100203 0.63499999 0.082389124 1.4947253e-38 329 166
0.011133666 0.63499999 0.082389124 1.5130554e-38 330 166
0.012266319 0.63599998 0.082518876 1.4761773e-38 331 166
0.013381439 0.63599998 0.082518876 1.4485182e-38 332 166
0.014496559 0.63599998 0.082518876 1.430079e-38 333 166
0.015636226 0.63700002 0.082648627 1.3653978e-38 334 166
0.0167531 0.63700002 0.082648627 1.3377389e-38 335 166
0.017869974 0.63700002 0.082648627 1.3742566e-38 336 166
0.019016653 0.63800001 0.082778372 1.3465619e-38 337 166
0.020261521 0.64200002 0.083297364 1.3832234e-38 338 166
0.021453787 0.64399999 0.083556846 1.3832234e-38 339 166
-0.0090752533 0.64700001 0.082811691 1.3464916e-38 312 167
-0.0079408465 0.64700001 0.082811691 1.337272e-38 313 167
-0.0068064397 0.64700001 0.082811691 1.4301533e-38 314 167
-0.0056720334 0.64700001 0.082811691 1.6514228e-38 315 167
-0.0045306133 0.64600003 0.08268369 1.6514597e-38 316 167
-0.0033874398 0.64399999 0.082427703 1.6514597e-38 317 167
-0.00225128 0.64200002 0.082171716 1.605686e-38 318 167
-0.00112564 0.64200002 0.082171716 1.605686e-38 319 167
0 0.64200002 0.082171716 1.6056139e-38 320 167
0.0011238866 0.64099997 0.082043722 1.6056139e-38 321 167
0.0022442664 0.63999999 0.081915729 1.5964297e-38 322 167
0.0033663998 0.63999999 0.081915729 1.5964297e-38 323 167
0.0044745067 0.63800001 0.081659749 1.5871745e-38 324 167
0.0055931332 0.63800001 0.081659749 1.5595519e-38 325 167
0.0067117601 0.63800001 0.081659749 1.5593717e-38 326 167
0.0078181131 0.63700002 0.081531756 1.5409325e-38 327 167
0.0089349868 0.63700002 0.081531756 1.5224561e-38 328 167
0.010036079 0.63599998 0.081403755 1.504017e-38 329 167
0.011151199 0.63599998 0.081403755 1.5039439e-38 330 167
0.012285607 0.63700002 0.081531756 1.4762492e-38 331 167
0.01340248 0.63700002 0.081531756 1.4392986e-38 332 167
0.014542148 0.63800001 0.081659749 1.41164e-38 333 167
0.015660774 0.63800001 0.081659749 1.383693e-38 334 167
0.016779399 0.63800001 0.081659749 1.3652178e-38 335 167
0.017954132 0.63999999 0.081915729 1.3833683e-38 336 167
0.019076265 0.63999999 0.081915729 1.3648932e-38 337 167
0.020261521 0.64200002 0.082171716 1.3832231e-38 338 167
0.021453787 0.64399999 0.082427703 1.36482e-38 339 167
-0.0090752533 0.64700001 0.08167728 1.3280878e-38 312 168
-0.0079408465 0.64700001 0.08167728 1.2451118e-38 313 168
-0.0068064397 0.64700001 0.08167728 1.4022422e-38 314 168
-0.0056720334 0.64700001 0.08167728 1.6973041e-38 315 168
-0.0045306133 0.64600003 0.081551038 1.6974134e-38 316 168
-0.0033874398 0.64399999 0.08129856 1.6881939e-38 317 168
-0.0022547867 0.64300001 0.081172317 1.6239805e-38 318 168
-0.0011273933 0.64300001 0.081172317 1.6239805e-38 319 168
0 0.64200002 0.081046082 1.6239805e-38 320 168
0.00112564 0.64200002 0.081046082 1.6147609e-38 321 168
0.0022477731 0.64099997 0.080919832 1.5963578e-38 322 168
0.0033663998 0.63999999 0.080793597 1.5963578e-38 323 168
0.0044885329 0.63999999 0.080793597 1.5779187e-38 324 168
0.0056106662 0.63999999 0.080793597 1.5594435e-38 325 168
0.0067117601 0.63800001 0.080541119 1.5501158e-38 326 168
0.007830387 0.63800001 0.080541119 1.5224211e-38 327 168
0.0089349868 0.63700002 0.080414884 1.4856858e-38 328 168
0.01005186 0.63700002 0.080414884 1.4672108e-38 329 168
0.011168733 0.63700002 0.080414884 1.5130554e-38 330 168
0.012304893 0.63800001 0.080541119 1.4945804e-38 331 168
0.013465599 0.63999999 0.080793597 1.4759971e-38 332 168
0.014587732 0.63999999 0.080793597 1.4483384e-38 333 168
0.015709866 0.63999999 0.080793597 1.3928042e-38 334 168
0.016858298 0.64099997 0.080919832 1.355962e-38 335 168
0.017982185 0.64099997 0.080919832 1.374148e-38 336 168
0.019135879 0.64200002 0.081046082 1.3649285e-38 337 168
0.020293079 0.64300001 0.081172317 1.3832231e-38 338 168
0.021520413 0.64600003 0.081551038 1.36482e-38 339 168
-0.0079531204 0.648 0.080667354 1.2725536e-38 313 169
-0.0068064397 0.64700001 0.08054287 1.328449e-38 314 169
-0.0056720334 0.64700001 0.08054287 1.6695729e-38 315 169
-0.0045376266 0.64700001 0.08054287 1.6790465e-38 316 169
-0.00339796 0.64600003 0.080418386 1.6606073e-38 317 169
-0.0022582933 0.64399999 0.08016941 1.6147612e-38 318 169
-0.0011291467 0.64399999 0.08016941 1.6239808e-38 319 169
0 0.64300001 0.080044925 1.59643e-38 320 169
0.00112564 0.64200002 0.079920441 1.5871745e-38 321 169
0.0022477731 0.64099997 0.079795949 1.5871027e-38 322 169
0.0033716597 0.64099997 0.079795949 1.5871027e-38 323 169
0.0044885329 0.63999999 0.079671465 1.5685912e-38 324 169
0.0056106662 0.63999999 0.079671465 1.5593717e-38 325 169
0.0067327996 0.63999999 0.079671465 1.5592272e-38 326 169
0.0078549329 0.63999999 0.079671465 1.5407879e-38 327 169
0.0089770658 0.63999999 0.079671465 1.5040167e-38 328 169
0.01006764 0.63800001 0.079422489 1.4856136e-38 329 169
0.011186266 0.63800001 0.079422489 1.4762492e-38 330 169
0.012343466 0.63999999 0.079671465 1.45781e-38 331 169
0.013486639 0.64099997 0.079795949 1.4758529e-38 332 169
0.014610525 0.64099997 0.079795949 1.4389746e-38 333 169
0.015734414 0.64099997 0.079795949 1.3835844e-38 334 169
0.016884599 0.64200002 0.079920441 1.3467421e-38 335 169
0.01801024 0.64200002 0.079920441 1.3741836e-38 336 169
0.019255107 0.64600003 0.080418386 1.3741836e-38 337 169
0.020387759 0.64600003 0.080418386 1.3924427e-38 338 169
0.02158704 0.648 0.080667354 1.3556004e-38 339 169
-0.0080022132 0.65200001 0.080022126 1.3092148e-38 313 170
-0.0068379994 0.64999998 0.079776667 1.2270693e-38 314 170
-0.005698333 0.64999998 0.079776667 1.549754e-38 315 170
-0.00454464 0.648 0.0795312 1.6238736e-38 316 170
-0.0034032199 0.64700001 0.079408467 1.6607515e-38 317 170
-0.0022688133 0.64700001 0.079408467 1.6239808e-38 318 170
-0.0011326533 0.64600003 0.079285733 1.6147612e-38 319 170
0 0.64399999 0.079040259 1.6147609e-38 320 170
0.0011273933 0.64300001 0.078917533 1.5963578e-38 321 170
0.00225128 0.64200002 0.0787948 1.5779906e-38 322 170
0.00337692 0.64200002 0.0787948 1.550332e-38 323 170
0.00450256 0.64200002 0.0787948 1.586958e-38 324 170
0.0056194332 0.64099997 0.078672059 1.5685189e-38 325 170
0.0067433193 0.64099997 0.078672059 1.5316758e-38 326 170
0.0078672068 0.64099997 0.078672059 1.4856139e-38 327 170
0.0089910924 0.64099997 0.078672059 1.5039804e-38 328 170
0.010114979 0.64099997 0.078672059 1.4947609e-38 329 170
0.011238866 0.64099997 0.078672059 1.4944732e-38 330 170
0.012362752 0.64099997 0.078672059 1.4576309e-38 331 170
0.013486639 0.64099997 0.078672059 1.4481943e-38 332 170
0.01463332 0.64200002 0.0787948 1.4020605e-38 333 170
0.01575896 0.64200002 0.0787948 1.420354e-38 334 170
0.016910899 0.64300001 0.078917533 1.3926595e-38 335 170
0.018038293 0.64300001 0.078917533 1.383403e-38 336 170
0.019255107 0.64600003 0.079285733 1.3741833e-38 337 170
0.020387759 0.64600003 0.079285733 1.3924427e-38 338 170
0.02158704 0.648 0.0795312 1.3463809e-38 339 170
-0.0080022132 0.65200001 0.078878954 1.318578e-38 313 171
-0.0068590399 0.65200001 0.078878954 1.1163266e-38 314 171
-0.005698333 0.64999998 0.078636996 1.2085581e-38 315 171
-0.0045516533 0.64899999 0.078516014 1.4582811e-38 316 171
-0.0034137398 0.64899999 0.078516014 1.6334161e-38 317 171
-0.00227232 0.648 0.078395039 1.6607515e-38 318 171
-0.0011344067 0.64700001 0.078274064 1.6239092e-38 319 171
0 0.64600003 0.078153081 1.5964297e-38 320 171
0.0011291467 0.64399999 0.077911116 1.5779906e-38 321 171
0.0022547867 0.64300001 0.077790141 1.5595516e-38 322 171
0.0033821799 0.64300001 0.077790141 1.5595516e-38 323 171
0.0045095733 0.64300001 0.077790141 1.5686268e-38 324 171
0.0056369668 0.64300001 0.077790141 1.5501877e-38 325 171
0.00675384 0.64200002 0.077669159 1.5133449e-38 326 171
0.0078794798 0.64200002 0.077669159 1.4856502e-38 327 171
0.00900512 0.64200002 0.077669159 1.5039804e-38 328 171
0.01013076 0.64200002 0.077669159 1.4762857e-38 329 171
0.0112564 0.64200002 0.077669159 1.4761775e-38 330 171
0.01238204 0.64200002 0.077669159 1.4484828e-38 331 171
0.01350768 0.64200002 0.077669159 1.4757807e-38 332 171
0.014656113 0.64300001 0.077790141 1.4388664e-38 333 171
0.015783506 0.64300001 0.077790141 1.4296456e-38 334 171
0.0169372 0.64399999 0.077911116 1.3927674e-38 335 171
0.018066347 0.64399999 0.077911116 1.4018424e-38 336 171
0.019255107 0.64600003 0.078153081 1.3834033e-38 337 171
0.020387759 0.64600003 0.078153081 1.410702e-38 338 171
0.02158704 0.648 0.078395039 1.3001031e-38 339 171
-0.0068590399 0.65200001 0.077735789 1.3917972e-38 314 172
-0.005698333 0.64999998 0.077497326 1.1797114e-38 315 172
-0.0045586661 0.64999998 0.077497326 1.1173721e-38 316 172
-0.0034189997 0.64999998 0.077497326 1.5138133e-38 317 172
-0.00227232 0.648 0.077258877 1.6883739e-38 318 172
-0.00113616 0.648 0.077258877 1.6607157e-38 319 172
0 0.64700001 0.077139653 1.5963578e-38 320 172
0.0011326533 0.64600003 0.077020429 1.5963578e-38 321 172
0.0022653067 0.64600003 0.077020429 1.587138e-38 322 172
0.00339796 0.64600003 0.077020429 1.5779184e-38 323 172
0.0045306133 0.64600003 0.077020429 1.5686268e-38 324 172
0.0056457333 0.64399999 0.076781973 1.5594073e-38 325 172
0.0067748795 0.64399999 0.076781973 1.5869215e-38 326 172
0.0078917528 0.64300001 0.076662742 1.513165e-38 327 172
0.0090191467 0.64300001 0.076662742 1.5132e-38 328 172
0.01014654 0.64300001 0.076662742 1.4762857e-38 329 172
0.011273934 0.64300001 0.076662742 1.5128397e-38 330 172
0.012401327 0.64300001 0.076662742 1.485217e-38 331 172
0.01352872 0.64300001 0.076662742 1.4758523e-38 332 172
0.014678906 0.64399999 0.076781973 1.4482296e-38 333 172
0.015808053 0.64399999 0.076781973 1.4572314e-38 334 172
0.016989801 0.64600003 0.077020429 1.4203891e-38 335 172
0.018122453 0.64600003 0.077020429 1.4201018e-38 336 172
0.019255107 0.64600003 0.077020429 1.392443e-38 337 172
0.020387759 0.64600003 0.077020429 1.3096111e-38 338 172
-0.0057158666 0.65200001 0.076592617 1.4185902e-38 315 173
-0.0045726933 0.65200001 0.076592617 8.2209206e-39 316 173
-0.00113616 0.648 0.076122716 1.6333444e-38 319 173
0 0.64700001 0.07600525 1.7159963e-38 320 173
0.0011344067 0.64700001 0.07600525 1.6606794e-38 321 173
0.0022688133 0.64700001 0.07600525 1.5872101e-38 322 173
0.00339796 0.64600003 0.075887777 1.5595516e-38 323 173
0.0045306133 0.64600003 0.075887777 1.5594438e-38 324 173
0.0056632664 0.64600003 0.075887777 1.5318211e-38 325 173
0.00679592 0.64600003 0.075887777 1.5591553e-38 326 173
0.0079285735 0.64600003 0.075887777 1.540716e-38 327 173
0.0090612266 0.64600003 0.075887777 1.5223117e-38 328 173
0.01019388 0.64600003 0.075887777 1.4946888e-38 329 173
0.011326533 0.64600003 0.075887777 1.5129479e-38 330 173
0.012459187 0.64600003 0.075887777 1.4852892e-38 331 173
0.01359184 0.64600003 0.075887777 1.4758526e-38 332 173
0.014724494 0.64600003 0.075887777 1.4390102e-38 333 173
0.015857147 0.64600003 0.075887777 1.448085e-38 334 173
0.0170161 0.64700001 0.07600525 1.4111708e-38 335 173
0.018150507 0.64700001 0.07600525 1.3832957e-38 336 173
0.019314719 0.648 0.076122716 1.2542218e-38 337 173
-0.00113616 0.648 0.074986562 1.476359e-38 319 174
0 0.64700001 0.07487084 1.6422404e-38 320 174
0.0011344067 0.64700001 0.07487084 1.6698992e-38 321 174
0.0022688133 0.64700001 0.07487084 1.6516752e-38 322 174
0.0034032199 0.64700001 0.07487084 1.5963578e-38 323 174
0.0045376266 0.64700001 0.07487084 1.541112e-38 324 174
0.0056720334 0.64700001 0.07487084 1.541112e-38 325 174
0.0068064397 0.64700001 0.07487084 1.586777e-38 326 174
0.0079285735 0.64600003 0.074755117 1.5683019e-38 327 174
0.0090612266 0.64600003 0.074755117 1.568265e-38 328 174
0.01019388 0.64600003 0.074755117 1.5498259e-38 329 174
0.011326533 0.64600003 0.074755117 1.5220949e-38 330 174
0.012459187 0.64600003 0.074755117 1.4944722e-38 331 174
0.01359184 0.64600003 0.074755117 1.5034037e-38 332 174
0.014724494 0.64600003 0.074755117 1.475781e-38 333 174
0.015881693 0.64700001 0.07487084 1.4203187e-38 334 174
0.0170161 0.64700001 0.07487084 1.3465622e-38 335 174
0.018150507 0.64700001 0.07487084 1.2727686e-38 336 174
0.019314719 0.648 0.074986562 1.1990121e-38 337 174
-0.0011379133 0.64899999 0.073964357 1.0608646e-38 319 175
0 0.648 0.073850393 1.2091727e-38 320 175
0.00113616 0.648 0.073850393 1.3659413e-38 321 175
0.0022688133 0.64700001 0.073736429 1.5409328e-38 322 175
0.0034032199 0.64700001 0.073736429 1.6054698e-38 323 175
0.0045376266 0.64700001 0.073736429 1.6514228e-38 324 175
0.0056720334 0.64700001 0.073736429 1.6514228e-38 325 175
0.0068064397 0.64700001 0.073736429 1.6787926e-38 326 175
0.0079408465 0.64700001 0.073736429 1.6511337e-38 327 175
0.0090752533 0.64700001 0.073736429 1.6235827e-38 328 175
0.01020966 0.64700001 0.073736429 1.5867044e-38 329 175
0.011344067 0.64700001 0.073736429 1.5496457e-38 330 175
0.012478473 0.64700001 0.073736429 1.4943642e-38 331 175
0.013612879 0.64700001 0.073736429 1.4941472e-38 332 175
0.014747286 0.64700001 0.073736429 1.4203907e-38 333 175
0.015881693 0.64700001 0.073736429 1.3003562e-38 334 175
0.0170161 0.64700001 0.073736429 1.1528792e-38 335 175
0.018150507 0.64700001 0.073736429 1.0424959e-38 336 175
0 0.648 0.072714239 1.0795208e-38 320 176
0.00113616 0.648 0.072714239 1.162497e-38 321 176
0.00227232 0.648 0.072714239 1.2914281e-38 322 176
0.00340848 0.648 0.072714239 1.3559651e-38 323 176
0.00454464 0.648 0.072714239 1.3654717e-38 324 176
0.0056807999 0.648 0.072714239 1.4116056e-38 325 176
0.0068169599 0.648 0.072714239 1.5034765e-38 326 176
0.0079531204 0.648 0.072714239 1.494257e-38 327 176
0.0090892799 0.648 0.072714239 1.475781e-38 328 176
0.01020966 0.64700001 0.072602026 1.4204636e-38 329 176
0.011344067 0.64700001 0.072602026 1.3926241e-38 330 176
0.012478473 0.64700001 0.072602026 1.2912448e-38 331 176
0.013612879 0.64700001 0.072602026 1.2450388e-38 332 176
0.014747286 0.64700001 0.072602026 1.198977e-38 333 176
0.015881693 0.64700001 0.072602026 1.0977413e-38 334 176
0.0170161 0.64700001 0.072602026 1.1069609e-38 335 176
0.0034189997 0.64999998 0.071798995 1.0512132e-38 323 177
0.0045586661 0.64999998 0.071798995 9.7799815e-39 324 177
0.0056895665 0.64899999 0.07168854 1.0333154e-38 325 177
0.0068274797 0.64899999 0.07168854 1.1252947e-38 326 177
0.0079653924 0.64899999 0.07168854 1.1252947e-38 327 177
0.0091173323 0.64999998 0.071798995 1.1252218e-38 328 177
0.010256999 0.64999998 0.071798995 1.0699044e-38 329 177
0.011396666 0.64999998 0.071798995 1.0145505e-38 330 177
0.01249776 0.648 0.071578078 9.5923308e-39 331 177
0.01363392 0.648 0.071578078 9.6834502e-39 332 177
0.014770079 0.648 0.071578078 9.9603973e-39 333 177
0.0068590399 0.65200001 0.070876747 1.3644603e-38 326 178
0.0080022132 0.65200001 0.070876747 1.3091429e-38 327 178
0.0091453865 0.65200001 0.070876747 1.2908117e-38 328 178
0.010256999 0.64999998 0.070659332 1.2908117e-38 329 178
0.011396666 0.64999998 0.070659332 1.2908833e-38 330 178
0.012536332 0.64999998 0.070659332 1.318578e-38 331 178
0.013654959 0.64899999 0.070550621 1.3828997e-38 332 178
0.014792874 0.64899999 0.070550621 1.4566562e-38 333 178
0.011431733 0.65200001 0.069733568 1.585585e-38 330 179
0.012574906 0.65200001 0.069733568 1.6132796e-38 331 179
-0.024218792 0.727 0.025493465 1.2917059e-38 301 220
-0.025423333 0.72500002 0.024152167 1.4296396e-38 300 221
-0.024152167 0.72500002 0.024152167 1.3651026e-38 301 221
-0.022944121 0.727 0.024218792 1.2642282e-38 302 221
-0.026768139 0.727 0.022944121 1.5769043e-38 299 222
-0.025423333 0.72500002 0.022880999 1.4756298e-38 300 222
-0.024152167 0.72500002 0.022880999 1.3834342e-38 301 222
-0.022880999 0.72500002 0.022880999 1.153879e-38 302 222
-0.021609833 0.72500002 0.022880999 1.1354398e-38 303 222
-0.026768139 0.727 0.021669446 1.5585375e-38 299 223
-0.025493465 0.727 0.021669446 1.4757373e-38 300 223
-0.024218792 0.727 0.021669446 1.3651026e-38 301 223
-0.022880999 0.72500002 0.021609833 1.1629871e-38 302 223
-0.021609833 0.72500002 0.021609833 1.0707914e-38 303 223
-0.020394772 0.727 0.021669446 1.1262199e-38 304 223
-0.02702588 0.73400003 0.020591147 1.5492463e-38 299 224
-0.025493465 0.727 0.020394772 1.4391819e-38 300 224
-0.024218792 0.727 0.020394772 1.3193275e-38 301 224
-0.022944121 0.727 0.020394772 1.2273404e-38 302 224
-0.021669446 0.727 0.020394772 1.1074861e-38 303 224
-0.020394772 0.727 0.020394772 1.0343079e-38 304 224
-0.019199001 0.73000002 0.020478934 1.1080644e-38 305 224
-0.026989058 0.73299998 0.019277899 1.5582859e-38 299 225
-0.025528532 0.72799999 0.0191464 1.3564572e-38 300 225
-0.024252106 0.72799999 0.0191464 1.2919203e-38 301 225
-0.022975679 0.72799999 0.0191464 1.3102072e-38 302 225
-0.021699252 0.72799999 0.0191464 1.2087561e-38 303 225
-0.020422826 0.72799999 0.0191464 1.0803659e-38 304 225
-0.0191464 0.72799999 0.0191464 1.0803659e-38 305 225
-0.017869972 0.72799999 0.0191464 1.126219e-38 306 225
0.028081384 0.72799999 0.0191464 1.2177344e-38 342 225
0.029357811 0.72799999 0.0191464 1.1439779e-38 343 225
0.030634239 0.72799999 0.0191464 9.3257282e-39 344 225
0.031998333 0.73000002 0.019199001 9.6941505e-39 345 225
-0.026989058 0.73299998 0.017992707 1.5673976e-38 299 226
-0.025598666 0.73000002 0.017919067 1.3195436e-38 300 226
-0.024252106 0.72799999 0.017869972 1.3195436e-38 301 226
-0.022975679 0.72799999 0.017869972 1.3470852e-38 302 226
-0.021699252 0.72799999 0.017869972 1.2549256e-38 303 226
-0.020422826 0.72799999 0.017869972 1.1262791e-38 304 226
-0.0191464 0.72799999 0.017869972 1.0709617e-38 305 226
-0.017869972 0.72799999 0.017869972 1.0343055e-38 306 226
0.026584039 0.722 0.017722692 1.1716383e-38 341 226
0.027849946 0.722 0.017722692 1.1348971e-38 342 226
0.029317487 0.727 0.017845426 1.0518851e-38 343 226
0.030634239 0.72799999 0.017869972 1.0244049e-38 344 226
0.031998333 0.73000002 0.017919067 1.0796865e-38 345 226
0.033278264 0.73000002 0.017919067 1.208298e-38 346 226
-0.026989058 0.73299998 0.016707512 1.5397759e-38 299 227
-0.025598666 0.73000002 0.016639132 1.310254e-38 300 227
-0.024252106 0.72799999 0.016593546 1.310254e-38 301 227
-0.022975679 0.72799999 0.016593546 1.3471613e-38 302 227
-0.021699252 0.72799999 0.016593546 1.2918439e-38 303 227
-0.020422826 0.72799999 0.016593546 1.1907104e-38 304 227
-0.0191464 0.72799999 0.016593546 1.135393e-38 305 227
-0.017869972 0.72799999 0.016593546 1.0528854e-38 306 227
-0.01647958 0.72299999 0.01647958 1.0436658e-38 307 227
-0.015211919 0.72299999 0.01647958 1.0253047e-38 308 227
0.025353199 0.72299999 0.01647958 9.8788963e-39 340 227
0.026584039 0.722 0.016456785 9.7867007e-39 341 227
0.027849946 0.722 0.016456785 1.0337354e-38 342 227
0.029317487 0.727 0.016570752 1.0706135e-38 343 227
0.030718399 0.73000002 0.016639132 1.1438327e-38 344 227
0.032042164 0.73100001 0.016661927 1.1715274e-38 345 227
0.033323854 0.73100001 0.016661927 1.2908442e-38 346 227
-0.025528532 0.72799999 0.01531712 1.3469179e-38 300 228
-0.024252106 0.72799999 0.01531712 1.3192232e-38 301 228
-0.022975679 0.72799999 0.01531712 1.3379089e-38 302 228
-0.021699252 0.72799999 0.01531712 1.3286893e-38 303 228
-0.020422826 0.72799999 0.01531712 1.3377581e-38 304 228
-0.0191464 0.72799999 0.01531712 1.2640016e-38 305 228
-0.017869972 0.72799999 0.01531712 1.1721967e-38 306 228
-0.01647958 0.72299999 0.015211919 1.1353186e-38 307 228
-0.015211919 0.72299999 0.015211919 1.0068599e-38 308 228
-0.013982833 0.72500002 0.015254001 1.0437741e-38 309 228
-0.012676599 0.72299999 0.015211919 1.0435656e-38 310 228
-0.01139316 0.722 0.015190879 1.0620407e-38 311 228
-0.010127253 0.722 0.015190879 1.1076754e-38 312 228
-0.0088613462 0.722 0.015190879 1.1261146e-38 313 228
0.025353199 0.72299999 0.015211919 9.2345597e-39 340 228
0.026620859 0.72299999 0.015211919 9.4189523e-39 341 228
0.02788852 0.72299999 0.015211919 1.0152964e-38 342 228
0.029317487 0.727 0.015296079 1.0521748e-38 343 228
0.030718399 0.73000002 0.0153592 1.1989009e-38 344 228
0.031998333 0.73000002 0.0153592 1.2265236e-38 345 228
0.033278264 0.73000002 0.0153592 1.3642783e-38 346 228
-0.027209979 0.73900002 0.014252847 1.6225725e-38 299 229
-0.025914267 0.73900002 0.014252847 1.3929436e-38 300 229
-0.024352046 0.73100001 0.014098554 1.2453948e-38 301 229
-0.023038799 0.73000002 0.014079267 1.3010329e-38 302 229
-0.021758866 0.73000002 0.014079267 1.3747894e-38 303 229
-0.020506985 0.73100001 0.014098554 1.4021549e-38 304 229
-0.019199001 0.73000002 0.014079267 1.3283984e-38 305 229
-0.017919067 0.73000002 0.014079267 1.2181517e-38 306 229
-0.016525166 0.72500002 0.013982833 1.1813093e-38 307 229
-0.015254001 0.72500002 0.013982833 1.0436993e-38 308 229
-0.013982833 0.72500002 0.013982833 1.0436993e-38 309 229
-0.012676599 0.72299999 0.01394426 1.0160444e-38 310 229
-0.01139316 0.722 0.013924973 1.0160444e-38 311 229
-0.010127253 0.722 0.013924973 1.0068303e-38 312 229
-0.0088367993 0.72000003 0.0138864 1.0437445e-38 313 229
-0.0075743999 0.72000003 0.0138864 1.1536644e-38 314 229
-0.0063295332 0.722 0.013924973 1.1628839e-38 315 229
-0.0037819401 0.71899998 0.013867113 1.2269558e-38 317 229
-0.0025212932 0.71899998 0.013867113 1.2268135e-38 318 229
0.02281788 0.72299999 0.01394426 9.7888125e-39 338 229
0.024085538 0.72299999 0.01394426 9.3278357e-39 339 229
0.025353199 0.72299999 0.01394426 9.7856049e-39 340 229
0.026620859 0.72299999 0.01394426 9.7856049e-39 341 229
0.02788852 0.72299999 0.01394426 1.0241604e-38 342 229
0.029317487 0.727 0.014021406 1.0886974e-38 343 229
0.030718399 0.73000002 0.014079267 1.2080148e-38 344 229
0.031998333 0.73000002 0.014079267 1.226418e-38 345 229
0.033278264 0.73000002 0.014079267 1.4194884e-38 346 229
-0.027209979 0.73900002 0.012957133 1.4936784e-38 299 230
-0.025914267 0.73900002 0.012957133 1.3926209e-38 300 230
-0.024451986 0.73400003 0.012869466 1.2819862e-38 301 230
-0.023133477 0.73299998 0.012851933 1.1540609e-38 302 230
-0.021848286 0.73299998 0.012851933 1.2923544e-38 303 230
-0.020563092 0.73299998 0.012851933 1.3747513e-38 304 230
-0.019225299 0.73100001 0.012816866 1.2825915e-38 305 230
-0.017919067 0.73000002 0.012799333 1.1631596e-38 306 230
-0.016639132 0.73000002 0.012799333 1.135465e-38 307 230
-0.015296079 0.727 0.012746733 1.0712851e-38 308 230
-0.013982833 0.72500002 0.012711667 1.0712851e-38 309 230
-0.012676599 0.72299999 0.012676599 1.034481e-38 310 230
-0.01140894 0.72299999 0.012676599 1.0068583e-38 311 230
-0.010127253 0.722 0.012659066 9.8852989e-39 312 230
-0.0088367993 0.72000003 0.012624 1.0069692e-38 313 230
-0.0075743999 0.72000003 0.012624 9.6094827e-39 314 230
-0.0063295332 0.722 0.012659066 9.5169283e-39 315 230
-0.0050496003 0.72000003 0.012624 1.0434605e-38 316 230
-0.0037819401 0.71899998 0.012606465 1.0526802e-38 317 230
-0.0025142799 0.71700001 0.0125714 1.1075682e-38 318 230
-0.00125714 0.71700001 0.0125714 1.1167878e-38 319 230
0.021550218 0.72299999 0.012676599 1.0247617e-38 337 230
0.02281788 0.72299999 0.012676599 9.8792102e-39 338 230
0.024085538 0.72299999 0.012676599 9.6944602e-39 339 230
0.025353199 0.72299999 0.012676599 9.4154225e-39 340 230
0.026694499 0.72500002 0.012711667 9.7838449e-39 341 230
0.027965667 0.72500002 0.012711667 1.0607539e-38 342 230
0.029357811 0.72799999 0.012764266 1.1160353e-38 343 230
0.030718399 0.73000002 0.012799333 1.1803211e-38 344 230
0.032042164 0.73100001 0.012816866 1.1803211e-38 345 230
0.033323854 0.73100001 0.012816866 1.4380719e-38 346 230
-0.030204674 0.74900001 0.01181922 1.7424621e-38 297 231
-0.028814279 0.74699998 0.011787659 1.5859466e-38 298 231
-0.027504537 0.74699998 0.011787659 1.3831162e-38 299 231
-0.025914267 0.73900002 0.01166142 1.2911707e-38 300 231
-0.024585238 0.73799998 0.011645639 1.2542924e-38 301 231
-0.023165042 0.73400003 0.011582521 1.1538105e-38 302 231
-0.021848286 0.73299998 0.011566739 1.292104e-38 303 231
-0.020563092 0.73299998 0.011566739 1.3473471e-38 304 231
-0.019225299 0.73100001 0.01153518 1.2735906e-38 305 231
-0.017943613 0.73100001 0.01153518 1.1537637e-38 306 231
-0.016639132 0.73000002 0.011519399 1.1445442e-38 307 231
-0.01531712 0.72799999 0.01148784 1.0805052e-38 308 231
-0.014021406 0.727 0.01147206 1.0805052e-38 309 231
-0.012676599 0.72299999 0.01140894 1.0805066e-38 310 231
-0.01140894 0.72299999 0.01140894 1.0528838e-38 311 231
-0.010127253 0.722 0.01139316 1.0528838e-38 312 231
-0.0088613462 0.722 0.01139316 1.0159697e-38 313 231
-0.0075954394 0.722 0.01139316 9.1502169e-39 314 231
-0.0063295332 0.722 0.01139316 8.5974019e-39 315 231
-0.0050496003 0.72000003 0.011361601 9.0573207e-39 316 231
-0.0037819401 0.71899998 0.01134582 9.4257444e-39 317 231
-0.0025142799 0.71700001 0.01131426 9.7913306e-39 318 231
-0.00125714 0.71700001 0.01131426 1.0067919e-38 319 231
0 0.71399999 0.011266919 1.0617521e-38 320 231
0.00125188 0.71399999 0.011266919 1.0801552e-38 321 231
0.0025037599 0.71399999 0.011266919 1.116747e-38 322 231
0.01647958 0.72299999 0.01140894 9.4203578e-39 333 231
0.017747238 0.72299999 0.01140894 9.6051219e-39 334 231
0.019014901 0.72299999 0.01140894 9.7895131e-39 335 231
0.020282559 0.72299999 0.01140894 1.0063254e-38 336 231
0.021550218 0.72299999 0.01140894 9.9706996e-39 337 231
0.02281788 0.72299999 0.01140894 9.8770999e-39 338 231
0.024085538 0.72299999 0.01140894 9.6927086e-39 339 231
0.025353199 0.72299999 0.01140894 1.0055785e-38 340 231
0.026768139 0.727 0.01147206 1.0424926e-38 341 231
0.028042812 0.727 0.01147206 1.1066016e-38 342 231
0.029438468 0.73000002 0.011519399 1.1342602e-38 343 231
0.03076048 0.73100001 0.01153518 1.1342602e-38 344 231
0.032042164 0.73100001 0.01153518 1.1434797e-38 345 231
0.033323854 0.73100001 0.01153518 1.4749506e-38 346 231
-0.03156 0.75 0.01052 1.7425703e-38 296 232
-0.030204674 0.74900001 0.010505973 1.7333148e-38 297 232
-0.028814279 0.74699998 0.010477919 1.6319725e-38 298 232
-0.027504537 0.74699998 0.010477919 1.3092878e-38 299 232
-0.026089599 0.74400002 0.01043584 1.0704064e-38 300 232
-0.024618553 0.73900002 0.010365707 1.1810411e-38 301 232
-0.023291279 0.73799998 0.010351679 1.190331e-38 302 232
-0.021878093 0.73400003 0.010295574 1.2272453e-38 303 232
-0.020591147 0.73400003 0.010295574 1.2919592e-38 304 232
-0.019277899 0.73299998 0.010281546 1.3011788e-38 305 232
-0.017943613 0.73100001 0.010253493 1.2273423e-38 306 232
-0.016639132 0.73000002 0.010239467 1.1720249e-38 307 232
-0.0153592 0.73000002 0.010239467 1.0894747e-38 308 232
-0.014040692 0.72799999 0.010211413 1.1355725e-38 309 232
-0.012711667 0.72500002 0.010169334 1.089764e-38 310 232
-0.01140894 0.72299999 0.01014128 1.0805445e-38 311 232
-0.010127253 0.722 0.010127253 1.1356075e-38 312 232
-0.0088613462 0.722 0.010127253 1.0249728e-38 313 232
-0.0075954394 0.722 0.010127253 9.1501875e-39 314 232
-0.0063295332 0.722 0.010127253 8.965799e-39 315 232
-0.0050496003 0.72000003 0.010099201 9.2402293e-39 316 232
-0.0037819401 0.71899998 0.010085173 9.3324236e-39 317 232
-0.0025212932 0.71899998 0.010085173 9.7912703e-39 318 232
-0.00125714 0.71700001 0.01005712 9.883466e-39 319 232
0 0.71399999 0.01001504 1.015828e-38 320 232
0.00125188 0.71399999 0.01001504 1.0065724e-38 321 232
0.0025037599 0.71399999 0.01001504 9.1470178e-39 322 232
0.01014128 0.72299999 0.01014128 9.6940945e-39 328 232
0.01140894 0.72299999 0.01014128 9.7862901e-39 329 232
0.012676599 0.72299999 0.01014128 1.0155772e-38 330 232
0.01394426 0.72299999 0.01014128 1.0247968e-38 331 232
0.015254001 0.72500002 0.010169334 9.6054722e-39 332 232
0.01647958 0.72299999 0.01014128 9.5132765e-39 333 232
0.017747238 0.72299999 0.01014128 9.3278385e-39 334 232
0.019014901 0.72299999 0.01014128 9.0508915e-39 335 232
0.020282559 0.72299999 0.01014128 1.0147939e-38 336 232
0.021609833 0.72500002 0.010169334 1.0609277e-38 337 232
0.022880999 0.72500002 0.010169334 1.0701157e-38 338 232
0.024252106 0.72799999 0.010211413 1.0424572e-38 339 232
0.025528532 0.72799999 0.010211413 1.0882331e-38 340 232
0.026804959 0.72799999 0.010211413 1.1066722e-38 341 232
0.028158534 0.73000002 0.010239467 1.1432997e-38 342 232
0.029438468 0.73000002 0.010239467 1.1525192e-38 343 232
0.03076048 0.73100001 0.010253493 1.1617388e-38 344 232
0.032042164 0.73100001 0.010253493 1.1802139e-38 345 232
0.033323854 0.73100001 0.010253493 1.5670383e-38 346 232
-0.03156 0.75 0.0092049995 1.788416e-38 296 233
-0.030204674 0.74900001 0.0091927266 1.769941e-38 297 233
-0.028891427 0.74900001 0.0091927266 1.6412274e-38 298 233
-0.027504537 0.74699998 0.0091681797 1.4014827e-38 299 233
-0.026159734 0.74599999 0.0091559067 1.1712823e-38 300 233
-0.024718491 0.74199998 0.009106813 1.2450388e-38 301 233
-0.023291279 0.73799998 0.0090577193 1.2270298e-38 302 233
-0.021937706 0.736 0.0090331733 1.263908e-38 303 233
-0.020647252 0.736 0.0090331733 1.2645532e-38 304 233
-0.019277899 0.73299998 0.0089963535 1.3198706e-38 305 233
-0.017943613 0.73100001 0.0089718066 1.2735139e-38 306 233
-0.016661927 0.73100001 0.0089718066 1.1536955e-38 307 233
-0.0153592 0.73000002 0.0089595336 1.0709646e-38 308 233
-0.014040692 0.72799999 0.0089349858 1.0986592e-38 309 233
-0.012746733 0.727 0.0089227129 1.0713249e-38 310 233
-0.0114405 0.72500002 0.0088981669 1.0713249e-38 311 233
-0.01014128 0.72299999 0.0088736191 1.0897245e-38 312 233
-0.0088736191 0.72299999 0.0088736191 9.8830932e-39 313 233
-0.0075954394 0.722 0.0088613462 8.874681e-39 314 233
-0.0063295332 0.722 0.0088613462 8.6902926e-39 315 233
-0.0050636264 0.722 0.0088613462 8.8728874e-39 316 233
-0.0037872 0.72000003 0.0088367993 8.9650816e-39 317 233
-0.0025248001 0.72000003 0.0088367993 8.5966928e-39 318 233
-0.0012606466 0.71899998 0.0088245263 8.8732797e-39 319 233
0 0.71600002 0.0087877065 8.3208486e-39 320 233
0.0012553866 0.71600002 0.0087877065 8.4130443e-39 321 233
0.0025142799 0.71700001 0.0087999795 8.6885157e-39 322 233
0.0037872 0.72000003 0.0088367993 8.6885157e-39 323 233
0.01014128 0.72299999 0.0088736191 9.2356429e-39 328 233
0.01140894 0.72299999 0.0088736191 9.3278385e-39 329 233
0.012676599 0.72299999 0.0088736191 1.0062876e-38 330 233
0.01394426 0.72299999 0.0088736191 1.0247267e-38 331 233
0.015254001 0.72500002 0.0088981669 1.0521355e-38 332 233
0.016525166 0.72500002 0.0088981669 1.0060378e-38 333 233
0.017796334 0.72500002 0.0088981669 9.7834819e-39 334 233
0.0190675 0.72500002 0.0088981669 9.5987319e-39 335 233
0.020338668 0.72500002 0.0088981669 1.0146911e-38 336 233
0.021669446 0.727 0.0089227129 1.0515693e-38 337 233
0.022975679 0.72799999 0.0089349858 1.1435518e-38 338 233
0.024252106 0.72799999 0.0089349858 1.1159289e-38 339 233
0.025528532 0.72799999 0.0089349858 1.1066019e-38 340 233
0.026878599 0.73000002 0.0089595336 1.1342246e-38 341 233
0.028158534 0.73000002 0.0089595336 1.1341883e-38 342 233
0.029478792 0.73100001 0.0089718066 1.161811e-38 343 233
0.030970879 0.736 0.0090331733 1.1986173e-38 344 233
-0.030244999 0.75 0.00789 1.7423548e-38 297 234
-0.028891427 0.74900001 0.0078794798 1.668815e-38 298 234
-0.027578179 0.74900001 0.0078794798 1.502863e-38 299 234
-0.026159734 0.74599999 0.0078479191 1.3184373e-38 300 234
-0.024851745 0.74599999 0.0078479191 1.1432296e-38 301 234
-0.023322839 0.73900002 0.0077742799 1.3003212e-38 302 234
-0.021997318 0.73799998 0.0077637597 1.4293951e-38 303 234
-0.020703359 0.73799998 0.0077637597 1.3104007e-38 304 234
-0.019304199 0.73400003 0.0077216802 1.3104007e-38 305 234
-0.018017253 0.73400003 0.0077216802 1.3197212e-38 306 234
-0.016707512 0.73299998 0.0077111595 1.1906473e-38 307 234
-0.01538024 0.73100001 0.00769012 1.0892596e-38 308 234
-0.014079267 0.73000002 0.0076795998 1.1076987e-38 309 234
-0.012764266 0.72799999 0.0076585598 1.0161833e-38 310 234
-0.01148784 0.72799999 0.0076585598 9.8852442e-39 311 234
-0.010197386 0.727 0.0076480396 9.242023e-39 312 234
-0.0088736191 0.72299999 0.0076059597 8.9654403e-39 313 234
-0.0076059597 0.72299999 0.0076059597 8.9661578e-39 314 234
-0.0063382997 0.72299999 0.0076059597 8.8739635e-39 315 234
-0.0050636264 0.722 0.0075954394 8.6895751e-39 316 234
-0.0037872 0.72000003 0.0075743999 8.5973809e-39 317 234
-0.0025248001 0.72000003 0.0075743999 8.7803344e-39 318 234
-0.0012606466 0.71899998 0.0075638802 8.5041104e-39 319 234
0 0.71899998 0.0075638802 8.3215156e-39 320 234
0.0012624001 0.72000003 0.0075743999 8.2293214e-39 321 234
0.0025248001 0.72000003 0.0075743999 8.5041104e-39 322 234
0.0037872 0.72000003 0.0075743999 8.5041104e-39 323 234
0.0050706398 0.72299999 0.0076059597 8.686715e-39 324 234
0.0063382997 0.72299999 0.0076059597 8.7789107e-39 325 234
0.0076270006 0.72500002 0.0076270006 8.6824817e-39 326 234
0.0089227129 0.727 0.0076480396 9.0512628e-39 327 234
0.010197386 0.727 0.0076480396 1.0150488e-38 328 234
0.0114405 0.72500002 0.0076270006 1.0426716e-38 329 234
0.012711667 0.72500002 0.0076270006 1.0424198e-38 330 234
0.013982833 0.72500002 0.0076270006 1.0147971e-38 331 234
0.015254001 0.72500002 0.0076270006 1.023946e-38 332 234
0.016525166 0.72500002 0.0076270006 1.0147265e-38 333 234
0.017796334 0.72500002 0.0076270006 1.0054378e-38 334 234
0.0190675 0.72500002 0.0076270006 1.0239128e-38 335 234
0.020394772 0.727 0.0076480396 1.0514284e-38 336 234
0.021699252 0.72799999 0.0076585598 1.0422087e-38 337 234
0.022975679 0.72799999 0.0076585598 1.0789798e-38 338 234
0.024252106 0.72799999 0.0076585598 1.0881993e-38 339 234
0.025528532 0.72799999 0.0076585598 1.1158933e-38 340 234
0.026878599 0.73000002 0.0076795998 1.1435162e-38 341 234
0.028274251 0.73299998 0.0077111595 1.1619546e-38 342 234
0.029801406 0.73900002 0.0077742799 1.1619546e-38 343 234
0.03109712 0.73900002 0.0077742799 1.2169117e-38 344 234
-0.028891427 0.74900001 0.0065662335 1.6137497e-38 298 235
-0.027578179 0.74900001 0.0065662335 1.4570173e-38 299 235
-0.026194798 0.74699998 0.0065486995 1.2634802e-38 300 235
-0.024885058 0.74699998 0.0065486995 9.9611287e-39 301 235
-0.023322839 0.73900002 0.0064785667 1.2449692e-38 302 235
-0.021997318 0.73799998 0.0064697997 1.4938972e-38 303 235
-0.020703359 0.73799998 0.0064697997 1.4115658e-38 304 235
-0.019356798 0.736 0.0064522666 1.3931267e-38 305 235
-0.018017253 0.73400003 0.006434733 1.3750059e-38 306 235
-0.016730307 0.73400003 0.006434733 1.2735906e-38 307 235
-0.015422319 0.73299998 0.0064259665 1.1813851e-38 308 235
-0.014098554 0.73100001 0.006408433 1.1260678e-38 309 235
-0.012799333 0.73000002 0.0063996664 9.8852302e-39 310 235
-0.01148784 0.72799999 0.0063821329 9.6086475e-39 311 235
-0.010211413 0.72799999 0.0063821329 9.333141e-39 312 235
-0.0089227129 0.727 0.0063733663 9.333141e-39 313 235
-0.0076480396 0.727 0.0063733663 9.3334998e-39 314 235
-0.0063558333 0.72500002 0.0063558333 9.3334998e-39 315 235
-0.0050706398 0.72299999 0.0063382997 9.14947e-39 316 235
-0.0038029798 0.72299999 0.0063382997 8.9650816e-39 317 235
-0.0025318132 0.722 0.0063295332 8.8721699e-39 318 235
-0.0012659066 0.722 0.0063295332 8.7796169e-39 319 235
0 0.722 0.0063295332 7.9534562e-39 320 235
0.0012659066 0.722 0.0063295332 7.9534562e-39 321 235
0.0025318132 0.722 0.0063295332 8.319722e-39 322 235
0.0037977197 0.722 0.0063295332 8.4119162e-39 323 235
0.0050706398 0.72299999 0.0063382997 9.0530173e-39 324 235
0.0063382997 0.72299999 0.0063382997 9.4221599e-39 325 235
0.0076270006 0.72500002 0.0063558333 9.3235926e-39 326 235
0.0089227129 0.727 0.0063733663 9.4157882e-39 327 235
0.010197386 0.727 0.0063733663 9.8732337e-39 328 235
0.01147206 0.727 0.0063733663 9.8732337e-39 329 235
0.012746733 0.727 0.0063733663 1.0149098e-38 330 235
0.014021406 0.727 0.0063733663 9.872512e-39 331 235
0.015296079 0.727 0.0063733663 1.0239847e-38 332 235
0.016570752 0.727 0.0063733663 9.9632615e-39 333 235
0.017845426 0.727 0.0063733663 9.7792388e-39 334 235
0.019120099 0.727 0.0063733663 9.7792388e-39 335 235
0.020394772 0.727 0.0063733663 9.9614819e-39 336 235
0.021699252 0.72799999 0.0063821329 9.7774507e-39 337 235
0.022975679 0.72799999 0.0063821329 1.0421018e-38 338 235
0.024318734 0.73000002 0.0063996664 1.1066387e-38 339 235
0.025598666 0.73000002 0.0063996664 1.106889e-38 340 235
0.026989058 0.73299998 0.0064259665 1.1252921e-38 341 235
0.028467119 0.73799998 0.0064697997 1.171066e-38 342 235
0.029801406 0.73900002 0.0064785667 1.171066e-38 343 235
0.03118128 0.741 0.0064960998 1.2078719e-38 344 235
0.032480497 0.741 0.0064960998 1.2355306e-38 345 235
-0.024618553 0.73900002 0.0051828534 1.0056193e-38 301 236
-0.023322839 0.73900002 0.0051828534 1.2081984e-38 302 236
-0.021997318 0.73799998 0.0051758396 1.4294681e-38 303 236
-0.020703359 0.73799998 0.0051758396 1.4483028e-38 304 236
-0.019356798 0.736 0.005161813 1.4575582e-38 305 236
-0.018066347 0.736 0.005161813 1.4853946e-38 306 236
-0.016730307 0.73400003 0.0051477868 1.4208576e-38 307 236
-0.015422319 0.73299998 0.005140773 1.347345e-38 308 236
-0.014137126 0.73299998 0.005140773 1.1906124e-38 309 236
-0.012816866 0.73100001 0.0051267464 1.0344091e-38 310 236
-0.011519399 0.73000002 0.0051197335 9.7909172e-39 311 236
-0.010211413 0.72799999 0.0051057064 1.0067472e-38 312 236
-0.0089349858 0.72799999 0.0051057064 1.0159668e-38 313 236
-0.0076480396 0.727 0.0050986931 9.8841694e-39 314 236
-0.0063733663 0.727 0.0050986931 9.9763651e-39 315 236
-0.0050846669 0.72500002 0.0050846669 1.0159317e-38 316 236
-0.0038029798 0.72299999 0.0050706398 9.9745672e-39 317 236
-0.0025353199 0.72299999 0.0050706398 9.0558409e-39 318 236
-0.0012676599 0.72299999 0.0050706398 8.8718112e-39 319 236
0 0.72299999 0.0050706398 8.1367685e-39 320 236
0.0012676599 0.72299999 0.0050706398 8.1367685e-39 321 236
0.0025353199 0.72299999 0.0050706398 8.41121e-39 322 236
0.0038029798 0.72299999 0.0050706398 8.9640236e-39 323 236
0.0050846669 0.72500002 0.0050846669 1.089158e-38 324 236
0.0063558333 0.72500002 0.0050846669 1.1076331e-38 325 236
0.0076480396 0.727 0.0050986931 1.0609687e-38 326 236
0.0089227129 0.727 0.0050986931 1.0425296e-38 327 236
0.010197386 0.727 0.0050986931 1.0057277e-38 328 236
0.01148784 0.72799999 0.0051057064 9.9650818e-39 329 236
0.012746733 0.727 0.0050986931 9.8732491e-39 330 236
0.014021406 0.727 0.0050986931 9.689218e-39 331 236
0.01531712 0.72799999 0.0051057064 9.7796115e-39 332 236
0.016593546 0.72799999 0.0051057064 9.5952203e-39 333 236
0.017869972 0.72799999 0.0051057064 9.7770948e-39 334 236
0.0191464 0.72799999 0.0051057064 9.5927021e-39 335 236
0.020422826 0.72799999 0.0051057064 9.5905483e-39 336 236
0.021758866 0.73000002 0.0051197335 9.7752983e-39 337 236
0.023038799 0.73000002 0.0051197335 1.0606486e-38 338 236
0.024318734 0.73000002 0.0051197335 1.1159301e-38 339 236
0.025633732 0.73100001 0.0051267464 1.1344754e-38 340 236
0.027173158 0.73799998 0.0051758396 1.143695e-38 341 236
0.028505694 0.73900002 0.0051828534 1.1710662e-38 342 236
0.029882059 0.741 0.0051968796 1.1710662e-38 343 236
0.03118128 0.741 0.0051968796 1.226311e-38 344 236
0.032612 0.74400002 0.0052179201 1.2724089e-38 345 236
0.033916477 0.74400002 0.0052179201 1.5856204e-38 346 236
-0.024984999 0.75 0.003945 1.2451474e-38 301 237
-0.023669999 0.75 0.003945 1.2359289e-38 302 237
-0.022355 0.75 0.003945 1.3004658e-38 303 237
-0.020787518 0.741 0.0038976599 1.273204e-38 304 237
-0.019409399 0.73799998 0.0038818798 1.3100822e-38 305 237
-0.018066347 0.736 0.0038713599 1.3286289e-38 306 237
-0.016775893 0.736 0.0038713599 1.3747266e-38 307 237
-0.01544336 0.73400003 0.0038608401 1.457769e-38 308 237
-0.014156413 0.73400003 0.0038608401 1.3010724e-38 309 237
-0.012851933 0.73299998 0.0038555798 1.1630568e-38 310 237
-0.01153518 0.73100001 0.00384506 1.0801168e-38 311 237
-0.010239467 0.73000002 0.0038397999 1.2180819e-38 312 237
-0.0089595336 0.73000002 0.0038397999 1.2549603e-38 313 237
-0.0076585598 0.72799999 0.0038292799 1.2274814e-38 314 237
-0.0063821329 0.72799999 0.0038292799 1.1997867e-38 315 237
-0.0050986931 0.727 0.0038240198 1.1627624e-38 316 237
-0.0038240198 0.727 0.0038240198 1.1074809e-38 317 237
-0.0025423334 0.72500002 0.0038135003 9.3317061e-39 318 237
-0.0012711667 0.72500002 0.0038135003 9.0551234e-39 319 237
0 0.72500002 0.0038135003 8.5037517e-39 320 237
0.0012711667 0.72500002 0.0038135003 8.4115575e-39 321 237
0.0025423334 0.72500002 0.0038135003 7.8584271e-39 322 237
0.0038135003 0.72500002 0.0038135003 9.5175897e-39 323 237
0.0050986931 0.727 0.0038240198 1.3466268e-38 324 237
0.0063733663 0.727 0.0038240198 1.3005291e-38 325 237
0.0076585598 0.72799999 0.0038292799 1.106889e-38 326 237
0.0089349858 0.72799999 0.0038292799 1.0791943e-38 327 237
0.010211413 0.72799999 0.0038292799 1.0148041e-38 328 237
0.01148784 0.72799999 0.0038292799 9.7792584e-39 329 237
0.012764266 0.72799999 0.0038292799 9.2271734e-39 330 237
0.014040692 0.72799999 0.0038292799 8.9509467e-39 331 237
0.01531712 0.72799999 0.0038292799 9.4094039e-39 332 237
0.016593546 0.72799999 0.0038292799 9.5937952e-39 333 237
