# .PCD v.7 - Point Cloud Data file format
FIELDS x y z rgb imX imY
SIZE 4 4 4 4 4 4
TYPE F F F F F F
COUNT 1 1 1 1 1 1
WIDTH 840
HEIGHT 1
VIEWPOINT 0 0 0 1 0 0 0
POINTS 840
DATA ascii
-0.0107304 0.68000001 -0.028614398 1.2360994e-38 311 264
-0.009524107 0.67900002 -0.028572321 9.7877559e-39 312 264
-0.0083213197 0.67799997 -0.028530238 9.511169e-39 313 264
-0.0071115191 0.676 -0.028446076 1.0895941e-38 314 264
-0.0059262668 0.676 -0.028446076 1.2647658e-38 315 264
-0.0047269869 0.67400002 -0.02836192 1.2731877e-38 316 264
-0.00353472 0.67199999 -0.02827776 1.0611738e-38 317 264
-0.0023529732 0.671 -0.028235679 9.8812841e-39 318 264
-0.0011747333 0.67000002 -0.028193599 9.512866e-39 319 264
0 0.66799998 -0.028109439 9.6050602e-39 320 264
0.0011712266 0.66799998 -0.028109439 9.5125072e-39 321 264
0.0023389466 0.667 -0.028067358 9.4199543e-39 322 264
0.0035084197 0.667 -0.028067358 9.32776e-39 323 264
0.0046708798 0.66600001 -0.028025279 9.0515375e-39 324 264
0.0058385995 0.66600001 -0.028025279 8.8671476e-39 325 264
0.0069852793 0.66399997 -0.027941117 8.5923586e-39 326 264
0.0081494926 0.66399997 -0.027941117 8.4083289e-39 327 264
0.0093137063 0.66399997 -0.027941117 7.7665566e-39 328 264
0.01046214 0.66299999 -0.027899038 7.8587508e-39 329 264
0.011607066 0.662 -0.027856959 8.0424218e-39 330 264
0.012767773 0.662 -0.027856959 8.0424218e-39 331 264
0.01392848 0.662 -0.027856959 8.3172109e-39 332 264
0.015111978 0.66299999 -0.027899038 8.3172109e-39 333 264
0.016274439 0.66299999 -0.027899038 8.4090463e-39 334 264
0.017436899 0.66299999 -0.027899038 8.4090463e-39 335 264
0.018599359 0.66299999 -0.027899038 8.8667889e-39 336 264
0.019761819 0.66299999 -0.027899038 8.9593419e-39 337 264
0.020924279 0.66299999 -0.027899038 9.4178019e-39 338 264
0.02208674 0.66299999 -0.027899038 9.6021903e-39 339 264
0.0232492 0.66299999 -0.027899038 1.0060294e-38 340 264
0.024411658 0.66299999 -0.027899038 9.8759032e-39 341 264
0.025574118 0.66299999 -0.027899038 9.8773955e-39 342 264
0.026776904 0.66399997 -0.027941117 1.107558e-38 343 264
0.028025279 0.66600001 -0.028025279 1.2177697e-38 344 264
0.029192999 0.66600001 -0.028025279 1.2823066e-38 345 264
0.030360719 0.66600001 -0.028025279 1.364962e-38 346 264
0.031528439 0.66600001 -0.028025279 1.3465228e-38 347 264
0.032696161 0.66600001 -0.028025279 1.1715637e-38 348 264
0.033914726 0.667 -0.028067358 1.0056476e-38 349 264
0.035084199 0.667 -0.028067358 8.3093832e-39 350 264
0.036253672 0.667 -0.028067358 8.0327963e-39 351 264
0.037479252 0.66799998 -0.028109439 7.8512959e-39 352 264
0.038824059 0.671 -0.028235679 1.0248381e-38 353 264
0.040060159 0.67199999 -0.02827776 1.2267389e-38 354 264
0.041238401 0.67199999 -0.02827776 1.2359584e-38 355 264
0.042795356 0.67799997 -0.028530238 1.2358165e-38 356 264
0.044113863 0.68000001 -0.028614398 1.2542196e-38 357 264
0.045172878 0.67799997 -0.028530238 1.1894311e-38 358 264
0.046361636 0.67799997 -0.028530238 1.0972356e-38 359 264
0.047550395 0.67799997 -0.028530238 1.5858001e-38 360 264
0.048739154 0.67799997 -0.028530238 1.7886305e-38 361 264
-0.013172794 0.68300003 -0.029938167 1.4927786e-38 309 265
-0.011975267 0.68300003 -0.029938167 1.2453234e-38 310 265
-0.0107304 0.68000001 -0.029806666 1.3006048e-38 311 265
-0.0095381327 0.68000001 -0.029806666 1.2271309e-38 312 265
-0.0083335936 0.67900002 -0.029762832 9.5976361e-39 313 265
-0.0071115191 0.676 -0.029631332 8.8712268e-39 314 265
-0.0059262668 0.676 -0.029631332 1.1268673e-38 315 265
-0.0047269869 0.67400002 -0.029543666 1.3100357e-38 316 265
-0.00353472 0.67199999 -0.029455997 1.21784e-38 317 265
-0.0023564799 0.67199999 -0.029455997 1.1168132e-38 318 265
-0.0011764866 0.671 -0.029412165 1.0061785e-38 319 265
0 0.67000002 -0.029368332 1.024614e-38 320 265
0.0011747333 0.67000002 -0.029368332 1.024614e-38 321 265
0.0023424532 0.66799998 -0.029280664 9.6032862e-39 322 265
0.0035084197 0.667 -0.029236831 9.5110905e-39 323 265
0.0046708798 0.66600001 -0.029192999 9.1433828e-39 324 265
0.0058385995 0.66600001 -0.029192999 9.0511872e-39 325 265
0.0070063197 0.66600001 -0.029192999 8.2257341e-39 326 265
0.0081740404 0.66600001 -0.029192999 8.1335399e-39 327 265
0.0093417596 0.66600001 -0.029192999 7.8587508e-39 328 265
0.010477919 0.66399997 -0.02910533 7.8587508e-39 329 265
0.011642133 0.66399997 -0.02910533 7.8587508e-39 330 265
0.012787059 0.66299999 -0.029061496 7.8587508e-39 331 265
0.013949519 0.66299999 -0.029061496 8.3172109e-39 332 265
0.015134773 0.66399997 -0.02910533 8.3172109e-39 333 265
0.016298985 0.66399997 -0.02910533 8.5919999e-39 334 265
0.017436899 0.66299999 -0.029061496 8.5919999e-39 335 265
0.018599359 0.66299999 -0.029061496 8.9586244e-39 336 265
0.019761819 0.66299999 -0.029061496 9.2348498e-39 337 265
0.020924279 0.66299999 -0.029061496 9.7847991e-39 338 265
0.022120051 0.66399997 -0.02910533 9.7847991e-39 339 265
0.023284266 0.66399997 -0.02910533 1.0244342e-38 340 265
0.024448479 0.66399997 -0.02910533 1.0152147e-38 341 265
0.025612691 0.66399997 -0.02910533 1.0798668e-38 342 265
0.026776904 0.66399997 -0.02910533 1.2273798e-38 343 265
0.028025279 0.66600001 -0.029192999 1.3281916e-38 344 265
0.029192999 0.66600001 -0.029192999 1.3374112e-38 345 265
0.030360719 0.66600001 -0.029192999 1.2453953e-38 346 265
0.031528439 0.66600001 -0.029192999 1.125541e-38 347 265
0.032696161 0.66600001 -0.029192999 8.4037677e-39 348 265
0.033914726 0.667 -0.029236831 7.7583982e-39 349 265
0.035084199 0.667 -0.029236831 8.0352976e-39 350 265
0.036253672 0.667 -0.029236831 8.4037214e-39 351 265
0.037647571 0.671 -0.029412165 9.1402383e-39 352 265
0.03888192 0.67199999 -0.029455997 1.0984151e-38 353 265
0.040238999 0.67500001 -0.0295875 1.1716018e-38 354 265
0.041422497 0.67500001 -0.0295875 1.1900051e-38 355 265
0.042795356 0.67799997 -0.029718997 1.2725868e-38 356 265
0.044048995 0.67900002 -0.029762832 1.3002454e-38 357 265
0.045172878 0.67799997 -0.029718997 1.2263098e-38 358 265
0.046361636 0.67799997 -0.029718997 1.0787968e-38 359 265
0.047550395 0.67799997 -0.029718997 1.6777081e-38 360 265
0.048739154 0.67799997 -0.029718997 1.8620993e-38 361 265
-0.013172794 0.68300003 -0.031135695 1.1705991e-38 309 266
-0.011975267 0.68300003 -0.031135695 9.5955734e-39 310 266
-0.01077774 0.68300003 -0.031135695 1.180827e-38 311 266
-0.009566186 0.68199998 -0.031090107 1.3743968e-38 312 266
-0.0083335936 0.67900002 -0.030953348 1.1715662e-38 313 266
-0.0071325595 0.67799997 -0.030907756 9.8781957e-39 314 266
-0.0059262668 0.676 -0.030816587 1.1722108e-38 315 266
-0.0047339997 0.67500001 -0.030771 1.3009991e-38 316 266
-0.00354524 0.67400002 -0.030725412 1.328658e-38 317 266
-0.0023564799 0.67199999 -0.030634239 1.3006358e-38 318 266
-0.0011764866 0.671 -0.030588651 1.1715978e-38 319 266
0 0.671 -0.030588651 1.1807031e-38 320 266
0.0011747333 0.67000002 -0.030543067 1.1346412e-38 321 266
0.0023494666 0.67000002 -0.030543067 1.0429099e-38 322 266
0.0035136798 0.66799998 -0.030451892 1.0152512e-38 323 266
0.0046778931 0.667 -0.030406304 9.327051e-39 324 266
0.0058473665 0.667 -0.030406304 9.142301e-39 325 266
0.0070168395 0.667 -0.030406304 8.2260928e-39 326 266
0.0081740404 0.66600001 -0.030360719 8.1335399e-39 327 266
0.0093417596 0.66600001 -0.030360719 7.6757973e-39 328 266
0.01050948 0.66600001 -0.030360719 7.6757973e-39 329 266
0.011642133 0.66399997 -0.030269546 8.0420631e-39 330 266
0.012806346 0.66399997 -0.030269546 8.0420631e-39 331 266
0.013970559 0.66399997 -0.030269546 8.3172109e-39 332 266
0.015134773 0.66399997 -0.030269546 8.3172109e-39 333 266
0.016298985 0.66399997 -0.030269546 8.7753121e-39 334 266
0.017436899 0.66299999 -0.030223956 8.8675064e-39 335 266
0.018599359 0.66299999 -0.030223956 9.4170956e-39 336 266
0.019761819 0.66299999 -0.030223956 9.5092913e-39 337 266
0.020955838 0.66399997 -0.030269546 1.0058889e-38 338 266
0.022120051 0.66399997 -0.030269546 1.0243639e-38 339 266
0.023354398 0.66600001 -0.030360719 9.6926512e-39 340 266
0.02452212 0.66600001 -0.030360719 1.0522412e-38 341 266
0.02568984 0.66600001 -0.030360719 1.2085133e-38 342 266
0.026857559 0.66600001 -0.030360719 1.3375872e-38 343 266
0.028025279 0.66600001 -0.030360719 1.383366e-38 344 266
0.029192999 0.66600001 -0.030360719 1.3741465e-38 345 266
0.030360719 0.66600001 -0.030360719 1.1348306e-38 346 266
0.031528439 0.66600001 -0.030360719 9.9653719e-39 347 266
0.032696161 0.66600001 -0.030360719 7.5743419e-39 348 266
0.033914726 0.667 -0.030406304 7.6665375e-39 349 266
0.035084199 0.667 -0.030406304 8.2214783e-39 350 266
0.036253672 0.667 -0.030406304 8.590621e-39 351 266
0.037871998 0.67500001 -0.030771 9.9681983e-39 352 266
0.039055496 0.67500001 -0.030771 1.1258937e-38 353 266
0.040417835 0.67799997 -0.030907756 1.2175193e-38 354 266
0.041606598 0.67799997 -0.030907756 1.2359584e-38 355 266
0.042858478 0.67900002 -0.030953348 1.3002454e-38 356 266
0.044048995 0.67900002 -0.030953348 1.3094651e-38 357 266
0.045172878 0.67799997 -0.030907756 1.2168747e-38 358 266
0.046361636 0.67799997 -0.030907756 1.0601421e-38 359 266
0.047550395 0.67799997 -0.030907756 1.650122e-38 360 266
0.048739154 0.67799997 -0.030907756 1.8529524e-38 361 266
-0.01443344 0.68599999 -0.032475237 1.1709586e-38 308 267
-0.01319208 0.68400002 -0.032380559 1.0879826e-38 309 267
-0.011975267 0.68300003 -0.032333218 9.1317282e-39 310 267
-0.01077774 0.68300003 -0.032333218 1.0790889e-38 311 267
-0.009566186 0.68199998 -0.032285877 1.2544386e-38 312 267
-0.0083335936 0.67900002 -0.032143861 1.4480494e-38 313 267
-0.0071325595 0.67799997 -0.03209652 1.3926212e-38 314 267
-0.0059262668 0.676 -0.032001842 1.3003897e-38 315 267
-0.0047339997 0.67500001 -0.031954501 1.2735226e-38 316 267
-0.0035505001 0.67500001 -0.031954501 1.3380595e-38 317 267
-0.0023634934 0.67400002 -0.03190716 1.4476489e-38 318 267
-0.0011782399 0.67199999 -0.031812478 1.3554893e-38 319 267
0 0.67199999 -0.031812478 1.3185678e-38 320 267
0.0011764866 0.671 -0.031765141 1.2355558e-38 321 267
0.0023494666 0.67000002 -0.0317178 1.0429102e-38 322 267
0.0035241998 0.67000002 -0.0317178 1.0244711e-38 323 267
0.0046849065 0.66799998 -0.031623118 8.8689413e-39 324 267
0.0058561331 0.66799998 -0.031623118 8.6845528e-39 325 267
0.0070168395 0.667 -0.03157578 7.6754386e-39 326 267
0.0081863133 0.667 -0.03157578 7.8594683e-39 327 267
0.0093557863 0.667 -0.03157578 7.6754386e-39 328 267
0.01050948 0.66600001 -0.031528439 7.6754386e-39 329 267
0.011677199 0.66600001 -0.031528439 8.0417044e-39 330 267
0.01284492 0.66600001 -0.031528439 8.0417044e-39 331 267
0.014012639 0.66600001 -0.031528439 8.408689e-39 332 267
0.01518036 0.66600001 -0.031528439 8.5008846e-39 333 267
0.016348081 0.66600001 -0.031528439 8.9586412e-39 334 267
0.0174632 0.66399997 -0.031433757 9.0508368e-39 335 267
0.018627413 0.66399997 -0.031433757 9.6000702e-39 336 267
0.019791625 0.66399997 -0.031433757 9.7841027e-39 337 267
0.020955838 0.66399997 -0.031433757 9.9684757e-39 338 267
0.022120051 0.66399997 -0.031433757 9.5074962e-39 339 267
0.023354398 0.66600001 -0.031528439 9.1409235e-39 340 267
0.02452212 0.66600001 -0.031528439 1.1630204e-38 341 267
0.02568984 0.66600001 -0.031528439 1.3372663e-38 342 267
0.026857559 0.66600001 -0.031528439 1.3925836e-38 343 267
0.028067358 0.667 -0.03157578 1.2912055e-38 344 267
0.029236831 0.667 -0.03157578 1.1621316e-38 345 267
0.030406304 0.667 -0.03157578 7.7576766e-39 346 267
0.03157578 0.667 -0.03157578 7.0201115e-39 347 267
0.032745253 0.667 -0.03157578 7.2995319e-39 348 267
0.033914726 0.667 -0.03157578 7.6679542e-39 349 267
0.035084199 0.667 -0.03157578 8.4970213e-39 350 267
0.036253672 0.667 -0.03157578 9.6030087e-39 351 267
0.037871998 0.67500001 -0.031954501 1.0428867e-38 352 267
0.039113361 0.676 -0.032001842 1.162741e-38 353 267
0.040417835 0.67799997 -0.03209652 1.3462354e-38 354 267
0.041606598 0.67799997 -0.03209652 1.3554909e-38 355 267
0.042858478 0.67900002 -0.032143861 1.30943e-38 356 267
0.044048995 0.67900002 -0.032143861 1.2080148e-38 357 267
0.045239504 0.67900002 -0.032143861 1.1704179e-38 358 267
0.046498399 0.68000001 -0.032191198 1.0505635e-38 359 267
0.047690667 0.68000001 -0.032191198 1.6133512e-38 360 267
-0.01443344 0.68599999 -0.033678025 1.2538268e-38 308 268
-0.013230653 0.68599999 -0.033678025 1.1800703e-38 309 268
-0.0119928 0.68400002 -0.033579841 1.0511431e-38 310 268
-0.01077774 0.68300003 -0.033530746 1.0235204e-38 311 268
-0.0095802136 0.68300003 -0.033530746 1.0977086e-38 312 268
-0.0083704125 0.68199998 -0.03348165 1.4664911e-38 313 268
-0.0071430802 0.67900002 -0.033334374 1.4573762e-38 314 268
-0.0059437994 0.67799997 -0.033285279 1.3467774e-38 315 268
-0.0047410131 0.676 -0.033187091 1.3559967e-38 316 268
-0.0035505001 0.67500001 -0.033137999 1.4020945e-38 317 268
-0.0023669999 0.67500001 -0.033137999 1.4570147e-38 318 268
-0.0011817467 0.67400002 -0.033088908 1.3924777e-38 319 268
0 0.67199999 -0.03299072 1.3188937e-38 320 268
0.0011782399 0.67199999 -0.03299072 1.1713807e-38 321 268
0.0023529732 0.671 -0.032941625 9.4174726e-39 322 268
0.0035241998 0.67000002 -0.032892533 9.4174726e-39 323 268
0.0046989331 0.67000002 -0.032892533 8.7771058e-39 324 268
0.0058736666 0.67000002 -0.032892533 8.5927173e-39 325 268
0.0070483997 0.67000002 -0.032892533 7.9513038e-39 326 268
0.0081985854 0.66799998 -0.032794341 7.8591096e-39 327 268
0.0093557863 0.667 -0.032745253 7.8587508e-39 328 268
0.010525259 0.667 -0.032745253 7.8587508e-39 329 268
0.011677199 0.66600001 -0.032696161 8.0417044e-39 330 268
0.01284492 0.66600001 -0.032696161 8.0417044e-39 331 268
0.014012639 0.66600001 -0.032696161 8.5005343e-39 332 268
0.01518036 0.66600001 -0.032696161 8.5005343e-39 333 268
0.016348081 0.66600001 -0.032696161 9.5082347e-39 334 268
0.017515799 0.66600001 -0.032696161 9.6007904e-39 335 268
0.018683519 0.66600001 -0.032696161 9.8755795e-39 336 268
0.019851239 0.66600001 -0.032696161 9.7833824e-39 337 268
0.02101896 0.66600001 -0.032696161 9.2337988e-39 338 268
0.02218668 0.66600001 -0.032696161 9.3259958e-39 339 268
0.023389466 0.667 -0.032745253 1.0152943e-38 340 268
0.024558939 0.667 -0.032745253 1.2273801e-38 341 268
0.025728412 0.667 -0.032745253 1.3740017e-38 342 268
0.026897885 0.667 -0.032745253 1.3832213e-38 343 268
0.028067358 0.667 -0.032745253 1.1348662e-38 344 268
0.029236831 0.667 -0.032745253 9.412554e-39 345 268
0.030406304 0.667 -0.032745253 6.5616263e-39 346 268
0.03157578 0.667 -0.032745253 6.1932025e-39 347 268
0.032745253 0.667 -0.032745253 7.7583366e-39 348 268
0.033965573 0.66799998 -0.032794341 8.7724871e-39 349 268
0.035136797 0.66799998 -0.032794341 1.0703251e-38 350 268
0.036525436 0.67199999 -0.03299072 1.1071675e-38 351 268
0.037928104 0.676 -0.033187091 1.1255054e-38 352 268
0.039229076 0.67799997 -0.033285279 1.2545793e-38 353 268
0.040417835 0.67799997 -0.033285279 1.3554918e-38 354 268
0.041606598 0.67799997 -0.033285279 1.3278692e-38 355 268
0.042858478 0.67900002 -0.033334374 1.2446425e-38 356 268
0.044048995 0.67900002 -0.033334374 1.0971656e-38 357 268
0.045239504 0.67900002 -0.033334374 1.0325204e-38 358 268
0.046498399 0.68000001 -0.033383466 1.060215e-38 359 268
0.047690667 0.68000001 -0.033383466 1.6593769e-38 360 268
-0.015636226 0.68599999 -0.034880809 1.7053676e-38 307 269
-0.01443344 0.68599999 -0.034880809 1.3185076e-38 308 269
-0.013230653 0.68599999 -0.034880809 1.2447153e-38 309 269
-0.012027865 0.68599999 -0.034880809 1.106353e-38 310 269
-0.01079352 0.68400002 -0.03477912 9.4965647e-39 311 269
-0.0095802136 0.68300003 -0.034728274 9.5019681e-39 312 269
-0.0083826864 0.68300003 -0.034728274 1.3743327e-38 313 269
-0.00717464 0.68199998 -0.034677424 1.4482309e-38 314 269
-0.0059525664 0.67900002 -0.034524884 1.3652548e-38 315 269
-0.0047550397 0.67799997 -0.034474038 1.3280875e-38 316 269
-0.0035557596 0.676 -0.034372345 1.3004648e-38 317 269
-0.0023705065 0.676 -0.034372345 1.4203537e-38 318 269
-0.0011834999 0.67500001 -0.034321502 1.438793e-38 319 269
0 0.67500001 -0.034321502 1.3466984e-38 320 269
0.0011782399 0.67199999 -0.034168959 1.1530876e-38 321 269
0.0023564799 0.67199999 -0.034168959 8.8646645e-39 322 269
0.0035294599 0.671 -0.034118112 8.9572189e-39 323 269
0.0047059464 0.671 -0.034118112 8.5023168e-39 324 269
0.0058736666 0.67000002 -0.034067266 8.2260928e-39 325 269
0.0070483997 0.67000002 -0.034067266 8.1346161e-39 326 269
0.0081985854 0.66799998 -0.033965573 8.0424218e-39 327 269
0.0093698129 0.66799998 -0.033965573 8.0420631e-39 328 269
0.01054104 0.66799998 -0.033965573 8.0420631e-39 329 269
0.011694733 0.667 -0.033914726 8.0417044e-39 330 269
0.012864206 0.667 -0.033914726 8.1342573e-39 331 269
0.014033679 0.667 -0.033914726 8.5909447e-39 332 269
0.015203152 0.667 -0.033914726 8.7756947e-39 333 269
0.016372627 0.667 -0.033914726 9.3242218e-39 334 269
0.0175421 0.667 -0.033914726 9.6004499e-39 335 269
0.018711573 0.667 -0.033914726 9.4171194e-39 336 269
0.019881045 0.667 -0.033914726 9.1405312e-39 337 269
0.021050518 0.667 -0.033914726 9.0501726e-39 338 269
0.022253305 0.66799998 -0.033965573 1.0894085e-38 339 269
0.023424532 0.66799998 -0.033965573 1.2637613e-38 340 269
0.02459576 0.66799998 -0.033965573 1.3098951e-38 341 269
0.025766984 0.66799998 -0.033965573 1.3464505e-38 342 269
0.026938211 0.66799998 -0.033965573 1.2634745e-38 343 269
0.028109439 0.66799998 -0.033965573 9.5987151e-39 344 269
0.029280664 0.66799998 -0.033965573 8.4923676e-39 345 269
0.030451892 0.66799998 -0.033965573 8.1268094e-39 346 269
0.0317178 0.67000002 -0.034067266 9.0487657e-39 347 269
0.03299072 0.67199999 -0.034168959 1.0243038e-38 348 269
0.034270655 0.67400002 -0.034270655 1.1349025e-38 349 269
0.035505001 0.67500001 -0.034321502 1.2634391e-38 350 269
0.036742851 0.676 -0.034372345 1.1528404e-38 351 269
0.038040318 0.67799997 -0.034474038 1.1067088e-38 352 269
0.039229076 0.67799997 -0.034474038 1.3003196e-38 353 269
0.040477451 0.67900002 -0.034524884 1.3370184e-38 354 269
0.041667968 0.67900002 -0.034524884 1.2448228e-38 355 269
0.042858478 0.67900002 -0.034524884 1.1065293e-38 356 269
0.044113863 0.68000001 -0.034575731 1.0051141e-38 357 269
0.045306131 0.68000001 -0.034575731 1.0877658e-38 358 269
0.046635158 0.68199998 -0.034677424 1.170742e-38 359 269
0.047830928 0.68199998 -0.034677424 1.7330252e-38 360 269
-0.015818574 0.69400001 -0.036504399 1.7146945e-38 307 270
-0.014580719 0.69300002 -0.036451802 1.4014471e-38 308 270
-0.013249939 0.68699998 -0.036136195 1.3000678e-38 309 270
-0.012045399 0.68699998 -0.036136195 1.069546e-38 310 270
-0.010840859 0.68699998 -0.036136195 9.8653402e-39 311 270
-0.0096222926 0.68599999 -0.036083598 9.2253854e-39 312 270
-0.0083949603 0.68400002 -0.035978399 1.1438079e-38 313 270
-0.00717464 0.68199998 -0.035873197 1.2546575e-38 314 270
-0.0059613334 0.68000001 -0.035767999 1.263877e-38 315 270
-0.0047620535 0.67900002 -0.035715401 1.1990868e-38 316 270
-0.0035557596 0.676 -0.035557602 1.1806118e-38 317 270
-0.0023705065 0.676 -0.035557602 1.3560702e-38 318 270
-0.0011852533 0.676 -0.035557602 1.4298267e-38 319 270
0 0.67500001 -0.035505001 1.4112749e-38 320 270
0.0011817467 0.67400002 -0.035452399 1.2914205e-38 321 270
0.0023564799 0.67199999 -0.035347197 1.1625888e-38 322 270
0.00353472 0.67199999 -0.035347197 1.0519542e-38 323 270
0.0047059464 0.671 -0.0352946 8.5008818e-39 324 270
0.0058824331 0.671 -0.0352946 8.2242992e-39 325 270
0.0070589199 0.671 -0.0352946 8.1342573e-39 326 270
0.0082231332 0.67000002 -0.035241999 8.2264516e-39 327 270
0.0093978662 0.67000002 -0.035241999 8.1342573e-39 328 270
0.01054104 0.66799998 -0.035136797 8.1342573e-39 329 270
0.011712266 0.66799998 -0.035136797 8.1338986e-39 330 270
0.012883492 0.66799998 -0.035136797 8.2260928e-39 331 270
0.014054719 0.66799998 -0.035136797 8.0392199e-39 332 270
0.015225946 0.66799998 -0.035136797 8.1317742e-39 333 270
0.016397171 0.66799998 -0.035136797 9.0487251e-39 334 270
0.017568398 0.66799998 -0.035136797 9.1409207e-39 335 270
0.018739626 0.66799998 -0.035136797 8.9583301e-39 336 270
0.019970467 0.67000002 -0.035241999 9.4189495e-39 337 270
0.0211452 0.67000002 -0.035241999 1.0889457e-38 338 270
0.022319933 0.67000002 -0.035241999 1.2641174e-38 339 270
0.023494666 0.67000002 -0.035241999 1.3649272e-38 340 270
0.024669399 0.67000002 -0.035241999 1.3741468e-38 341 270
0.025844134 0.67000002 -0.035241999 1.3188647e-38 342 270
0.027018867 0.67000002 -0.035241999 1.2174136e-38 343 270
0.028193599 0.67000002 -0.035241999 1.0703643e-38 344 270
0.029368332 0.67000002 -0.035241999 1.0426698e-38 345 270
0.030543067 0.67000002 -0.035241999 1.1529807e-38 346 270
0.031812478 0.67199999 -0.035347197 1.106883e-38 347 270
0.03299072 0.67199999 -0.035347197 1.1159987e-38 348 270
0.034372345 0.676 -0.035557602 1.235853e-38 349 270
0.035557602 0.676 -0.035557602 1.2635493e-38 350 270
0.036851559 0.67799997 -0.0356628 1.1344754e-38 351 270
0.038040318 0.67799997 -0.0356628 1.0606486e-38 352 270
0.039286941 0.67900002 -0.035715401 1.1251855e-38 353 270
0.040477451 0.67900002 -0.035715401 1.1799281e-38 354 270
0.041667968 0.67900002 -0.035715401 9.9557267e-39 355 270
0.042858478 0.67900002 -0.035715401 9.1331505e-39 356 270
0.044113863 0.68000001 -0.035767999 9.8707156e-39 357 270
0.045439381 0.68199998 -0.035873197 1.1893608e-38 358 270
0.04670354 0.68300003 -0.035925802 1.2631174e-38 359 270
0.047901068 0.68300003 -0.035925802 1.7514646e-38 360 270
-0.017035386 0.69400001 -0.037721213 1.8622791e-38 306 271
-0.015818574 0.69400001 -0.037721213 1.6778879e-38 307 271
-0.014580719 0.69300002 -0.037666857 1.4199575e-38 308 271
-0.013327086 0.69099998 -0.03755815 1.3093228e-38 309 271
-0.012097999 0.69 -0.037503798 1.0236274e-38 310 271
-0.010856641 0.68800002 -0.037395094 1.0144078e-38 311 271
-0.0096222926 0.68599999 -0.037286382 1.078982e-38 312 271
-0.0084195063 0.68599999 -0.037286382 1.1066047e-38 313 271
-0.0071851597 0.68300003 -0.037123326 9.4112018e-39 314 271
-0.005978866 0.68199998 -0.037068974 1.1070723e-38 315 271
-0.0047620535 0.67900002 -0.036905911 1.1989079e-38 316 271
-0.0035662798 0.67799997 -0.036851559 1.2081275e-38 317 271
-0.0023705065 0.676 -0.036742851 1.3375967e-38 318 271
-0.0011852533 0.676 -0.036742851 1.4390119e-38 319 271
0 0.67500001 -0.036688499 1.4573046e-38 320 271
0.0011834999 0.67500001 -0.036688499 1.4388655e-38 321 271
0.0023634934 0.67400002 -0.036634147 1.4021241e-38 322 271
0.00353472 0.67199999 -0.036525436 1.236136e-38 323 271
0.0047129598 0.67199999 -0.036525436 1.0520946e-38 324 271
0.0058911997 0.67199999 -0.036525436 9.5067927e-39 325 271
0.0070589199 0.671 -0.036471087 7.7658391e-39 326 271
0.0082354061 0.671 -0.036471087 8.0420631e-39 327 271
0.0093978662 0.67000002 -0.036416732 8.0420631e-39 328 271
0.0105726 0.67000002 -0.036416732 8.1342573e-39 329 271
0.011747333 0.67000002 -0.036416732 8.4094051e-39 330 271
0.012883492 0.66799998 -0.036308024 8.4094051e-39 331 271
0.014054719 0.66799998 -0.036308024 7.6718681e-39 332 271
0.015271533 0.67000002 -0.036416732 7.6718681e-39 333 271
0.016446266 0.67000002 -0.036416732 8.7735857e-39 334 271
0.017620999 0.67000002 -0.036416732 9.2342038e-39 335 271
0.018795732 0.67000002 -0.036416732 1.0245158e-38 336 271
0.020000271 0.671 -0.036471087 1.1351504e-38 337 271
0.021176759 0.671 -0.036471087 1.3097165e-38 338 271
0.022353247 0.671 -0.036471087 1.3927285e-38 339 271
0.023494666 0.67000002 -0.036416732 1.4201018e-38 340 271
0.024669399 0.67000002 -0.036416732 1.392443e-38 341 271
0.025882706 0.671 -0.036471087 1.30979e-38 342 271
0.027059194 0.671 -0.036471087 1.2452531e-38 343 271
0.028235679 0.671 -0.036471087 1.226813e-38 344 271
0.029412165 0.671 -0.036471087 1.226813e-38 345 271
0.030634239 0.67199999 -0.036525436 1.152877e-38 346 271
0.031954501 0.67500001 -0.036688499 1.0422422e-38 347 271
0.033187091 0.676 -0.036742851 1.0513914e-38 348 271
0.034372345 0.676 -0.036742851 1.1804653e-38 349 271
0.0356628 0.67799997 -0.036851559 1.2176332e-38 350 271
0.036851559 0.67799997 -0.036851559 1.0516451e-38 351 271
0.038096428 0.67900002 -0.036905911 1.0330271e-38 352 271
0.039286941 0.67900002 -0.036905911 9.7770976e-39 353 271
0.040537067 0.68000001 -0.036960267 9.4947682e-39 354 271
0.041729335 0.68000001 -0.036960267 8.5724532e-39 355 271
0.042921599 0.68000001 -0.036960267 8.8544308e-39 356 271
0.044243611 0.68199998 -0.037068974 1.0606148e-38 357 271
0.045506012 0.68300003 -0.037123326 1.2723735e-38 358 271
0.046771921 0.68400002 -0.037177678 1.3185074e-38 359 271
-0.017035386 0.69400001 -0.038938027 1.8254369e-38 306 272
-0.015818574 0.69400001 -0.038938027 1.6871435e-38 307 272
-0.014580719 0.69300002 -0.03888192 1.4476879e-38 308 272
-0.013327086 0.69099998 -0.038769703 1.3001749e-38 309 272
-0.012097999 0.69 -0.038713597 1.0239139e-38 310 272
-0.010856641 0.68800002 -0.038601387 1.0516085e-38 311 272
-0.0096222926 0.68599999 -0.03848917 1.1621007e-38 312 272
-0.0084195063 0.68599999 -0.03848917 1.2081984e-38 313 272
-0.0071851597 0.68300003 -0.038320854 1.0049381e-38 314 272
-0.005978866 0.68199998 -0.038264744 8.0210773e-39 315 272
-0.0047690663 0.68000001 -0.038152531 8.3981442e-39 316 272
-0.0035715401 0.67900002 -0.038096428 1.0149502e-38 317 272
-0.0023775198 0.67799997 -0.038040318 1.2729168e-38 318 272
-0.0011887599 0.67799997 -0.038040318 1.4019907e-38 319 272
0 0.676 -0.037928104 1.4665977e-38 320 272
0.0011852533 0.676 -0.037928104 1.4297553e-38 321 272
0.0023669999 0.67500001 -0.037871998 1.4389352e-38 322 272
0.00354524 0.67400002 -0.037815895 1.3651787e-38 323 272
0.0047269869 0.67400002 -0.037815895 1.3006363e-38 324 272
0.0058911997 0.67199999 -0.037703678 1.2176242e-38 325 272
0.0070694401 0.67199999 -0.037703678 1.0340914e-38 326 272
0.00824768 0.67199999 -0.037703678 9.5107948e-39 327 272
0.0094118929 0.671 -0.037647571 8.4105443e-39 328 272
0.01058838 0.671 -0.037647571 8.3183487e-39 329 272
0.011747333 0.67000002 -0.037591465 8.1332512e-39 330 272
0.012922067 0.67000002 -0.037591465 8.5945895e-39 331 272
0.014096799 0.67000002 -0.037591465 9.6062611e-39 332 272
0.015271533 0.67000002 -0.037591465 1.0159076e-38 333 272
0.016446266 0.67000002 -0.037591465 1.162776e-38 334 272
0.0176473 0.671 -0.037647571 1.162776e-38 335 272
0.018823786 0.671 -0.037647571 1.2359234e-38 336 272
0.020000271 0.671 -0.037647571 1.2267038e-38 337 272
0.021176759 0.671 -0.037647571 1.2540773e-38 338 272
0.022353247 0.671 -0.037647571 1.2264185e-38 339 272
0.023529733 0.671 -0.037647571 1.1529145e-38 340 272
0.024706218 0.671 -0.037647571 1.143695e-38 341 272
0.025882706 0.671 -0.037647571 1.2637288e-38 342 272
0.027059194 0.671 -0.037647571 1.3558885e-38 343 272
0.02827776 0.67199999 -0.037703678 1.2542944e-38 344 272
0.029455997 0.67199999 -0.037703678 1.0699031e-38 345 272
0.030725412 0.67400002 -0.037815895 4.8050076e-39 346 272
0.032001842 0.676 -0.037928104 5.1741502e-39 347 272
0.033187091 0.676 -0.037928104 7.5683654e-39 348 272
0.034372345 0.676 -0.037928104 1.0057646e-38 349 272
0.0356628 0.67799997 -0.038040318 1.1621376e-38 350 272
0.036851559 0.67799997 -0.038040318 8.7636716e-39 351 272
0.038096428 0.67900002 -0.038096428 6.555654e-39 352 272
0.039286941 0.67900002 -0.038096428 7.7541972e-39 353 272
0.040537067 0.68000001 -0.038152531 8.8526358e-39 354 272
0.041729335 0.68000001 -0.038152531 8.3916576e-39 355 272
0.043047838 0.68199998 -0.038264744 8.669671e-39 356 272
0.044308487 0.68300003 -0.038320854 1.0236997e-38 357 272
0.045572639 0.68400002 -0.038376961 1.2814483e-38 358 272
0.0479712 0.68400002 -0.038376961 1.7422087e-38 360 272
-0.018331099 0.69700003 -0.040328421 1.9726621e-38 305 273
-0.017035386 0.69400001 -0.040154841 1.8161817e-38 306 273
-0.015818574 0.69400001 -0.040154841 1.6963274e-38 307 273
-0.01460176 0.69400001 -0.040154841 1.484566e-38 308 273
-0.01336566 0.69300002 -0.04009698 1.3739314e-38 309 273
-0.012115533 0.69099998 -0.039981257 1.2355676e-38 310 273
-0.010888199 0.69 -0.0399234 1.1987252e-38 311 273
-0.0096363192 0.68699998 -0.039749816 1.1160754e-38 312 273
-0.0084317802 0.68699998 -0.039749816 1.1160754e-38 313 273
-0.0071851597 0.68300003 -0.039518382 9.7746089e-39 314 273
-0.005978866 0.68199998 -0.039460517 5.441773e-39 315 273
-0.004783093 0.68199998 -0.039460517 4.8950831e-39 316 273
-0.0035715401 0.67900002 -0.039286941 7.5687563e-39 317 273
-0.0023810267 0.67900002 -0.039286941 9.5041331e-39 318 273
-0.0011887599 0.67799997 -0.039229076 1.0887068e-38 319 273
0 0.676 -0.039113361 1.1995198e-38 320 273
0.0011852533 0.676 -0.039113361 1.3009348e-38 321 273
0.0023669999 0.67500001 -0.039055496 1.4204999e-38 322 273
0.0035505001 0.67500001 -0.039055496 1.4204999e-38 323 273
0.0047269869 0.67400002 -0.038997639 1.4019496e-38 324 273
0.0059087332 0.67400002 -0.038997639 1.3374127e-38 325 273
0.0070694401 0.67199999 -0.03888192 1.2547921e-38 326 273
0.00824768 0.67199999 -0.03888192 1.1994748e-38 327 273
0.0094259195 0.67199999 -0.03888192 1.1167851e-38 328 273
0.01058838 0.671 -0.038824059 1.0707233e-38 329 273
0.011764866 0.671 -0.038824059 1.0339186e-38 330 273
0.012941353 0.671 -0.038824059 1.0800525e-38 331 273
0.01411784 0.671 -0.038824059 1.2087692e-38 332 273
0.015294326 0.671 -0.038824059 1.2917092e-38 333 273
0.016470812 0.671 -0.038824059 1.3559241e-38 334 273
0.0176473 0.671 -0.038824059 1.3190459e-38 335 273
0.018823786 0.671 -0.038824059 1.1900445e-38 336 273
0.020000271 0.671 -0.038824059 1.0424956e-38 337 273
0.021208318 0.67199999 -0.03888192 9.500854e-39 338 273
0.022386558 0.67199999 -0.03888192 8.3023108e-39 339 273
0.023564799 0.67199999 -0.03888192 6.4648652e-39 340 273
0.024743039 0.67199999 -0.03888192 9.2307341e-39 341 273
0.025921278 0.67199999 -0.03888192 1.2265634e-38 342 273
0.027099518 0.67199999 -0.03888192 1.4109188e-38 343 273
0.02836192 0.67400002 -0.038997639 1.2816677e-38 344 273
0.029543666 0.67400002 -0.038997639 9.9586106e-39 345 273
0.030771 0.67500001 -0.039055496 4.7081681e-39 346 273
0.032001842 0.676 -0.039113361 5.2613418e-39 347 273
0.033187091 0.676 -0.039113361 7.0137847e-39 348 273
0.034372345 0.676 -0.039113361 8.9498929e-39 349 273
0.0356628 0.67799997 -0.039229076 1.0511455e-38 350 273
0.036851559 0.67799997 -0.039229076 8.0225318e-39 351 273
0.038096428 0.67900002 -0.039286941 4.6181262e-39 352 273
0.039286941 0.67900002 -0.039286941 7.2917995e-39 353 273
0.040537067 0.68000001 -0.039344799 8.6696837e-39 354 273
0.041729335 0.68000001 -0.039344799 8.4856525e-39 355 273
0.043047838 0.68199998 -0.039460517 9.4068437e-39 356 273
0.044308487 0.68300003 -0.039518382 1.0513191e-38 357 273
0.045572639 0.68400002 -0.03957624 1.2080126e-38 358 273
0.046771921 0.68400002 -0.03957624 1.2817691e-38 359 273
0.048181597 0.68699998 -0.039749816 1.7422801e-38 360 273
-0.018331099 0.69700003 -0.041550495 1.9543309e-38 305 274
-0.017109027 0.69700003 -0.041550495 1.8254016e-38 306 274
-0.015864158 0.69599998 -0.041490879 1.6871081e-38 307 274
-0.01460176 0.69400001 -0.041371655 1.4570152e-38 308 274
-0.013384946 0.69400001 -0.041371655 1.4293567e-38 309 274
-0.012150601 0.69300002 -0.041312039 1.4474732e-38 310 274
-0.01090398 0.69099998 -0.041192811 1.3091798e-38 311 274
-0.0096503468 0.68800002 -0.041013971 9.3222403e-39 312 274
-0.0084317802 0.68699998 -0.040954359 7.1099053e-39 313 274
-0.0071956799 0.68400002 -0.040775519 8.2062098e-39 314 274
-0.0059876335 0.68300003 -0.040715907 6.6392442e-39 315 274
-0.004783093 0.68199998 -0.040656291 6.5470612e-39 316 274
-0.0035767998 0.68000001 -0.040537067 6.5470612e-39 317 274
-0.0023810267 0.67900002 -0.040477451 4.7125023e-39 318 274
-0.0011887599 0.67799997 -0.040417835 5.3578717e-39 319 274
0 0.67799997 -0.040417835 5.6326509e-39 320 274
0.0011852533 0.676 -0.040298611 8.8594979e-39 321 274
0.0023705065 0.676 -0.040298611 1.3284137e-38 322 274
0.0035557596 0.676 -0.040298611 1.365328e-38 323 274
0.0047339997 0.67500001 -0.040238999 1.4111708e-38 324 274
0.0059174998 0.67500001 -0.040238999 1.42961e-38 325 274
0.0070904801 0.67400002 -0.040179387 1.4388639e-38 326 274
0.0082722269 0.67400002 -0.040179387 1.4296083e-38 327 274
0.0094259195 0.67199999 -0.040060159 1.3928733e-38 328 274
0.010604159 0.67199999 -0.040060159 1.3836179e-38 329 274
0.011782399 0.67199999 -0.040060159 1.3836184e-38 330 274
0.012960639 0.67199999 -0.040060159 1.3743989e-38 331 274
0.01413888 0.67199999 -0.040060159 1.3926232e-38 332 274
0.015294326 0.671 -0.040000543 1.4018427e-38 333 274
0.016470812 0.671 -0.040000543 1.3651087e-38 334 274
0.0176473 0.671 -0.040000543 1.3005717e-38 335 274
0.018823786 0.671 -0.040000543 1.1073222e-38 336 274
0.020030079 0.67199999 -0.040060159 7.0166139e-39 337 274
0.021208318 0.67199999 -0.040060159 4.341168e-39 338 274
0.022386558 0.67199999 -0.040060159 3.0504292e-39 339 274
0.023564799 0.67199999 -0.040060159 5.8224049e-39 340 274
0.024743039 0.67199999 -0.040060159 9.6946214e-39 341 274
0.025998428 0.67400002 -0.040179387 1.2538998e-38 342 274
0.027220501 0.67500001 -0.040238999 1.2354607e-38 343 274
0.028404001 0.67500001 -0.040238999 1.1617054e-38 344 274
0.0295875 0.67500001 -0.040238999 9.7735005e-39 345 274
0.030771 0.67500001 -0.040238999 6.8247047e-39 346 274
0.032001842 0.676 -0.040298611 7.1934872e-39 347 274
0.033187091 0.676 -0.040298611 6.091827e-39 348 274
0.034474038 0.67799997 -0.040417835 7.9353808e-39 349 274
0.0356628 0.67799997 -0.040417835 1.0879164e-38 350 274
0.036851559 0.67799997 -0.040417835 8.8508603e-39 351 274
0.038096428 0.67900002 -0.040477451 5.8141457e-39 352 274
0.039286941 0.67900002 -0.040477451 7.8424509e-39 353 274
0.040537067 0.68000001 -0.040537067 9.6830999e-39 354 274
0.041852064 0.68199998 -0.040656291 1.0420665e-38 355 274
0.043047838 0.68199998 -0.040656291 1.189576e-38 356 274
0.044308487 0.68300003 -0.040715907 1.2909552e-38 357 274
0.045572639 0.68400002 -0.040775519 1.2634028e-38 358 274
0.046977058 0.68699998 -0.040954359 1.2910255e-38 359 274
0.048181597 0.68699998 -0.040954359 1.724021e-38 360 274
-0.017109027 0.69700003 -0.042772565 1.8068548e-38 306 275
-0.015864158 0.69599998 -0.042711195 1.677781e-38 307 275
-0.014643839 0.69599998 -0.042711195 1.3649638e-38 308 275
-0.013384946 0.69400001 -0.042588469 1.3741833e-38 309 275
-0.012150601 0.69300002 -0.042527102 1.4110623e-38 310 275
-0.010935539 0.69300002 -0.042527102 1.374148e-38 311 275
-0.0096924258 0.69099998 -0.042404365 1.2540439e-38 312 275
-0.0084317802 0.68699998 -0.042158898 1.0696526e-38 313 275
-0.0071956799 0.68400002 -0.041974798 7.9353682e-39 314 275
-0.0059876335 0.68300003 -0.041913435 5.261695e-39 315 275
-0.004783093 0.68199998 -0.041852064 5.8130961e-39 316 275
-0.00358732 0.68199998 -0.041852064 6.1815185e-39 317 275
-0.0023810267 0.67900002 -0.041667968 6.9194367e-39 318 275
-0.0011905134 0.67900002 -0.041667968 8.3945681e-39 319 275
0 0.67799997 -0.041606598 5.6340844e-39 320 275
0.0011887599 0.67799997 -0.041606598 6.3720082e-39 321 275
0.0023705065 0.676 -0.041483864 1.3374538e-38 322 275
0.0035557596 0.676 -0.041483864 1.4112103e-38 323 275
0.0047410131 0.676 -0.041483864 1.383693e-38 324 275
0.0059262668 0.676 -0.041483864 1.4020961e-38 325 275
0.0071010003 0.67500001 -0.041422497 1.4113154e-38 326 275
0.0082844999 0.67500001 -0.041422497 1.4113154e-38 327 275
0.0094679995 0.67500001 -0.041422497 1.4020239e-38 328 275
0.0106515 0.67500001 -0.041422497 1.3835847e-38 329 275
0.011817466 0.67400002 -0.041361131 1.3835847e-38 330 275
0.012999214 0.67400002 -0.041361131 1.3743651e-38 331 275
0.01418096 0.67400002 -0.041361131 1.3742932e-38 332 275
0.01531712 0.67199999 -0.041238401 1.3558182e-38 333 275
0.01649536 0.67199999 -0.041238401 1.3650734e-38 334 275
0.017673599 0.67199999 -0.041238401 1.328231e-38 335 275
0.018851839 0.67199999 -0.041238401 1.3280156e-38 336 275
0.020030079 0.67199999 -0.041238401 1.1251852e-38 337 275
0.021208318 0.67199999 -0.041238401 7.7480875e-39 338 275
0.022386558 0.67199999 -0.041238401 5.0744142e-39 339 275
0.023634933 0.67400002 -0.041361131 8.0250457e-39 340 275
0.024816679 0.67400002 -0.041361131 1.0329578e-38 341 275
0.025998428 0.67400002 -0.041361131 1.0328119e-38 342 275
0.027220501 0.67500001 -0.041422497 9.0373802e-39 343 275
0.028404001 0.67500001 -0.041422497 7.565857e-39 344 275
0.029631332 0.676 -0.041483864 7.1974347e-39 345 275
0.030816587 0.676 -0.041483864 7.6533891e-39 346 275
0.03209652 0.67799997 -0.041606598 7.3771624e-39 347 275
0.033285279 0.67799997 -0.041606598 6.5466927e-39 348 275
0.034474038 0.67799997 -0.041606598 7.2842577e-39 349 275
0.0356628 0.67799997 -0.041606598 1.0323475e-38 350 275
0.036851559 0.67799997 -0.041606598 8.7557906e-39 351 275
0.038152531 0.68000001 -0.041729335 4.9872563e-39 352 275
0.039344799 0.68000001 -0.041729335 7.9375164e-39 353 275
0.040656291 0.68199998 -0.041852064 1.0512485e-38 354 275
0.041913435 0.68300003 -0.041913435 1.1711388e-38 355 275
0.043174081 0.68400002 -0.041974798 1.2542199e-38 356 275
0.04437336 0.68400002 -0.041974798 1.3003178e-38 357 275
0.045772515 0.68699998 -0.042158898 1.3001732e-38 358 275
0.046977058 0.68699998 -0.042158898 1.3186125e-38 359 275
0.048181597 0.68699998 -0.042158898 1.7423882e-38 360 275
-0.017133573 0.69800001 -0.04405776 1.788452e-38 306 276
-0.015886955 0.69700003 -0.043994639 1.6225359e-38 307 276
-0.01466488 0.69700003 -0.043994639 1.2083391e-38 308 276
-0.013423519 0.69599998 -0.043931518 1.2359979e-38 309 276
-0.012168133 0.69400001 -0.043805279 1.3281578e-38 310 276
-0.01095132 0.69400001 -0.043805279 1.4019143e-38 311 276
-0.0097204801 0.69300002 -0.043742158 1.50272e-38 312 276
-0.0085054198 0.69300002 -0.043742158 1.355243e-38 313 276
-0.0072272392 0.68699998 -0.043363437 9.7778319e-39 314 276
-0.0060139326 0.68599999 -0.043300316 5.9978111e-39 315 276
-0.0047901068 0.68300003 -0.043110959 5.4443038e-39 316 276
-0.00358732 0.68199998 -0.043047838 6.0896732e-39 317 276
-0.0023845332 0.68000001 -0.042921599 8.1154561e-39 318 276
-0.0011922666 0.68000001 -0.042921599 1.0144119e-38 319 276
0 0.67900002 -0.042858478 8.1172456e-39 320 276
0.0011905134 0.67900002 -0.042858478 7.3796791e-39 321 276
0.0023775198 0.67799997 -0.042795356 1.3281267e-38 322 276
0.0035662798 0.67799997 -0.042795356 1.4111387e-38 323 276
0.0047550397 0.67799997 -0.042795356 1.3652903e-38 324 276
0.0059262668 0.676 -0.042669121 1.37451e-38 325 276
0.0071115191 0.676 -0.042669121 1.3745097e-38 326 276
0.0082967728 0.676 -0.042669121 1.3745097e-38 327 276
0.0094820261 0.676 -0.042669121 1.374473e-38 328 276
0.01066728 0.676 -0.042669121 1.3560339e-38 329 276
0.011835 0.67500001 -0.042606 1.3467784e-38 330 276
0.0130185 0.67500001 -0.042606 1.3375589e-38 331 276
0.014202001 0.67500001 -0.042606 1.3650736e-38 332 276
0.015362706 0.67400002 -0.042542879 1.3650736e-38 333 276
0.016544454 0.67400002 -0.042542879 1.3467065e-38 334 276
0.0177262 0.67400002 -0.042542879 1.3467065e-38 335 276
0.018907947 0.67400002 -0.042542879 1.438578e-38 336 276
0.020089693 0.67400002 -0.042542879 1.291065e-38 337 276
0.021271439 0.67400002 -0.042542879 9.129573e-39 338 276
0.022453187 0.67400002 -0.042542879 5.8105303e-39 339 276
0.023634933 0.67400002 -0.042542879 9.2174722e-39 340 276
0.024816679 0.67400002 -0.042542879 1.0047233e-38 341 276
0.026037 0.67500001 -0.042606 8.0236108e-39 342 276
0.027260827 0.676 -0.042669121 5.8112758e-39 343 276
0.028446076 0.676 -0.042669121 4.3429953e-39 344 276
0.029631332 0.676 -0.042669121 5.1731147e-39 345 276
0.030816587 0.676 -0.042669121 7.2842605e-39 346 276
0.03209652 0.67799997 -0.042795356 7.1920649e-39 347 276
0.033285279 0.67799997 -0.042795356 7.0980644e-39 348 276
0.034474038 0.67799997 -0.042795356 7.19026e-39 349 276
0.035715401 0.67900002 -0.042858478 8.6632321e-39 350 276
0.036905911 0.67900002 -0.042858478 8.1100583e-39 351 276
0.038152531 0.68000001 -0.042921599 5.1716447e-39 352 276
0.039460517 0.68199998 -0.043047838 8.9516655e-39 353 276
0.040715907 0.68300003 -0.043110959 1.2079798e-38 354 276
0.041974798 0.68400002 -0.043174081 1.309395e-38 355 276
0.043174081 0.68400002 -0.043174081 1.3279395e-38 356 276
0.04437336 0.68400002 -0.043174081 1.3002807e-38 357 276
0.045772515 0.68699998 -0.043363437 1.3094284e-38 358 276
0.046977058 0.68699998 -0.043363437 1.3370512e-38 359 276
0.048181597 0.68699998 -0.043363437 1.7423882e-38 360 276
-0.017133573 0.69800001 -0.045281585 1.7884523e-38 306 277
-0.015886955 0.69700003 -0.045216713 1.5948415e-38 307 277
-0.01466488 0.69700003 -0.045216713 1.0884492e-38 308 277
-0.013423519 0.69599998 -0.045151837 1.1990839e-38 309 277
-0.012168133 0.69400001 -0.045022093 1.3005714e-38 310 277
-0.01095132 0.69400001 -0.045022093 1.328266e-38 311 277
-0.0097204801 0.69300002 -0.044957221 1.3649664e-38 312 277
-0.0085054198 0.69300002 -0.044957221 1.3925891e-38 313 277
-0.0072693196 0.69099998 -0.044827472 1.3279453e-38 314 277
-0.0060226996 0.68699998 -0.044567976 1.1527736e-38 315 277
-0.0048111463 0.68599999 -0.044503104 9.3150559e-39 316 277
-0.0035925799 0.68300003 -0.044308487 8.0243171e-39 317 277
-0.0023950534 0.68300003 -0.044308487 8.025766e-39 318 277
-0.0011957732 0.68199998 -0.044243611 9.7774816e-39 319 277
0 0.68000001 -0.044113863 7.5655067e-39 320 277
0.0011905134 0.67900002 -0.044048995 6.5517149e-39 321 277
0.0023810267 0.67900002 -0.044048995 1.2821367e-38 322 277
0.0035662798 0.67799997 -0.043984115 1.4111747e-38 323 277
0.0047550397 0.67799997 -0.043984115 1.3561788e-38 324 277
0.0059437994 0.67799997 -0.043984115 1.3653983e-38 325 277
0.0071115191 0.676 -0.043854371 1.383693e-38 326 277
0.0082967728 0.676 -0.043854371 1.383693e-38 327 277
0.0094820261 0.676 -0.043854371 1.374473e-38 328 277
0.01066728 0.676 -0.043854371 1.374473e-38 329 277
0.011852534 0.676 -0.043854371 1.3560339e-38 330 277
0.013037786 0.676 -0.043854371 1.3560339e-38 331 277
0.014223038 0.676 -0.043854371 1.355962e-38 332 277
0.0153855 0.67500001 -0.043789499 1.355962e-38 333 277
0.016569 0.67500001 -0.043789499 1.346814e-38 334 277
0.0177525 0.67500001 -0.043789499 1.346814e-38 335 277
0.018935999 0.67500001 -0.043789499 1.4202831e-38 336 277
0.020119499 0.67500001 -0.043789499 1.2451474e-38 337 277
0.021271439 0.67400002 -0.043724626 8.7622324e-39 338 277
0.022453187 0.67400002 -0.043724626 5.5353854e-39 339 277
0.023634933 0.67400002 -0.043724626 9.8603207e-39 340 277
0.0248535 0.67500001 -0.043789499 1.115106e-38 341 277
0.026037 0.67500001 -0.043789499 8.7608129e-39 342 277
0.027260827 0.676 -0.043854371 6.732509e-39 343 277
0.028446076 0.676 -0.043854371 5.3553522e-39 344 277
0.029631332 0.676 -0.043854371 5.6322978e-39 345 277
0.030907756 0.67799997 -0.043984115 6.3666188e-39 346 277
0.032143861 0.67900002 -0.044048995 6.5510115e-39 347 277
0.033334374 0.67900002 -0.044048995 8.0214486e-39 348 277
0.034524884 0.67900002 -0.044048995 8.0214486e-39 349 277
0.035715401 0.67900002 -0.044048995 8.023601e-39 350 277
0.036960267 0.68000001 -0.044113863 9.1295898e-39 351 277
0.038264744 0.68199998 -0.044243611 9.5019499e-39 352 277
0.039518382 0.68300003 -0.044308487 1.1622808e-38 353 277
0.040775519 0.68400002 -0.04437336 1.2726957e-38 354 277
0.042097531 0.68599999 -0.044503104 1.2819153e-38 355 277
0.043174081 0.68400002 -0.04437336 1.2727293e-38 356 277
0.04437336 0.68400002 -0.04437336 1.2358512e-38 357 277
0.045772515 0.68699998 -0.044567976 1.2542193e-38 358 277
0.046977058 0.68699998 -0.044567976 1.2911336e-38 359 277
0.048181597 0.68699998 -0.044567976 1.7699749e-38 360 277
-0.017182667 0.69999999 -0.046638668 1.7976721e-38 306 278
-0.015909746 0.69800001 -0.046505414 1.5856222e-38 307 278
-0.01466488 0.69700003 -0.046438783 1.0514284e-38 308 278
-0.013423519 0.69599998 -0.046372157 1.1897219e-38 309 278
-0.012168133 0.69400001 -0.046238903 1.3006812e-38 310 278
-0.01095132 0.69400001 -0.046238903 1.2453639e-38 311 278
-0.0097204801 0.69300002 -0.04617228 1.1439859e-38 312 278
-0.0085054198 0.69300002 -0.04617228 1.2546206e-38 313 278
-0.0072693196 0.69099998 -0.046039023 1.4663106e-38 314 278
-0.0060314666 0.68800002 -0.045839146 1.4755301e-38 315 278
-0.0048111463 0.68599999 -0.045705888 1.34642e-38 316 278
-0.00359784 0.68400002 -0.045572639 1.115895e-38 317 278
-0.0023950534 0.68300003 -0.045506012 9.9625609e-39 318 278
-0.0011957732 0.68199998 -0.045439381 1.0515735e-38 319 278
0 0.68199998 -0.045439381 7.1055879e-39 320 278
0.0011922666 0.68000001 -0.045306131 6.1836316e-39 321 278
0.0023810267 0.67900002 -0.045239504 1.2085961e-38 322 278
0.0035715401 0.67900002 -0.045239504 1.356145e-38 323 278
0.0047620535 0.67900002 -0.045239504 1.4112806e-38 324 278
0.0059437994 0.67799997 -0.045172878 1.4020611e-38 325 278
0.0071325595 0.67799997 -0.045172878 1.4019886e-38 326 278
0.0083213197 0.67799997 -0.045172878 1.4019886e-38 327 278
0.0094820261 0.676 -0.045039624 1.4203551e-38 328 278
0.01066728 0.676 -0.045039624 1.4111354e-38 329 278
0.011852534 0.676 -0.045039624 1.3835844e-38 330 278
0.013037786 0.676 -0.045039624 1.3743648e-38 331 278
0.014223038 0.676 -0.045039624 1.3743648e-38 332 278
0.015408293 0.676 -0.045039624 1.3559617e-38 333 278
0.016593546 0.676 -0.045039624 1.3742929e-38 334 278
0.0177525 0.67500001 -0.044972997 1.3835125e-38 335 278
0.018935999 0.67500001 -0.044972997 1.4111357e-38 336 278
0.020119499 0.67500001 -0.044972997 1.2359642e-38 337 278
0.021303 0.67500001 -0.044972997 8.8544308e-39 338 278
0.022486499 0.67500001 -0.044972997 6.2729532e-39 339 278
0.023669999 0.67500001 -0.044972997 9.5848128e-39 340 278
0.0248535 0.67500001 -0.044972997 1.0045431e-38 341 278
0.026037 0.67500001 -0.044972997 8.3931094e-39 342 278
0.027260827 0.676 -0.045039624 7.1023706e-39 343 278
0.028446076 0.676 -0.045039624 5.9992754e-39 344 278
0.029718997 0.67799997 -0.045172878 6.091471e-39 345 278
0.030907756 0.67799997 -0.045172878 6.0918242e-39 346 278
0.032143861 0.67900002 -0.045239504 6.4609668e-39 347 278
0.033334374 0.67900002 -0.045239504 9.6816804e-39 348 278
0.034575731 0.68000001 -0.045306131 1.0234495e-38 349 278
0.035767999 0.68000001 -0.045306131 9.4101102e-39 350 278
0.037123326 0.68300003 -0.045506012 1.0793045e-38 351 278
0.038320854 0.68300003 -0.045506012 1.3002124e-38 352 278
0.03957624 0.68400002 -0.045572639 1.3186514e-38 353 278
0.040894743 0.68599999 -0.045705888 1.2912055e-38 354 278
0.042097531 0.68599999 -0.045705888 1.2543631e-38 355 278
0.043300316 0.68599999 -0.045705888 1.2267038e-38 356 278
0.044503104 0.68599999 -0.045705888 1.180606e-38 357 278
0.046638668 0.69999999 -0.046638668 1.2358165e-38 358 278
0.047865998 0.69999999 -0.046638668 1.3187565e-38 359 278
-0.015978126 0.70099998 -0.047934376 1.6039891e-38 307 279
-0.01468592 0.69800001 -0.047729239 1.106494e-38 308 279
-0.013423519 0.69599998 -0.047592476 1.2263482e-38 309 279
-0.012168133 0.69400001 -0.047455717 1.2638752e-38 310 279
-0.01095132 0.69400001 -0.047455717 1.1993383e-38 311 279
-0.0097345067 0.69400001 -0.047455717 1.1806486e-38 312 279
-0.0085054198 0.69300002 -0.047387339 1.1530259e-38 313 279
-0.0072903596 0.69300002 -0.047387339 1.254585e-38 314 279
-0.0060577663 0.69099998 -0.047250576 1.3560001e-38 315 279
-0.0048251734 0.68800002 -0.047045439 1.3836579e-38 316 279
-0.0036136196 0.68699998 -0.046977058 1.3744025e-38 317 279
-0.0023985601 0.68400002 -0.046771921 1.3743298e-38 318 279
-0.0011975267 0.68300003 -0.04670354 1.3097928e-38 319 279
0 0.68300003 -0.04670354 1.0883085e-38 320 279
0.0011957732 0.68199998 -0.046635158 9.684902e-39 321 279
0.0023845332 0.68000001 -0.046498399 1.0063408e-38 322 279
0.0035767998 0.68000001 -0.046498399 1.1907321e-38 323 279
0.0047620535 0.67900002 -0.046430022 1.4020257e-38 324 279
0.0059525664 0.67900002 -0.046430022 1.3744031e-38 325 279
0.0071325595 0.67799997 -0.046361636 1.4203201e-38 326 279
0.0083213197 0.67799997 -0.046361636 1.4203201e-38 327 279
0.0095100794 0.67799997 -0.046361636 1.4020242e-38 328 279
0.010698839 0.67799997 -0.046361636 1.3928045e-38 329 279
0.011887599 0.67799997 -0.046361636 1.3652178e-38 330 279
0.013076359 0.67799997 -0.046361636 1.3559983e-38 331 279
0.014265119 0.67799997 -0.046361636 1.3743295e-38 332 279
0.015408293 0.676 -0.046224877 1.3559264e-38 333 279
0.016593546 0.676 -0.046224877 1.3742932e-38 334 279
0.017778801 0.676 -0.046224877 1.3742932e-38 335 279
0.018964052 0.676 -0.046224877 1.4111357e-38 336 279
