# .PCD v.7 - Point Cloud Data file format
FIELDS x y z rgb imX imY
SIZE 4 4 4 4 4 4
TYPE F F F F F F
COUNT 1 1 1 1 1 1
WIDTH 833
HEIGHT 1
VIEWPOINT 0 0 0 1 0 0 0
POINTS 833
DATA ascii
-0.013616386 0.70599997 -0.038373452 1.3465988e-38 309 271
-0.012343466 0.704 -0.038264744 1.0889203e-38 310 271
-0.01109334 0.70300001 -0.038210396 1.1442377e-38 311 271
-0.0098326923 0.70099998 -0.038101684 1.4110655e-38 312 271
-0.0085913334 0.69999999 -0.038047329 1.484822e-38 313 271
-0.0073429602 0.69800001 -0.037938625 1.494005e-38 314 271
-0.0061103669 0.69700003 -0.037884273 1.3649311e-38 315 271
-0.0048882933 0.69700003 -0.037884273 1.2175982e-38 316 271
-0.0036609597 0.69599998 -0.037829921 1.1806839e-38 317 271
-0.0024336267 0.69400001 -0.037721213 8.5814537e-39 318 271
-0.0012168133 0.69400001 -0.037721213 5.3546067e-39 319 271
0 0.69300002 -0.037666857 1.2913928e-38 320 271
0.0012115532 0.69099998 -0.03755815 1.4204667e-38 321 271
0.0024231065 0.69099998 -0.03755815 1.4114604e-38 322 271
0.0036293997 0.69 -0.037503798 1.4114604e-38 323 271
0.0048391996 0.69 -0.037503798 1.4298272e-38 324 271
0.0060314666 0.68800002 -0.037395094 1.4205718e-38 325 271
0.0072377604 0.68800002 -0.037395094 1.4480863e-38 326 271
0.0084440531 0.68800002 -0.037395094 1.4388667e-38 327 271
0.0096503468 0.68800002 -0.037395094 1.4388667e-38 328 271
0.010840859 0.68699998 -0.037340738 1.4388667e-38 329 271
0.012045399 0.68699998 -0.037340738 1.4112435e-38 330 271
0.013249939 0.68699998 -0.037340738 1.4112435e-38 331 271
0.014454478 0.68699998 -0.037340738 1.4020595e-38 332 271
0.015659019 0.68699998 -0.037340738 1.4020595e-38 333 271
0.01686356 0.68699998 -0.037340738 1.3282676e-38 334 271
0.018068098 0.68699998 -0.037340738 1.1991938e-38 335 271
0.019272638 0.68699998 -0.037340738 9.3218774e-39 336 271
0.020477179 0.68699998 -0.037340738 9.3218774e-39 337 271
0.021681719 0.68699998 -0.037340738 1.0330634e-38 338 271
0.022919573 0.68800002 -0.037395094 1.0330634e-38 339 271
0.024125867 0.68800002 -0.037395094 1.0330985e-38 340 271
0.02533216 0.68800002 -0.037395094 1.0515735e-38 341 271
0.026538454 0.68800002 -0.037395094 1.0608646e-38 342 271
0.027825398 0.69 -0.037503798 1.0516451e-38 343 271
0.029077278 0.69099998 -0.03755815 1.0515732e-38 344 271
0.030288832 0.69099998 -0.03755815 1.0607927e-38 345 271
0.031591557 0.69300002 -0.037666857 1.0516451e-38 346 271
0.03280662 0.69300002 -0.037666857 1.116182e-38 347 271
0.034070771 0.69400001 -0.037721213 1.2450388e-38 348 271
0.035389278 0.69599998 -0.037829921 1.2819531e-38 349 271
0.036662199 0.69700003 -0.037884273 1.2726604e-38 350 271
0.037884273 0.69700003 -0.037884273 1.2542571e-38 351 271
0.039162453 0.69800001 -0.037938625 1.2815562e-38 352 271
0.040502001 0.69999999 -0.038047329 1.2446779e-38 353 271
0.041788943 0.70099998 -0.038101684 1.1986168e-38 354 271
0.043018032 0.70099998 -0.038101684 1.1525548e-38 355 271
0.044247117 0.70099998 -0.038101684 1.1987956e-38 356 271
0.045476202 0.70099998 -0.038101684 1.3647118e-38 357 271
-0.017428132 0.70999998 -0.039835732 1.3646771e-38 306 272
-0.01613768 0.708 -0.039723519 1.2079445e-38 307 272
-0.01489632 0.708 -0.039723519 1.3006812e-38 308 272
-0.013635674 0.70700002 -0.039667413 1.3099007e-38 309 272
-0.012378532 0.70599997 -0.039611302 1.1901556e-38 310 272
-0.011109119 0.704 -0.039499093 1.1256186e-38 311 272
-0.0098607466 0.70300001 -0.039442986 1.1532777e-38 312 272
-0.0085913334 0.69999999 -0.039274666 1.1993754e-38 313 272
-0.0073639993 0.69999999 -0.039274666 1.2916428e-38 314 272
-0.006119133 0.69800001 -0.039162453 1.3838743e-38 315 272
-0.0048953067 0.69800001 -0.039162453 1.4389393e-38 316 272
-0.00366622 0.69700003 -0.039106347 1.4112806e-38 317 272
-0.0024406398 0.69599998 -0.039050236 1.2912468e-38 318 272
-0.0012203199 0.69599998 -0.039050236 1.1621729e-38 319 272
0 0.69400001 -0.038938027 1.162821e-38 320 272
0.00121506 0.69300002 -0.03888192 1.2918949e-38 321 272
0.0024231065 0.69099998 -0.038769703 1.383946e-38 322 272
0.0036293997 0.69 -0.038713597 1.3931656e-38 323 272
0.0048391996 0.69 -0.038713597 1.4389749e-38 324 272
0.0060489997 0.69 -0.038713597 1.4297553e-38 325 272
0.0072587994 0.69 -0.038713597 1.4480866e-38 326 272
0.0084440531 0.68800002 -0.038601387 1.438867e-38 327 272
0.0096503468 0.68800002 -0.038601387 1.4205355e-38 328 272
0.010856641 0.68800002 -0.038601387 1.4113159e-38 329 272
0.012062933 0.68800002 -0.038601387 1.3929844e-38 330 272
0.013269227 0.68800002 -0.038601387 1.3837649e-38 331 272
0.014454478 0.68699998 -0.038545277 1.4020958e-38 332 272
0.015659019 0.68699998 -0.038545277 1.374473e-38 333 272
0.01686356 0.68699998 -0.038545277 1.3926247e-38 334 272
0.018068098 0.68699998 -0.038545277 1.2451118e-38 335 272
0.019300694 0.68800002 -0.038601387 9.8725302e-39 336 272
0.020506985 0.68800002 -0.038601387 9.8725302e-39 337 272
0.021713281 0.68800002 -0.038601387 1.0147325e-38 338 272
0.022919573 0.68800002 -0.038601387 1.0054771e-38 339 272
0.024125867 0.68800002 -0.038601387 1.033099e-38 340 272
0.025405798 0.69 -0.038713597 1.0423186e-38 341 272
0.026615599 0.69 -0.038713597 1.0791243e-38 342 272
0.027865725 0.69099998 -0.038769703 1.0606851e-38 343 272
0.029077278 0.69099998 -0.038769703 1.0608283e-38 344 272
0.0303765 0.69300002 -0.03888192 1.1161098e-38 345 272
0.031591557 0.69300002 -0.03888192 1.1067104e-38 346 272
0.032853961 0.69400001 -0.038938027 1.0698681e-38 347 272
0.034070771 0.69400001 -0.038938027 1.1253647e-38 348 272
0.035389278 0.69599998 -0.039050236 1.2175602e-38 349 272
0.036662199 0.69700003 -0.039106347 1.2818802e-38 350 272
0.037938625 0.69800001 -0.039162453 1.2726607e-38 351 272
0.039274666 0.69999999 -0.039274666 1.3093231e-38 352 272
0.040559858 0.70099998 -0.039330769 1.3000675e-38 353 272
0.041908171 0.70300001 -0.039442986 1.208052e-38 354 272
0.043140765 0.70300001 -0.039442986 1.1527347e-38 355 272
0.04437336 0.70300001 -0.039442986 1.1987956e-38 356 272
0.04560595 0.70300001 -0.039442986 1.3831509e-38 357 272
-0.01745268 0.71100003 -0.041138459 1.4199219e-38 306 273
-0.016183265 0.70999998 -0.041080594 1.2724089e-38 307 273
-0.01489632 0.708 -0.040964879 1.3650027e-38 308 273
-0.013654959 0.708 -0.040964879 1.4111004e-38 309 273
-0.012378532 0.70599997 -0.040849157 1.3008263e-38 310 273
-0.011109119 0.704 -0.040733438 1.2085947e-38 311 273
-0.0098607466 0.70300001 -0.040675577 1.0612263e-38 312 273
-0.0085913334 0.69999999 -0.040502001 1.0151285e-38 313 273
-0.0073639993 0.69999999 -0.040502001 1.0429317e-38 314 273
-0.006119133 0.69800001 -0.040386278 1.2365425e-38 315 273
-0.0048953067 0.69800001 -0.040386278 1.420717e-38 316 273
-0.00366622 0.69700003 -0.040328421 1.420717e-38 317 273
-0.0024441467 0.69700003 -0.040328421 1.4389749e-38 318 273
-0.0012203199 0.69599998 -0.040270556 1.4204999e-38 319 273
0 0.69400001 -0.040154841 1.3377036e-38 320 273
0.0012168133 0.69400001 -0.040154841 1.3377036e-38 321 273
0.00243012 0.69300002 -0.04009698 1.3654712e-38 322 273
0.0036346598 0.69099998 -0.039981257 1.3747266e-38 323 273
0.0048462129 0.69099998 -0.039981257 1.3929857e-38 324 273
0.0060577663 0.69099998 -0.039981257 1.4022052e-38 325 273
0.0072587994 0.69 -0.0399234 1.393021e-38 326 273
0.0084686 0.69 -0.0399234 1.393021e-38 327 273
0.0096783992 0.69 -0.0399234 1.4205352e-38 328 273
0.010856641 0.68800002 -0.039807681 1.4205352e-38 329 273
0.012062933 0.68800002 -0.039807681 1.3837646e-38 330 273
0.013269227 0.68800002 -0.039807681 1.3837646e-38 331 273
0.014475521 0.68800002 -0.039807681 1.4203905e-38 332 273
0.015681813 0.68800002 -0.039807681 1.4203905e-38 333 273
0.016888106 0.68800002 -0.039807681 1.3375226e-38 334 273
0.0180944 0.68800002 -0.039807681 1.199229e-38 335 273
0.019300694 0.68800002 -0.039807681 9.5970223e-39 336 273
0.020566599 0.69 -0.0399234 9.5048253e-39 337 273
0.021776399 0.69 -0.0399234 1.0238439e-38 338 273
0.022986198 0.69 -0.0399234 1.042283e-38 339 273
0.024195999 0.69 -0.0399234 1.0240224e-38 340 273
0.025442619 0.69099998 -0.039981257 1.0424255e-38 341 273
0.026654173 0.69099998 -0.039981257 1.0698325e-38 342 273
0.027946379 0.69300002 -0.04009698 1.0698325e-38 343 273
0.029161438 0.69300002 -0.04009698 1.0516451e-38 344 273
0.0303765 0.69300002 -0.04009698 1.0793398e-38 345 273
0.031637147 0.69400001 -0.040154841 1.152736e-38 346 273
0.032853961 0.69400001 -0.040154841 1.0881991e-38 347 273
0.034168959 0.69599998 -0.040270556 1.0791943e-38 348 273
0.035440128 0.69700003 -0.040328421 1.1529867e-38 349 273
0.0367148 0.69800001 -0.040386278 1.3278341e-38 350 273
0.038047329 0.69999999 -0.040502001 1.3278341e-38 351 273
0.039274666 0.69999999 -0.040502001 1.3646048e-38 352 273
0.040559858 0.70099998 -0.040559858 1.2908483e-38 353 273
0.041908171 0.70300001 -0.040675577 1.2079448e-38 354 273
0.043202132 0.704 -0.040733438 1.1249687e-38 355 273
0.044436477 0.704 -0.040733438 1.1987956e-38 356 273
-0.01745268 0.71100003 -0.042385083 1.5121179e-38 306 274
-0.01620606 0.71100003 -0.042385083 1.3553852e-38 307 274
-0.014938398 0.70999998 -0.042325463 1.4017371e-38 308 274
-0.013693533 0.70999998 -0.042325463 1.4385793e-38 309 274
-0.012396066 0.70700002 -0.042146627 1.2641642e-38 310 274
-0.011140679 0.70599997 -0.042087011 1.2180664e-38 311 274
-0.0098747732 0.704 -0.041967787 1.2178515e-38 312 274
-0.0086036054 0.70099998 -0.041788943 1.1256559e-38 313 274
-0.0073639993 0.69999999 -0.041729331 1.079666e-38 314 274
-0.0061366665 0.69999999 -0.041729331 1.0519713e-38 315 274
-0.0048953067 0.69800001 -0.041610107 1.0341437e-38 316 274
-0.0036714801 0.69800001 -0.041610107 1.1447783e-38 317 274
-0.0024441467 0.69700003 -0.041550495 1.3378132e-38 318 274
-0.0012220733 0.69700003 -0.041550495 1.3931306e-38 319 274
0 0.69599998 -0.041490879 1.4665624e-38 320 274
0.0012168133 0.69400001 -0.041371655 1.411245e-38 321 274
0.00243012 0.69300002 -0.041312039 1.3744025e-38 322 274
0.0036451798 0.69300002 -0.041312039 1.3744025e-38 323 274
0.0048462129 0.69099998 -0.041192811 1.3376683e-38 324 274
0.0060577663 0.69099998 -0.041192811 1.365363e-38 325 274
0.0072693196 0.69099998 -0.041192811 1.4205002e-38 326 274
0.008480873 0.69099998 -0.041192811 1.4112806e-38 327 274
0.0096924258 0.69099998 -0.041192811 1.4205355e-38 328 274
0.010888199 0.69 -0.041133199 1.4113159e-38 329 274
0.012097999 0.69 -0.041133199 1.3929844e-38 330 274
0.0133078 0.69 -0.041133199 1.3837649e-38 331 274
0.014475521 0.68800002 -0.041013971 1.4020239e-38 332 274
0.015681813 0.68800002 -0.041013971 1.4112435e-38 333 274
0.016888106 0.68800002 -0.041013971 1.3467068e-38 334 274
0.0180944 0.68800002 -0.041013971 1.1991938e-38 335 274
0.019356798 0.69 -0.041133199 9.5048225e-39 336 274
0.020566599 0.69 -0.041133199 9.4126269e-39 337 274
0.021776399 0.69 -0.041133199 1.0238439e-38 338 274
0.023019511 0.69099998 -0.041192811 1.042283e-38 339 274
0.024231065 0.69099998 -0.041192811 1.0517178e-38 340 274
0.02551626 0.69300002 -0.041312039 1.0332785e-38 341 274
0.02673132 0.69300002 -0.041312039 1.060793e-38 342 274
0.027946379 0.69300002 -0.041312039 1.0515735e-38 343 274
0.029161438 0.69300002 -0.041312039 1.0422817e-38 344 274
0.030420333 0.69400001 -0.041371655 1.0699044e-38 345 274
0.031637147 0.69400001 -0.041371655 1.1802505e-38 346 274
0.032948639 0.69599998 -0.041490879 1.2355679e-38 347 274
0.034168959 0.69599998 -0.041490879 1.1896852e-38 348 274
0.035440128 0.69700003 -0.041550495 1.2450025e-38 349 274
0.0367148 0.69800001 -0.041610107 1.3003552e-38 350 274
0.038047329 0.69999999 -0.041729331 1.3095748e-38 351 274
0.039330769 0.70099998 -0.041788943 1.3646765e-38 352 274
0.040675577 0.70300001 -0.041908171 1.2356026e-38 353 274
0.041967787 0.704 -0.041967787 1.1434797e-38 354 274
0.043202132 0.704 -0.041967787 1.0605037e-38 355 274
0.044436477 0.704 -0.041967787 1.1985802e-38 356 274
-0.01745268 0.71100003 -0.043631699 1.5857668e-38 306 275
-0.01620606 0.71100003 -0.043631699 1.3552777e-38 307 275
-0.014938398 0.70999998 -0.043570329 1.3832977e-38 308 275
-0.013693533 0.70999998 -0.043570329 1.4293953e-38 309 275
-0.0124136 0.708 -0.043447599 1.2825317e-38 310 275
-0.01117224 0.708 -0.043447599 1.2548371e-38 311 275
-0.0098747732 0.704 -0.043202132 1.2180679e-38 312 275
-0.0086281532 0.70300001 -0.043140765 1.1719702e-38 313 275
-0.0073745195 0.70099998 -0.043018032 1.1259077e-38 314 275
-0.0061366665 0.69999999 -0.042956665 1.0613708e-38 315 275
-0.0049093333 0.69999999 -0.042956665 1.0246723e-38 316 275
-0.0036714801 0.69800001 -0.042833932 1.0799897e-38 317 275
-0.0024441467 0.69700003 -0.042772565 1.2180676e-38 318 275
-0.0012220733 0.69700003 -0.042772565 1.3195188e-38 319 275
0 0.69599998 -0.042711195 1.3191941e-38 320 275
0.0012203199 0.69599998 -0.042711195 1.2638768e-38 321 275
0.0024336267 0.69400001 -0.042588469 1.2544407e-38 322 275
0.0036451798 0.69300002 -0.042527102 1.2267822e-38 323 275
0.00486024 0.69300002 -0.042527102 1.1624973e-38 324 275
0.0060753003 0.69300002 -0.042527102 1.208595e-38 325 275
0.0072903596 0.69300002 -0.042527102 1.2456171e-38 326 275
0.0085054198 0.69300002 -0.042527102 1.2825314e-38 327 275
0.0097204801 0.69300002 -0.042527102 1.4020255e-38 328 275
0.01090398 0.69099998 -0.042404365 1.4205005e-38 329 275
0.012115533 0.69099998 -0.042404365 1.365398e-38 330 275
0.013327086 0.69099998 -0.042404365 1.3469588e-38 331 275
0.014517599 0.69 -0.042342998 1.3652534e-38 332 275
0.015727401 0.69 -0.042342998 1.374473e-38 333 275
0.0169372 0.69 -0.042342998 1.309936e-38 334 275
0.018146999 0.69 -0.042342998 1.22696e-38 335 275
0.019384852 0.69099998 -0.042404365 1.1804673e-38 336 275
0.020596405 0.69099998 -0.042404365 1.0790521e-38 337 275
0.021807959 0.69099998 -0.042404365 9.8718086e-39 338 275
0.02308614 0.69300002 -0.042527102 1.024059e-38 339 275
0.024301201 0.69300002 -0.042527102 1.0607574e-38 340 275
0.02551626 0.69300002 -0.042527102 1.0700129e-38 341 275
0.02673132 0.69300002 -0.042527102 1.0700126e-38 342 275
0.027986705 0.69400001 -0.042588469 1.0884158e-38 343 275
0.029203519 0.69400001 -0.042588469 1.1066385e-38 344 275
0.030420333 0.69400001 -0.042588469 1.115858e-38 345 275
0.031728316 0.69599998 -0.042711195 1.2725536e-38 346 275
0.032948639 0.69599998 -0.042711195 1.3002124e-38 347 275
0.034218054 0.69700003 -0.042772565 1.2818802e-38 348 275
0.035490975 0.69800001 -0.042833932 1.2910998e-38 349 275
0.036819998 0.69999999 -0.042956665 1.3186865e-38 350 275
0.038101684 0.70099998 -0.043018032 1.2725886e-38 351 275
0.039330769 0.70099998 -0.043018032 1.2724091e-38 352 275
0.040733438 0.704 -0.043202132 1.1525548e-38 353 275
0.042087011 0.70599997 -0.043324865 1.0697232e-38 354 275
0.043324865 0.70599997 -0.043324865 9.9596672e-39 355 275
0.044562716 0.70599997 -0.043324865 1.2261668e-38 356 275
-0.01745268 0.71100003 -0.044878319 1.6318276e-38 306 276
-0.01620606 0.71100003 -0.044878319 1.4197418e-38 307 276
-0.014959441 0.71100003 -0.044878319 1.3648581e-38 308 276
-0.01371282 0.71100003 -0.044878319 1.4478343e-38 309 276
-0.012448666 0.70999998 -0.044815198 1.3376336e-38 310 276
-0.011203799 0.70999998 -0.044815198 1.2915359e-38 311 276
-0.0099168532 0.70700002 -0.044625837 1.1721503e-38 312 276
-0.0086404262 0.704 -0.044436477 1.1537112e-38 313 276
-0.0073745195 0.70099998 -0.044247117 1.1905168e-38 314 276
-0.0061366665 0.69999999 -0.044183996 1.1812973e-38 315 276
-0.0049093333 0.69999999 -0.044183996 1.1902652e-38 316 276
-0.0036819996 0.69999999 -0.044183996 1.1257282e-38 317 276
-0.0024476533 0.69800001 -0.04405776 1.1352715e-38 318 276
-0.0012238267 0.69800001 -0.04405776 1.1998084e-38 319 276
0 0.69700003 -0.043994639 1.1533146e-38 320 276
0.0012203199 0.69599998 -0.043931518 1.0795581e-38 321 276
0.0024336267 0.69400001 -0.043805279 1.0241688e-38 322 276
0.0036504399 0.69400001 -0.043805279 9.9647413e-39 323 276
0.0048672534 0.69400001 -0.043805279 9.0442269e-39 324 276
0.0060840664 0.69400001 -0.043805279 9.4133696e-39 325 276
0.0072903596 0.69300002 -0.043742158 9.4176884e-39 326 276
0.0085054198 0.69300002 -0.043742158 1.0984654e-38 327 276
0.0097204801 0.69300002 -0.043742158 1.2731684e-38 328 276
0.010935539 0.69300002 -0.043742158 1.3377053e-38 329 276
0.012150601 0.69300002 -0.043742158 1.3652548e-38 330 276
0.01336566 0.69300002 -0.043742158 1.337632e-38 331 276
0.014580719 0.69300002 -0.043742158 1.3467434e-38 332 276
0.015795778 0.69300002 -0.043742158 1.3467434e-38 333 276
0.016961746 0.69099998 -0.043615919 1.2821702e-38 334 276
0.0181733 0.69099998 -0.043615919 1.2636952e-38 335 276
0.01944096 0.69300002 -0.043742158 1.3185811e-38 336 276
0.020656019 0.69300002 -0.043742158 1.1895072e-38 337 276
0.021871079 0.69300002 -0.043742158 1.0238792e-38 338 276
0.02308614 0.69300002 -0.043742158 1.0515379e-38 339 276
0.024301201 0.69300002 -0.043742158 1.0790889e-38 340 276
0.02551626 0.69300002 -0.043742158 1.0790889e-38 341 276
0.026769891 0.69400001 -0.043805279 1.0976357e-38 342 276
0.027986705 0.69400001 -0.043805279 1.1068552e-38 343 276
0.029203519 0.69400001 -0.043805279 1.1344048e-38 344 276
0.030507999 0.69599998 -0.043931518 1.1989417e-38 345 276
0.031728316 0.69599998 -0.043931518 1.34631e-38 346 276
0.03299598 0.69700003 -0.043994639 1.3370903e-38 347 276
0.034267146 0.69800001 -0.04405776 1.3464528e-38 348 276
0.035592664 0.69999999 -0.044183996 1.3371973e-38 349 276
0.036872596 0.70099998 -0.044247117 1.2910279e-38 350 276
0.038210396 0.70300001 -0.04437336 1.161954e-38 351 276
0.039499093 0.704 -0.044436477 1.0236258e-38 352 276
0.040849157 0.70599997 -0.044562716 1.0144063e-38 353 276
0.042087011 0.70599997 -0.044562716 1.0879472e-38 354 276
0.043324865 0.70599997 -0.044562716 1.0695081e-38 355 276
0.044562716 0.70599997 -0.044562716 1.2447859e-38 356 276
-0.0186993 0.71100003 -0.046124939 1.8621722e-38 305 277
-0.01745268 0.71100003 -0.046124939 1.6502667e-38 306 277
-0.01620606 0.71100003 -0.046124939 1.4842787e-38 307 277
-0.014959441 0.71100003 -0.046124939 1.3648218e-38 308 277
-0.01371282 0.71100003 -0.046124939 1.4754207e-38 309 277
-0.012448666 0.70999998 -0.046060063 1.4755671e-38 310 277
-0.011203799 0.70999998 -0.046060063 1.3557128e-38 311 277
-0.0099168532 0.70700002 -0.045865446 1.1169768e-38 312 277
-0.0086649731 0.70599997 -0.04580057 1.1261964e-38 313 277
-0.0074060797 0.704 -0.045670826 1.1353799e-38 314 277
-0.0061454331 0.70099998 -0.045476202 1.1445995e-38 315 277
-0.0049163462 0.70099998 -0.045476202 1.1629304e-38 316 277
-0.0036819996 0.69999999 -0.04541133 1.1076131e-38 317 277
-0.0024476533 0.69800001 -0.045281585 1.1261598e-38 318 277
-0.0012238267 0.69800001 -0.045281585 1.1261598e-38 319 277
0 0.69700003 -0.045216713 1.0613711e-38 320 277
0.0012220733 0.69700003 -0.045216713 9.8761456e-39 321 277
0.0024406398 0.69599998 -0.045151837 7.6638204e-39 322 277
0.0036504399 0.69400001 -0.045022093 7.3872321e-39 323 277
0.0048672534 0.69400001 -0.045022093 6.8337122e-39 324 277
0.0060840664 0.69400001 -0.045022093 6.7411579e-39 325 277
0.0073008798 0.69400001 -0.045022093 6.7490654e-39 326 277
0.0085176928 0.69400001 -0.045022093 8.9617619e-39 327 277
0.0097345067 0.69400001 -0.045022093 1.171754e-38 328 277
0.01095132 0.69400001 -0.045022093 1.2178159e-38 329 277
0.012168133 0.69400001 -0.045022093 1.2732037e-38 330 277
0.01336566 0.69300002 -0.044957221 1.2916428e-38 331 277
0.014580719 0.69300002 -0.044957221 1.3283045e-38 332 277
0.015795778 0.69300002 -0.044957221 1.3283045e-38 333 277
0.01701084 0.69300002 -0.044957221 1.2361445e-38 334 277
0.018225901 0.69300002 -0.044957221 1.2268891e-38 335 277
0.01944096 0.69300002 -0.044957221 1.2636234e-38 336 277
0.020656019 0.69300002 -0.044957221 1.1621723e-38 337 277
0.021871079 0.69300002 -0.044957221 1.0790526e-38 338 277
0.02308614 0.69300002 -0.044957221 1.0790526e-38 339 277
0.024336265 0.69400001 -0.045022093 1.0882366e-38 340 277
0.025553079 0.69400001 -0.045022093 1.1066756e-38 341 277
0.026769891 0.69400001 -0.045022093 1.106819e-38 342 277
0.027986705 0.69400001 -0.045022093 1.1436612e-38 343 277
0.029287677 0.69599998 -0.045151837 1.1804306e-38 344 277
0.030551834 0.69700003 -0.045216713 1.2541871e-38 345 277
0.03177391 0.69700003 -0.045216713 1.3555654e-38 346 277
0.033043321 0.69800001 -0.045281585 1.3370903e-38 347 277
0.034365334 0.69999999 -0.04541133 1.3184346e-38 348 277
0.035643511 0.70099998 -0.045476202 1.2170196e-38 349 277
0.036977798 0.70300001 -0.04560595 1.0972742e-38 350 277
0.038264744 0.704 -0.045670826 1.0511763e-38 351 277
0.039499093 0.704 -0.045670826 9.7763647e-39 352 277
0.040849157 0.70599997 -0.04580057 1.0421734e-38 353 277
0.042146627 0.70700002 -0.045865446 1.0972744e-38 354 277
0.043386232 0.70700002 -0.045865446 1.0972744e-38 355 277
0.044625837 0.70700002 -0.045865446 1.290883e-38 356 277
-0.01745268 0.71100003 -0.047371563 1.6503389e-38 306 278
-0.016251646 0.713 -0.047504812 1.5212652e-38 307 278
-0.014959441 0.71100003 -0.047371563 1.3371273e-38 308 278
-0.01371282 0.71100003 -0.047371563 1.4477979e-38 309 278
-0.0124662 0.71100003 -0.047371563 1.5585422e-38 310 278
-0.011203799 0.70999998 -0.047304932 1.457091e-38 311 278
-0.0099308798 0.708 -0.047171678 1.1628942e-38 312 278
-0.008677247 0.70700002 -0.047105055 1.1536387e-38 313 278
-0.0074060797 0.704 -0.046905171 1.0986459e-38 314 278
-0.0061629666 0.70300001 -0.046838548 1.0893904e-38 315 278
-0.0049163462 0.70099998 -0.046705291 1.0987175e-38 316 278
-0.0036819996 0.69999999 -0.046638668 1.0987175e-38 317 278
-0.0024476533 0.69800001 -0.046505414 1.1170124e-38 318 278
-0.0012238267 0.69800001 -0.046505414 1.0801342e-38 319 278
0 0.69700003 -0.046438783 1.0429682e-38 320 278
0.0012220733 0.69700003 -0.046438783 9.6002818e-39 321 278
0.0024406398 0.69599998 -0.046372157 6.0064655e-39 322 278
0.0036609597 0.69599998 -0.046372157 5.4532917e-39 323 278
0.0048812795 0.69599998 -0.046372157 5.8199428e-39 324 278
0.0060840664 0.69400001 -0.046238903 5.7277458e-39 325 278
0.0073008798 0.69400001 -0.046238903 5.0895637e-39 326 278
0.0085176928 0.69400001 -0.046238903 7.7632369e-39 327 278
0.0097345067 0.69400001 -0.046238903 1.0888149e-38 328 278
0.01095132 0.69400001 -0.046238903 1.107218e-38 329 278
0.012168133 0.69400001 -0.046238903 1.171969e-38 330 278
0.013384946 0.69400001 -0.046238903 1.2365059e-38 331 278
0.01460176 0.69400001 -0.046238903 1.3006826e-38 332 278
0.015818574 0.69400001 -0.046238903 1.2730598e-38 333 278
0.017035386 0.69400001 -0.046238903 1.1994105e-38 334 278
0.0182522 0.69400001 -0.046238903 1.1809355e-38 335 278
0.019469013 0.69400001 -0.046238903 1.2268891e-38 336 278
0.020685827 0.69400001 -0.046238903 1.1346934e-38 337 278
0.021902639 0.69400001 -0.046238903 1.0698694e-38 338 278
0.023119451 0.69400001 -0.046238903 1.0606498e-38 339 278
0.024336265 0.69400001 -0.046238903 1.0698697e-38 340 278
0.025553079 0.69400001 -0.046238903 1.0975285e-38 341 278
0.026847038 0.69599998 -0.046372157 1.1160751e-38 342 278
0.028067358 0.69599998 -0.046372157 1.1160751e-38 343 278
0.02932976 0.69700003 -0.046438783 1.1529158e-38 344 278
0.030551834 0.69700003 -0.046438783 1.2635505e-38 345 278
0.031819493 0.69800001 -0.046505414 1.3371253e-38 346 278
0.033137999 0.69999999 -0.046638668 1.2818439e-38 347 278
0.034414422 0.70099998 -0.046705291 1.1618107e-38 348 278
0.035745207 0.70300001 -0.046838548 1.0143337e-38 349 278
0.037030395 0.704 -0.046905171 9.4057871e-39 350 278
0.038264744 0.704 -0.046905171 1.0143354e-38 351 278
0.039611302 0.70599997 -0.047038425 1.0881275e-38 352 278
0.040907022 0.70700002 -0.047105055 1.1065666e-38 353 278
0.042206239 0.708 -0.047171678 1.0973821e-38 354 278
0.043447599 0.708 -0.047171678 1.0881625e-38 355 278
-0.016342819 0.71700001 -0.04902846 1.5029337e-38 307 279
-0.01506464 0.71600002 -0.048960082 1.2912448e-38 308 279
-0.013751393 0.713 -0.048754938 1.3926241e-38 309 279
-0.0124662 0.71100003 -0.048618179 1.5218433e-38 310 279
-0.011203799 0.70999998 -0.048549797 1.5033683e-38 311 279
-0.0099589331 0.70999998 -0.048549797 1.346853e-38 312 279
-0.008689519 0.708 -0.048413038 1.2085594e-38 313 279
-0.0074271196 0.70599997 -0.048276275 1.0066298e-38 314 279
-0.0061717331 0.704 -0.048139516 1.0250689e-38 315 279
-0.0049303733 0.70300001 -0.048071139 1.0618394e-38 316 279
-0.0036872597 0.70099998 -0.047934376 1.0618394e-38 317 279
-0.0024546667 0.69999999 -0.047865998 1.0250689e-38 318 279
-0.0012238267 0.69800001 -0.047729239 1.0066298e-38 319 279
0 0.69800001 -0.047729239 1.1074333e-38 320 279
0.0012238267 0.69800001 -0.047729239 1.006054e-38 321 279
0.0024441467 0.69700003 -0.047660861 6.8355073e-39 322 279
0.0036609597 0.69599998 -0.047592476 6.5589204e-39 323 279
0.0048812795 0.69599998 -0.047592476 6.5574953e-39 324 279
0.0061015999 0.69599998 -0.047592476 6.5574953e-39 325 279
0.0073219193 0.69599998 -0.047592476 5.0866826e-39 326 279
0.0085422397 0.69599998 -0.047592476 5.3629108e-39 327 279
0.0097625591 0.69599998 -0.047592476 7.3008042e-39 328 279
0.010982879 0.69599998 -0.047592476 8.314596e-39 329 279
0.0122032 0.69599998 -0.047592476 1.0889937e-38 330 279
0.013423519 0.69599998 -0.047592476 1.1627863e-38 331 279
0.014643839 0.69599998 -0.047592476 1.1718253e-38 332 279
0.015864158 0.69599998 -0.047592476 1.1810808e-38 333 279
0.017035386 0.69400001 -0.047455717 1.1624973e-38 334 279
0.0182522 0.69400001 -0.047455717 1.125583e-38 335 279
0.019469013 0.69400001 -0.047455717 1.1438777e-38 336 279
0.020685827 0.69400001 -0.047455717 1.0885962e-38 337 279
0.021902639 0.69400001 -0.047455717 1.0790889e-38 338 279
0.023119451 0.69400001 -0.047455717 1.0606498e-38 339 279
0.0244064 0.69599998 -0.047592476 1.097312e-38 340 279
0.025626717 0.69599998 -0.047592476 1.1618489e-38 341 279
0.026847038 0.69599998 -0.047592476 1.1617407e-38 342 279
0.028107686 0.69700003 -0.047660861 1.069581e-38 343 279
0.02932976 0.69700003 -0.047660861 9.6848964e-39 344 279
0.030595668 0.69800001 -0.047729239 9.9614819e-39 345 279
0.031910665 0.69999999 -0.047865998 9.4979842e-39 346 279
0.033137999 0.69999999 -0.047865998 9.2213959e-39 347 279
0.034512613 0.70300001 -0.048071139 9.130645e-39 348 279
0.035796054 0.704 -0.048139516 9.222842e-39 349 279
0.037030395 0.704 -0.048139516 9.7734949e-39 350 279
0.038373452 0.70599997 -0.048276275 1.1433375e-38 351 279
0.039667413 0.70700002 -0.048344657 1.3090723e-38 352 279
0.040907022 0.70700002 -0.048344657 1.2998527e-38 353 279
0.042206239 0.708 -0.048413038 1.1618816e-38 354 279
0.043447599 0.708 -0.048413038 1.1250035e-38 355 279
-0.016388407 0.71899998 -0.050425861 1.4846013e-38 307 280
-0.015085679 0.71700001 -0.0502856 1.2822049e-38 308 280
-0.01377068 0.71399999 -0.050075196 1.3375223e-38 309 280
-0.0124662 0.71100003 -0.049864799 1.4482665e-38 310 280
-0.01121958 0.71100003 -0.049864799 1.5035839e-38 311 280
-0.0099589331 0.70999998 -0.049794663 1.4574876e-38 312 280
-0.008689519 0.708 -0.049654398 1.1624976e-38 313 280
-0.0074376399 0.70700002 -0.049584266 9.0528659e-39 314 280
-0.0061892662 0.70599997 -0.04951413 9.790431e-39 315 280
-0.0049303733 0.70300001 -0.049303733 1.0799191e-38 316 280
-0.0036872597 0.70099998 -0.049163464 1.0799191e-38 317 280
-0.0024546667 0.69999999 -0.049093332 9.7911498e-39 318 280
-0.0012273333 0.69999999 -0.049093332 9.5149231e-39 319 280
0 0.69800001 -0.048953064 1.01549e-38 320 280
0.0012238267 0.69800001 -0.048953064 9.693562e-39 321 280
0.0024476533 0.69800001 -0.048953064 7.8496592e-39 322 280
0.00366622 0.69700003 -0.048882935 7.0195384e-39 323 280
0.0048882933 0.69700003 -0.048882935 7.1070677e-39 324 280
0.0061015999 0.69599998 -0.048812799 6.830841e-39 325 280
0.0073219193 0.69599998 -0.048812799 5.2692732e-39 326 280
0.0085422397 0.69599998 -0.048812799 4.9001319e-39 327 280
0.0097625591 0.69599998 -0.048812799 7.8424663e-39 328 280
0.01099866 0.69700003 -0.048882935 9.6863789e-39 329 280
0.012220734 0.69700003 -0.048882935 1.0428245e-38 330 280
0.013423519 0.69599998 -0.048812799 1.1534591e-38 331 280
0.014643839 0.69599998 -0.048812799 1.1167603e-38 332 280
0.015864158 0.69599998 -0.048812799 1.0891377e-38 333 280
0.017084479 0.69599998 -0.048812799 1.0521865e-38 334 280
0.018304799 0.69599998 -0.048812799 1.0245277e-38 335 280
0.019525118 0.69599998 -0.048812799 1.05179e-38 336 280
0.020745439 0.69599998 -0.048812799 1.0056921e-38 337 280
0.021965759 0.69599998 -0.048812799 1.0330634e-38 338 280
0.023186078 0.69599998 -0.048812799 9.5930693e-39 339 280
0.024441468 0.69700003 -0.048882935 9.1342449e-39 340 280
0.025663542 0.69700003 -0.048882935 9.6874187e-39 341 280
0.026885614 0.69700003 -0.048882935 1.0513217e-38 342 280
0.028148014 0.69800001 -0.048953064 9.6830971e-39 343 280
0.029371841 0.69800001 -0.048953064 8.8551371e-39 344 280
0.030683333 0.69999999 -0.049093332 8.8551371e-39 345 280
0.031910665 0.69999999 -0.049093332 9.4983527e-39 346 280
0.03318534 0.70099998 -0.049163464 9.5905483e-39 347 280
0.034512613 0.70300001 -0.049303733 1.0509263e-38 348 280
0.035796054 0.704 -0.049373865 1.0509263e-38 349 280
0.037135597 0.70599997 -0.04951413 9.7763675e-39 350 280
0.038373452 0.70599997 -0.04951413 1.1343695e-38 351 280
0.039667413 0.70700002 -0.049584266 1.3001396e-38 352 280
0.040964879 0.708 -0.049654398 1.2632972e-38 353 280
0.042325463 0.70999998 -0.049794663 1.2264167e-38 354 280
0.043570329 0.70999998 -0.049794663 1.1618798e-38 355 280
-0.016342819 0.71700001 -0.051542737 1.4570134e-38 307 281
-0.015085679 0.71700001 -0.051542737 1.2455048e-38 308 281
-0.01377068 0.71399999 -0.05132708 1.3007863e-38 309 281
-0.012518799 0.71399999 -0.05132708 1.3286993e-38 310 281
-0.01121958 0.71100003 -0.051111419 1.4577732e-38 311 281
-0.0099729598 0.71100003 -0.051111419 1.5495025e-38 312 281
-0.0087140659 0.70999998 -0.051039528 1.1991232e-38 313 281
-0.0074481601 0.708 -0.050895758 8.6833603e-39 314 281
-0.0061980332 0.70700002 -0.050823875 8.9599472e-39 315 281
-0.0049514128 0.70599997 -0.050751984 9.5102525e-39 316 281
-0.0036977797 0.70300001 -0.050536323 9.6024496e-39 317 281
-0.0024581731 0.70099998 -0.050392549 9.3301773e-39 318 281
-0.0012273333 0.69999999 -0.050320663 9.3301773e-39 319 281
0 0.69999999 -0.050320663 9.8797581e-39 320 281
0.0012238267 0.69800001 -0.050176892 9.2343887e-39 321 281
0.0024476533 0.69800001 -0.050176892 8.126965e-39 322 281
0.0036714801 0.69800001 -0.050176892 6.6518349e-39 323 281
0.0048882933 0.69700003 -0.050105009 5.4500715e-39 324 281
0.0061103669 0.69700003 -0.050105009 5.6344628e-39 325 281
0.00733244 0.69700003 -0.050105009 6.0961598e-39 326 281
0.0085545136 0.69700003 -0.050105009 6.5574981e-39 327 281
0.0097765867 0.69700003 -0.050105009 8.6743822e-39 328 281
0.01099866 0.69700003 -0.050105009 9.6885327e-39 329 281
0.012220734 0.69700003 -0.050105009 1.0061626e-38 330 281
0.013442807 0.69700003 -0.050105009 1.0706995e-38 331 281
0.01466488 0.69700003 -0.050105009 1.0890667e-38 332 281
0.015886955 0.69700003 -0.050105009 1.0614079e-38 333 281
0.017109027 0.69700003 -0.050105009 1.0061257e-38 334 281
0.018331099 0.69700003 -0.050105009 9.4158877e-39 335 281
0.019525118 0.69599998 -0.050033119 8.7683533e-39 336 281
0.020745439 0.69599998 -0.050033119 7.8460369e-39 337 281
0.021965759 0.69599998 -0.050033119 7.9349997e-39 338 281
0.023219392 0.69700003 -0.050105009 8.1190308e-39 339 281
0.024441468 0.69700003 -0.050105009 8.5792859e-39 340 281
0.025663542 0.69700003 -0.050105009 8.5792859e-39 341 281
0.026924185 0.69800001 -0.050176892 9.3154062e-39 342 281
0.028148014 0.69800001 -0.050176892 9.6845488e-39 343 281
0.029371841 0.69800001 -0.050176892 9.7767417e-39 344 281
0.030683333 0.69999999 -0.050320663 1.0053327e-38 345 281
0.031956252 0.70099998 -0.050392549 1.1253297e-38 346 281
0.033280019 0.70300001 -0.050536323 1.1161101e-38 347 281
0.034561705 0.704 -0.050608214 1.1523041e-38 348 281
0.035897743 0.70599997 -0.050751984 1.1246813e-38 349 281
0.037135597 0.70599997 -0.050751984 1.0238772e-38 350 281
0.038427804 0.70700002 -0.050823875 1.0976337e-38 351 281
0.039723519 0.708 -0.050895758 1.1898644e-38 352 281
0.041080594 0.70999998 -0.051039528 1.2175231e-38 353 281
0.042325463 0.70999998 -0.051039528 1.2081574e-38 354 281
0.043570329 0.70999998 -0.051039528 1.1620597e-38 355 281
-0.017722692 0.722 -0.053168077 1.6689186e-38 306 282
-0.016342819 0.71700001 -0.052799881 1.5214054e-38 307 282
-0.015085679 0.71700001 -0.052799881 1.2179161e-38 308 282
-0.01377068 0.71399999 -0.052578956 1.2824531e-38 309 282
-0.012518799 0.71399999 -0.052578956 1.3469935e-38 310 282
-0.01121958 0.71100003 -0.052358042 1.4760674e-38 311 282
-0.0099729598 0.71100003 -0.052358042 1.5312781e-38 312 282
-0.0087140659 0.70999998 -0.052284397 1.3837293e-38 313 282
-0.0074481601 0.708 -0.052137118 1.2176698e-38 314 282
-0.0062067998 0.708 -0.052137118 1.1531329e-38 315 282
-0.0049514128 0.70599997 -0.051989835 1.006448e-38 316 282
-0.0037030398 0.704 -0.051842559 1.0525458e-38 317 282
-0.0024651866 0.70300001 -0.051768921 1.0615876e-38 318 282
-0.0012290865 0.70099998 -0.051621638 1.0155256e-38 319 282
0 0.70099998 -0.051621638 8.132004e-39 320 282
0.0012273333 0.69999999 -0.051547997 7.2100477e-39 321 282
0.0024546667 0.69999999 -0.051547997 6.3784864e-39 322 282
0.0036714801 0.69800001 -0.051400717 7.0238544e-39 323 282
0.0048953067 0.69800001 -0.051400717 7.5701955e-39 324 282
0.006119133 0.69800001 -0.051400717 7.5701955e-39 325 282
0.00733244 0.69700003 -0.051327083 7.3876021e-39 326 282
0.0085545136 0.69700003 -0.051327083 7.941136e-39 327 282
0.0097765867 0.69700003 -0.051327083 8.7708868e-39 328 282
0.01101444 0.69800001 -0.051400717 9.4162562e-39 329 282
0.012238266 0.69800001 -0.051400717 9.6946452e-39 330 282
0.013462093 0.69800001 -0.051400717 1.0063426e-38 331 282
0.01468592 0.69800001 -0.051400717 1.0063424e-38 332 282
0.015909746 0.69800001 -0.051400717 9.8790323e-39 333 282
0.017133573 0.69800001 -0.051400717 1.006126e-38 334 282
0.0183574 0.69800001 -0.051400717 9.4158905e-39 335 282
0.019553173 0.69700003 -0.051327083 9.0438612e-39 336 282
0.020775247 0.69700003 -0.051327083 8.3062961e-39 337 282
0.02199732 0.69700003 -0.051327083 8.8562301e-39 338 282
0.023252707 0.69800001 -0.051400717 9.1328156e-39 339 282
0.024476532 0.69800001 -0.051400717 9.1328156e-39 340 282
0.025700359 0.69800001 -0.051400717 9.4094039e-39 341 282
0.026924185 0.69800001 -0.051400717 1.0054406e-38 342 282
0.028228667 0.69999999 -0.051547997 1.0238439e-38 343 282
0.029455997 0.69999999 -0.051547997 1.0330269e-38 344 282
0.030727165 0.70099998 -0.051621638 1.0606495e-38 345 282
0.032047424 0.70300001 -0.051768921 1.2172013e-38 346 282
0.03332736 0.704 -0.051842559 1.2079818e-38 347 282
0.034561705 0.704 -0.051842559 1.1157136e-38 348 282
0.035897743 0.70599997 -0.051989835 1.1157136e-38 349 282
0.037188202 0.70700002 -0.05206348 1.0699029e-38 350 282
0.038482159 0.708 -0.052137118 1.1713179e-38 351 282
0.039835732 0.70999998 -0.052284397 1.2450729e-38 352 282
0.041080594 0.70999998 -0.052284397 1.2542924e-38 353 282
0.042385083 0.71100003 -0.052358042 1.208299e-38 354 282
0.043631699 0.71100003 -0.052358042 1.125359e-38 355 282
-0.017722692 0.722 -0.054433983 1.7608617e-38 306 283
-0.016388407 0.71899998 -0.054207806 1.6317878e-38 307 283
-0.01512776 0.71899998 -0.054207806 1.2270609e-38 308 283
-0.013809253 0.71600002 -0.053981625 1.2455001e-38 309 283
-0.012553867 0.71600002 -0.053981625 1.3010734e-38 310 283
-0.011251139 0.713 -0.053755447 1.4394027e-38 311 283
-0.0099729598 0.71100003 -0.053604662 1.4944716e-38 312 283
-0.0087140659 0.70999998 -0.053529263 1.5129106e-38 313 283
-0.0074691991 0.70999998 -0.053529263 1.5215192e-38 314 283
-0.0062067998 0.708 -0.053378478 1.3186888e-38 315 283
-0.0049584266 0.70700002 -0.053303085 1.1168657e-38 316 283
-0.0037030398 0.704 -0.053076904 1.2090615e-38 317 283
-0.0024686933 0.704 -0.053076904 1.2455453e-38 318 283
-0.0012325933 0.70300001 -0.053001512 1.1533496e-38 319 283
0 0.70099998 -0.052850723 7.3937005e-39 320 283
0.0012273333 0.69999999 -0.052775331 5.273201e-39 321 283
0.0024546667 0.69999999 -0.052775331 4.2594218e-39 322 283
0.0036819996 0.69999999 -0.052775331 6.1029743e-39 323 283
0.0048953067 0.69800001 -0.052624546 9.872924e-39 324 283
0.006119133 0.69800001 -0.052624546 1.0333902e-38 325 283
0.0073429602 0.69800001 -0.052624546 9.5984853e-39 326 283
0.0085667865 0.69800001 -0.052624546 9.6906823e-39 327 283
0.0097906133 0.69800001 -0.052624546 9.3258585e-39 328 283
0.01101444 0.69800001 -0.052624546 9.6024468e-39 329 283
0.012238266 0.69800001 -0.052624546 9.4198562e-39 330 283
0.013462093 0.69800001 -0.052624546 9.5120518e-39 331 283
0.01468592 0.69800001 -0.052624546 9.9705062e-39 332 283
0.015909746 0.69800001 -0.052624546 9.9705062e-39 333 283
0.017133573 0.69800001 -0.052624546 1.0336401e-38 334 283
0.0183574 0.69800001 -0.052624546 9.5988356e-39 335 283
0.019581227 0.69800001 -0.052624546 9.5033974e-39 336 283
0.020805053 0.69800001 -0.052624546 9.3190061e-39 337 283
0.02202888 0.69800001 -0.052624546 9.7774633e-39 338 283
0.023252707 0.69800001 -0.052624546 9.869659e-39 339 283
0.024546666 0.69999999 -0.052775331 9.7781794e-39 340 283
0.025773998 0.69999999 -0.052775331 1.0055126e-38 341 283
0.027001332 0.69999999 -0.052775331 1.1066037e-38 342 283
0.028228667 0.69999999 -0.052775331 1.1066037e-38 343 283
0.029498078 0.70099998 -0.052850723 1.0699047e-38 344 283
0.030727165 0.70099998 -0.052850723 1.0883438e-38 345 283
0.032047424 0.70300001 -0.053001512 1.180395e-38 346 283
0.03332736 0.704 -0.053076904 1.1527363e-38 347 283
0.034659892 0.70599997 -0.053227689 1.1066738e-38 348 283
0.035948593 0.70700002 -0.053303085 1.1158933e-38 349 283
0.037188202 0.70700002 -0.053303085 1.1437669e-38 350 283
0.038482159 0.708 -0.053378478 1.2083038e-38 351 283
0.039835732 0.70999998 -0.053529263 1.2176287e-38 352 283
0.041080594 0.70999998 -0.053529263 1.1991896e-38 353 283
0.042385083 0.71100003 -0.053604662 1.1349716e-38 354 283
0.043631699 0.71100003 -0.053604662 1.0888378e-38 355 283
0.044878319 0.71100003 -0.053604662 1.4017271e-38 356 283
-0.016388407 0.71899998 -0.055468451 1.7331311e-38 307 284
-0.01512776 0.71899998 -0.055468451 1.3741407e-38 308 284
-0.013809253 0.71600002 -0.055237014 1.3096038e-38 309 284
-0.012553867 0.71600002 -0.055237014 1.1355859e-38 310 284
-0.011251139 0.713 -0.055005573 1.2278176e-38 311 284
-0.0099729598 0.71100003 -0.054851279 1.3748317e-38 312 284
-0.0087140659 0.70999998 -0.054774132 1.4578079e-38 313 284
-0.0074691991 0.70999998 -0.054774132 1.549429e-38 314 284
-0.0062067998 0.708 -0.054619838 1.4480497e-38 315 284
-0.0049584266 0.70700002 -0.054542694 1.3377389e-38 316 284
-0.0037135598 0.70599997 -0.054465543 1.3838367e-38 317 284
-0.0024757064 0.70599997 -0.054465543 1.4573058e-38 318 284
-0.0012343467 0.704 -0.054311249 1.3743298e-38 319 284
0 0.70300001 -0.054234106 1.1623524e-38 320 284
0.0012290865 0.70099998 -0.054079808 8.7654596e-39 321 284
0.0024581731 0.70099998 -0.054079808 5.266727e-39 322 284
0.0036819996 0.69999999 -0.054002665 5.6358697e-39 323 284
0.0049093333 0.69999999 -0.054002665 7.5723465e-39 324 284
0.0061366665 0.69999999 -0.054002665 1.0338215e-38 325 284
0.0073429602 0.69800001 -0.053848371 1.1624988e-38 326 284
0.0085667865 0.69800001 -0.053848371 1.0887423e-38 327 284
0.0097906133 0.69800001 -0.053848371 9.3276549e-39 328 284
0.01101444 0.69800001 -0.053848371 9.5124049e-39 329 284
0.012273333 0.69999999 -0.054002665 9.1450644e-39 330 284
0.013500666 0.69999999 -0.054002665 8.4996949e-39 331 284
0.014727999 0.69999999 -0.054002665 9.227179e-39 332 284
0.015955333 0.69999999 -0.054002665 9.4115703e-39 333 284
0.017182667 0.69999999 -0.054002665 8.6768737e-39 334 284
0.018409999 0.69999999 -0.054002665 9.4144388e-39 335 284
0.019637333 0.69999999 -0.054002665 9.8721799e-39 336 284
0.020864666 0.69999999 -0.054002665 9.6877873e-39 337 284
0.022091998 0.69999999 -0.054002665 1.0054406e-38 338 284
0.023319334 0.69999999 -0.054002665 1.0054406e-38 339 284
0.024546666 0.69999999 -0.054002665 1.0054403e-38 340 284
0.025773998 0.69999999 -0.054002665 1.0238436e-38 341 284
0.027039904 0.70099998 -0.054079808 1.0790526e-38 342 284
0.028268991 0.70099998 -0.054079808 1.0882722e-38 343 284
0.029582238 0.70300001 -0.054234106 1.106675e-38 344 284
0.030814834 0.70300001 -0.054234106 1.106675e-38 345 284
0.032093015 0.704 -0.054311249 1.1068184e-38 346 284
0.03332736 0.704 -0.054311249 1.1068184e-38 347 284
0.034659892 0.70599997 -0.054465543 1.1619546e-38 348 284
0.035948593 0.70700002 -0.054542694 1.2080164e-38 349 284
0.037188202 0.70700002 -0.054542694 1.2358533e-38 350 284
0.038482159 0.708 -0.054619838 1.2266338e-38 351 284
0.039835732 0.70999998 -0.054774132 1.1441927e-38 352 284
0.041138459 0.71100003 -0.054851279 1.0796558e-38 353 284
0.042385083 0.71100003 -0.054851279 1.0339858e-38 354 284
0.043631699 0.71100003 -0.054851279 1.1169258e-38 355 284
0.044878319 0.71100003 -0.054851279 1.5398411e-38 356 284
-0.016388407 0.71899998 -0.056729097 1.8067807e-38 307 285
-0.01512776 0.71899998 -0.056729097 1.5490588e-38 308 285
-0.013828539 0.71700001 -0.056571297 1.3923261e-38 309 285
-0.012553867 0.71600002 -0.056492399 1.0618237e-38 310 285
-0.011266919 0.71399999 -0.0563346 1.1171411e-38 311 285
-0.01001504 0.71399999 -0.0563346 1.2184193e-38 312 285
-0.0087263398 0.71100003 -0.056097899 1.3474932e-38 313 285
-0.0074691991 0.70999998 -0.056018997 1.4484813e-38 314 285
-0.0062067998 0.708 -0.055861197 1.4853596e-38 315 285
-0.0049584266 0.70700002 -0.055782299 1.5035116e-38 316 285
-0.0037135598 0.70599997 -0.055703394 1.4665974e-38 317 285
-0.0024757064 0.70599997 -0.055703394 1.4850003e-38 318 285
-0.0012343467 0.704 -0.055545598 1.5034034e-38 319 285
0 0.704 -0.055545598 1.4386502e-38 320 285
0.0012325933 0.70300001 -0.0554667 1.2450394e-38 321 285
0.0024581731 0.70099998 -0.055308893 8.30485e-39 322 285
0.0036872597 0.70099998 -0.055308893 5.5393412e-39 323 285
0.0049163462 0.70099998 -0.055308893 3.7055208e-39 324 285
0.0061366665 0.69999999 -0.055229999 8.0387168e-39 325 285
0.0073639993 0.69999999 -0.055229999 1.2179963e-38 326 285
0.0085913334 0.69999999 -0.055229999 1.1995213e-38 327 285
0.0098186666 0.69999999 -0.055229999 1.1259796e-38 328 285
0.011045999 0.69999999 -0.055229999 1.11676e-38 329 285
0.012273333 0.69999999 -0.055229999 1.107432e-38 330 285
0.013500666 0.69999999 -0.055229999 1.0152004e-38 331 285
0.014727999 0.69999999 -0.055229999 7.5715982e-39 332 285
0.015955333 0.69999999 -0.055229999 7.5715982e-39 333 285
0.017182667 0.69999999 -0.055229999 8.3999169e-39 334 285
0.018409999 0.69999999 -0.055229999 9.1374819e-39 335 285
0.019637333 0.69999999 -0.055229999 1.0790889e-38 336 285
0.020864666 0.69999999 -0.055229999 1.0422467e-38 337 285
0.022091998 0.69999999 -0.055229999 1.0513581e-38 338 285
0.023319334 0.69999999 -0.055229999 1.0605776e-38 339 285
0.024581732 0.70099998 -0.055308893 1.0789445e-38 340 285
0.025810819 0.70099998 -0.055308893 1.088164e-38 341 285
0.027039904 0.70099998 -0.055308893 1.0790524e-38 342 285
0.028349647 0.70300001 -0.0554667 1.0882719e-38 343 285
0.029624319 0.704 -0.055545598 1.1159303e-38 344 285
0.030858666 0.704 -0.055545598 1.1251499e-38 345 285
0.032093015 0.704 -0.055545598 1.1067104e-38 346 285
0.033422034 0.70599997 -0.055703394 1.1067104e-38 347 285
0.034659892 0.70599997 -0.055703394 1.1436594e-38 348 285
0.035948593 0.70700002 -0.055782299 1.1897572e-38 349 285
0.0372408 0.708 -0.055861197 1.2175922e-38 350 285
0.038590867 0.70999998 -0.056018997 1.1806779e-38 351 285
0.039835732 0.70999998 -0.056018997 1.0799034e-38 352 285
0.041138459 0.71100003 -0.056097899 9.8774376e-39 353 285
0.042385083 0.71100003 -0.056097899 1.0523155e-38 354 285
0.043631699 0.71100003 -0.056097899 1.2735848e-38 355 285
-0.015085679 0.71700001 -0.057828441 1.7975216e-38 308 286
-0.013828539 0.71700001 -0.057828441 1.6039108e-38 309 286
-0.012553867 0.71600002 -0.057747785 1.1721695e-38 310 286
-0.011266919 0.71399999 -0.057586476 1.0891933e-38 311 286
-0.01001504 0.71399999 -0.057586476 9.7013378e-39 312 286
-0.0087263398 0.71100003 -0.057344519 1.0531459e-38 313 286
-0.0074691991 0.70999998 -0.057263866 1.2185645e-38 314 286
-0.0062243328 0.70999998 -0.057263866 1.3107602e-38 315 286
-0.0049584266 0.70700002 -0.057021905 1.4668115e-38 316 286
-0.0037188199 0.70700002 -0.057021905 1.4668115e-38 317 286
-0.0024757064 0.70599997 -0.056941248 1.4300422e-38 318 286
-0.0012378532 0.70599997 -0.056941248 1.4484813e-38 319 286
0 0.704 -0.056779943 1.5769435e-38 320 286
0.0012343467 0.704 -0.056779943 1.4663446e-38 321 286
0.0024686933 0.704 -0.056779943 1.2635508e-38 322 286
0.0036977797 0.70300001 -0.056699295 1.0146226e-38 323 286
0.0049303733 0.70300001 -0.056699295 7.3850657e-39 324 286
0.0061629666 0.70300001 -0.056699295 7.1084774e-39 325 286
0.0073745195 0.70099998 -0.056537982 7.6738803e-39 326 286
0.0086036054 0.70099998 -0.056537982 1.0900727e-38 327 286
0.0098326923 0.70099998 -0.056537982 1.3929138e-38 328 286
0.011061779 0.70099998 -0.056537982 1.3929138e-38 329 286
0.012290866 0.70099998 -0.056537982 1.4202481e-38 330 286
0.013519952 0.70099998 -0.056537982 1.3096493e-38 331 286
0.014749039 0.70099998 -0.056537982 9.41298e-39 332 286
0.015978126 0.70099998 -0.056537982 9.22823e-39 333 286
0.017207211 0.70099998 -0.056537982 1.116182e-38 334 286
0.018436298 0.70099998 -0.056537982 1.1254016e-38 335 286
0.019665385 0.70099998 -0.056537982 1.1344416e-38 336 286
0.020894472 0.70099998 -0.056537982 1.0883438e-38 337 286
0.022123558 0.70099998 -0.056537982 1.060793e-38 338 286
0.023352645 0.70099998 -0.056537982 1.0700126e-38 339 286
0.024581732 0.70099998 -0.056537982 1.0700123e-38 340 286
0.025810819 0.70099998 -0.056537982 1.097671e-38 341 286
0.027117053 0.70300001 -0.056699295 1.0975988e-38 342 286
0.028389972 0.704 -0.056779943 1.0883791e-38 343 286
0.029624319 0.704 -0.056779943 1.0976344e-38 344 286
0.030946331 0.70599997 -0.056941248 1.0976344e-38 345 286
0.032184184 0.70599997 -0.056941248 1.1067454e-38 346 286
0.033422034 0.70599997 -0.056941248 1.1160008e-38 347 286
0.034708988 0.70700002 -0.057021905 1.1346176e-38 348 286
0.03599944 0.708 -0.057102561 1.1346176e-38 349 286
0.037345998 0.70999998 -0.057263866 1.0522485e-38 350 286
0.038590867 0.70999998 -0.057263866 1.0061508e-38 351 286
0.039835732 0.70999998 -0.057263866 9.4196964e-39 352 286
0.041138459 0.71100003 -0.057344519 9.8806746e-39 353 286
0.042385083 0.71100003 -0.057344519 1.2456058e-38 354 286
0.043631699 0.71100003 -0.057344519 1.4853143e-38 355 286
-0.01506464 0.71600002 -0.059003171 1.815927e-38 308 287
-0.013809253 0.71600002 -0.059003171 1.7329869e-38 309 287
-0.012553867 0.71600002 -0.059003171 1.5215053e-38 310 287
-0.011266919 0.71399999 -0.058838356 1.3463338e-38 311 287
-0.01001504 0.71399999 -0.058838356 1.0525981e-38 312 287
-0.0087263398 0.71100003 -0.058591139 1.0433785e-38 313 287
-0.0074691991 0.70999998 -0.058508728 1.0161933e-38 314 287
-0.0062243328 0.70999998 -0.058508728 1.1636705e-38 315 287
-0.0049584266 0.70700002 -0.05826151 1.2829213e-38 316 287
-0.0037188199 0.70700002 -0.05826151 1.3566778e-38 317 287
-0.0024757064 0.70599997 -0.058179103 1.4300772e-38 318 287
-0.0012378532 0.70599997 -0.058179103 1.4392968e-38 319 287
0 0.704 -0.058014292 1.5311331e-38 320 287
0.0012343467 0.704 -0.058014292 1.5311331e-38 321 287
0.0024686933 0.704 -0.058014292 1.4111354e-38 322 287
0.0037030398 0.704 -0.058014292 1.3005367e-38 323 287
0.0049373866 0.704 -0.058014292 1.1992307e-38 324 287
0.0061717331 0.704 -0.058014292 1.0885959e-38 325 287
0.0073955595 0.70300001 -0.057931885 8.5911325e-39 326 287
0.0086281532 0.70300001 -0.057931885 1.2186402e-38 327 287
0.0098326923 0.70099998 -0.057767071 1.4481213e-38 328 287
0.011061779 0.70099998 -0.057767071 1.4481213e-38 329 287
0.012325933 0.70300001 -0.057931885 1.4940026e-38 330 287
0.013558527 0.70300001 -0.057931885 1.4571245e-38 331 287
0.014791119 0.70300001 -0.057931885 1.3463824e-38 332 287
0.016023712 0.70300001 -0.057931885 1.2265281e-38 333 287
0.017256306 0.70300001 -0.057931885 1.226673e-38 334 287
0.018488899 0.70300001 -0.057931885 1.2174533e-38 335 287
0.019721493 0.70300001 -0.057931885 1.2264925e-38 336 287
0.020954086 0.70300001 -0.057931885 1.1896503e-38 337 287
0.02218668 0.70300001 -0.057931885 1.1712826e-38 338 287
