# .PCD v.7 - Point Cloud Data file format
FIELDS x y z rgb imX imY
SIZE 4 4 4 4 4 4
TYPE F F F F F F
COUNT 1 1 1 1 1 1
WIDTH 849
HEIGHT 1
VIEWPOINT 0 0 0 1 0 0 0
POINTS 849
DATA ascii
0.019014901 0.72299999 0.0088736191 9.6969195e-39 335 233
0.020338668 0.72500002 0.0088981669 1.1442198e-38 336 233
0.021669446 0.727 0.0089227129 1.1718784e-38 337 233
0.022944121 0.727 0.0089227129 1.1991443e-38 338 233
0.024252106 0.72799999 0.0089349858 1.1807412e-38 339 233
0.025598666 0.73000002 0.0089595336 1.1347911e-38 340 233
0.026915418 0.73100001 0.0089718066 1.1716694e-38 341 233
0.028312827 0.73400003 0.0090086265 1.1717089e-38 342 233
0.029680425 0.736 0.0090331733 1.1993676e-38 343 233
0.030970879 0.736 0.0090331733 1.2543631e-38 344 233
0.032261331 0.736 0.0090331733 1.1713511e-38 345 233
0.033551786 0.736 0.0090331733 1.4842771e-38 346 233
-0.024451986 0.73400003 0.0077216802 1.3744749e-38 301 234
-0.023165042 0.73400003 0.0077216802 1.3375617e-38 302 234
-0.021878093 0.73400003 0.0077216802 1.3191225e-38 303 234
-0.020591147 0.73400003 0.0077216802 1.2914629e-38 304 234
-0.019277899 0.73299998 0.0077111595 1.2638402e-38 305 234
-0.017992707 0.73299998 0.0077111595 1.3007881e-38 306 234
-0.016661927 0.73100001 0.00769012 1.1717142e-38 307 234
-0.0153592 0.73000002 0.0076795998 9.3283009e-39 308 234
-0.014040692 0.72799999 0.0076585598 9.2361039e-39 309 234
-0.012746733 0.727 0.0076480396 9.5137222e-39 310 234
-0.0114405 0.72500002 0.0076270006 1.0528234e-38 311 234
-0.01014128 0.72299999 0.0076059597 1.0164805e-38 312 234
-0.0088736191 0.72299999 0.0076059597 9.9800547e-39 313 234
-0.0075954394 0.722 0.0075954394 1.0620686e-38 314 234
-0.0063295332 0.722 0.0075954394 9.6061756e-39 315 234
-0.0050636264 0.722 0.0075954394 8.9650816e-39 316 234
-0.0037872 0.72000003 0.0075743999 8.6888576e-39 317 234
-0.0025212932 0.71899998 0.0075638802 8.3211569e-39 318 234
-0.00125714 0.71700001 0.0075428397 8.1364097e-39 319 234
0 0.71700001 0.0075428397 7.9534562e-39 320 234
0.00125714 0.71700001 0.0075428397 8.0456504e-39 321 234
0.0025212932 0.71899998 0.0075638802 8.6877968e-39 322 234
0.0037872 0.72000003 0.0075743999 8.9640236e-39 323 234
0.0050496003 0.72000003 0.0075743999 8.9633103e-39 324 234
0.0063120001 0.72000003 0.0075743999 8.9633103e-39 325 234
0.0075954394 0.722 0.0075954394 8.5959515e-39 326 234
0.0088613462 0.722 0.0075954394 8.6881472e-39 327 234
0.010127253 0.722 0.0075954394 8.7792582e-39 328 234
0.01139316 0.722 0.0075954394 8.7792582e-39 329 234
0.012659066 0.722 0.0075954394 9.0536885e-39 330 234
0.013924973 0.722 0.0075954394 8.9614943e-39 331 234
0.015211919 0.72299999 0.0076059597 9.1437331e-39 332 234
0.01647958 0.72299999 0.0076059597 9.2359302e-39 333 234
0.017796334 0.72500002 0.0076270006 9.8759424e-39 334 234
0.019120099 0.727 0.0076480396 1.1166681e-38 335 234
0.020394772 0.727 0.0076480396 1.2821189e-38 336 234
0.021669446 0.727 0.0076480396 1.1806678e-38 337 234
0.022944121 0.727 0.0076480396 1.1530817e-38 338 234
0.024318734 0.73000002 0.0076795998 1.1715567e-38 339 234
0.025598666 0.73000002 0.0076795998 1.0890163e-38 340 234
0.026915418 0.73100001 0.00769012 1.1166391e-38 341 234
0.028389972 0.736 0.0077427197 1.1624889e-38 342 234
0.029761078 0.73799998 0.0077637597 1.1901477e-38 343 234
0.031055039 0.73799998 0.0077637597 1.2542193e-38 344 234
0.032392833 0.73900002 0.0077742799 1.15284e-38 345 234
0.033688545 0.73900002 0.0077742799 1.5487777e-38 346 234
-0.023165042 0.73400003 0.006434733 1.346638e-38 302 235
-0.021878093 0.73400003 0.006434733 1.3281989e-38 303 235
-0.020591147 0.73400003 0.006434733 1.2730963e-38 304 235
-0.019277899 0.73299998 0.0064259665 1.2730963e-38 305 235
-0.017992707 0.73299998 0.0064259665 1.2824939e-38 306 235
-0.016707512 0.73299998 0.0064259665 1.1718591e-38 307 235
-0.01538024 0.73100001 0.006408433 9.419419e-39 308 235
-0.014079267 0.73000002 0.0063996664 9.419419e-39 309 235
-0.012764266 0.72799999 0.0063821329 9.6055577e-39 310 235
-0.01147206 0.727 0.0063733663 1.0066177e-38 311 235
-0.010169334 0.72500002 0.0063558333 1.0621108e-38 312 235
-0.0088981669 0.72500002 0.0063558333 1.0436715e-38 313 235
-0.0076059597 0.72299999 0.0063382997 9.7949025e-39 314 235
-0.0063382997 0.72299999 0.0063382997 9.1495331e-39 315 235
-0.0050706398 0.72299999 0.0063382997 8.7817847e-39 316 235
-0.0037872 0.72000003 0.0063120001 8.4130022e-39 317 235
-0.0025248001 0.72000003 0.0063120001 7.9538149e-39 318 235
-0.0012606466 0.71899998 0.0063032326 7.8616207e-39 319 235
0 0.71700001 0.0062857 7.7697852e-39 320 235
0.00125714 0.71700001 0.0062857 8.0463707e-39 321 235
0.0025248001 0.72000003 0.0063120001 8.7803582e-39 322 235
0.0037872 0.72000003 0.0063120001 9.2413364e-39 323 235
0.0050496003 0.72000003 0.0063120001 9.1473527e-39 324 235
0.0063295332 0.722 0.0063295332 9.0551556e-39 325 235
0.0075954394 0.722 0.0063295332 9.0537081e-39 326 235
0.0088613462 0.722 0.0063295332 8.9611537e-39 327 235
0.01014128 0.72299999 0.0063382997 8.6852759e-39 328 235
0.01140894 0.72299999 0.0063382997 8.6852759e-39 329 235
0.012676599 0.72299999 0.0063382997 8.5012504e-39 330 235
0.01394426 0.72299999 0.0063382997 8.593446e-39 331 235
0.015254001 0.72500002 0.0063558333 8.959007e-39 332 235
0.016525166 0.72500002 0.0063558333 9.0512026e-39 333 235
0.017845426 0.727 0.0063733663 1.0151481e-38 334 235
0.019120099 0.727 0.0063733663 1.1257829e-38 335 235
0.020422826 0.72799999 0.0063821329 1.2268756e-38 336 235
0.021699252 0.72799999 0.0063821329 1.1623387e-38 337 235
0.022975679 0.72799999 0.0063821329 1.0521706e-38 338 235
0.024318734 0.73000002 0.0063996664 1.0706457e-38 339 235
0.025633732 0.73100001 0.006408433 9.9718164e-39 340 235
0.02709952 0.736 0.0064522666 1.0432436e-38 341 235
0.028467119 0.73799998 0.0064697997 1.1349397e-38 342 235
0.029761078 0.73799998 0.0064697997 1.1625985e-38 343 235
0.031055039 0.73799998 0.0064697997 1.2080502e-38 344 235
0.032392833 0.73900002 0.0064785667 1.1435132e-38 345 235
0.033688545 0.73900002 0.0064785667 1.6408301e-38 346 235
-0.024984999 0.75 0.00526 1.2821361e-38 301 236
-0.023165042 0.73400003 0.0051477868 1.2730613e-38 302 236
-0.021878093 0.73400003 0.0051477868 1.282281e-38 303 236
-0.020591147 0.73400003 0.0051477868 1.2547654e-38 304 236
-0.019304199 0.73400003 0.0051477868 1.2547654e-38 305 236
-0.018017253 0.73400003 0.0051477868 1.3009698e-38 306 236
-0.016730307 0.73400003 0.0051477868 1.1903352e-38 307 236
-0.015422319 0.73299998 0.005140773 9.2350375e-39 308 236
-0.014098554 0.73100001 0.0051267464 9.2350375e-39 309 236
-0.012799333 0.73000002 0.0051197335 9.4208231e-39 310 236
-0.01148784 0.72799999 0.0051057064 9.4208231e-39 311 236
-0.010197386 0.727 0.0050986931 9.42223e-39 312 236
-0.0089227129 0.727 0.0050986931 9.1460032e-39 313 236
-0.0076270006 0.72500002 0.0050846669 8.5974705e-39 314 236
-0.0063558333 0.72500002 0.0050846669 8.7822205e-39 315 236
-0.0050706398 0.72299999 0.0050706398 8.6899647e-39 316 236
-0.0038029798 0.72299999 0.0050706398 8.1367909e-39 317 236
-0.0025353199 0.72299999 0.0050706398 7.6783084e-39 318 236
-0.0012659066 0.722 0.0050636264 7.6783084e-39 319 236
0 0.722 0.0050636264 7.9527471e-39 320 236
0.0012659066 0.722 0.0050636264 8.4137239e-39 321 236
0.0025318132 0.722 0.0050636264 8.6889109e-39 322 236
0.0037977197 0.722 0.0050636264 8.9651376e-39 323 236
0.0050636264 0.722 0.0050636264 8.7789527e-39 324 236
0.0063295332 0.722 0.0050636264 8.6867557e-39 325 236
0.0076059597 0.72299999 0.0050706398 8.9604377e-39 326 236
0.0088736191 0.72299999 0.0050706398 8.8682406e-39 327 236
0.01014128 0.72299999 0.0050706398 8.6845528e-39 328 236
0.01140894 0.72299999 0.0050706398 8.6845528e-39 329 236
0.012676599 0.72299999 0.0050706398 8.6845528e-39 330 236
0.013982833 0.72500002 0.0050846669 8.6845528e-39 331 236
0.015254001 0.72500002 0.0050846669 8.7742668e-39 332 236
0.016570752 0.727 0.0050986931 9.3274405e-39 333 236
0.017845426 0.727 0.0050986931 1.0980561e-38 334 236
0.019120099 0.727 0.0050986931 1.1718126e-38 335 236
0.020422826 0.72799999 0.0051057064 1.1901085e-38 336 236
0.021699252 0.72799999 0.0051057064 1.1347911e-38 337 236
0.023038799 0.73000002 0.0051197335 1.0614621e-38 338 236
0.024418673 0.73299998 0.005140773 1.0154002e-38 339 236
0.025738932 0.73400003 0.0051477868 9.5137067e-39 340 236
0.027173158 0.73799998 0.0051758396 1.0159076e-38 341 236
0.028505694 0.73900002 0.0051828534 1.1440168e-38 342 236
0.029801406 0.73900002 0.0051828534 1.1532364e-38 343 236
0.03109712 0.73900002 0.0051828534 1.1986155e-38 344 236
0.032392833 0.73900002 0.0051828534 1.1893958e-38 345 236
-0.02637013 0.75199997 0.0039555198 1.4204296e-38 300 237
-0.024984999 0.75 0.003945 1.2821361e-38 301 237
-0.023669999 0.75 0.003945 1.2455105e-38 302 237
-0.022355 0.75 0.003945 1.2731333e-38 303 237
-0.020703359 0.73799998 0.0038818798 1.2455458e-38 304 237
-0.019356798 0.736 0.0038713599 1.2547654e-38 305 237
-0.018017253 0.73400003 0.0038608401 1.3194094e-38 306 237
-0.016730307 0.73400003 0.0038608401 1.1903355e-38 307 237
-0.01544336 0.73400003 0.0038608401 9.2343285e-39 308 237
-0.014137126 0.73299998 0.0038555798 9.2343285e-39 309 237
-0.012851933 0.73299998 0.0038555798 9.6027186e-39 310 237
-0.01153518 0.73100001 0.00384506 9.6949143e-39 311 237
-0.010211413 0.72799999 0.0038292799 9.5123026e-39 312 237
-0.0089349858 0.72799999 0.0038292799 9.420107e-39 313 237
-0.0076480396 0.727 0.0038240198 9.0545068e-39 314 237
-0.0063733663 0.727 0.0038240198 9.515485e-39 315 237
-0.0050986931 0.727 0.0038240198 8.7821575e-39 316 237
-0.0038135003 0.72500002 0.0038135003 8.3211779e-39 317 237
-0.0025423334 0.72500002 0.0038135003 7.6783084e-39 318 237
-0.0012711667 0.72500002 0.0038135003 7.5861142e-39 319 237
0 0.72500002 0.0038135003 7.860906e-39 320 237
0.0012746733 0.727 0.0038240198 8.0452987e-39 321 237
0.0025353199 0.72299999 0.0038029798 8.5037937e-39 322 237
0.0038029798 0.72299999 0.0038029798 8.5037937e-39 323 237
0.0050706398 0.72299999 0.0038029798 8.3186808e-39 324 237
0.0063382997 0.72299999 0.0038029798 8.3186808e-39 325 237
0.0076270006 0.72500002 0.0038135003 8.8696644e-39 326 237
0.0088981669 0.72500002 0.0038135003 8.5934362e-39 327 237
0.010169334 0.72500002 0.0038135003 8.4094051e-39 328 237
0.0114405 0.72500002 0.0038135003 8.3172109e-39 329 237
0.012711667 0.72500002 0.0038135003 8.2253922e-39 330 237
0.013982833 0.72500002 0.0038135003 8.6860116e-39 331 237
0.015296079 0.727 0.0038240198 9.6951945e-39 332 237
0.016570752 0.727 0.0038240198 1.0708988e-38 333 237
0.017845426 0.727 0.0038240198 1.2176975e-38 334 237
0.0191464 0.72799999 0.0038292799 1.2176975e-38 335 237
0.020422826 0.72799999 0.0038292799 1.0707581e-38 336 237
0.021699252 0.72799999 0.0038292799 1.0062211e-38 337 237
0.023038799 0.73000002 0.0038397999 9.7884621e-39 338 237
0.024518613 0.736 0.0038713599 9.6037121e-39 339 237
0.025914267 0.73900002 0.00388714 1.043172e-38 340 237
0.027283618 0.741 0.0038976599 1.1169285e-38 341 237
0.028582839 0.741 0.0038976599 1.1437666e-38 342 237
0.029882059 0.741 0.0038976599 1.0700101e-38 343 237
0.03118128 0.741 0.0038976599 1.1251835e-38 344 237
0.032524332 0.74199998 0.0039029196 1.1897205e-38 345 237
0.033825304 0.74199998 0.0039029196 1.7238788e-38 346 237
-0.02637013 0.75199997 0.0026370131 1.4295046e-38 300 238
-0.025051624 0.75199997 0.0026370131 1.3189058e-38 301 238
-0.023669999 0.75 0.00263 1.2638415e-38 302 238
-0.022355 0.75 0.00263 1.273061e-38 303 238
-0.021011947 0.74900001 0.0026264933 1.2729894e-38 304 238
-0.019567199 0.74400002 0.00260896 1.2913925e-38 305 238
-0.018115439 0.73799998 0.0025879198 1.3377053e-38 306 238
-0.016775893 0.736 0.0025809065 1.2271064e-38 307 238
-0.015485439 0.736 0.0025809065 1.052147e-38 308 238
-0.014156413 0.73400003 0.0025738934 1.0060852e-38 309 238
-0.012869466 0.73400003 0.0025738934 9.6945611e-39 310 238
-0.011566739 0.73299998 0.0025703865 9.7867582e-39 311 238
-0.010253493 0.73100001 0.0025633732 9.6949115e-39 312 238
-0.0089595336 0.73000002 0.0025598668 9.6027158e-39 313 238
-0.0076795998 0.73000002 0.0025598668 9.14492e-39 314 238
-0.0063821329 0.72799999 0.0025528532 9.6062583e-39 315 238
-0.0051057064 0.72799999 0.0025528532 9.0576738e-39 316 238
-0.0038292799 0.72799999 0.0025528532 8.2275544e-39 317 238
-0.0025528532 0.72799999 0.0025528532 7.5868317e-39 318 238
-0.0012764266 0.72799999 0.0025528532 7.3106077e-39 319 238
0 0.72799999 0.0025528532 7.676156e-39 320 238
0.0012764266 0.72799999 0.0025528532 7.860906e-39 321 238
0.0025493465 0.727 0.0025493465 7.8594935e-39 322 238
0.0038240198 0.727 0.0025493465 7.9520493e-39 323 238
0.0050846669 0.72500002 0.0025423334 8.3186542e-39 324 238
0.0063558333 0.72500002 0.0025423334 8.41121e-39 325 238
0.0076480396 0.727 0.0025493465 9.6047015e-39 326 238
0.0089227129 0.727 0.0025493465 9.3281188e-39 327 238
0.010197386 0.727 0.0025493465 8.9607768e-39 328 238
0.01147206 0.727 0.0025493465 8.5919999e-39 329 238
0.012746733 0.727 0.0025493465 9.0523166e-39 330 238
0.014040692 0.72799999 0.0025528532 1.0159024e-38 331 238
0.01531712 0.72799999 0.0025528532 1.1719603e-38 332 238
0.016593546 0.72799999 0.0025528532 1.2272777e-38 333 238
0.017869972 0.72799999 0.0025528532 1.2638316e-38 334 238
0.0191464 0.72799999 0.0025528532 1.1624523e-38 335 238
0.020422826 0.72799999 0.0025528532 9.9706996e-39 336 238
0.021758866 0.73000002 0.0025598668 9.7863083e-39 337 238
0.02307036 0.73100001 0.0025633732 9.7881062e-39 338 238
0.024618553 0.73900002 0.0025914267 1.0249084e-38 339 238
0.026019465 0.74199998 0.0026019465 1.1532343e-38 340 238
0.027320439 0.74199998 0.0026019465 1.1716736e-38 341 238
0.028621411 0.74199998 0.0026019465 1.0974542e-38 342 238
0.029922385 0.74199998 0.0026019465 9.9603916e-39 343 238
0.031223357 0.74199998 0.0026019465 1.1066369e-38 344 238
0.032524332 0.74199998 0.0026019465 1.2357108e-38 345 238
0.033825304 0.74199998 0.0026019465 1.7514649e-38 346 238
-0.025051624 0.75199997 0.0013185065 1.3924103e-38 301 239
-0.023733119 0.75199997 0.0013185065 1.3006831e-38 302 239
-0.022355 0.75 0.001315 1.3006831e-38 303 239
-0.02104 0.75 0.001315 1.2638415e-38 304 239
-0.0196987 0.74900001 0.0013132467 1.273061e-38 305 239
-0.018115439 0.73799998 0.0012939599 1.4205014e-38 306 239
-0.016821479 0.73799998 0.0012939599 1.3559645e-38 307 239
-0.015485439 0.736 0.0012904532 1.2362511e-38 308 239
-0.014194986 0.736 0.0012904532 1.0979577e-38 309 239
-0.012869466 0.73400003 0.0012869467 9.2339529e-39 310 239
-0.011582521 0.73400003 0.0012869467 9.4187029e-39 311 239
-0.010281546 0.73299998 0.0012851933 9.4194162e-39 312 239
-0.0089718066 0.73100001 0.0012816866 9.235385e-39 313 239
-0.0076795998 0.73000002 0.0012799334 8.2262049e-39 314 239
-0.0063996664 0.73000002 0.0012799334 8.3187593e-39 315 239
-0.0051197335 0.73000002 0.0012799334 8.3219038e-39 316 239
-0.0038292799 0.72799999 0.0012764266 7.9527625e-39 317 239
-0.0025528532 0.72799999 0.0012764266 7.4942787e-39 318 239
-0.0012764266 0.72799999 0.0012764266 7.310249e-39 319 239
0 0.72799999 0.0012764266 7.5861142e-39 320 239
0.0012764266 0.72799999 0.0012764266 7.4935612e-39 321 239
0.0025528532 0.72799999 0.0012764266 7.6757973e-39 322 239
0.0038292799 0.72799999 0.0012764266 7.8605445e-39 323 239
0.0050986931 0.727 0.0012746733 8.686715e-39 324 239
0.0063733663 0.727 0.0012746733 9.1480533e-39 325 239
0.0076585598 0.72799999 0.0012764266 9.6976286e-39 326 239
0.0089349858 0.72799999 0.0012764266 9.2366518e-39 327 239
0.010211413 0.72799999 0.0012764266 9.0508368e-39 328 239
0.01148784 0.72799999 0.0012764266 9.5114563e-39 329 239
0.012764266 0.72799999 0.0012764266 1.1536246e-38 330 239
0.014079267 0.73000002 0.0012799334 1.2458562e-38 331 239
0.0153592 0.73000002 0.0012799334 1.2822729e-38 332 239
0.016639132 0.73000002 0.0012799334 1.1993328e-38 333 239
0.017919067 0.73000002 0.0012799334 1.0614682e-38 334 239
0.019199001 0.73000002 0.0012799334 1.0061508e-38 335 239
0.020478934 0.73000002 0.0012799334 9.7870566e-39 336 239
0.021848286 0.73299998 0.0012851933 1.033987e-38 337 239
0.023385961 0.741 0.0012992199 1.0431019e-38 338 239
0.024685178 0.741 0.0012992199 9.7856497e-39 339 239
0.026019465 0.74199998 0.0013009732 1.1341154e-38 340 239
0.027320439 0.74199998 0.0013009732 1.143335e-38 341 239
0.028621411 0.74199998 0.0013009732 1.1062069e-38 342 239
0.029922385 0.74199998 0.0013009732 1.1062069e-38 343 239
0.031307522 0.74400002 0.00130448 1.1434432e-38 344 239
0.032612 0.74400002 0.00130448 1.254042e-38 345 239
0.033916477 0.74400002 0.00130448 1.7239138e-38 346 239
-0.026440267 0.75400001 -0 1.4202481e-38 300 240
-0.025118252 0.75400001 -0 1.401809e-38 301 240
-0.023733119 0.75199997 -0 1.355856e-38 302 240
-0.022414612 0.75199997 -0 1.3374169e-38 303 240
-0.021096105 0.75199997 -0 1.2638052e-38 304 240
-0.0197776 0.75199997 -0 1.2914278e-38 305 240
-0.018336359 0.74699998 -0 1.4021705e-38 306 240
-0.016821479 0.73799998 -0 1.4021705e-38 307 240
-0.015527519 0.73799998 -0 1.3469588e-38 308 240
-0.014233559 0.73799998 -0 1.2363242e-38 309 240
-0.012904533 0.736 -0 1.1165748e-38 310 240
-0.01161408 0.736 -0 1.0336347e-38 311 240
-0.010295574 0.73400003 -0 1.0153395e-38 312 240
-0.0090086265 0.73400003 -0 9.0466876e-39 313 240
-0.0077111595 0.73299998 -0 7.5819173e-39 314 240
-0.006408433 0.73100001 -0 7.7659484e-39 315 240
-0.0051267464 0.73100001 -0 8.1367881e-39 316 240
-0.0038397999 0.73000002 -0 7.8601998e-39 317 240
-0.0025598668 0.73000002 -0 7.5857555e-39 318 240
-0.0012799334 0.73000002 -0 7.6779497e-39 319 240
0 0.73000002 -0 7.9520213e-39 320 240
0.0012799334 0.73000002 -0 8.0442155e-39 321 240
0.0025598668 0.73000002 -0 8.9622117e-39 322 240
0.0038397999 0.73000002 -0 9.1469603e-39 323 240
0.0051197335 0.73000002 -0 9.7880263e-39 324 240
0.0063996664 0.73000002 -0 9.880222e-39 325 240
0.0076795998 0.73000002 -0 9.5118094e-39 326 240
0.0089718066 0.73100001 -0 9.4196138e-39 327 240
0.010253493 0.73100001 -0 9.5093487e-39 328 240
0.01153518 0.73100001 -0 1.0707892e-38 329 240
0.012816866 0.73100001 -0 1.2363903e-38 330 240
0.014098554 0.73100001 -0 1.3101468e-38 331 240
0.01538024 0.73100001 -0 1.1903298e-38 332 240
0.016661927 0.73100001 -0 1.0980981e-38 333 240
0.017943613 0.73100001 -0 1.0058974e-38 334 240
0.019225299 0.73100001 -0 1.0704344e-38 335 240
0.020506985 0.73100001 -0 1.1623076e-38 336 240
0.02208674 0.741 -0 1.2268445e-38 337 240
0.023385961 0.741 -0 1.1439834e-38 338 240
0.024685178 0.741 -0 9.5959209e-39 339 240
0.026019465 0.74199998 -0 1.0692953e-38 340 240
0.027320439 0.74199998 -0 1.0508561e-38 341 240
0.02869856 0.74400002 -0 1.0511782e-38 342 240
0.03008369 0.74599999 -0 1.1526294e-38 343 240
0.031391677 0.74599999 -0 1.2447856e-38 344 240
0.032699663 0.74599999 -0 1.3369811e-38 345 240
0.034007654 0.74599999 -0 1.705438e-38 346 240
-0.026440267 0.75400001 -0.0013220133 1.3374517e-38 300 241
-0.025118252 0.75400001 -0.0013220133 1.3927689e-38 301 241
-0.023733119 0.75199997 -0.0013185065 1.3559998e-38 302 241
-0.022414612 0.75199997 -0.0013185065 1.3006826e-38 303 241
-0.021096105 0.75199997 -0.0013185065 1.2636617e-38 304 241
-0.019724999 0.75 -0.001315 1.2728812e-38 305 241
-0.018336359 0.74699998 -0.0013097399 1.3836605e-38 306 241
-0.016889861 0.741 -0.0012992199 1.3836605e-38 307 241
-0.01559064 0.741 -0.0012992199 1.3654715e-38 308 241
-0.014252847 0.73900002 -0.0012957134 1.3654715e-38 309 241
-0.012939599 0.73799998 -0.0012939599 1.4020239e-38 310 241
-0.011645639 0.73799998 -0.0012939599 1.291425e-38 311 241
-0.010323626 0.736 -0.0012904532 1.1167195e-38 312 241
-0.0090331733 0.736 -0.0012904532 8.8623061e-39 313 241
-0.0077216802 0.73400003 -0.0012869467 6.9376746e-39 314 241
-0.006434733 0.73400003 -0.0012869467 8.1362177e-39 315 241
-0.005140773 0.73299998 -0.0012851933 8.8704659e-39 316 241
-0.0038555798 0.73299998 -0.0012851933 8.4094878e-39 317 241
-0.0025633732 0.73100001 -0.0012816866 7.5854374e-39 318 241
-0.0012816866 0.73100001 -0.0012816866 7.7694685e-39 319 241
0 0.73100001 -0.0012816866 8.411245e-39 320 241
0.0012816866 0.73100001 -0.0012816866 9.14881e-39 321 241
0.0025633732 0.73100001 -0.0012816866 1.0892974e-38 322 241
0.00384506 0.73100001 -0.0012816866 1.0708224e-38 323 241
0.0051267464 0.73100001 -0.0012816866 9.8806143e-39 324 241
0.006408433 0.73100001 -0.0012816866 9.4196362e-39 325 241
0.00769012 0.73100001 -0.0012816866 7.7677085e-39 326 241
0.0089963535 0.73299998 -0.0012851933 9.24284e-39 327 241
0.010281546 0.73299998 -0.0012851933 1.2087313e-38 328 241
0.011566739 0.73299998 -0.0012851933 1.2640486e-38 329 241
0.012851933 0.73299998 -0.0012851933 1.2823474e-38 330 241
0.014137126 0.73299998 -0.0012851933 1.2823474e-38 331 241
0.015422319 0.73299998 -0.0012851933 1.107535e-38 332 241
0.016707512 0.73299998 -0.0012851933 1.0429981e-38 333 241
0.018017253 0.73400003 -0.0012869467 9.8746378e-39 334 241
0.019356798 0.736 -0.0012904532 9.7824408e-39 335 241
0.020815572 0.74199998 -0.0013009732 1.1341151e-38 336 241
0.022116546 0.74199998 -0.0013009732 1.2078716e-38 337 241
0.023417519 0.74199998 -0.0013009732 1.1343347e-38 338 241
0.024718491 0.74199998 -0.0013009732 9.1302919e-39 339 241
0.026019465 0.74199998 -0.0013009732 9.4980052e-39 340 241
0.027320439 0.74199998 -0.0013009732 1.023557e-38 341 241
0.028814279 0.74699998 -0.0013097399 1.1435164e-38 342 241
0.030124018 0.74699998 -0.0013097399 1.2172729e-38 343 241
0.031517919 0.74900001 -0.0013132467 1.3276891e-38 344 241
0.032831166 0.74900001 -0.0013132467 1.410701e-38 345 241
-0.026440267 0.75400001 -0.0026440267 1.3281604e-38 300 242
-0.025118252 0.75400001 -0.0026440267 1.3465636e-38 301 242
-0.023733119 0.75199997 -0.0026370131 1.3282339e-38 302 242
-0.022355 0.75 -0.00263 1.2913557e-38 303 242
-0.02104 0.75 -0.00263 1.2268559e-38 304 242
-0.019724999 0.75 -0.00263 1.2360756e-38 305 242
-0.018385453 0.74900001 -0.0026264933 1.3375629e-38 306 242
-0.017026618 0.74699998 -0.0026194798 1.3283434e-38 307 242
-0.015653761 0.74400002 -0.00260896 1.2824608e-38 308 242
-0.01429142 0.741 -0.0025984398 1.3285586e-38 309 242
-0.0129922 0.741 -0.0025984398 1.3746547e-38 310 242
-0.01166142 0.73900002 -0.0025914267 1.3377406e-38 311 242
-0.010351679 0.73799998 -0.0025879198 1.2548705e-38 312 242
-0.0090577193 0.73799998 -0.0025879198 1.1257966e-38 313 242
-0.0077427197 0.736 -0.0025809065 9.4208707e-39 314 242
-0.0064522666 0.736 -0.0025809065 1.006624e-38 315 242
-0.0051477868 0.73400003 -0.0025738934 9.6963212e-39 316 242
-0.0038608401 0.73400003 -0.0025738934 8.497778e-39 317 242
-0.0025738934 0.73400003 -0.0025738934 7.4921978e-39 318 242
-0.0012851933 0.73299998 -0.0025703865 7.4921978e-39 319 242
0 0.73299998 -0.0025703865 1.0617491e-38 320 242
0.0012851933 0.73299998 -0.0025703865 1.1170665e-38 321 242
0.0025703865 0.73299998 -0.0025703865 1.0984466e-38 322 242
0.0038555798 0.73299998 -0.0025703865 1.0615325e-38 323 242
0.005140773 0.73299998 -0.0025703865 9.9731785e-39 324 242
0.0064259665 0.73299998 -0.0025703865 9.6969517e-39 325 242
0.0077111595 0.73299998 -0.0025703865 1.0156558e-38 326 242
0.0090086265 0.73400003 -0.0025738934 1.1539494e-38 327 242
0.010295574 0.73400003 -0.0025738934 1.3281578e-38 328 242
0.011582521 0.73400003 -0.0025738934 1.3005352e-38 329 242
0.012869466 0.73400003 -0.0025738934 1.2731298e-38 330 242
0.014156413 0.73400003 -0.0025738934 1.2915688e-38 331 242
0.01544336 0.73400003 -0.0025738934 1.1717498e-38 332 242
0.016775893 0.736 -0.0025809065 1.0611152e-38 333 242
0.018139986 0.73900002 -0.0025914267 7.754895e-39 334 242
0.019488299 0.741 -0.0025984398 7.8474494e-39 335 242
0.020815572 0.74199998 -0.0026019465 8.6718389e-39 336 242
0.022116546 0.74199998 -0.0026019465 9.5015995e-39 337 242
0.023480639 0.74400002 -0.00260896 1.0236299e-38 338 242
0.02478512 0.74400002 -0.00260896 9.2217882e-39 339 242
0.026089599 0.74400002 -0.00260896 1.0326318e-38 340 242
0.027394081 0.74400002 -0.00260896 1.1709253e-38 341 242
0.028814279 0.74699998 -0.0026194798 1.1712458e-38 342 242
0.030124018 0.74699998 -0.0026194798 1.1804653e-38 343 242
0.032064959 0.76200002 -0.00267208 1.3369087e-38 344 242
-0.026440267 0.75400001 -0.00396604 1.3465286e-38 300 243
-0.025118252 0.75400001 -0.00396604 1.2543688e-38 301 243
-0.023733119 0.75199997 -0.0039555198 1.2084528e-38 302 243
-0.022355 0.75 -0.003945 1.2360756e-38 303 243
-0.02104 0.75 -0.003945 1.2360405e-38 304 243
-0.019830201 0.75400001 -0.00396604 1.2544797e-38 305 243
-0.018385453 0.74900001 -0.0039397399 1.2548034e-38 306 243
-0.017026618 0.74699998 -0.0039292197 1.199486e-38 307 243
-0.015695838 0.74599999 -0.0039239596 1.1258727e-38 308 243
-0.014387853 0.74599999 -0.0039239596 1.1811901e-38 309 243
-0.013009733 0.74199998 -0.0039029196 1.2640214e-38 310 243
-0.01169298 0.741 -0.0038976599 1.3193388e-38 311 243
-0.010393759 0.741 -0.0038976599 1.3561803e-38 312 243
-0.0090945391 0.741 -0.0038976599 1.3100825e-38 313 243
-0.0077742799 0.73900002 -0.00388714 1.2549078e-38 314 243
-0.0064785667 0.73900002 -0.00388714 1.2549078e-38 315 243
-0.005161813 0.736 -0.0038713599 1.1443407e-38 316 243
-0.0038713599 0.736 -0.0038713599 9.2310719e-39 317 243
-0.0025809065 0.736 -0.0038713599 7.0301883e-39 318 243
-0.0012869467 0.73400003 -0.0038608401 7.2145795e-39 319 243
0 0.73400003 -0.0038608401 1.1444385e-38 320 243
0.0012869467 0.73400003 -0.0038608401 1.1352189e-38 321 243
0.0025738934 0.73400003 -0.0038608401 1.0340539e-38 322 243
0.0038608401 0.73400003 -0.0038608401 1.0063952e-38 323 243
0.0051477868 0.73400003 -0.0038608401 9.9728856e-39 324 243
0.006434733 0.73400003 -0.0038608401 1.0894843e-38 325 243
0.0077216802 0.73400003 -0.0038608401 1.1811117e-38 326 243
0.0090331733 0.736 -0.0038713599 1.1626728e-38 327 243
0.010323626 0.736 -0.0038713599 1.1530607e-38 328 243
0.01161408 0.736 -0.0038713599 1.0885237e-38 329 243
0.012904533 0.736 -0.0038713599 1.125763e-38 330 243
0.014194986 0.736 -0.0038713599 1.2548369e-38 331 243
0.015527519 0.73799998 -0.0038818798 1.208343e-38 332 243
0.016844273 0.73900002 -0.00388714 1.0239518e-38 333 243
0.018213626 0.74199998 -0.0039029196 6.0021313e-39 334 243
0.0195146 0.74199998 -0.0039029196 5.6333487e-39 335 243
0.020815572 0.74199998 -0.0039029196 6.0918242e-39 336 243
0.022176161 0.74400002 -0.0039134403 7.5669557e-39 337 243
0.023543758 0.74599999 -0.0039239596 9.3161377e-39 338 243
0.024851745 0.74599999 -0.0039239596 9.1313877e-39 339 243
0.026159734 0.74599999 -0.0039239596 1.0238422e-38 340 243
0.027578179 0.74900001 -0.0039397399 1.1897584e-38 341 243
0.029122867 0.755 -0.0039712996 1.1622766e-38 342 243
0.030728921 0.76200002 -0.0040081199 1.0977397e-38 343 243
0.032064959 0.76200002 -0.0040081199 1.2818785e-38 344 243
-0.025118252 0.75400001 -0.0052880533 1.2912465e-38 301 244
-0.02379624 0.75400001 -0.0052880533 1.2268556e-38 302 244
-0.022474226 0.75400001 -0.0052880533 1.2360753e-38 303 244
-0.021152213 0.75400001 -0.0052880533 1.2084177e-38 304 244
-0.019830201 0.75400001 -0.0052880533 1.2360405e-38 305 244
-0.018409999 0.75 -0.00526 1.2362206e-38 306 244
-0.017072206 0.74900001 -0.0052529867 1.1624282e-38 307 244
-0.015716879 0.74699998 -0.0052389596 9.6928487e-39 308 244
-0.014387853 0.74599999 -0.0052319462 1.0430414e-38 309 244
-0.013079867 0.74599999 -0.0052319462 1.1533519e-38 310 244
-0.011740319 0.74400002 -0.0052179201 1.1902301e-38 311 244
-0.01043584 0.74400002 -0.0052179201 1.2363275e-38 312 244
-0.009106813 0.74199998 -0.0052038929 1.2455471e-38 313 244
-0.0077953199 0.741 -0.0051968796 1.2732768e-38 314 244
-0.0064960998 0.741 -0.0051968796 1.3378138e-38 315 244
-0.0051828534 0.73900002 -0.0051828534 1.3375591e-38 316 244
-0.0038818798 0.73799998 -0.0051758396 1.1070701e-38 317 244
-0.0025879198 0.73799998 -0.0051758396 9.7871127e-39 318 244
-0.0012904532 0.736 -0.005161813 1.0247732e-38 319 244
0 0.736 -0.005161813 1.1261459e-38 320 244
0.0012904532 0.736 -0.005161813 9.8781663e-39 321 244
0.0025809065 0.736 -0.005161813 8.0403339e-39 322 244
0.0038713599 0.736 -0.005161813 9.1466801e-39 323 244
0.005161813 0.736 -0.005161813 1.1166419e-38 324 244
0.0064522666 0.736 -0.005161813 1.2088015e-38 325 244
0.0077427197 0.736 -0.005161813 1.0706262e-38 326 244
0.0090331733 0.736 -0.005161813 5.08197e-39 327 244
0.010323626 0.736 -0.005161813 4.7225636e-39 328 244
0.01161408 0.736 -0.005161813 6.8430631e-39 329 244
0.012939599 0.73799998 -0.0051758396 9.6888831e-39 330 244
0.014233559 0.73799998 -0.0051758396 1.0149502e-38 331 244
0.01554856 0.73900002 -0.0051828534 9.6845643e-39 332 244
0.016889861 0.741 -0.0051968796 8.4860211e-39 333 244
0.018213626 0.74199998 -0.0052038929 6.459169e-39 334 244
0.0195146 0.74199998 -0.0052038929 6.6435602e-39 335 244
0.02087168 0.74400002 -0.0052179201 6.919787e-39 336 244
0.022176161 0.74400002 -0.0052179201 7.934299e-39 337 244
0.023575317 0.74699998 -0.0052389596 9.6852677e-39 338 244
0.024885058 0.74699998 -0.0052389596 1.0883811e-38 339 244
0.026440267 0.75400001 -0.0052880533 1.1252924e-38 340 244
0.027762281 0.75400001 -0.0052880533 1.1713904e-38 341 244
0.029122867 0.755 -0.0052950666 1.0606819e-38 342 244
0.030728921 0.76200002 -0.0053441599 9.2238846e-39 343 244
0.032064959 0.76200002 -0.0053441599 1.1806078e-38 344 244
-0.025151566 0.755 -0.0066188332 1.3283029e-38 301 245
-0.02379624 0.75400001 -0.0066100666 1.2820645e-38 302 245
-0.022474226 0.75400001 -0.0066100666 1.2451502e-38 303 245
-0.021152213 0.75400001 -0.0066100666 1.1900149e-38 304 245
-0.0198565 0.755 -0.0066188332 1.1992344e-38 305 245
-0.018508185 0.75400001 -0.0066100666 1.1718283e-38 306 245
-0.017095 0.75 -0.006575 1.0888521e-38 307 245
-0.01575896 0.74900001 -0.0065662335 8.7716183e-39 308 245
-0.014407139 0.74699998 -0.0065486995 9.2322377e-39 309 245
-0.013079867 0.74599999 -0.0065399334 1.0703052e-38 310 245
-0.011771879 0.74599999 -0.0065399334 1.116403e-38 311 245
-0.010463892 0.74599999 -0.0065399334 1.1258377e-38 312 245
-0.0091559067 0.74599999 -0.0065399334 1.1534605e-38 313 245
-0.0078268806 0.74400002 -0.0065223998 1.2547304e-38 314 245
-0.0065048663 0.74199998 -0.0065048663 1.3837684e-38 315 245
-0.0051968796 0.741 -0.0064960998 1.4019551e-38 316 245
-0.0038976599 0.741 -0.0064960998 1.1991247e-38 317 245
-0.0025984398 0.741 -0.0064960998 1.1443083e-38 318 245
-0.0012992199 0.741 -0.0064960998 1.2641626e-38 319 245
0 0.73900002 -0.0064785667 1.2273483e-38 320 245
0.0012939599 0.73799998 -0.0064697997 1.0337375e-38 321 245
0.0025879198 0.73799998 -0.0064697997 8.2225952e-39 322 245
0.0038818798 0.73799998 -0.0064697997 9.6055296e-39 323 245
0.0051758396 0.73799998 -0.0064697997 1.199441e-38 324 245
0.0064697997 0.73799998 -0.0064697997 1.2731976e-38 325 245
0.0077637597 0.73799998 -0.0064697997 1.134555e-38 326 245
0.0090577193 0.73799998 -0.0064697997 2.4947695e-39 327 245
0.010351679 0.73799998 -0.0064697997 3.4271781e-39 328 245
0.011645639 0.73799998 -0.0064697997 7.9447639e-39 329 245
0.012939599 0.73799998 -0.0064697997 9.8714793e-39 330 245
0.01429142 0.741 -0.0064960998 8.4881861e-39 331 245
0.015611678 0.74199998 -0.0065048663 7.1967312e-39 332 245
0.016912652 0.74199998 -0.0065048663 6.8275885e-39 333 245
0.018213626 0.74199998 -0.0065048663 7.1956536e-39 334 245
0.019619798 0.74599999 -0.0065399334 7.93322e-39 335 245
0.020955838 0.74699998 -0.0065486995 8.7636842e-39 336 245
0.022265578 0.74699998 -0.0065486995 9.5934448e-39 337 245
0.02363844 0.74900001 -0.0065662335 1.0699047e-38 338 245
0.024951685 0.74900001 -0.0065662335 1.1436612e-38 339 245
0.026475333 0.755 -0.0066188332 1.1346202e-38 340 245
0.027872739 0.75700003 -0.0066363667 1.1253647e-38 341 245
0.029200014 0.75700003 -0.0066363667 9.777071e-39 342 245
0.030728921 0.76200002 -0.0066801999 7.9331598e-39 343 245
-0.023827799 0.755 -0.0079425992 1.2452586e-38 302 246
-0.022504034 0.755 -0.0079425992 1.1345878e-38 303 246
-0.021516906 0.76700002 -0.00806884 1.1438452e-38 304 246
-0.020014299 0.76099998 -0.0080057196 1.1807234e-38 305 246
-0.018581826 0.75700003 -0.0079636406 1.1351658e-38 306 246
-0.017186172 0.75400001 -0.00793208 1.0430061e-38 307 246
-0.01578 0.75 -0.00789 9.5984993e-39 308 246
-0.014445714 0.74900001 -0.0078794798 9.7828906e-39 309 246
-0.013097399 0.74699998 -0.0078584393 1.0150237e-38 310 246
-0.011787659 0.74699998 -0.0078584393 9.6888985e-39 311 246
-0.010477919 0.74699998 -0.0078584393 9.2343887e-39 312 246
-0.0091559067 0.74599999 -0.0078479191 1.0525128e-38 313 246
-0.0078479191 0.74599999 -0.0078479191 1.2362554e-38 314 246
-0.0065223998 0.74400002 -0.0078268806 1.3653292e-38 315 246
-0.0052179201 0.74400002 -0.0078268806 1.3010444e-38 316 246
-0.0039029196 0.74199998 -0.0078058392 1.0889944e-38 317 246
-0.0026019465 0.74199998 -0.0078058392 1.1167954e-38 318 246
-0.0013009732 0.74199998 -0.0078058392 1.2643084e-38 319 246
0 0.741 -0.0077953199 1.3745784e-38 320 246
0.0012992199 0.741 -0.0077953199 1.2823827e-38 321 246
0.0025984398 0.741 -0.0077953199 1.1995844e-38 322 246
0.0039029196 0.74199998 -0.0078058392 1.2088039e-38 323 246
0.0051968796 0.741 -0.0077953199 1.2365017e-38 324 246
0.0064960998 0.741 -0.0077953199 1.356356e-38 325 246
0.0077953199 0.741 -0.0077953199 1.3002187e-38 326 246
0.0090945391 0.741 -0.0077953199 4.0588512e-39 327 246
0.010393759 0.741 -0.0077953199 4.5288369e-39 328 246
0.01169298 0.741 -0.0077953199 8.585446e-39 329 246
0.013009733 0.74199998 -0.0078058392 9.4094221e-39 330 246
0.014310705 0.74199998 -0.0078058392 8.3030746e-39 331 246
0.015716879 0.74699998 -0.0078584393 7.2871304e-39 332 246
0.017003827 0.74599999 -0.0078479191 7.6555542e-39 333 246
0.018311813 0.74599999 -0.0078479191 9.5923658e-39 334 246
0.019646099 0.74699998 -0.0078584393 1.0699074e-38 335 246
0.021011947 0.74900001 -0.0078794798 1.1712123e-38 336 246
0.022355 0.75 -0.00789 1.180432e-38 337 246
0.02379624 0.75400001 -0.00793208 1.1252218e-38 338 246
0.025284819 0.759 -0.0079846792 1.0975991e-38 339 246
0.026615599 0.759 -0.0079846792 1.0330622e-38 340 246
0.027946379 0.759 -0.0079846792 8.9476859e-39 341 246
0.029354304 0.76099998 -0.0080057196 7.9353262e-39 342 246
0.030728921 0.76200002 -0.0080162399 7.9353262e-39 343 246
-0.02433276 0.77100003 -0.0094627403 1.1902284e-38 302 247
-0.022831906 0.76599997 -0.0094013726 1.0242404e-38 303 247
-0.021488851 0.76599997 -0.0094013726 1.0335699e-38 304 247
-0.020093199 0.764 -0.0093768267 1.134949e-38 305 247
-0.018680012 0.76099998 -0.0093400059 1.1259098e-38 306 247
-0.017300138 0.759 -0.00931546 1.0798122e-38 307 247
-0.01586416 0.75400001 -0.0092540924 9.8754449e-39 308 247
-0.014465 0.75 -0.0092049995 9.7828906e-39 309 247
-0.013132467 0.74900001 -0.0091927266 9.9654868e-39 310 247
-0.01181922 0.74900001 -0.0091927266 9.6888985e-39 311 247
-0.010477919 0.74699998 -0.0091681797 8.5875746e-39 312 247
-0.0091681797 0.74699998 -0.0091681797 1.080027e-38 313 247
-0.0078584393 0.74699998 -0.0091681797 1.2546222e-38 314 247
-0.0065486995 0.74699998 -0.0091681797 1.4021352e-38 315 247
-0.0052389596 0.74699998 -0.0091681797 1.3376705e-38 316 247
-0.0039239596 0.74599999 -0.0091559067 1.116401e-38 317 247
-0.00260896 0.74400002 -0.0091313599 1.1534944e-38 318 247
-0.00130448 0.74400002 -0.0091313599 1.3102271e-38 319 247
0 0.74400002 -0.0091313599 1.3653983e-38 320 247
0.00130448 0.74400002 -0.0091313599 1.3469232e-38 321 247
0.0026019465 0.74199998 -0.009106813 1.2916766e-38 322 247
0.0039029196 0.74199998 -0.009106813 1.2824569e-38 323 247
0.0052038929 0.74199998 -0.009106813 1.2824216e-38 324 247
0.0065048663 0.74199998 -0.009106813 1.3469585e-38 325 247
0.0078058392 0.74199998 -0.009106813 1.2545515e-38 326 247
0.009106813 0.74199998 -0.009106813 4.1557131e-39 327 247
0.010407786 0.74199998 -0.009106813 4.2551185e-39 328 247
0.01170876 0.74199998 -0.009106813 7.4819655e-39 329 247
0.0130448 0.74400002 -0.0091313599 7.7549398e-39 330 247
0.014407139 0.74699998 -0.0091681797 7.3865161e-39 331 247
0.015716879 0.74699998 -0.0091681797 8.5807404e-39 332 247
0.017026618 0.74699998 -0.0091681797 9.5026967e-39 333 247
0.018336359 0.74699998 -0.0091681797 1.106748e-38 334 247
0.0196987 0.74900001 -0.0091927266 1.1528457e-38 335 247
0.02104 0.75 -0.0092049995 1.1068903e-38 336 247
0.022414612 0.75199997 -0.0092295464 1.0976707e-38 337 247
0.023827799 0.755 -0.0092663663 1.0883438e-38 338 247
0.025351444 0.76099998 -0.0093400059 1.0238069e-38 339 247
0.026685731 0.76099998 -0.0093400059 9.1342449e-39 340 247
0.028020019 0.76099998 -0.0093400059 7.7513105e-39 341 247
0.029354304 0.76099998 -0.0093400059 8.304466e-39 342 247
0.030809574 0.764 -0.0093768267 9.5030092e-39 343 247
-0.02433276 0.77100003 -0.01081456 1.171931e-38 302 248
-0.022831906 0.76599997 -0.010744425 1.0797714e-38 303 248
-0.021488851 0.76599997 -0.010744425 1.070483e-38 304 248
-0.020145798 0.76599997 -0.010744425 1.0797026e-38 305 248
-0.018753653 0.764 -0.010716373 1.0889235e-38 306 248
-0.017345725 0.76099998 -0.010674292 1.0613007e-38 307 248
-0.015885198 0.755 -0.010590133 1.0243146e-38 308 248
-0.014542146 0.75400001 -0.010576107 1.015095e-38 309 248
-0.01315 0.75 -0.01052 9.9665588e-39 310 248
-0.011835 0.75 -0.01052 9.690332e-39 311 248
-0.010505973 0.74900001 -0.010505973 9.5059337e-39 312 248
-0.0091927266 0.74900001 -0.010505973 1.1534238e-38 313 248
-0.0078794798 0.74900001 -0.010505973 1.2728815e-38 314 248
-0.0065662335 0.74900001 -0.010505973 1.411175e-38 315 248
-0.0052529867 0.74900001 -0.010505973 1.2549466e-38 316 248
-0.0039292197 0.74699998 -0.010477919 1.0705553e-38 317 248
-0.0026194798 0.74699998 -0.010477919 1.153531e-38 318 248
-0.0013079866 0.74599999 -0.010463892 1.2918245e-38 319 248
0 0.74599999 -0.010463892 1.3101178e-38 320 248
0.0013079866 0.74599999 -0.010463892 1.3101178e-38 321 248
0.0026159731 0.74599999 -0.010463892 1.2734541e-38 322 248
0.0039134403 0.74400002 -0.01043584 1.2734541e-38 323 248
0.0052179201 0.74400002 -0.01043584 1.2825664e-38 324 248
0.0065223998 0.74400002 -0.01043584 1.3009696e-38 325 248
0.0078268806 0.74400002 -0.01043584 1.2087046e-38 326 248
0.0091559067 0.74599999 -0.010463892 6.6471447e-39 327 248
0.010463892 0.74599999 -0.010463892 8.2159166e-39 328 248
0.011771879 0.74599999 -0.010463892 9.5988524e-39 329 248
0.013097399 0.74699998 -0.010477919 1.0427514e-38 330 248
0.014445714 0.74900001 -0.010505973 1.0888853e-38 331 248
0.01575896 0.74900001 -0.010505973 1.2081631e-38 332 248
0.017072206 0.74900001 -0.010505973 1.171285e-38 333 248
0.018385453 0.74900001 -0.010505973 1.0976357e-38 334 248
0.019724999 0.75 -0.01052 1.0515379e-38 335 248
0.021096105 0.75199997 -0.010548052 1.0700129e-38 336 248
0.022474226 0.75400001 -0.010576107 1.0884161e-38 337 248
0.02389092 0.75700003 -0.010618187 1.0240237e-38 338 248
0.02538476 0.76200002 -0.01068832 9.4104759e-39 339 248
0.0267208 0.76200002 -0.01068832 9.0380962e-39 340 248
0.028056841 0.76200002 -0.01068832 9.1302919e-39 341 248
0.029392879 0.76200002 -0.01068832 1.0238772e-38 342 248
-0.02433276 0.77100003 -0.01216638 1.1812562e-38 302 249
-0.022861714 0.76700002 -0.01210326 1.1536335e-38 303 249
-0.021516906 0.76700002 -0.01210326 1.1256912e-38 304 249
-0.020172099 0.76700002 -0.01210326 1.0980325e-38 305 249
-0.018802745 0.76599997 -0.012087479 1.052153e-38 306 249
-0.017414106 0.764 -0.01205592 1.0245304e-38 307 249
-0.016011439 0.76099998 -0.012008579 1.0058754e-38 308 249
-0.014600007 0.75700003 -0.01194546 1.015095e-38 309 249
-0.013220133 0.75400001 -0.01189812 1.0058754e-38 310 249
-0.01189812 0.75400001 -0.01189812 9.7825276e-39 311 249
-0.010548052 0.75199997 -0.011866559 9.966193e-39 312 249
-0.0092049995 0.75 -0.011835 1.171755e-38 313 249
-0.00789 0.75 -0.011835 1.2728818e-38 314 249
-0.006575 0.75 -0.011835 1.4019557e-38 315 249
-0.00526 0.75 -0.011835 1.1997018e-38 316 249
-0.0039397399 0.74900001 -0.01181922 1.0245301e-38 317 249
-0.0026194798 0.74699998 -0.011787659 1.107578e-38 318 249
-0.0013097399 0.74699998 -0.011787659 1.2182128e-38 319 249
0 0.74900001 -0.01181922 1.264057e-38 320 249
0.0013097399 0.74699998 -0.011787659 1.264057e-38 321 249
0.0026194798 0.74699998 -0.011787659 1.2641639e-38 322 249
0.0039239596 0.74599999 -0.011771879 1.2641639e-38 323 249
0.0052319462 0.74599999 -0.011771879 1.2824232e-38 324 249
0.0065399334 0.74599999 -0.011771879 1.2916428e-38 325 249
0.0078584393 0.74699998 -0.011787659 1.2546575e-38 326 249
0.0091681797 0.74699998 -0.011787659 9.9650972e-39 327 249
0.010477919 0.74699998 -0.011787659 1.0885258e-38 328 249
0.01181922 0.74900001 -0.01181922 1.1345878e-38 329 249
0.01315 0.75 -0.011835 1.1255114e-38 330 249
0.014465 0.75 -0.011835 1.1255114e-38 331 249
0.01578 0.75 -0.011835 1.1621729e-38 332 249
0.017095 0.75 -0.011835 1.1160751e-38 333 249
0.018409999 0.75 -0.011835 1.0423905e-38 334 249
0.0197776 0.75199997 -0.011866559 1.0147319e-38 335 249
0.021152213 0.75400001 -0.01189812 1.0149476e-38 336 249
0.022831906 0.76599997 -0.012087479 1.0149476e-38 337 249
0.024174958 0.76599997 -0.012087479 9.9647287e-39 338 249
0.025518013 0.76599997 -0.012087479 9.0424122e-39 339 249
0.026861066 0.76599997 -0.012087479 8.4892258e-39 340 249
0.02824094 0.76700002 -0.01210326 9.687769e-39 341 249
0.029585747 0.76700002 -0.01210326 1.1252906e-38 342 249
-0.022861714 0.76700002 -0.013448066 1.1995862e-38 303 250
-0.021516906 0.76700002 -0.013448066 1.1626045e-38 304 250
-0.0202247 0.76899999 -0.013483133 1.1441295e-38 305 250
-0.018827293 0.76700002 -0.013448066 1.1073617e-38 306 250
-0.017414106 0.764 -0.013395466 1.079667e-38 307 250
-0.01603248 0.76200002 -0.0133604 9.5984965e-39 308 250
-0.014677152 0.76099998 -0.013342866 9.5984965e-39 309 250
-0.013272733 0.75700003 -0.013272733 1.0058036e-38 310 250
-0.011913899 0.755 -0.013237666 1.0058036e-38 311 250
-0.010576107 0.75400001 -0.013220133 1.0334615e-38 312 250
-0.0092049995 0.75 -0.01315 1.171755e-38 313 250
-0.00789 0.75 -0.01315 1.263842e-38 314 250
-0.0065925326 0.75199997 -0.013185065 1.3652573e-38 315 250
-0.0052740262 0.75199997 -0.013185065 1.1721873e-38 316 250
-0.003945 0.75 -0.01315 1.0154906e-38 317 250
-0.0026264933 0.74900001 -0.013132467 1.0708443e-38 318 250
-0.0013132467 0.74900001 -0.013132467 1.1169421e-38 319 250
0 0.74900001 -0.013132467 1.2087765e-38 320 250
0.0013132467 0.74900001 -0.013132467 1.2272156e-38 321 250
0.0026264933 0.74900001 -0.013132467 1.1996998e-38 322 250
0.0039397399 0.74900001 -0.013132467 1.1996998e-38 323 250
0.0052529867 0.74900001 -0.013132467 1.2179592e-38 324 250
0.0065662335 0.74900001 -0.013132467 1.2179592e-38 325 250
0.0078794798 0.74900001 -0.013132467 1.1810089e-38 326 250
0.0092049995 0.75 -0.01315 1.0426796e-38 327 250
0.01052 0.75 -0.01315 1.0610467e-38 328 250
0.011866559 0.75199997 -0.013185065 1.0702662e-38 329 250
0.013185065 0.75199997 -0.013185065 1.0610467e-38 330 250
0.014503572 0.75199997 -0.013185065 1.0517912e-38 331 250
0.015822079 0.75199997 -0.013185065 1.0516475e-38 332 250
0.017140586 0.75199997 -0.013185065 1.0424277e-38 333 250
0.018459093 0.75199997 -0.013185065 9.9650972e-39 334 250
0.019830201 0.75400001 -0.013220133 1.0057293e-38 335 250
0.021180267 0.755 -0.013237666 9.8750498e-39 336 250
0.022772292 0.764 -0.013395466 9.6902998e-39 337 250
0.024174958 0.76599997 -0.013430533 9.5041064e-39 338 250
0.025551327 0.76700002 -0.013448066 9.2271608e-39 339 250
0.026896132 0.76700002 -0.013448066 1.0055107e-38 340 250
0.02824094 0.76700002 -0.013448066 1.0884509e-38 341 250
0.029585747 0.76700002 -0.013448066 1.1898261e-38 342 250
-0.021573013 0.76899999 -0.014831445 1.0615468e-38 304 251
-0.0202247 0.76899999 -0.014831445 1.1076446e-38 305 251
-0.018827293 0.76700002 -0.014792874 1.3006831e-38 306 251
-0.017459691 0.76599997 -0.014773586 1.2084875e-38 307 251
-0.016074561 0.764 -0.014735013 1.0794153e-38 308 251
-0.01469644 0.76200002 -0.01469644 1.0056587e-38 309 251
-0.013342866 0.76099998 -0.014677152 9.6888929e-39 310 251
-0.01197702 0.759 -0.014638579 9.6888929e-39 311 251
-0.010590133 0.755 -0.014561433 9.7828808e-39 312 251
-0.0092540924 0.75400001 -0.014542146 1.1442042e-38 313 251
-0.00793208 0.75400001 -0.014542146 1.2363275e-38 314 251
-0.0066100666 0.75400001 -0.014542146 1.3008645e-38 315 251
-0.0052880533 0.75400001 -0.014542146 1.1446361e-38 316 251
-0.00396604 0.75400001 -0.014542146 1.06166e-38 317 251
-0.0026370131 0.75199997 -0.014503572 1.0708443e-38 318 251
-0.0013185065 0.75199997 -0.014503572 1.0708443e-38 319 251
0 0.75199997 -0.014503572 1.0525483e-38 320 251
0.0013185065 0.75199997 -0.014503572 1.0617679e-38 321 251
0.00263 0.75 -0.014465 1.0525834e-38 322 251
0.003945 0.75 -0.014465 1.0525834e-38 323 251
0.0052529867 0.74900001 -0.014445714 1.0891377e-38 324 251
0.0065662335 0.74900001 -0.014445714 1.0798822e-38 325 251
0.0079110395 0.75199997 -0.014503572 1.0706629e-38 326 251
0.0092295464 0.75199997 -0.014503572 9.3236935e-39 327 251
0.010548052 0.75199997 -0.014503572 1.0149858e-38 328 251
0.011866559 0.75199997 -0.014503572 1.033425e-38 329 251
0.013185065 0.75199997 -0.014503572 1.0426798e-38 330 251
0.014542146 0.75400001 -0.014542146 1.0334603e-38 331 251
0.01586416 0.75400001 -0.014542146 1.0335322e-38 332 251
0.017186172 0.75400001 -0.014542146 9.8743449e-39 333 251
0.018532733 0.755 -0.014561433 7.7592404e-39 334 251
0.019909101 0.75700003 -0.014600007 8.588641e-39 335 251
0.021348584 0.76099998 -0.014677152 1.0703015e-38 336 251
0.022772292 0.764 -0.014735013 1.0703015e-38 337 251
0.024206521 0.76700002 -0.014792874 1.1069259e-38 338 251
0.025551327 0.76700002 -0.014792874 1.0700476e-38 339 251
0.026896132 0.76700002 -0.014792874 1.0885567e-38 340 251
0.028314579 0.76899999 -0.014831445 1.0885567e-38 341 251
0.02966289 0.76899999 -0.014831445 1.1991174e-38 342 251
-0.021685226 0.773 -0.016263919 1.0892017e-38 304 252
-0.0203299 0.773 -0.016263919 1.1352994e-38 305 252
-0.018974574 0.773 -0.016263919 1.3561782e-38 306 252
-0.017459691 0.76599997 -0.016116638 1.3285194e-38 307 252
-0.016074561 0.764 -0.016074561 1.1900484e-38 308 252
-0.014735013 0.764 -0.016074561 1.0978167e-38 309 252
-0.0133604 0.76200002 -0.01603248 9.6906823e-39 310 252
-0.012008579 0.76099998 -0.016011439 9.3215397e-39 311 252
-0.01064624 0.759 -0.015969358 8.8630825e-39 312 252
-0.0092663663 0.755 -0.015885198 1.0891386e-38 313 252
-0.0079425992 0.755 -0.015885198 1.1444916e-38 314 252
-0.0066188332 0.755 -0.015885198 1.1813699e-38 315 252
-0.0052950666 0.755 -0.015885198 1.098575e-38 316 252
-0.00396604 0.75400001 -0.01586416 1.034038e-38 317 252
-0.0026440267 0.75400001 -0.01586416 9.6049817e-39 318 252
-0.0013220133 0.75400001 -0.01586416 9.5127861e-39 319 252
0 0.75400001 -0.01586416 9.2383572e-39 320 252
0.0013220133 0.75400001 -0.01586416 9.2383572e-39 321 252
0.0026440267 0.75400001 -0.01586416 9.6978878e-39 322 252
0.00396604 0.75400001 -0.01586416 9.605332e-39 323 252
0.0052880533 0.75400001 -0.01586416 9.5127707e-39 324 252
0.0066100666 0.75400001 -0.01586416 9.3283794e-39 325 252
0.0079425992 0.755 -0.015885198 1.0246017e-38 326 252
0.0092663663 0.755 -0.015885198 9.6006475e-39 327 252
0.010590133 0.755 -0.015885198 9.4176912e-39 328 252
0.011913899 0.755 -0.015885198 9.4176912e-39 329 252
0.013237666 0.755 -0.015885198 9.6017195e-39 330 252
0.014561433 0.755 -0.015885198 9.4176884e-39 331 252
0.015885198 0.755 -0.015885198 1.0427517e-38 332 252
0.017208965 0.755 -0.015885198 9.9665405e-39 333 252
0.018581826 0.75700003 -0.015927281 6.4688674e-39 334 252
0.0199617 0.759 -0.015969358 6.8376485e-39 335 252
0.02137664 0.76200002 -0.01603248 1.0885253e-38 336 252
0.022831906 0.76599997 -0.016116638 1.1438427e-38 337 252
0.024206521 0.76700002 -0.01613768 1.1346915e-38 338 252
0.025551327 0.76700002 -0.01613768 1.0886297e-38 339 252
0.026966266 0.76899999 -0.016179759 1.0612556e-38 340 252
0.028314579 0.76899999 -0.016179759 1.0704752e-38 341 252
-0.0203299 0.773 -0.017619247 1.1719252e-38 305 253
-0.018974574 0.773 -0.017619247 1.2643043e-38 306 253
-0.017482487 0.76700002 -0.017482487 1.3288412e-38 307 253
-0.016116638 0.76599997 -0.017459691 1.3652548e-38 308 253
-0.014773586 0.76599997 -0.017459691 1.2914982e-38 309 253
-0.013395466 0.764 -0.017414106 1.1992682e-38 310 253
-0.01202436 0.76200002 -0.01736852 1.1070367e-38 311 253
-0.010674292 0.76099998 -0.017345725 1.0244572e-38 312 253
