# .PCD v.7 - Point Cloud Data file format
FIELDS x y z rgb imX imY
SIZE 4 4 4 4 4 4
TYPE F F F F F F
COUNT 1 1 1 1 1 1
WIDTH 840
HEIGHT 1
VIEWPOINT 0 0 0 1 0 0 0
POINTS 840
DATA ascii
-0.0012168133 0.69400001 0.019469013 8.7596162e-39 319 224
0 0.69400001 0.019469013 8.8510958e-39 320 224
0.0012203199 0.69599998 0.019525118 9.1273225e-39 321 224
0.0024406398 0.69599998 0.019525118 8.7610511e-39 322 224
0.00366622 0.69700003 0.019553173 8.9450822e-39 323 224
0.0048953067 0.69800001 0.019581227 8.7628392e-39 324 224
0.006119133 0.69800001 0.019581227 8.7628392e-39 325 224
0.0073639993 0.69999999 0.019637333 9.4049856e-39 326 224
0.0086036054 0.70099998 0.019665385 9.6819312e-39 327 224
0.0098186666 0.69999999 0.019637333 1.032335e-38 328 224
0.011045999 0.69999999 0.019637333 1.0046765e-38 329 224
-0.050536323 0.70300001 0.018488899 1.0604668e-38 279 225
-0.049093332 0.69999999 0.018409999 9.3150012e-39 280 225
-0.047729239 0.69800001 0.0183574 9.0384157e-39 281 225
-0.046505414 0.69800001 0.0183574 7.3820992e-39 282 225
-0.045281585 0.69800001 0.0183574 7.2895434e-39 283 225
-0.043994639 0.69700003 0.018331099 7.1080038e-39 284 225
-0.042711195 0.69599998 0.018304799 7.0158082e-39 285 225
-0.041371655 0.69400001 0.0182522 7.293809e-39 286 225
-0.04009698 0.69300002 0.018225901 7.6622313e-39 287 225
-0.03888192 0.69300002 0.018225901 7.6646976e-39 288 225
-0.037666857 0.69300002 0.018225901 7.2959151e-39 289 225
-0.036346599 0.69099998 0.0181733 7.0207519e-39 290 225
-0.035135046 0.69099998 0.0181733 6.928199e-39 291 225
-0.033923492 0.69099998 0.0181733 6.9285577e-39 292 225
-0.032664597 0.69 0.018146999 6.9285577e-39 293 225
-0.031454802 0.69 0.018146999 6.7441692e-39 294 225
-0.030244999 0.69 0.018146999 6.7441692e-39 295 225
-0.028951041 0.68800002 0.0180944 6.7441692e-39 296 225
-0.027744746 0.68800002 0.0180944 6.651975e-39 297 225
-0.026499879 0.68699998 0.018068098 6.8345698e-39 298 225
-0.025295338 0.68699998 0.018068098 6.8345698e-39 299 225
-0.024090799 0.68699998 0.018068098 7.0178821e-39 300 225
-0.022886258 0.68699998 0.018068098 7.1100763e-39 301 225
-0.021713281 0.68800002 0.0180944 7.4781358e-39 302 225
-0.020506985 0.68800002 0.0180944 7.57033e-39 303 225
-0.019300694 0.68800002 0.0180944 7.8444015e-39 304 225
-0.0180944 0.68800002 0.0180944 8.2131827e-39 305 225
-0.01686356 0.68699998 0.018068098 9.0397386e-39 306 225
-0.015659019 0.68699998 0.018068098 9.1319342e-39 307 225
-0.014454478 0.68699998 0.018068098 9.9573859e-39 308 225
-0.013269227 0.68800002 0.0180944 9.6804388e-39 309 225
-0.012045399 0.68699998 0.018068098 9.7722659e-39 310 225
-0.010840859 0.68699998 0.018068098 1.0233244e-38 311 225
-0.0096503468 0.68800002 0.0180944 1.0326185e-38 312 225
-0.0084440531 0.68800002 0.0180944 1.0879358e-38 313 225
-0.0072587994 0.69 0.018146999 1.023149e-38 314 225
-0.0060489997 0.69 0.018146999 9.4935659e-39 315 225
-0.0048462129 0.69099998 0.0181733 8.3915399e-39 316 225
-0.0036346598 0.69099998 0.0181733 8.2071487e-39 317 225
-0.00243012 0.69300002 0.018225901 8.574855e-39 318 225
-0.0012168133 0.69400001 0.0182522 8.7592477e-39 319 225
0 0.69400001 0.0182522 8.4844418e-39 320 225
0.0012203199 0.69599998 0.018304799 8.4844418e-39 321 225
0.0024406398 0.69599998 0.018304799 8.2110737e-39 322 225
0.00366622 0.69700003 0.018331099 8.3032693e-39 323 225
0.0048882933 0.69700003 0.018331099 7.9359288e-39 324 225
0.0061103669 0.69700003 0.018331099 7.567505e-39 325 225
0.0073429602 0.69800001 0.0183574 6.7406506e-39 326 225
0.0086036054 0.70099998 0.018436298 7.4782156e-39 327 225
0.0098326923 0.70099998 0.018436298 9.7723416e-39 328 225
0.011061779 0.70099998 0.018436298 1.0049289e-38 329 225
-0.053981625 0.71600002 0.017575413 1.5950214e-38 277 226
-0.052726239 0.71600002 0.017575413 1.3370534e-38 278 226
-0.051470853 0.71600002 0.017575413 1.0789057e-38 279 226
-0.049093332 0.69999999 0.017182667 1.0050766e-38 280 226
-0.047865998 0.69999999 0.017182667 9.4053962e-39 281 226
-0.046505414 0.69800001 0.017133573 7.6572567e-39 282 226
-0.045281585 0.69800001 0.017133573 7.6572567e-39 283 226
-0.043994639 0.69700003 0.017109027 7.2902497e-39 284 226
-0.042772565 0.69700003 0.017109027 7.2902497e-39 285 226
-0.041490879 0.69599998 0.017084479 7.0179409e-39 286 226
-0.040154841 0.69400001 0.017035386 7.2945278e-39 287 226
-0.03888192 0.69300002 0.01701084 7.4795805e-39 288 226
-0.037666857 0.69300002 0.01701084 7.2033537e-39 289 226
-0.036346599 0.69099998 0.016961746 7.0207519e-39 290 226
-0.035135046 0.69099998 0.016961746 6.744528e-39 291 226
-0.033923492 0.69099998 0.016961746 6.6526925e-39 292 226
-0.032711938 0.69099998 0.016961746 6.6526925e-39 293 226
-0.031500384 0.69099998 0.016961746 6.4693802e-39 294 226
-0.030288832 0.69099998 0.016961746 6.377186e-39 295 226
-0.029035198 0.69 0.0169372 6.3761098e-39 296 226
-0.027744746 0.68800002 0.016888106 6.2839156e-39 297 226
-0.026538454 0.68800002 0.016888106 6.6498226e-39 298 226
-0.025295338 0.68699998 0.01686356 6.6498226e-39 299 226
-0.024090799 0.68699998 0.01686356 6.7420169e-39 300 226
-0.022886258 0.68699998 0.01686356 6.926764e-39 301 226
-0.021713281 0.68800002 0.016888106 7.4770596e-39 302 226
-0.020506985 0.68800002 0.016888106 7.8454777e-39 303 226
-0.019300694 0.68800002 0.016888106 8.6720322e-39 304 226
-0.0180944 0.68800002 0.016888106 9.3174016e-39 305 226
-0.016888106 0.68800002 0.016888106 9.7755506e-39 306 226
-0.015681813 0.68800002 0.016888106 1.0236169e-38 307 226
-0.014475521 0.68800002 0.016888106 1.1062699e-38 308 226
-0.013269227 0.68800002 0.016888106 1.0785752e-38 309 226
-0.012062933 0.68800002 0.016888106 1.0325129e-38 310 226
-0.010856641 0.68800002 0.016888106 1.0878301e-38 311 226
-0.0096503468 0.68800002 0.016888106 1.1063418e-38 312 226
-0.0084440531 0.68800002 0.016888106 9.6804837e-39 313 226
-0.0072587994 0.69 0.0169372 8.3911616e-39 314 226
-0.0060577663 0.69099998 0.016961746 7.561761e-39 315 226
-0.00486024 0.69300002 0.01701084 7.0103809e-39 316 226
-0.0036451798 0.69300002 0.01701084 7.6557503e-39 317 226
-0.00243012 0.69300002 0.01701084 8.6684771e-39 318 226
-0.0012168133 0.69400001 0.017035386 8.945064e-39 319 226
0 0.69400001 0.017035386 8.4818957e-39 320 226
0.0012203199 0.69599998 0.017084479 8.7588427e-39 321 226
0.0024406398 0.69599998 0.017084479 7.9358937e-39 322 226
0.00366622 0.69700003 0.017109027 7.9358937e-39 323 226
0.0048882933 0.69700003 0.017109027 7.5685742e-39 324 226
0.0061103669 0.69700003 0.017109027 7.384543e-39 325 226
0.0073429602 0.69800001 0.017133573 6.5562425e-39 326 226
0.0086036054 0.70099998 0.017207211 6.9246663e-39 327 226
0.0098607466 0.70300001 0.017256306 8.3036771e-39 328 226
-0.053981625 0.71600002 0.016320027 1.5766899e-38 277 227
-0.052726239 0.71600002 0.016320027 1.3737517e-38 278 227
-0.051470853 0.71600002 0.016320027 1.1340432e-38 279 227
-0.050215468 0.71600002 0.016320027 1.0970924e-38 280 227
-0.047865998 0.69999999 0.015955333 9.8649352e-39 281 227
-0.046638668 0.69999999 0.015955333 7.7483832e-39 282 227
-0.045281585 0.69800001 0.015909746 7.6561875e-39 283 227
-0.04405776 0.69800001 0.015909746 7.3824621e-39 284 227
-0.042772565 0.69700003 0.015886955 7.198431e-39 285 227
-0.041490879 0.69599998 0.015864158 7.2001868e-39 286 227
-0.040154841 0.69400001 0.015818574 7.476415e-39 287 227
-0.038938027 0.69400001 0.015818574 7.1111679e-39 288 227
-0.037666857 0.69300002 0.015795778 7.1111679e-39 289 227
-0.036451802 0.69300002 0.015795778 6.5615745e-39 290 227
-0.035135046 0.69099998 0.015750192 6.4693802e-39 291 227
-0.033923492 0.69099998 0.015750192 6.6526925e-39 292 227
-0.032711938 0.69099998 0.015750192 6.6526925e-39 293 227
-0.031500384 0.69099998 0.015750192 6.4693802e-39 294 227
-0.030288832 0.69099998 0.015750192 6.284633e-39 295 227
-0.029035198 0.69 0.015727401 6.5583459e-39 296 227
-0.027744746 0.68800002 0.015681813 6.4661516e-39 297 227
-0.026538454 0.68800002 0.015681813 6.6487464e-39 298 227
-0.02533216 0.68800002 0.015681813 6.6487464e-39 299 227
-0.024125867 0.68800002 0.015681813 6.9253291e-39 300 227
-0.022919573 0.68800002 0.015681813 7.1097176e-39 301 227
-0.021713281 0.68800002 0.015681813 7.8458659e-39 302 227
-0.020506985 0.68800002 0.015681813 9.1366047e-39 303 227
-0.019300694 0.68800002 0.015681813 1.0605324e-38 304 227
-0.0180944 0.68800002 0.015681813 1.1158498e-38 305 227
-0.016888106 0.68800002 0.015681813 1.1432236e-38 306 227
-0.015681813 0.68800002 0.015681813 1.1524431e-38 307 227
-0.014475521 0.68800002 0.015681813 1.207544e-38 308 227
-0.013269227 0.68800002 0.015681813 1.1245679e-38 309 227
-0.012062933 0.68800002 0.015681813 1.0323698e-38 310 227
-0.010856641 0.68800002 0.015681813 9.2177105e-39 311 227
-0.0096503468 0.68800002 0.015681813 7.7457922e-39 312 227
-0.0084440531 0.68800002 0.015681813 5.4412602e-39 313 227
-0.0072693196 0.69099998 0.015750192 3.6056194e-39 314 227
-0.0060577663 0.69099998 0.015750192 4.80415e-39 315 227
-0.00486024 0.69300002 0.015795778 7.5617638e-39 316 227
-0.0036451798 0.69300002 0.015795778 8.760307e-39 317 227
-0.0024336267 0.69400001 0.015818574 1.0600645e-38 318 227
-0.0012203199 0.69599998 0.015864158 1.0692841e-38 319 227
0 0.69599998 0.015864158 9.769064e-39 320 227
0.0012220733 0.69700003 0.015886955 9.6768683e-39 321 227
0.0024441467 0.69700003 0.015886955 7.9362623e-39 322 227
0.0036714801 0.69800001 0.015909746 7.8440666e-39 323 227
0.0048882933 0.69700003 0.015886955 7.4767134e-39 324 227
0.0061103669 0.69700003 0.015886955 7.3845178e-39 325 227
0.0073429602 0.69800001 0.015909746 7.3830941e-39 326 227
0.0086036054 0.70099998 0.015978126 7.2908985e-39 327 227
0.0099028256 0.70599997 0.016092092 7.843408e-39 328 227
0.011251139 0.713 0.016251646 9.3185381e-39 329 227
0.012501267 0.713 0.016251646 1.3642785e-38 330 227
-0.053981625 0.71600002 0.01506464 1.5858014e-38 277 228
-0.052578956 0.71399999 0.015022559 1.3829713e-38 278 228
-0.05132708 0.71399999 0.015022559 1.1432628e-38 279 228
-0.050005067 0.713 0.015001519 1.0787615e-38 280 228
-0.047865998 0.69999999 0.014727999 9.9574938e-39 281 228
-0.046638668 0.69999999 0.014727999 8.0238911e-39 282 228
-0.04541133 0.69999999 0.014727999 7.9316954e-39 283 228
-0.04405776 0.69800001 0.01468592 7.7494397e-39 284 228
-0.042833932 0.69800001 0.01468592 7.5646884e-39 285 228
-0.041550495 0.69700003 0.01466488 7.0168675e-39 286 228
-0.040270556 0.69599998 0.014643839 7.1090632e-39 287 228
-0.038938027 0.69400001 0.01460176 6.7438175e-39 288 228
-0.037721213 0.69400001 0.01460176 6.8360132e-39 289 228
-0.036451802 0.69300002 0.014580719 6.6526925e-39 290 228
-0.035236739 0.69300002 0.014580719 6.6526925e-39 291 228
-0.033923492 0.69099998 0.014538639 6.6526925e-39 292 228
-0.032711938 0.69099998 0.014538639 6.6526925e-39 293 228
-0.031500384 0.69099998 0.014538639 6.3768273e-39 294 228
-0.030288832 0.69099998 0.014538639 6.1924388e-39 295 228
-0.029035198 0.69 0.014517599 6.6494639e-39 296 228
-0.027825398 0.69 0.014517599 6.5572697e-39 297 228
-0.026615599 0.69 0.014517599 6.6494639e-39 298 228
-0.02533216 0.68800002 0.014475521 6.7416581e-39 299 228
-0.024125867 0.68800002 0.014475521 7.1097176e-39 300 228
-0.022919573 0.68800002 0.014475521 7.386659e-39 301 228
-0.021776399 0.69 0.014517599 9.0415532e-39 302 228
-0.020506985 0.68800002 0.014475521 1.0424488e-38 303 228
-0.019300694 0.68800002 0.014475521 1.1432236e-38 304 228
-0.018146999 0.69 0.014517599 1.1524431e-38 305 228
-0.0169372 0.69 0.014517599 1.1616284e-38 306 228
-0.015681813 0.68800002 0.014475521 1.1431532e-38 307 228
-0.014475521 0.68800002 0.014475521 1.0786503e-38 308 228
-0.013269227 0.68800002 0.014475521 9.5879601e-39 309 228
-0.012062933 0.68800002 0.014475521 8.2993415e-39 310 228
-0.010856641 0.68800002 0.014475521 7.4695808e-39 311 228
-0.0096503468 0.68800002 0.014475521 6.2742452e-39 312 228
-0.0084686 0.69 0.014517599 5.0757048e-39 313 228
-0.0072693196 0.69099998 0.014538639 4.4314214e-39 314 228
-0.0060753003 0.69300002 0.014580719 5.4459307e-39 315 228
-0.0048672534 0.69400001 0.01460176 7.5642974e-39 316 228
-0.0036504399 0.69400001 0.01460176 9.2241775e-39 317 228
-0.0024406398 0.69599998 0.014643839 1.0875802e-38 318 228
-0.0012203199 0.69599998 0.014643839 1.1152391e-38 319 228
0 0.69599998 0.014643839 1.0507704e-38 320 228
0.0012220733 0.69700003 0.01466488 1.0138923e-38 321 228
0.0024476533 0.69800001 0.01468592 8.8542599e-39 322 228
0.0036714801 0.69800001 0.01468592 8.6698672e-39 323 228
0.0048953067 0.69800001 0.01468592 7.8433478e-39 324 228
0.006119133 0.69800001 0.01468592 7.7511521e-39 325 228
0.0073429602 0.69800001 0.01468592 7.7508144e-39 326 228
0.0086649731 0.70599997 0.014854239 7.9355644e-39 327 228
0.0099168532 0.70700002 0.01487528 8.9432942e-39 328 228
0.011251139 0.713 0.015001519 9.9570874e-39 329 228
0.012501267 0.713 0.015001519 1.318253e-38 330 228
0.01377068 0.71399999 0.015022559 1.530303e-38 331 228
-0.05508272 0.71399999 0.01377068 1.5490311e-38 276 229
-0.053830836 0.71399999 0.01377068 1.5674702e-38 277 229
-0.052578956 0.71399999 0.01377068 1.3738601e-38 278 229
-0.05132708 0.71399999 0.01377068 1.1617741e-38 279 229
-0.050005067 0.713 0.013751393 1.0419554e-38 280 229
-0.048618179 0.71100003 0.01371282 9.7741843e-39 281 229
-0.046705291 0.70099998 0.013519952 8.3926722e-39 282 229
-0.04541133 0.69999999 0.013500666 8.1160867e-39 283 229
-0.04405776 0.69800001 0.013462093 7.7501586e-39 284 229
-0.042833932 0.69800001 0.013462093 7.5654072e-39 285 229
-0.041550495 0.69700003 0.013442807 7.0157927e-39 286 229
-0.040270556 0.69599998 0.013423519 7.1079884e-39 287 229
-0.039050236 0.69599998 0.013423519 6.7434616e-39 288 229
-0.037721213 0.69400001 0.013384946 6.7434616e-39 289 229
-0.036504399 0.69400001 0.013384946 6.7448867e-39 290 229
-0.035236739 0.69300002 0.01336566 6.6526925e-39 291 229
-0.034021679 0.69300002 0.01336566 6.6526925e-39 292 229
-0.032711938 0.69099998 0.013327086 6.5604983e-39 293 229
-0.031500384 0.69099998 0.013327086 6.3761098e-39 294 229
-0.030288832 0.69099998 0.013327086 6.2839156e-39 295 229
-0.029077278 0.69099998 0.013327086 6.6494639e-39 296 229
-0.027825398 0.69 0.0133078 6.6494639e-39 297 229
-0.026615599 0.69 0.0133078 7.0171646e-39 298 229
-0.025405798 0.69 0.0133078 7.1097176e-39 299 229
-0.024195999 0.69 0.0133078 7.5696125e-39 300 229
-0.022986198 0.69 0.0133078 8.0305893e-39 301 229
-0.021776399 0.69 0.0133078 1.0237958e-38 302 229
-0.020566599 0.69 0.0133078 1.1528697e-38 303 229
-0.019356798 0.69 0.0133078 1.1707749e-38 304 229
-0.018146999 0.69 0.0133078 1.1338968e-38 305 229
-0.0169372 0.69 0.0133078 1.1064532e-38 306 229
-0.015727401 0.69 0.0133078 1.0234411e-38 307 229
-0.014517599 0.69 0.0133078 7.9312848e-39 308 229
-0.0133078 0.69 0.0133078 6.7327417e-39 309 229
-0.012097999 0.69 0.0133078 5.5370431e-39 310 229
-0.010888199 0.69 0.0133078 5.6295989e-39 311 229
-0.0096783992 0.69 0.0133078 6.2728103e-39 312 229
-0.0085054198 0.69300002 0.01336566 5.9965835e-39 313 229
-0.0072903596 0.69300002 0.01336566 5.6263717e-39 314 229
-0.0060753003 0.69300002 0.01336566 6.7327192e-39 315 229
-0.0048672534 0.69400001 0.013384946 9.1276728e-39 316 229
-0.0036609597 0.69599998 0.013423519 1.0603162e-38 317 229
-0.0024406398 0.69599998 0.013423519 1.078398e-38 318 229
-0.0012220733 0.69700003 0.013442807 1.0691784e-38 319 229
0 0.69700003 0.013442807 1.0601011e-38 320 229
0.0012238267 0.69800001 0.013462093 1.0140033e-38 321 229
0.0024476533 0.69800001 0.013462093 9.3116759e-39 322 229
0.0036819996 0.69999999 0.013500666 9.2194803e-39 323 229
0.0049093333 0.69999999 0.013500666 8.3940188e-39 324 229
0.0061366665 0.69999999 0.013500666 8.4862145e-39 325 229
0.0073745195 0.70099998 0.013519952 9.129814e-39 326 229
0.008677247 0.70700002 0.013635674 9.5904334e-39 327 229
0.0099589331 0.70999998 0.013693533 9.5861595e-39 328 229
0.011266919 0.71399999 0.01377068 9.5861595e-39 329 229
0.012518799 0.71399999 0.01377068 1.2813751e-38 330 229
0.01377068 0.71399999 0.01377068 1.5395228e-38 331 229
0.01506464 0.71600002 0.013809253 1.5210481e-38 332 229
-0.05508272 0.71399999 0.012518799 1.5490311e-38 276 230
-0.053830836 0.71399999 0.012518799 1.5674702e-38 277 230
-0.052578956 0.71399999 0.012518799 1.3830793e-38 278 230
-0.05132708 0.71399999 0.012518799 1.1986521e-38 279 230
-0.050005067 0.713 0.012501267 9.867103e-39 280 230
-0.048618179 0.71100003 0.0124662 9.4983205e-39 281 230
-0.046705291 0.70099998 0.012290866 8.9451271e-39 282 230
-0.045476202 0.70099998 0.012290866 8.4841489e-39 283 230
-0.044183996 0.69999999 0.012273333 8.1171433e-39 284 230
-0.042833932 0.69800001 0.012238266 7.840555e-39 285 230
-0.041550495 0.69700003 0.012220734 7.0165144e-39 286 230
-0.040328421 0.69700003 0.012220734 6.9243188e-39 287 230
-0.039050236 0.69599998 0.0122032 6.7431085e-39 288 230
-0.037721213 0.69400001 0.012168133 6.7431085e-39 289 230
-0.036504399 0.69400001 0.012168133 6.7448867e-39 290 230
-0.035236739 0.69300002 0.012150601 6.6526925e-39 291 230
-0.034021679 0.69300002 0.012150601 6.7441692e-39 292 230
-0.03280662 0.69300002 0.012150601 6.4675866e-39 293 230
-0.031591557 0.69300002 0.012150601 6.5569109e-39 294 230
-0.030288832 0.69099998 0.012115533 6.4647167e-39 295 230
-0.029077278 0.69099998 0.012115533 6.8317e-39 296 230
-0.027865725 0.69099998 0.012115533 6.9238942e-39 297 230
-0.026654173 0.69099998 0.012115533 7.110435e-39 298 230
-0.025405798 0.69 0.012097999 7.110435e-39 299 230
-0.024195999 0.69 0.012097999 7.4781582e-39 300 230
-0.022986198 0.69 0.012097999 8.6767014e-39 301 230
-0.021807959 0.69099998 0.012115533 1.0697522e-38 302 230
-0.020566599 0.69 0.012097999 1.1527643e-38 303 230
-0.019356798 0.69 0.012097999 1.1616997e-38 304 230
-0.018146999 0.69 0.012097999 1.1156377e-38 305 230
-0.0169372 0.69 0.012097999 9.4064359e-39 306 230
-0.015727401 0.69 0.012097999 7.6547204e-39 307 230
-0.014517599 0.69 0.012097999 6.1809902e-39 308 230
-0.0133078 0.69 0.012097999 6.0887946e-39 309 230
-0.012097999 0.69 0.012097999 5.9047382e-39 310 230
-0.010888199 0.69 0.012097999 6.0891295e-39 311 230
-0.0096924258 0.69099998 0.012115533 6.0898483e-39 312 230
-0.0085054198 0.69300002 0.012150601 5.5370347e-39 313 230
-0.0073008798 0.69400001 0.012168133 5.9036816e-39 314 230
-0.0060840664 0.69400001 0.012168133 8.3007666e-39 315 230
-0.0048812795 0.69599998 0.0122032 1.0507021e-38 316 230
-0.0036609597 0.69599998 0.0122032 1.1060194e-38 317 230
-0.0024441467 0.69700003 0.012220734 1.0599588e-38 318 230
-0.0012220733 0.69700003 0.012220734 1.0415197e-38 319 230
0 0.69700003 0.012220734 1.0138961e-38 320 230
0.0012238267 0.69800001 0.012238266 9.8623736e-39 321 230
0.0024546667 0.69999999 0.012273333 9.2198587e-39 322 230
0.0036819996 0.69999999 0.012273333 9.3120543e-39 323 230
0.0049093333 0.69999999 0.012273333 9.5886356e-39 324 230
0.0061366665 0.69999999 0.012273333 9.9577768e-39 325 230
0.0074060797 0.704 0.012343466 1.0049992e-38 326 230
0.008689519 0.708 0.0124136 1.0049992e-38 327 230
0.0099729598 0.71100003 0.0124662 1.0136815e-38 328 230
0.011251139 0.713 0.012501267 9.675837e-39 329 230
0.012501267 0.713 0.012501267 1.2169097e-38 330 230
0.01377068 0.71399999 0.012518799 1.5027522e-38 331 230
0.015022559 0.71399999 0.012518799 1.5118288e-38 332 230
-0.054057021 0.71700001 0.01131426 1.5765818e-38 277 231
-0.052726239 0.71600002 0.01129848 1.3830793e-38 278 231
-0.05132708 0.71399999 0.011266919 1.2078716e-38 279 231
-0.049864799 0.71100003 0.01121958 9.6819887e-39 280 231
-0.048549797 0.70999998 0.011203799 9.4972387e-39 281 231
-0.046905171 0.704 0.011109119 9.5897748e-39 282 231
-0.045476202 0.70099998 0.011061779 8.9444054e-39 283 231
-0.044183996 0.69999999 0.011045999 8.2082571e-39 284 231
-0.042956665 0.69999999 0.011045999 7.9320289e-39 285 231
-0.041610107 0.69800001 0.01101444 7.5671701e-39 286 231
-0.040328421 0.69700003 0.01099866 7.3827802e-39 287 231
-0.039106347 0.69700003 0.01099866 7.0182534e-39 288 231
-0.037829921 0.69599998 0.010982879 7.0182534e-39 289 231
-0.036609598 0.69599998 0.010982879 6.9274815e-39 290 231
-0.035287585 0.69400001 0.01095132 6.8352873e-39 291 231
-0.034021679 0.69300002 0.010935539 6.5583459e-39 292 231
-0.03280662 0.69300002 0.010935539 6.2817632e-39 293 231
-0.031591557 0.69300002 0.010935539 6.3710875e-39 294 231
-0.0303765 0.69300002 0.010935539 6.3710875e-39 295 231
-0.029077278 0.69099998 0.01090398 6.4640006e-39 296 231
-0.027865725 0.69099998 0.01090398 6.8331419e-39 297 231
-0.026654173 0.69099998 0.01090398 6.9264109e-39 298 231
-0.025442619 0.69099998 0.01090398 7.5717789e-39 299 231
-0.024195999 0.69 0.010888199 8.8571718e-39 300 231
-0.022986198 0.69 0.010888199 9.9635193e-39 301 231
-0.021807959 0.69099998 0.01090398 1.1156725e-38 302 231
-0.020566599 0.69 0.010888199 1.1709899e-38 303 231
-0.019356798 0.69 0.010888199 1.1249292e-38 304 231
-0.018146999 0.69 0.010888199 1.0327337e-38 305 231
-0.0169372 0.69 0.010888199 7.1029689e-39 306 231
-0.015727401 0.69 0.010888199 5.4434462e-39 307 231
-0.014517599 0.69 0.010888199 5.7207197e-39 308 231
-0.0133078 0.69 0.010888199 6.1816965e-39 309 231
-0.012097999 0.69 0.010888199 6.2735165e-39 310 231
-0.01090398 0.69099998 0.01090398 6.3657122e-39 311 231
-0.0097204801 0.69300002 0.010935539 6.2735123e-39 312 231
-0.0085054198 0.69300002 0.010935539 5.720347e-39 313 231
-0.0073008798 0.69400001 0.01095132 6.7327192e-39 314 231
-0.0060840664 0.69400001 0.01095132 9.3141969e-39 315 231
-0.0048882933 0.69700003 0.01099866 1.0324075e-38 316 231
-0.00366622 0.69700003 0.01099866 1.0047487e-38 317 231
-0.0024441467 0.69700003 0.01099866 9.9549378e-39 318 231
-0.0012238267 0.69800001 0.01101444 9.5861567e-39 319 231
0 0.69800001 0.01101444 9.8605744e-39 320 231
0.0012238267 0.69800001 0.01101444 9.8605744e-39 321 231
0.0024546667 0.69999999 0.011045999 9.495019e-39 322 231
0.0036819996 0.69999999 0.011045999 9.6794117e-39 323 231
0.0049093333 0.69999999 0.011045999 9.6797802e-39 324 231
0.0061454331 0.70099998 0.011061779 1.01404e-38 325 231
0.0074060797 0.704 0.011109119 1.0416642e-38 326 231
0.008689519 0.708 0.01117224 1.0324446e-38 327 231
0.0099589331 0.70999998 0.011203799 1.0043548e-38 328 231
0.01121958 0.71100003 0.01121958 8.9368398e-39 329 231
0.012501267 0.713 0.011251139 1.1707393e-38 330 231
0.013751393 0.713 0.011251139 1.5211187e-38 331 231
0.015022559 0.71399999 0.011266919 1.4934617e-38 332 231
-0.054057021 0.71700001 0.01005712 1.5582509e-38 277 232
-0.052726239 0.71600002 0.010043093 1.3738598e-38 278 232
-0.05132708 0.71399999 0.01001504 1.2078716e-38 279 232
-0.049864799 0.71100003 0.0099729598 1.0878375e-38 280 232
-0.048549797 0.70999998 0.0099589331 1.0694343e-38 281 232
-0.046905171 0.704 0.0098747732 1.0693251e-38 282 232
-0.045670826 0.704 0.0098747732 1.0047882e-38 283 232
-0.044247117 0.70099998 0.0098326923 8.9440257e-39 284 232
-0.042956665 0.69999999 0.0098186666 8.1146251e-39 285 232
-0.041610107 0.69800001 0.0097906133 6.7385024e-39 286 232
-0.040328421 0.69700003 0.0097765867 7.4760674e-39 287 232
-0.039106347 0.69700003 0.0097765867 8.2103534e-39 288 232
-0.037884273 0.69700003 0.0097765867 8.0259622e-39 289 232
-0.036609598 0.69599998 0.0097625591 6.9260606e-39 290 232
-0.035287585 0.69400001 0.0097345067 6.5572781e-39 291 232
-0.034070771 0.69400001 0.0097345067 6.1863432e-39 292 232
-0.03280662 0.69300002 0.0097204801 5.9097577e-39 293 232
-0.031591557 0.69300002 0.0097204801 6.0923553e-39 294 232
-0.0303765 0.69300002 0.0097204801 6.4607791e-39 295 232
-0.029077278 0.69099998 0.0096924258 6.6487506e-39 296 232
-0.027865725 0.69099998 0.0096924258 6.7409463e-39 297 232
-0.026654173 0.69099998 0.0096924258 6.9253543e-39 298 232
-0.025442619 0.69099998 0.0096924258 8.8614626e-39 299 232
-0.024231065 0.69099998 0.0096924258 1.1340375e-38 300 232
-0.023019511 0.69099998 0.0096924258 1.1709156e-38 301 232
-0.021807959 0.69099998 0.0096924258 1.1799589e-38 302 232
-0.020596405 0.69099998 0.0096924258 1.1892145e-38 303 232
-0.019384852 0.69099998 0.0096924258 9.7759443e-39 304 232
-0.018146999 0.69 0.0096783992 7.8398361e-39 305 232
-0.0169372 0.69 0.0096783992 4.8917003e-39 306 232
-0.015727401 0.69 0.0096783992 5.0760902e-39 307 232
-0.014517599 0.69 0.0096783992 5.8118377e-39 308 232
-0.0133078 0.69 0.0096783992 6.0887848e-39 309 232
-0.012097999 0.69 0.0096783992 5.9061858e-39 310 232
-0.010935539 0.69300002 0.0097204801 5.9983814e-39 311 232
-0.0097345067 0.69400001 0.0097345067 5.9069018e-39 312 232
-0.0085176928 0.69400001 0.0097345067 5.9069018e-39 313 232
-0.0073008798 0.69400001 0.0097345067 7.0107607e-39 314 232
-0.0061015999 0.69599998 0.0097625591 8.4855306e-39 315 232
-0.0048882933 0.69700003 0.0097765867 9.0358528e-39 316 232
-0.00366622 0.69700003 0.0097765867 9.0358528e-39 317 232
-0.0024476533 0.69800001 0.0097906133 9.5868657e-39 318 232
-0.0012238267 0.69800001 0.0097906133 9.6790614e-39 319 232
0 0.69800001 0.0097906133 9.6790586e-39 320 232
0.0012273333 0.69999999 0.0098186666 1.0140035e-38 321 232
0.0024546667 0.69999999 0.0098186666 9.9560168e-39 322 232
0.0036819996 0.69999999 0.0098186666 8.0199086e-39 323 232
0.0049163462 0.70099998 0.0098326923 5.6242823e-39 324 232
0.0061717331 0.704 0.0098747732 6.0856206e-39 325 232
0.0074060797 0.704 0.0098747732 8.0185031e-39 326 232
0.008689519 0.708 0.0099308798 8.8479036e-39 327 232
0.0099589331 0.70999998 0.0099589331 7.7401141e-39 328 232
0.01121958 0.71100003 0.0099729598 6.0809515e-39 329 232
0.012501267 0.713 0.010001013 1.106311e-38 330 232
0.013751393 0.713 0.010001013 1.5211553e-38 331 232
-0.054207806 0.71899998 0.0088245263 1.5858014e-38 277 233
-0.052726239 0.71600002 0.0087877065 1.3830793e-38 278 233
-0.05132708 0.71399999 0.0087631596 1.2078716e-38 279 233
-0.049864799 0.71100003 0.0087263398 1.087981e-38 280 233
-0.048549797 0.70999998 0.0087140659 1.1340788e-38 281 233
-0.047038425 0.70599997 0.0086649731 1.1248942e-38 282 233
-0.045670826 0.704 0.0086404262 1.0880161e-38 283 233
-0.044247117 0.70099998 0.0086036054 1.0786147e-38 284 233
-0.042956665 0.69999999 0.0085913334 9.5876042e-39 285 233
-0.041610107 0.69800001 0.0085667865 6.9211182e-39 286 233
-0.040386278 0.69800001 0.0085667865 8.3962469e-39 287 233
-0.039106347 0.69700003 0.0085545136 9.0394275e-39 288 233
-0.037884273 0.69700003 0.0085545136 8.1174712e-39 289 233
-0.036662199 0.69700003 0.0085545136 7.2908985e-39 290 233
-0.035389278 0.69599998 0.0085422397 6.645529e-39 291 233
-0.034070771 0.69400001 0.0085176928 6.0005226e-39 292 233
-0.032853961 0.69400001 0.0085176928 5.5395458e-39 293 233
-0.031591557 0.69300002 0.0085054198 5.542057e-39 294 233
-0.0303765 0.69300002 0.0085054198 6.0026722e-39 295 233
-0.029161438 0.69300002 0.0085054198 7.4770666e-39 296 233
-0.027865725 0.69099998 0.008480873 7.6614578e-39 297 233
-0.026654173 0.69099998 0.008480873 8.3047197e-39 298 233
-0.025442619 0.69099998 0.008480873 1.0240828e-38 299 233
-0.024231065 0.69099998 0.008480873 1.1801022e-38 300 233
-0.023019511 0.69099998 0.008480873 1.1985412e-38 301 233
-0.021871079 0.69300002 0.0085054198 1.1708476e-38 302 233
-0.020596405 0.69099998 0.008480873 1.1431888e-38 303 233
-0.019384852 0.69099998 0.008480873 9.5900859e-39 304 233
-0.0181733 0.69099998 0.008480873 6.8238583e-39 305 233
-0.01701084 0.69300002 0.0085054198 5.9043879e-39 306 233
-0.015795778 0.69300002 0.0085054198 6.0887792e-39 307 233
-0.014580719 0.69300002 0.0085054198 6.2742648e-39 308 233
-0.01336566 0.69300002 0.0085054198 6.5508517e-39 309 233
-0.012150601 0.69300002 0.0085054198 7.4692123e-39 310 233
-0.010935539 0.69300002 0.0085054198 7.930189e-39 311 233
-0.0097345067 0.69400001 0.0085176928 8.5737606e-39 312 233
-0.0085176928 0.69400001 0.0085176928 8.5737606e-39 313 233
-0.0073008798 0.69400001 0.0085176928 8.5741361e-39 314 233
-0.0061015999 0.69599998 0.0085422397 9.2195055e-39 315 233
-0.0048882933 0.69700003 0.0085545136 9.6790586e-39 316 233
-0.0036714801 0.69800001 0.0085667865 9.9552853e-39 317 233
-0.0024476533 0.69800001 0.0085667865 1.013967e-38 318 233
-0.0012238267 0.69800001 0.0085667865 1.0323701e-38 319 233
0 0.69800001 0.0085667865 1.0783604e-38 320 233
0.0012273333 0.69999999 0.0085913334 1.08758e-38 321 233
0.0024546667 0.69999999 0.0085913334 1.0137907e-38 322 233
0.0036872597 0.70099998 0.0086036054 8.1096029e-39 323 233
0.0049303733 0.70300001 0.0086281532 5.80475e-39 324 233
0.0061892662 0.70599997 0.0086649731 6.3579237e-39 325 233
0.0074271196 0.70599997 0.0086649731 6.6377532e-39 326 233
0.008689519 0.708 0.008689519 6.7299503e-39 327 233
0.0099589331 0.70999998 0.0087140659 5.8976659e-39 328 233
0.01121958 0.71100003 0.0087263398 4.8838727e-39 329 233
0.012501267 0.713 0.0087508867 1.0968409e-38 330 233
0.013751393 0.713 0.0087508867 1.5393799e-38 331 233
-0.054057021 0.71700001 0.0075428397 1.5766902e-38 277 234
-0.052726239 0.71600002 0.00753232 1.4014827e-38 278 234
-0.05132708 0.71399999 0.0075112795 1.226311e-38 279 234
-0.050005067 0.713 0.0075007593 9.6823558e-39 280 234
-0.048549797 0.70999998 0.0074691991 1.106529e-38 281 234
-0.047105055 0.70700002 0.0074376399 1.1895407e-38 282 234
-0.045670826 0.704 0.0074060797 1.1987602e-38 283 234
-0.044247117 0.70099998 0.0073745195 1.262864e-38 284 234
-0.043018032 0.70099998 0.0073745195 1.179852e-38 285 234
-0.041729331 0.69999999 0.0073639993 1.0328409e-38 286 234
-0.040386278 0.69800001 0.0073429602 9.7752353e-39 287 234
-0.039162453 0.69800001 0.0073429602 9.2231209e-39 288 234
-0.037884273 0.69700003 0.00733244 8.3008059e-39 289 234
-0.036662199 0.69700003 0.00733244 6.8299792e-39 290 234
-0.035389278 0.69599998 0.0073219193 7.9363253e-39 291 234
-0.034168959 0.69599998 0.0073219193 9.0430176e-39 292 234
-0.032853961 0.69400001 0.0073008798 8.12142e-39 293 234
-0.031637147 0.69400001 0.0073008798 7.6589691e-39 294 234
-0.0303765 0.69300002 0.0072903596 7.9359147e-39 295 234
-0.029161438 0.69300002 0.0072903596 8.6734994e-39 296 234
-0.027946379 0.69300002 0.0072903596 1.0240825e-38 297 234
-0.026654173 0.69099998 0.0072693196 1.1527303e-38 298 234
-0.025442619 0.69099998 0.0072693196 1.1712053e-38 299 234
-0.024231065 0.69099998 0.0072693196 1.1801747e-38 300 234
-0.023019511 0.69099998 0.0072693196 1.1801747e-38 301 234
-0.021871079 0.69300002 0.0072903596 1.1433687e-38 302 234
-0.020656019 0.69300002 0.0072903596 1.1248936e-38 303 234
-0.01944096 0.69300002 0.0072903596 1.0143652e-38 304 234
-0.018225901 0.69300002 0.0072903596 9.5904783e-39 305 234
-0.01701084 0.69300002 0.0072903596 9.8645372e-39 306 234
-0.015795778 0.69300002 0.0072903596 1.0417711e-38 307 234
-0.014580719 0.69300002 0.0072903596 1.0235845e-38 308 234
-0.01336566 0.69300002 0.0072903596 1.0143649e-38 309 234
-0.012150601 0.69300002 0.0072903596 1.041916e-38 310 234
-0.01095132 0.69400001 0.0073008798 1.0972334e-38 311 234
-0.0097345067 0.69400001 0.0073008798 1.1429352e-38 312 234
-0.0085176928 0.69400001 0.0073008798 9.7694717e-39 313 234
-0.0073008798 0.69400001 0.0073008798 9.399969e-39 314 234
-0.0060840664 0.69400001 0.0073008798 1.0782903e-38 315 234
-0.0048882933 0.69700003 0.00733244 1.0416995e-38 316 234
-0.0036714801 0.69800001 0.0073429602 1.0324799e-38 317 234
-0.0024476533 0.69800001 0.0073429602 1.0600307e-38 318 234
-0.0012238267 0.69800001 0.0073429602 1.0416276e-38 319 234
0 0.69999999 0.0073639993 1.0967309e-38 320 234
0.0012273333 0.69999999 0.0073639993 1.0783276e-38 321 234
0.0024581731 0.70099998 0.0073745195 9.0323005e-39 322 234
0.0036872597 0.70099998 0.0073745195 7.9259543e-39 323 234
0.0049303733 0.70300001 0.0073955595 7.1880403e-39 324 234
0.0061717331 0.704 0.0074060797 7.095486e-39 325 234
0.0074271196 0.70599997 0.0074271196 6.5430353e-39 326 234
0.008689519 0.708 0.0074481601 6.4508382e-39 327 234
0.0099589331 0.70999998 0.0074691991 5.0707821e-39 328 234
0.01121958 0.71100003 0.0074797203 4.7941952e-39 329 234
0.0124662 0.71100003 0.0074797203 1.1060607e-38 330 234
0.01371282 0.71100003 0.0074797203 1.5393443e-38 331 234
-0.054057021 0.71700001 0.0062857 1.5858017e-38 277 235
-0.052726239 0.71600002 0.0062769335 1.4198856e-38 278 235
-0.05132708 0.71399999 0.0062593995 1.2723367e-38 279 235
-0.050005067 0.713 0.0062506334 1.0602513e-38 280 235
-0.048549797 0.70999998 0.0062243328 1.0971656e-38 281 235
-0.047105055 0.70700002 0.0061980332 1.1066372e-38 282 235
-0.04580057 0.70599997 0.0061892662 1.1526991e-38 283 235
-0.044436477 0.704 0.0061717331 1.2170552e-38 284 235
-0.043018032 0.70099998 0.0061454331 1.2077997e-38 285 235
-0.041729331 0.69999999 0.0061366665 1.1801747e-38 286 235
-0.040386278 0.69800001 0.006119133 1.1063823e-38 287 235
-0.039162453 0.69800001 0.006119133 1.0786498e-38 288 235
-0.037938625 0.69800001 0.006119133 9.86454e-39 289 235
-0.036662199 0.69700003 0.0061103669 8.2096948e-39 290 235
-0.035440128 0.69700003 0.0061103669 9.8688574e-39 291 235
-0.034168959 0.69599998 0.0061015999 1.1160651e-38 292 235
-0.032948639 0.69599998 0.0061015999 9.777717e-39 293 235
-0.031637147 0.69400001 0.0060840664 7.2923418e-39 294 235
-0.030420333 0.69400001 0.0060840664 7.9377112e-39 295 235
-0.029161438 0.69300002 0.0060753003 9.8688182e-39 296 235
-0.027946379 0.69300002 0.0060753003 1.0790774e-38 297 235
-0.02673132 0.69300002 0.0060753003 1.0696838e-38 298 235
-0.02551626 0.69300002 0.0060753003 9.5904909e-39 299 235
-0.024231065 0.69099998 0.0060577663 9.4043102e-39 300 235
-0.023019511 0.69099998 0.0060577663 9.2199189e-39 301 235
-0.021871079 0.69300002 0.0060753003 8.7657777e-39 302 235
-0.020656019 0.69300002 0.0060753003 9.9643209e-39 303 235
-0.01944096 0.69300002 0.0060753003 1.1063826e-38 304 235
-0.018225901 0.69300002 0.0060753003 1.1063826e-38 305 235
-0.01701084 0.69300002 0.0060753003 9.588693e-39 306 235
-0.015795778 0.69300002 0.0060753003 8.7592911e-39 307 235
-0.014580719 0.69300002 0.0060753003 8.5745439e-39 308 235
-0.01336566 0.69300002 0.0060753003 8.6667395e-39 309 235
-0.012150601 0.69300002 0.0060753003 9.2217154e-39 310 235
-0.01095132 0.69400001 0.0060840664 1.0696485e-38 311 235
-0.0097345067 0.69400001 0.0060840664 1.1523012e-38 312 235
-0.0085176928 0.69400001 0.0060840664 7.7426308e-39 313 235
-0.0073008798 0.69400001 0.0060840664 6.4565611e-39 314 235
-0.0060840664 0.69400001 0.0060840664 9.2224314e-39 315 235
-0.0048812795 0.69599998 0.0061015999 1.1427204e-38 316 235
-0.00366622 0.69700003 0.0061103669 1.0966225e-38 317 235
-0.0024476533 0.69800001 0.006119133 1.0874746e-38 318 235
-0.0012238267 0.69800001 0.006119133 1.0506324e-38 319 235
0 0.69999999 0.0061366665 9.8602479e-39 320 235
0.0012273333 0.69999999 0.0061366665 9.3989096e-39 321 235
0.0024581731 0.70099998 0.0061454331 7.3731491e-39 322 235
0.0036872597 0.70099998 0.0061454331 6.8199753e-39 323 235
0.0049373866 0.704 0.0061717331 6.4515655e-39 324 235
0.0061717331 0.704 0.0061717331 6.4515655e-39 325 235
0.0074481601 0.708 0.0062067998 6.1774954e-39 326 235
0.008689519 0.708 0.0062067998 5.8087128e-39 327 235
0.0099589331 0.70999998 0.0062243328 5.5299581e-39 328 235
0.01121958 0.71100003 0.0062330998 4.8845887e-39 329 235
0.0124662 0.71100003 0.0062330998 1.1059885e-38 330 235
0.01371282 0.71100003 0.0062330998 1.5577471e-38 331 235
-0.054057021 0.71700001 0.0050285598 1.5673623e-38 277 236
-0.052726239 0.71600002 0.0050215465 1.4382165e-38 278 236
-0.05132708 0.71399999 0.0050075199 1.2999231e-38 279 236
-0.050075196 0.71399999 0.0050075199 1.0785462e-38 280 236
-0.048618179 0.71100003 0.0049864799 1.0785462e-38 281 236
-0.047171678 0.708 0.0049654399 1.0236255e-38 282 236
-0.045865446 0.70700002 0.0049584266 1.0512482e-38 283 236
-0.044436477 0.704 0.0049373866 1.1340801e-38 284 236
-0.043140765 0.70300001 0.0049303733 1.1617388e-38 285 236
-0.041788943 0.70099998 0.0049163462 1.2169823e-38 286 236
-0.040502001 0.69999999 0.0049093333 1.1616649e-38 287 236
-0.039162453 0.69800001 0.0048953067 1.1707393e-38 288 236
-0.037938625 0.69800001 0.0048953067 1.115458e-38 289 236
-0.0367148 0.69800001 0.0048953067 9.6815949e-39 290 236
-0.035440128 0.69700003 0.0048882933 9.8659862e-39 291 236
-0.034218054 0.69700003 0.0048882933 1.0698576e-38 292 236
-0.032948639 0.69599998 0.0048812795 9.3156416e-39 293 236
-0.031728316 0.69599998 0.0048812795 7.0153976e-39 294 236
-0.030420333 0.69400001 0.0048672534 7.7533213e-39 295 236
-0.029161438 0.69300002 0.00486024 1.0236174e-38 296 236
-0.027946379 0.69300002 0.00486024 1.032837e-38 297 236
-0.02673132 0.69300002 0.00486024 8.4816322e-39 298 236
-0.02551626 0.69300002 0.00486024 5.4388163e-39 299 236
-0.024301201 0.69300002 0.00486024 3.3208574e-39 300 236
-0.02308614 0.69300002 0.00486024 3.7818341e-39 301 236
-0.021871079 0.69300002 0.00486024 4.8035432e-39 302 236
-0.020656019 0.69300002 0.00486024 8.8605097e-39 303 236
-0.01944096 0.69300002 0.00486024 1.1708129e-38 304 236
-0.018225901 0.69300002 0.00486024 1.1708129e-38 305 236
-0.017035386 0.69400001 0.0048672534 8.479847e-39 306 236
-0.015818574 0.69400001 0.0048672534 4.7920218e-39 307 236
-0.014580719 0.69300002 0.00486024 4.3317709e-39 308 236
-0.01336566 0.69300002 0.00486024 5.161533e-39 309 236
-0.012150601 0.69300002 0.00486024 7.1927109e-39 310 236
-0.01095132 0.69400001 0.0048672534 1.0050415e-38 311 236
-0.0097345067 0.69400001 0.0048672534 1.0971653e-38 312 236
-0.0085176928 0.69400001 0.0048672534 6.2696756e-39 313 236
-0.0073008798 0.69400001 0.0048672534 6.0899534e-39 314 236
-0.0060840664 0.69400001 0.0048672534 8.579234e-39 315 236
-0.0048812795 0.69599998 0.0048812795 1.0966238e-38 316 236
-0.00366622 0.69700003 0.0048882933 1.0320869e-38 317 236
-0.0024476533 0.69800001 0.0048953067 1.0136475e-38 318 236
-0.0012238267 0.69800001 0.0048953067 9.5836596e-39 319 236
0 0.69999999 0.0049093333 7.2784227e-39 320 236
0.0012273333 0.69999999 0.0049093333 6.4483033e-39 321 236
0.0024581731 0.70099998 0.0049163462 6.0827788e-39 322 236
0.0036977797 0.70300001 0.0049303733 6.0827788e-39 323 236
0.0049373866 0.704 0.0049373866 5.9913146e-39 324 236
0.0061892662 0.70599997 0.0049514128 5.9913146e-39 325 236
0.0074481601 0.708 0.0049654399 6.0863815e-39 326 236
0.0087140659 0.70999998 0.0049794666 5.8094359e-39 327 236
0.0099729598 0.71100003 0.0049864799 5.2540845e-39 328 236
0.011251139 0.713 0.0050005065 4.9771375e-39 329 236
0.012501267 0.713 0.0050005065 1.1335746e-38 330 236
-0.054057021 0.71700001 0.0037714199 1.5673623e-38 277 237
-0.052726239 0.71600002 0.00376616 1.4657676e-38 278 237
-0.051470853 0.71600002 0.00376616 1.3274741e-38 279 237
-0.050215468 0.71600002 0.00376616 1.0600715e-38 280 237
-0.048754938 0.713 0.0037503797 1.0692911e-38 281 237
-0.047371563 0.71100003 0.0037398601 1.0418852e-38 282 237
-0.045865446 0.70700002 0.0037188199 1.0418852e-38 283 237
-0.044562716 0.70599997 0.0037135598 1.014334e-38 284 237
-0.043202132 0.704 0.0037030398 1.0327372e-38 285 237
-0.041788943 0.70099998 0.0036872597 1.1155684e-38 286 237
-0.040502001 0.69999999 0.0036819996 1.1155684e-38 287 237
-0.039274666 0.69999999 0.0036819996 1.1341504e-38 288 237
-0.037938625 0.69800001 0.0036714801 1.0972722e-38 289 237
-0.0367148 0.69800001 0.0036714801 1.0051469e-38 290 237
-0.035490975 0.69800001 0.0036714801 9.7752409e-39 291 237
-0.034218054 0.69700003 0.00366622 1.0973373e-38 292 237
-0.03299598 0.69700003 0.00366622 9.9588628e-39 293 237
-0.03177391 0.69700003 0.00366622 6.9224859e-39 294 237
-0.030507999 0.69599998 0.0036609597 7.5678553e-39 295 237
-0.029203519 0.69400001 0.0036504399 9.4092918e-39 296 237
-0.027946379 0.69300002 0.0036451798 1.0330888e-38 297 237
-0.02673132 0.69300002 0.0036451798 1.0230122e-38 298 237
-0.02551626 0.69300002 0.0036451798 6.3579055e-39 299 237
-0.024301201 0.69300002 0.0036451798 1.6660276e-39 300 237
-0.02308614 0.69300002 0.0036451798 3.6943314e-39 301 237
-0.021902639 0.69400001 0.0036504399 7.1920074e-39 302 237
-0.020685827 0.69400001 0.0036504399 1.051105e-38 303 237
-0.019469013 0.69400001 0.0036504399 1.1981482e-38 304 237
-0.0182522 0.69400001 0.0036504399 1.2166233e-38 305 237
-0.017035386 0.69400001 0.0036504399 8.4766226e-39 306 237
-0.015818574 0.69400001 0.0036504399 4.4200149e-39 307 237
-0.01460176 0.69400001 0.0036504399 4.2403151e-39 308 237
-0.01336566 0.69300002 0.0036451798 4.8856845e-39 309 237
-0.012150601 0.69300002 0.0036451798 7.4657132e-39 310 237
-0.01095132 0.69400001 0.0036504399 9.7709641e-39 311 237
-0.0097345067 0.69400001 0.0036504399 1.0415605e-38 312 237
-0.0085176928 0.69400001 0.0036504399 8.0185185e-39 313 237
-0.0073008798 0.69400001 0.0036504399 7.4657006e-39 314 237
-0.0060840664 0.69400001 0.0036504399 7.5578963e-39 315 237
-0.0048812795 0.69599998 0.0036609597 7.4638972e-39 316 237
-0.00366622 0.69700003 0.00366622 6.2657127e-39 317 237
-0.0024476533 0.69800001 0.0036714801 5.1626049e-39 318 237
-0.0012238267 0.69800001 0.0036714801 5.7157787e-39 319 237
0 0.69999999 0.0036819996 5.9902174e-39 320 237
0.0012290865 0.70099998 0.0036872597 5.8980218e-39 321 237
0.0024651866 0.70300001 0.0036977797 6.1749772e-39 322 237
0.0037030398 0.704 0.0037030398 6.1749772e-39 323 237
0.0049373866 0.704 0.0037030398 5.3484606e-39 324 237
0.0061892662 0.70599997 0.0037135598 5.5328518e-39 325 237
0.0074376399 0.70700002 0.0037188199 6.0842249e-39 326 237
0.0087140659 0.70999998 0.0037345996 5.7158011e-39 327 237
0.0099729598 0.71100003 0.0037398601 6.5394241e-39 328 237
0.011251139 0.713 0.0037503797 7.3691862e-39 329 237
-0.054057021 0.71700001 0.0025142799 1.5582506e-38 277 238
-0.052726239 0.71600002 0.0025107733 1.4382887e-38 278 238
-0.051470853 0.71600002 0.0025107733 1.3184344e-38 279 238
-0.050215468 0.71600002 0.0025107733 1.0234088e-38 280 238
-0.048754938 0.713 0.0025002533 1.0879457e-38 281 238
-0.047371563 0.71100003 0.0024932399 1.014334e-38 282 238
-0.045930319 0.708 0.00248272 1.0051144e-38 283 238
-0.044562716 0.70599997 0.0024757064 9.7742011e-39 284 238
-0.043202132 0.704 0.0024686933 9.497973e-39 285 238
-0.041908171 0.70300001 0.0024651866 9.3153754e-39 286 238
-0.040559858 0.70099998 0.0024581731 1.0421722e-38 287 238
-0.039274666 0.69999999 0.0024546667 1.0974527e-38 288 238
-0.038047329 0.69999999 0.0024546667 1.0882331e-38 289 238
-0.0367148 0.69800001 0.0024476533 1.0419907e-38 290 238
-0.035490975 0.69800001 0.0024476533 1.0419907e-38 291 238
-0.034218054 0.69700003 0.0024441467 1.1618056e-38 292 238
-0.03299598 0.69700003 0.0024441467 1.0603904e-38 293 238
-0.03177391 0.69700003 0.0024441467 7.5649868e-39 294 238
-0.030507999 0.69599998 0.0024406398 7.5649868e-39 295 238
-0.029203519 0.69400001 0.0024336267 9.2241747e-39 296 238
-0.027986705 0.69400001 0.0024336267 1.0883696e-38 297 238
-0.026769891 0.69400001 0.0024336267 1.1800334e-38 298 238
-0.02551626 0.69300002 0.00243012 7.1905529e-39 299 238
-0.024301201 0.69300002 0.00243012 1.1150188e-39 300 238
-0.02308614 0.69300002 0.00243012 5.1719852e-39 301 238
-0.021902639 0.69400001 0.0024336267 9.7698851e-39 302 238
-0.020685827 0.69400001 0.0024336267 1.0231222e-38 303 238
-0.019469013 0.69400001 0.0024336267 1.0323392e-38 304 238
-0.0182522 0.69400001 0.0024336267 1.0876207e-38 305 238
-0.017084479 0.69599998 0.0024406398 7.372433e-39 306 238
-0.015818574 0.69400001 0.0024336267 4.8827909e-39 307 238
-0.01460176 0.69400001 0.0024336267 4.6105424e-39 308 238
-0.013384946 0.69400001 0.0024336267 4.887488e-39 309 238
-0.012168133 0.69400001 0.0024336267 7.4653629e-39 310 238
-0.01095132 0.69400001 0.0024336267 8.8482974e-39 311 238
-0.0097345067 0.69400001 0.0024336267 9.3978558e-39 312 238
-0.0085176928 0.69400001 0.0024336267 7.9230859e-39 313 238
-0.0073219193 0.69599998 0.0024406398 6.4504725e-39 314 238
-0.0061015999 0.69599998 0.0024406398 5.1597337e-39 315 238
-0.0048812795 0.69599998 0.0024406398 4.5147342e-39 316 238
-0.0036714801 0.69800001 0.0024476533 4.6069299e-39 317 238
-0.0024476533 0.69800001 0.0024476533 3.6849764e-39 318 238
-0.0012273333 0.69999999 0.0024546667 4.1459545e-39 319 238
0 0.70099998 0.0024581731 5.4381367e-39 320 238
0.0012290865 0.70099998 0.0024581731 5.8069178e-39 321 238
0.0024686933 0.704 0.0024686933 6.7270762e-39 322 238
0.0037030398 0.704 0.0024686933 6.542685e-39 323 238
0.0049373866 0.704 0.0024686933 5.6232496e-39 324 238
0.0061892662 0.70599997 0.0024757064 5.715804e-39 325 238
0.0074376399 0.70700002 0.0024792133 5.5314099e-39 326 238
0.0087140659 0.70999998 0.0024897333 5.4388555e-39 327 238
0.0099729598 0.71100003 0.0024932399 6.9996778e-39 328 238
0.011251139 0.713 0.0025002533 9.3971243e-39 329 238
-0.054057021 0.71700001 0.00125714 1.5672904e-38 277 239
-0.052726239 0.71600002 0.0012553866 1.4199575e-38 278 239
-0.051470853 0.71600002 0.0012553866 1.2908836e-38 279 239
-0.050215468 0.71600002 0.0012553866 9.4979674e-39 280 239
-0.048754938 0.713 0.0012501266 9.8667499e-39 281 239
-0.047371563 0.71100003 0.00124662 1.0324501e-38 282 239
-0.045930319 0.708 0.00124136 1.0048274e-38 283 239
-0.044625837 0.70700002 0.0012396066 9.6816496e-39 284 239
-0.043324865 0.70599997 0.0012378532 9.6816496e-39 285 239
-0.041967787 0.704 0.0012343467 1.0050059e-38 286 239
-0.040559858 0.70099998 0.0012290865 1.0787983e-38 287 239
-0.039274666 0.69999999 0.0012273333 1.0974527e-38 288 239
-0.038047329 0.69999999 0.0012273333 1.0789775e-38 289 239
-0.0367148 0.69800001 0.0012238267 1.0419918e-38 290 239
-0.035490975 0.69800001 0.0012238267 1.0419918e-38 291 239
-0.034267146 0.69800001 0.0012238267 1.1248936e-38 292 239
-0.03299598 0.69700003 0.0012220733 1.1248936e-38 293 239
-0.03177391 0.69700003 0.0012220733 8.855039e-39 294 239
-0.030507999 0.69599998 0.0012203199 8.7624847e-39 295 239
-0.029203519 0.69400001 0.0012168133 9.6833746e-39 296 239
-0.027986705 0.69400001 0.0012168133 1.1527287e-38 297 239
-0.026769891 0.69400001 0.0012168133 1.2538258e-38 298 239
-0.025553079 0.69400001 0.0012168133 7.4674999e-39 299 239
-0.024336265 0.69400001 0.0012168133 1.3916043e-39 300 239
-0.023119451 0.69400001 0.0012168133 4.8028426e-39 301 239
-0.021902639 0.69400001 0.0012168133 6.546638e-39 302 239
-0.020685827 0.69400001 0.0012168133 4.8867565e-39 303 239
-0.019469013 0.69400001 0.0012168133 4.7891533e-39 304 239
-0.018304799 0.69599998 0.0012203199 5.8033052e-39 305 239
-0.017084479 0.69599998 0.0012203199 4.4282965e-39 306 239
-0.015818574 0.69400001 0.0012168133 3.5985359e-39 307 239
-0.01460176 0.69400001 0.0012168133 4.7002199e-39 308 239
-0.013384946 0.69400001 0.0012168133 4.9764481e-39 309 239
-0.012168133 0.69400001 0.0012168133 5.4381395e-39 310 239
-0.010982879 0.69599998 0.0012203199 6.0835089e-39 311 239
-0.0097625591 0.69599998 0.0012203199 7.4624762e-39 312 239
-0.0085422397 0.69599998 0.0012203199 6.5405199e-39 313 239
-0.0073219193 0.69599998 0.0012203199 5.4341724e-39 314 239
-0.0061015999 0.69599998 0.0012203199 4.4196617e-39 315 239
-0.0048882933 0.69700003 0.0012220733 4.1477538e-39 316 239
-0.0036714801 0.69800001 0.0012238267 5.6225237e-39 317 239
-0.0024546667 0.69999999 0.0012273333 5.4374122e-39 318 239
-0.0012273333 0.69999999 0.0012273333 4.5154573e-39 319 239
0 0.70099998 0.0012290865 5.1608267e-39 320 239
0.0012325933 0.70300001 0.0012325933 6.728151e-39 321 239
0.0024686933 0.704 0.0012343467 8.7539325e-39 322 239
0.0037030398 0.704 0.0012343467 7.7401393e-39 323 239
0.0049514128 0.70599997 0.0012378532 6.0827788e-39 324 239
0.0061980332 0.70700002 0.0012396066 5.529605e-39 325 239
0.0074481601 0.708 0.00124136 3.7858012e-39 326 239
0.0087263398 0.71100003 0.00124662 5.6297124e-39 327 239
0.0099729598 0.71100003 0.00124662 9.1219766e-39 328 239
0.011251139 0.713 0.0012501266 1.0689301e-38 329 239
0.012518799 0.71399999 0.00125188 1.2626838e-38 330 239
0.013828539 0.71700001 0.00125714 1.4655142e-38 331 239
-0.052799881 0.71700001 -0 1.4382884e-38 278 240
-0.051470853 0.71600002 -0 1.3092145e-38 279 240
-0.050215468 0.71600002 -0 9.8656751e-39 280 240
-0.048754938 0.713 -0 9.6812824e-39 281 240
-0.047371563 0.71100003 -0 9.7713299e-39 282 240
-0.045930319 0.708 -0 9.4029075e-39 283 240
-0.044625837 0.70700002 -0 9.2206742e-39 284 240
-0.043324865 0.70599997 -0 9.4054242e-39 285 240
-0.041967787 0.704 -0 9.3157411e-39 286 240
-0.040559858 0.70099998 -0 9.7767179e-39 287 240
-0.039274666 0.69999999 -0 1.0789781e-38 288 240
-0.038047329 0.69999999 -0 1.0789781e-38 289 240
