# .PCD v.7 - Point Cloud Data file format
FIELDS x y z rgb imX imY
SIZE 4 4 4 4 4 4
TYPE F F F F F F
COUNT 1 1 1 1 1 1
WIDTH 836
HEIGHT 1
VIEWPOINT 0 0 0 1 0 0 0
POINTS 836
DATA ascii
0.0012273333 0.69999999 -0.039274666 1.2818828e-38 321 272
0.0024476533 0.69800001 -0.039162453 1.2451137e-38 322 272
0.0036609597 0.69599998 -0.039050236 1.2358941e-38 323 272
0.0048672534 0.69400001 -0.038938027 1.1990164e-38 324 272
0.0060840664 0.69400001 -0.038938027 1.2450783e-38 325 272
0.0072903596 0.69300002 -0.03888192 1.3007554e-38 326 272
0.008480873 0.69099998 -0.038769703 1.1532424e-38 327 272
0.0096783992 0.69 -0.038713597 1.0888853e-38 328 272
0.010856641 0.68800002 -0.038601387 1.1165438e-38 329 272
0.012062933 0.68800002 -0.038601387 1.1990884e-38 330 272
0.013269227 0.68800002 -0.038601387 1.208308e-38 331 272
0.014454478 0.68699998 -0.038545277 1.2266389e-38 332 272
0.015636226 0.68599999 -0.03848917 1.1990161e-38 333 272
0.016839013 0.68599999 -0.03848917 1.1990512e-38 334 272
0.0179892 0.68400002 -0.038376961 1.2635881e-38 335 272
0.01918848 0.68400002 -0.038376961 1.3466715e-38 336 272
0.020387759 0.68400002 -0.038376961 1.3835496e-38 337 272
0.02155548 0.68300003 -0.038320854 1.3835143e-38 338 272
0.022753006 0.68300003 -0.038320854 1.0423905e-38 339 272
0.023950534 0.68300003 -0.038320854 9.6006111e-39 340 272
0.02514806 0.68300003 -0.038320854 1.2827099e-38 341 272
0.026345588 0.68300003 -0.038320854 1.4479035e-38 342 272
0.027543113 0.68300003 -0.038320854 1.3741112e-38 343 272
0.028740639 0.68300003 -0.038320854 1.30046e-38 344 272
0.029938167 0.68300003 -0.038320854 1.30046e-38 345 272
0.031135695 0.68300003 -0.038320854 1.3464508e-38 346 272
0.032333218 0.68300003 -0.038320854 1.3832932e-38 347 272
0.033530746 0.68300003 -0.038320854 1.4108134e-38 348 272
0.034728274 0.68300003 -0.038320854 9.6831027e-39 349 272
0.035925802 0.68300003 -0.038320854 2.7752996e-39 350 272
0.037177678 0.68400002 -0.038376961 6.3712893e-39 351 272
0.038376961 0.68400002 -0.038376961 9.3161517e-39 352 272
0.03957624 0.68400002 -0.038376961 8.5785852e-39 353 272
0.040775519 0.68400002 -0.038376961 7.8377804e-39 354 272
0.042097531 0.68599999 -0.03848917 4.8875203e-39 355 272
0.043300316 0.68599999 -0.03848917 5.8948422e-39 356 272
0.044567976 0.68699998 -0.038545277 7.0008297e-39 357 272
0.045839146 0.68800002 -0.038601387 9.037027e-39 358 272
0.047182199 0.69 -0.038713597 1.1249724e-38 359 272
0.048602402 0.69300002 -0.03888192 1.1345498e-38 360 272
0.049889345 0.69400001 -0.038938027 1.1621726e-38 361 272
0.051106159 0.69400001 -0.038938027 1.3002127e-38 362 272
0.052322973 0.69400001 -0.038938027 1.3002127e-38 363 272
0.053539783 0.69400001 -0.038938027 1.318613e-38 364 272
0.054756597 0.69400001 -0.038938027 1.2909183e-38 365 272
0.055973411 0.69400001 -0.038938027 1.2263451e-38 366 272
-0.0062506334 0.713 -0.041254178 1.7884876e-38 315 273
-0.0049794666 0.70999998 -0.041080594 1.5306295e-38 316 273
-0.00372408 0.708 -0.040964879 1.4015556e-38 317 273
-0.0024792133 0.70700002 -0.040907022 1.4387948e-38 318 273
-0.0012343467 0.704 -0.040733438 1.5033318e-38 319 273
0 0.70300001 -0.040675577 1.4477629e-38 320 273
0.0012273333 0.69999999 -0.040502001 1.3647509e-38 321 273
0.0024476533 0.69800001 -0.040386278 1.2543332e-38 322 273
0.00366622 0.69700003 -0.040328421 1.2358941e-38 323 273
0.0048812795 0.69599998 -0.040270556 1.1255836e-38 324 273
0.0060840664 0.69400001 -0.040154841 1.1808651e-38 325 273
0.0072903596 0.69300002 -0.04009698 1.3648608e-38 326 273
0.0085054198 0.69300002 -0.04009698 1.17125e-38 327 273
0.0096924258 0.69099998 -0.039981257 9.782501e-39 328 273
0.010888199 0.69 -0.0399234 1.0335675e-38 329 273
0.012062933 0.68800002 -0.039807681 1.11622e-38 330 273
0.013269227 0.68800002 -0.039807681 1.1530622e-38 331 273
0.014475521 0.68800002 -0.039807681 1.1623177e-38 332 273
0.015659019 0.68699998 -0.039749816 1.1623177e-38 333 273
0.01686356 0.68699998 -0.039749816 1.1256186e-38 334 273
0.018041799 0.68599999 -0.039691959 1.1532775e-38 335 273
0.019244585 0.68599999 -0.039691959 1.2914979e-38 336 273
0.020447372 0.68599999 -0.039691959 1.3652903e-38 337 273
0.02158704 0.68400002 -0.03957624 1.3744394e-38 338 273
0.022786319 0.68400002 -0.03957624 9.8721771e-39 339 273
0.0239856 0.68400002 -0.03957624 9.5066246e-39 340 273
0.025184879 0.68400002 -0.03957624 1.3009698e-38 341 273
0.026345588 0.68300003 -0.039518382 1.4571248e-38 342 273
0.027543113 0.68300003 -0.039518382 1.4294301e-38 343 273
0.028740639 0.68300003 -0.039518382 1.4110623e-38 344 273
0.029938167 0.68300003 -0.039518382 1.3926232e-38 345 273
0.031135695 0.68300003 -0.039518382 1.3832957e-38 346 273
0.032333218 0.68300003 -0.039518382 1.3925513e-38 347 273
0.033530746 0.68300003 -0.039518382 1.3924106e-38 348 273
0.03477912 0.68400002 -0.03957624 9.5905511e-39 349 273
0.035978399 0.68400002 -0.03957624 1.6729178e-39 350 273
0.037177678 0.68400002 -0.03957624 4.1621998e-39 351 273
0.03848917 0.68599999 -0.039691959 6.1861848e-39 352 273
0.039691959 0.68599999 -0.039691959 7.4769236e-39 353 273
0.040894743 0.68599999 -0.039691959 8.3012739e-39 354 273
0.042097531 0.68599999 -0.039691959 5.4435695e-39 355 273
0.043363437 0.68699998 -0.039749816 4.8914705e-39 356 273
0.044567976 0.68699998 -0.039749816 7.4729481e-39 357 273
0.045839146 0.68800002 -0.039807681 1.0971685e-38 358 273
0.047250576 0.69099998 -0.039981257 1.2907793e-38 359 273
0.048672531 0.69400001 -0.040154841 1.3186158e-38 360 273
0.050033119 0.69599998 -0.040270556 1.337055e-38 361 273
0.051253434 0.69599998 -0.040270556 1.2818802e-38 362 273
0.052473757 0.69599998 -0.040270556 1.2726607e-38 363 273
0.053539783 0.69400001 -0.040154841 1.3186481e-38 364 273
0.054756597 0.69400001 -0.040154841 1.2725142e-38 365 273
0.055973411 0.69400001 -0.040154841 1.1714581e-38 366 273
-0.0062506334 0.713 -0.042504307 1.7977072e-38 315 274
-0.0049864799 0.71100003 -0.042385083 1.5121545e-38 316 274
-0.00372408 0.708 -0.042206239 1.2908848e-38 317 274
-0.0024792133 0.70700002 -0.042146627 1.309973e-38 318 274
-0.0012378532 0.70599997 -0.042087011 1.4205718e-38 319 274
0 0.70300001 -0.041908171 1.5214839e-38 320 274
0.0012290865 0.70099998 -0.041788943 1.3831905e-38 321 274
0.0024476533 0.69800001 -0.041610107 1.1437711e-38 322 274
0.00366622 0.69700003 -0.041550495 1.1806133e-38 323 274
0.0048882933 0.69700003 -0.041550495 1.1622821e-38 324 274
0.0061015999 0.69599998 -0.041490879 1.2360386e-38 325 274
0.0073008798 0.69400001 -0.041371655 1.3374535e-38 326 274
0.0085054198 0.69300002 -0.041312039 1.1070003e-38 327 274
0.0097204801 0.69300002 -0.041312039 9.5044862e-39 328 274
0.01090398 0.69099998 -0.041192811 9.0435081e-39 329 274
0.012097999 0.69 -0.041133199 9.3190215e-39 330 274
0.0133078 0.69 -0.041133199 9.4112172e-39 331 274
0.014475521 0.68800002 -0.041013971 9.4094193e-39 332 274
0.015681813 0.68800002 -0.041013971 1.0054789e-38 333 274
0.01686356 0.68699998 -0.040954359 1.0979251e-38 334 274
0.018068098 0.68699998 -0.040954359 1.162462e-38 335 274
0.019272638 0.68699998 -0.040954359 1.2363607e-38 336 274
0.020447372 0.68599999 -0.040894743 1.3193727e-38 337 274
0.021650158 0.68599999 -0.040894743 1.3559998e-38 338 274
0.022852944 0.68599999 -0.040894743 9.7799787e-39 339 274
0.024055731 0.68599999 -0.040894743 9.6899368e-39 340 274
0.025258519 0.68599999 -0.040894743 1.3193371e-38 341 274
0.026461305 0.68599999 -0.040894743 1.4110636e-38 342 274
0.027583439 0.68400002 -0.040775519 1.3742213e-38 343 274
0.02878272 0.68400002 -0.040775519 1.3651087e-38 344 274
0.029982001 0.68400002 -0.040775519 1.3558891e-38 345 274
0.03118128 0.68400002 -0.040775519 1.3558891e-38 346 274
0.032380559 0.68400002 -0.040775519 1.3466335e-38 347 274
0.033579841 0.68400002 -0.040775519 1.3832256e-38 348 274
0.03477912 0.68400002 -0.040775519 9.3146719e-39 349 274
0.035978399 0.68400002 -0.040775519 4.7940382e-40 350 274
0.037286382 0.68599999 -0.040894743 2.415512e-39 351 274
0.03848917 0.68599999 -0.040894743 5.3578717e-39 352 274
0.039691959 0.68599999 -0.040894743 6.5564149e-39 353 274
0.040894743 0.68599999 -0.040894743 9.1335429e-39 354 274
0.042097531 0.68599999 -0.040894743 1.0147335e-38 355 274
0.043363437 0.68699998 -0.040954359 1.1621723e-38 356 274
0.044632856 0.68800002 -0.041013971 1.2451843e-38 357 274
0.045972396 0.69 -0.041133199 1.2908495e-38 358 274
0.047455717 0.69400001 -0.041371655 1.2540073e-38 359 274
0.048812799 0.69599998 -0.041490879 1.2174162e-38 360 274
0.050033119 0.69599998 -0.041490879 1.1897575e-38 361 274
0.051253434 0.69599998 -0.041490879 1.1252924e-38 362 274
0.052473757 0.69599998 -0.041490879 1.1529511e-38 363 274
0.053694077 0.69599998 -0.041490879 1.1897569e-38 364 274
0.0550722 0.69800001 -0.041610107 1.0883776e-38 365 274
0.056296028 0.69800001 -0.041610107 1.0790484e-38 366 274
-0.0062330998 0.71100003 -0.043631699 1.8344412e-38 315 275
-0.0049864799 0.71100003 -0.043631699 1.539849e-38 316 275
-0.00372408 0.708 -0.043447599 1.2908848e-38 317 275
-0.0024792133 0.70700002 -0.043386232 1.1991951e-38 318 275
-0.0012378532 0.70599997 -0.043324865 1.328269e-38 319 275
0 0.704 -0.043202132 1.4387245e-38 320 275
0.0012325933 0.70300001 -0.043140765 1.3465289e-38 321 275
0.0024546667 0.69999999 -0.042956665 1.1254761e-38 322 275
0.0036714801 0.69800001 -0.042833932 1.1346957e-38 323 275
0.0048953067 0.69800001 -0.042833932 1.1164363e-38 324 275
0.0061103669 0.69700003 -0.042772565 1.1717537e-38 325 275
0.0073219193 0.69599998 -0.042711195 1.3281623e-38 326 275
0.0085176928 0.69400001 -0.042588469 1.1345515e-38 327 275
0.0097345067 0.69400001 -0.042588469 9.9636693e-39 328 275
0.010935539 0.69300002 -0.042527102 9.5030499e-39 329 275
0.012115533 0.69099998 -0.042404365 9.6867293e-39 330 275
0.013327086 0.69099998 -0.042404365 9.7789249e-39 331 275
0.014517599 0.69 -0.042342998 9.3186684e-39 332 275
0.015681813 0.68800002 -0.042220265 9.410864e-39 333 275
0.016888106 0.68800002 -0.042220265 1.0886702e-38 334 275
0.018068098 0.68699998 -0.042158898 1.1808657e-38 335 275
0.019272638 0.68699998 -0.042158898 1.2730595e-38 336 275
0.020477179 0.68699998 -0.042158898 1.3560354e-38 337 275
0.021681719 0.68699998 -0.042158898 1.3559279e-38 338 275
0.022852944 0.68599999 -0.042097531 1.0424628e-38 339 275
0.024055731 0.68599999 -0.042097531 1.0883808e-38 340 275
0.025258519 0.68599999 -0.042097531 1.3834427e-38 341 275
0.026461305 0.68599999 -0.042097531 1.4110638e-38 342 275
0.027664091 0.68599999 -0.042097531 1.3741857e-38 343 275
0.02886688 0.68599999 -0.042097531 1.3650731e-38 344 275
0.030069664 0.68599999 -0.042097531 1.3558535e-38 345 275
0.031272452 0.68599999 -0.042097531 1.383368e-38 346 275
0.032475237 0.68599999 -0.042097531 1.3741483e-38 347 275
0.033678025 0.68599999 -0.042097531 1.4016272e-38 348 275
0.034880809 0.68599999 -0.042097531 1.1987968e-38 349 275
0.036083598 0.68599999 -0.042097531 7.4765327e-39 350 275
0.037286382 0.68599999 -0.042097531 8.0300666e-39 351 275
0.038545277 0.68699998 -0.042158898 9.4105011e-39 352 275
0.039749816 0.68699998 -0.042158898 1.0055871e-38 353 275
0.040954359 0.68699998 -0.042158898 1.1528454e-38 354 275
0.042158898 0.68699998 -0.042158898 1.2173824e-38 355 275
0.043363437 0.68699998 -0.042158898 1.2908143e-38 356 275
0.044632856 0.68800002 -0.042220265 1.2724111e-38 357 275
0.04617228 0.69300002 -0.042527102 1.1803955e-38 358 275
0.047592476 0.69599998 -0.042711195 1.1250783e-38 359 275
0.048882935 0.69700003 -0.042772565 1.1527007e-38 360 275
0.050105009 0.69700003 -0.042772565 1.1619561e-38 361 275
0.051400717 0.69800001 -0.042833932 1.1159301e-38 362 275
0.052624546 0.69800001 -0.042833932 1.1344051e-38 363 275
0.053848371 0.69800001 -0.042833932 1.0608278e-38 364 275
0.055308893 0.70099998 -0.043018032 9.0409521e-39 365 275
0.056537982 0.70099998 -0.043018032 9.9596518e-39 366 275
-0.0062593995 0.71399999 -0.045067675 1.8069623e-38 315 276
-0.0050075199 0.71399999 -0.045067675 1.5766554e-38 316 276
-0.0037345996 0.70999998 -0.044815198 1.3461303e-38 317 276
-0.00248272 0.708 -0.044688959 1.0977439e-38 318 276
-0.0012378532 0.70599997 -0.044562716 1.1253665e-38 319 276
0 0.704 -0.044436477 1.3096872e-38 320 276
0.0012325933 0.70300001 -0.04437336 1.2912841e-38 321 276
0.0024581731 0.70099998 -0.044247117 1.1163287e-38 322 276
0.0036819996 0.69999999 -0.044183996 1.0978897e-38 323 276
0.0048953067 0.69800001 -0.04405776 1.1071815e-38 324 276
0.0061103669 0.69700003 -0.043994639 1.1717184e-38 325 276
0.00733244 0.69700003 -0.043994639 1.2913562e-38 326 276
0.0085422397 0.69599998 -0.043931518 1.1345878e-38 327 276
0.0097345067 0.69400001 -0.043805279 1.0239533e-38 328 276
0.01095132 0.69400001 -0.043805279 9.8711107e-39 329 276
0.012150601 0.69300002 -0.043742158 9.779278e-39 330 276
0.01336566 0.69300002 -0.043742158 9.6870824e-39 331 276
0.014538639 0.69099998 -0.043615919 9.6863621e-39 332 276
0.015727401 0.69 -0.043552797 9.5941665e-39 333 276
0.0169372 0.69 -0.043552797 1.0978173e-38 334 276
0.0180944 0.68800002 -0.043426562 1.1992326e-38 335 276
0.019300694 0.68800002 -0.043426562 1.3098661e-38 336 276
0.020506985 0.68800002 -0.043426562 1.3744031e-38 337 276
0.021681719 0.68699998 -0.043363437 1.337597e-38 338 276
0.022886258 0.68699998 -0.043363437 1.0794492e-38 339 276
0.024090799 0.68699998 -0.043363437 1.1529178e-38 340 276
0.025295338 0.68699998 -0.043363437 1.3741873e-38 341 276
0.026499879 0.68699998 -0.043363437 1.3925891e-38 342 276
0.027704418 0.68699998 -0.043363437 1.3649664e-38 343 276
0.028908957 0.68699998 -0.043363437 1.3649662e-38 344 276
0.030113498 0.68699998 -0.043363437 1.3557465e-38 345 276
0.031318039 0.68699998 -0.043363437 1.3557818e-38 346 276
0.032522578 0.68699998 -0.043363437 1.3465622e-38 347 276
0.033727121 0.68699998 -0.043363437 1.383368e-38 348 276
0.034931656 0.68699998 -0.043363437 1.3188311e-38 349 276
0.036136195 0.68699998 -0.043363437 1.2359279e-38 350 276
0.037340738 0.68699998 -0.043363437 1.3280875e-38 351 276
0.038545277 0.68699998 -0.043363437 1.4108487e-38 352 276
0.039749816 0.68699998 -0.043363437 1.3832261e-38 353 276
0.041013971 0.68800002 -0.043426562 1.3923726e-38 354 276
0.042220265 0.68800002 -0.043426562 1.3554945e-38 355 276
0.043426562 0.68800002 -0.043426562 1.2539717e-38 356 276
0.044827472 0.69099998 -0.043615919 1.1248978e-38 357 276
0.046372157 0.69599998 -0.043931518 1.0789094e-38 358 276
0.047592476 0.69599998 -0.043931518 1.088129e-38 359 276
0.048882935 0.69700003 -0.043994639 1.1066037e-38 360 276
0.050176892 0.69800001 -0.04405776 1.1066037e-38 361 276
0.051400717 0.69800001 -0.04405776 1.0883075e-38 362 276
0.052624546 0.69800001 -0.04405776 1.0513934e-38 363 276
0.054002665 0.69999999 -0.044183996 9.2235483e-39 364 276
0.0554667 0.70300001 -0.04437336 7.8406124e-39 365 276
0.056699295 0.70300001 -0.04437336 9.8671002e-39 366 276
-0.0062593995 0.71399999 -0.046319555 1.7977072e-38 315 277
-0.0050075199 0.71399999 -0.046319555 1.5399208e-38 316 277
-0.0037345996 0.70999998 -0.046060063 1.3370903e-38 317 277
-0.00248272 0.708 -0.045930319 1.2081265e-38 318 277
-0.0012396066 0.70700002 -0.045865446 1.1435896e-38 319 277
0 0.70599997 -0.04580057 1.0701943e-38 320 277
0.0012343467 0.704 -0.045670826 1.1162563e-38 321 277
0.0024651866 0.70300001 -0.04560595 1.0795228e-38 322 277
0.0036819996 0.69999999 -0.04541133 1.0887423e-38 323 277
0.0049093333 0.69999999 -0.04541133 1.0703755e-38 324 277
0.006119133 0.69800001 -0.045281585 1.1072536e-38 325 277
0.00733244 0.69700003 -0.045216713 1.2085244e-38 326 277
0.0085422397 0.69599998 -0.045151837 1.0886702e-38 327 277
0.0097625591 0.69599998 -0.045151837 1.0516477e-38 328 277
0.01095132 0.69400001 -0.045022093 1.0147335e-38 329 277
0.012168133 0.69400001 -0.045022093 9.779634e-39 330 277
0.01336566 0.69300002 -0.044957221 9.779634e-39 331 277
0.014580719 0.69300002 -0.044957221 9.6863621e-39 332 277
0.015750192 0.69099998 -0.044827472 9.7785592e-39 333 277
0.016961746 0.69099998 -0.044827472 1.1161847e-38 334 277
0.018146999 0.69 -0.0447626 1.2083443e-38 335 277
0.019300694 0.68800002 -0.044632856 1.3281973e-38 336 277
0.020506985 0.68800002 -0.044632856 1.355856e-38 337 277
0.021681719 0.68699998 -0.044567976 1.3006829e-38 338 277
0.022886258 0.68699998 -0.044567976 1.0702297e-38 339 277
0.024090799 0.68699998 -0.044567976 1.1345865e-38 340 277
0.025295338 0.68699998 -0.044567976 1.3374169e-38 341 277
0.026499879 0.68699998 -0.044567976 1.3557832e-38 342 277
0.027704418 0.68699998 -0.044567976 1.3281604e-38 343 277
0.028908957 0.68699998 -0.044567976 1.3281601e-38 344 277
0.030113498 0.68699998 -0.044567976 1.3189405e-38 345 277
0.031318039 0.68699998 -0.044567976 1.3280878e-38 346 277
0.032569919 0.68800002 -0.044632856 1.3280878e-38 347 277
0.033776212 0.68800002 -0.044632856 1.337307e-38 348 277
0.03498251 0.68800002 -0.044632856 1.2635505e-38 349 277
0.0361888 0.68800002 -0.044632856 1.1897584e-38 350 277
0.037395094 0.68800002 -0.044632856 1.2266727e-38 351 277
0.038601387 0.68800002 -0.044632856 1.2909581e-38 352 277
0.0399234 0.69 -0.0447626 1.2909581e-38 353 277
0.041192811 0.69099998 -0.044827472 1.2815581e-38 354 277
0.042404365 0.69099998 -0.044827472 1.2078016e-38 355 277
0.043615919 0.69099998 -0.044827472 1.0515732e-38 356 277
0.045022093 0.69400001 -0.045022093 1.0054754e-38 357 277
0.046372157 0.69599998 -0.045151837 1.033099e-38 358 277
0.047592476 0.69599998 -0.045151837 1.0699773e-38 359 277
0.048882935 0.69700003 -0.045216713 1.0701565e-38 360 277
0.050176892 0.69800001 -0.045281585 1.0793761e-38 361 277
0.051400717 0.69800001 -0.045281585 1.0700843e-38 362 277
0.052775331 0.69999999 -0.04541133 8.8572895e-39 363 277
0.054079808 0.70099998 -0.045476202 7.7491413e-39 364 277
0.0554667 0.70300001 -0.04560595 8.7632918e-39 365 277
0.056699295 0.70300001 -0.04560595 1.1337911e-38 366 277
0.057931885 0.70300001 -0.04560595 1.6685617e-38 367 277
-0.0062593995 0.71399999 -0.047571439 1.7701564e-38 315 278
-0.0050075199 0.71399999 -0.047571439 1.5675072e-38 316 278
-0.0037398601 0.71100003 -0.047371563 1.3738964e-38 317 278
-0.00248272 0.708 -0.047171678 1.29103e-38 318 278
-0.0012396066 0.70700002 -0.047105055 1.2357126e-38 319 278
0 0.70599997 -0.047038425 1.0792694e-38 320 278
0.0012343467 0.704 -0.046905171 1.0607943e-38 321 278
0.0024651866 0.70300001 -0.046838548 1.0886702e-38 322 278
0.0036872597 0.70099998 -0.046705291 1.1163287e-38 323 278
0.0049093333 0.69999999 -0.046638668 1.04286e-38 324 278
0.006119133 0.69800001 -0.046505414 1.0704827e-38 325 278
0.00733244 0.69700003 -0.046438783 1.1257282e-38 326 278
0.0085545136 0.69700003 -0.046438783 1.0796304e-38 327 278
0.0097625591 0.69599998 -0.046372157 1.0702662e-38 328 278
0.010982879 0.69599998 -0.046372157 1.0241686e-38 329 278
0.012168133 0.69400001 -0.046238903 1.0239883e-38 330 278
0.013384946 0.69400001 -0.046238903 1.0147688e-38 331 278
0.014580719 0.69300002 -0.04617228 1.005442e-38 332 278
0.015795778 0.69300002 -0.04617228 1.0146616e-38 333 278
0.016961746 0.69099998 -0.046039023 1.0794139e-38 334 278
0.0181733 0.69099998 -0.046039023 1.1807932e-38 335 278
0.019356798 0.69 -0.045972396 1.3281971e-38 336 278
0.020566599 0.69 -0.045972396 1.3374166e-38 337 278
0.021713281 0.68800002 -0.045839146 1.2546925e-38 338 278
0.022919573 0.68800002 -0.045839146 1.0703013e-38 339 278
0.024125867 0.68800002 -0.045839146 1.0795208e-38 340 278
0.02533216 0.68800002 -0.045839146 1.2362894e-38 341 278
0.026538454 0.68800002 -0.045839146 1.3097575e-38 342 278
0.027744746 0.68800002 -0.045839146 1.2913544e-38 343 278
0.028951041 0.68800002 -0.045839146 1.2822065e-38 344 278
0.030157333 0.68800002 -0.045839146 1.2822065e-38 345 278
0.031363625 0.68800002 -0.045839146 1.2636954e-38 346 278
0.032569919 0.68800002 -0.045839146 1.2636954e-38 347 278
0.033776212 0.68800002 -0.045839146 1.2636237e-38 348 278
0.035084199 0.69 -0.045972396 1.1529531e-38 349 278
0.036293998 0.69 -0.045972396 1.0608299e-38 350 278
0.037503798 0.69 -0.045972396 1.0884887e-38 351 278
0.038713597 0.69 -0.045972396 1.0883805e-38 352 278
0.039981257 0.69099998 -0.046039023 1.0607577e-38 353 278
0.041192811 0.69099998 -0.046039023 1.0606498e-38 354 278
0.042527102 0.69300002 -0.04617228 9.9611287e-39 355 278
0.043742158 0.69300002 -0.04617228 9.8707282e-39 356 278
0.045022093 0.69400001 -0.046238903 1.0423902e-38 357 278
0.046372157 0.69599998 -0.046372157 1.0700843e-38 358 278
0.047592476 0.69599998 -0.046372157 1.0977789e-38 359 278
0.048882935 0.69700003 -0.046438783 1.097958e-38 360 278
0.050176892 0.69800001 -0.046505414 1.079519e-38 361 278
0.051547997 0.69999999 -0.046638668 1.0239868e-38 362 278
0.052775331 0.69999999 -0.046638668 8.4881496e-39 363 278
0.054234106 0.70300001 -0.046838548 7.8413425e-39 364 278
0.0554667 0.70300001 -0.046838548 9.3161125e-39 365 278
0.056699295 0.70300001 -0.046838548 1.1337911e-38 366 278
0.057931885 0.70300001 -0.046838548 1.6500867e-38 367 278
-0.0062330998 0.71100003 -0.048618179 1.7975271e-38 315 279
-0.0049864799 0.71100003 -0.048618179 1.5766549e-38 316 279
-0.0037398601 0.71100003 -0.048618179 1.4107026e-38 317 279
-0.0024897333 0.70999998 -0.048549797 1.3554948e-38 318 279
-0.0012396066 0.70700002 -0.048344657 1.3647143e-38 319 279
0 0.70599997 -0.048276275 1.3279453e-38 320 279
0.0012378532 0.70599997 -0.048276275 1.2080909e-38 321 279
0.0024686933 0.704 -0.048139516 1.0794142e-38 322 279
0.0036872597 0.70099998 -0.047934376 1.0978173e-38 323 279
0.0049093333 0.69999999 -0.047865998 1.0611916e-38 324 279
0.006119133 0.69800001 -0.047729239 1.1072534e-38 325 279
0.0073429602 0.69800001 -0.047729239 1.1441673e-38 326 279
0.0085667865 0.69800001 -0.047729239 1.0796304e-38 327 279
0.0097765867 0.69700003 -0.047660861 1.0885256e-38 328 279
0.010982879 0.69599998 -0.047592476 1.0700864e-38 329 279
0.0122032 0.69599998 -0.047592476 1.0517193e-38 330 279
0.013384946 0.69400001 -0.047455717 1.0517193e-38 331 279
0.01460176 0.69400001 -0.047455717 9.8736246e-39 332 279
0.015795778 0.69300002 -0.047387339 9.9658217e-39 333 279
0.01701084 0.69300002 -0.047387339 1.0241686e-38 334 279
0.018225901 0.69300002 -0.047387339 1.1808651e-38 335 279
0.019384852 0.69099998 -0.047250576 1.364968e-38 336 279
0.020566599 0.69 -0.047182199 1.3557484e-38 337 279
0.021776399 0.69 -0.047182199 1.2362538e-38 338 279
0.022986198 0.69 -0.047182199 1.1624973e-38 339 279
0.024125867 0.68800002 -0.047045439 1.1716093e-38 340 279
0.02533216 0.68800002 -0.047045439 1.2084875e-38 341 279
0.026538454 0.68800002 -0.047045439 1.2361456e-38 342 279
0.027744746 0.68800002 -0.047045439 1.2454011e-38 343 279
0.029035198 0.69 -0.047182199 1.2085944e-38 344 279
0.030244999 0.69 -0.047182199 1.1993749e-38 345 279
0.031454802 0.69 -0.047182199 1.2543685e-38 346 279
0.032664597 0.69 -0.047182199 1.245149e-38 347 279
0.0338744 0.69 -0.047182199 1.2358938e-38 348 279
0.035135046 0.69099998 -0.047250576 1.0515384e-38 349 279
0.036346599 0.69099998 -0.047250576 8.1236999e-39 350 279
0.03755815 0.69099998 -0.047250576 8.3084499e-39 351 279
0.038769703 0.69099998 -0.047250576 8.2184165e-39 352 279
0.04009698 0.69300002 -0.047387339 8.4953621e-39 353 279
0.041312039 0.69300002 -0.047387339 1.0424628e-38 354 279
0.042527102 0.69300002 -0.047387339 1.0424628e-38 355 279
0.043805279 0.69400001 -0.047455717 1.0425701e-38 356 279
0.045151837 0.69599998 -0.047592476 1.0610451e-38 357 279
0.046438783 0.69700003 -0.047660861 1.0703363e-38 358 279
0.047660861 0.69700003 -0.047660861 1.0703363e-38 359 279
0.048953064 0.69800001 -0.047729239 1.1070703e-38 360 279
0.050176892 0.69800001 -0.047729239 1.0425334e-38 361 279
0.051621638 0.70099998 -0.047934376 8.8594531e-39 362 279
0.053001512 0.70300001 -0.048071139 7.1077375e-39 363 279
0.054311249 0.704 -0.048139516 7.2896037e-39 364 279
0.055545598 0.704 -0.048139516 8.7647351e-39 365 279
0.056779943 0.704 -0.048139516 1.1156037e-38 366 279
0.058014292 0.704 -0.048139516 1.595057e-38 367 279
-0.0049864799 0.71100003 -0.049864799 1.5582873e-38 316 280
-0.0037398601 0.71100003 -0.049864799 1.4015906e-38 317 280
-0.0024897333 0.70999998 -0.049794663 1.3648932e-38 318 280
-0.00124136 0.708 -0.049654398 1.4294301e-38 319 280
0 0.70700002 -0.049584266 1.4294678e-38 320 280
0.0012378532 0.70599997 -0.04951413 1.2819546e-38 321 280
0.0024686933 0.704 -0.049373865 1.0424284e-38 322 280
0.0036977797 0.70300001 -0.049303733 1.0792707e-38 323 280
0.0049163462 0.70099998 -0.049163464 1.0426811e-38 324 280
0.0061366665 0.69999999 -0.049093332 1.0795954e-38 325 280
0.0073429602 0.69800001 -0.048953064 1.171754e-38 326 280
0.0085667865 0.69800001 -0.048953064 1.0795225e-38 327 280
0.0097906133 0.69800001 -0.048953064 1.0609392e-38 328 280
0.01099866 0.69700003 -0.048882935 1.0425001e-38 329 280
0.0122032 0.69599998 -0.048812799 1.0241686e-38 330 280
0.013384946 0.69400001 -0.048672531 1.0241686e-38 331 280
0.01460176 0.69400001 -0.048672531 9.9647413e-39 332 280
0.015818574 0.69400001 -0.048672531 1.0056937e-38 333 280
0.01701084 0.69300002 -0.048602402 1.0977454e-38 334 280
0.018225901 0.69300002 -0.048602402 1.2175997e-38 335 280
0.019384852 0.69099998 -0.04846213 1.3741875e-38 336 280
0.020596405 0.69099998 -0.04846213 1.3557484e-38 337 280
0.021807959 0.69099998 -0.04846213 1.2088468e-38 338 280
0.023019511 0.69099998 -0.04846213 1.1535294e-38 339 280
0.024195999 0.69 -0.048391998 1.1442745e-38 340 280
0.025405798 0.69 -0.048391998 1.1442745e-38 341 280
0.026615599 0.69 -0.048391998 1.1259433e-38 342 280
0.027825398 0.69 -0.048391998 1.1259433e-38 343 280
0.029035198 0.69 -0.048391998 1.1442024e-38 344 280
0.030288832 0.69099998 -0.04846213 1.1442024e-38 345 280
0.031500384 0.69099998 -0.04846213 1.162389e-38 346 280
0.032711938 0.69099998 -0.04846213 1.1808641e-38 347 280
0.033923492 0.69099998 -0.04846213 1.162389e-38 348 280
0.035135046 0.69099998 -0.04846213 1.0517902e-38 349 280
0.036451802 0.69300002 -0.048602402 8.6779527e-39 350 280
0.037666857 0.69300002 -0.048602402 9.0467352e-39 351 280
0.03888192 0.69300002 -0.048602402 9.4144388e-39 352 280
0.04009698 0.69300002 -0.048602402 9.7835814e-39 353 280
0.041371655 0.69400001 -0.048672531 1.015271e-38 354 280
0.042588469 0.69400001 -0.048672531 1.0337101e-38 355 280
0.043931518 0.69599998 -0.048812799 1.0795914e-38 356 280
0.045216713 0.69700003 -0.048882935 1.0611164e-38 357 280
0.046505414 0.69800001 -0.048953064 1.0427499e-38 358 280
0.047729239 0.69800001 -0.048953064 1.0243108e-38 359 280
0.048953064 0.69800001 -0.048953064 1.0517897e-38 360 280
0.050320663 0.69999999 -0.049093332 9.9650818e-39 361 280
0.051768921 0.70300001 -0.049303733 8.765454e-39 362 280
0.053001512 0.70300001 -0.049303733 7.9360535e-39 363 280
0.054311249 0.704 -0.049373865 8.4859762e-39 364 280
0.055545598 0.704 -0.049373865 1.0145858e-38 365 280
0.056779943 0.704 -0.049373865 1.2353496e-38 366 280
0.058014292 0.704 -0.049373865 1.6317908e-38 367 280
-0.0049864799 0.71100003 -0.051111419 1.4939289e-38 316 281
-0.0037398601 0.71100003 -0.051111419 1.3832581e-38 317 281
-0.0024897333 0.70999998 -0.051039528 1.3558891e-38 318 281
-0.00124136 0.708 -0.050895758 1.3743282e-38 319 281
0 0.708 -0.050895758 1.3652548e-38 320 281
0.0012396066 0.70700002 -0.050823875 1.2454005e-38 321 281
0.0024757064 0.70599997 -0.050751984 9.3186558e-39 322 281
0.0037030398 0.704 -0.050608214 9.2264602e-39 323 281
0.0049163462 0.70099998 -0.050392549 9.1353562e-39 324 281
0.0061366665 0.69999999 -0.050320663 9.6885299e-39 325 281
0.0073639993 0.69999999 -0.050320663 9.9679881e-39 326 281
0.0085667865 0.69800001 -0.050176892 1.0060184e-38 327 281
0.0097906133 0.69800001 -0.050176892 1.0333531e-38 328 281
0.01101444 0.69800001 -0.050176892 1.0056943e-38 329 281
0.012220734 0.69700003 -0.050105009 1.014734e-38 330 281
0.013423519 0.69599998 -0.050033119 1.0054786e-38 331 281
0.01460176 0.69400001 -0.049889345 9.9615071e-39 332 281
0.015818574 0.69400001 -0.049889345 1.0237735e-38 333 281
0.017035386 0.69400001 -0.049889345 1.1345515e-38 334 281
0.018225901 0.69300002 -0.049817458 1.2267471e-38 335 281
0.01944096 0.69300002 -0.049817458 1.3741157e-38 336 281
0.020596405 0.69099998 -0.049673684 1.3556765e-38 337 281
0.021807959 0.69099998 -0.049673684 1.1719334e-38 338 281
0.023019511 0.69099998 -0.049673684 1.1258354e-38 339 281
0.024231065 0.69099998 -0.049673684 1.1074689e-38 340 281
0.025442619 0.69099998 -0.049673684 1.0982493e-38 341 281
0.026654173 0.69099998 -0.049673684 1.1165085e-38 342 281
0.027865725 0.69099998 -0.049673684 1.1257282e-38 343 281
0.029077278 0.69099998 -0.049673684 1.0613708e-38 344 281
0.030288832 0.69099998 -0.049673684 1.0613708e-38 345 281
0.031591557 0.69300002 -0.049817458 1.0428598e-38 346 281
0.03280662 0.69300002 -0.049817458 1.0612629e-38 347 281
0.034021679 0.69300002 -0.049817458 1.0704459e-38 348 281
0.035236739 0.69300002 -0.049817458 1.0520066e-38 349 281
0.036451802 0.69300002 -0.049817458 1.0060164e-38 350 281
0.037666857 0.69300002 -0.049817458 9.9676097e-39 351 281
0.03888192 0.69300002 -0.049817458 9.876849e-39 352 281
0.040154841 0.69400001 -0.049889345 9.9690447e-39 353 281
0.041371655 0.69400001 -0.049889345 1.0152713e-38 354 281
0.042588469 0.69400001 -0.049889345 1.0060158e-38 355 281
0.043931518 0.69599998 -0.050033119 1.0335306e-38 356 281
0.045216713 0.69700003 -0.050105009 1.0243111e-38 357 281
0.046505414 0.69800001 -0.050176892 1.0149836e-38 358 281
0.047729239 0.69800001 -0.050176892 9.9654447e-39 359 281
0.049093332 0.69999999 -0.050320663 1.0147675e-38 360 281
0.050392549 0.70099998 -0.050392549 9.5945014e-39 361 281
0.051768921 0.70300001 -0.050536323 9.3153908e-39 362 281
0.053076904 0.704 -0.050608214 9.5923364e-39 363 281
0.054311249 0.704 -0.050608214 1.0788706e-38 364 281
0.055703394 0.70599997 -0.050751984 1.1895054e-38 365 281
0.056941248 0.70599997 -0.050751984 1.3092133e-38 366 281
0.058179103 0.70599997 -0.050751984 1.6411175e-38 367 281
-0.0050075199 0.71399999 -0.052578956 1.5122589e-38 316 282
-0.0037556398 0.71399999 -0.052578956 1.383185e-38 317 282
-0.0024932399 0.71100003 -0.052358042 1.3285531e-38 318 282
-0.0012448666 0.70999998 -0.052284397 1.3561758e-38 319 282
0 0.70999998 -0.052284397 1.4387948e-38 320 282
0.00124136 0.708 -0.052137118 1.3097209e-38 321 282
0.0024757064 0.70599997 -0.051989835 8.949516e-39 322 282
0.0037030398 0.704 -0.051842559 8.6729305e-39 323 282
0.0049303733 0.70300001 -0.051768921 8.6751011e-39 324 282
0.0061454331 0.70099998 -0.051621638 9.4126661e-39 325 282
0.0073639993 0.69999999 -0.051547997 9.6906795e-39 326 282
0.0085667865 0.69800001 -0.051400717 1.0059461e-38 327 282
0.0097906133 0.69800001 -0.051400717 9.6895991e-39 328 282
0.01101444 0.69800001 -0.051400717 9.2286224e-39 329 282
0.012220734 0.69700003 -0.051327083 9.7792808e-39 330 282
0.013442807 0.69700003 -0.051327083 9.6870852e-39 331 282
0.014643839 0.69599998 -0.051253434 9.777476e-39 332 282
0.015864158 0.69599998 -0.051253434 9.8700303e-39 333 282
0.017035386 0.69400001 -0.051106159 1.0794139e-38 334 282
0.0182522 0.69400001 -0.051106159 1.1807932e-38 335 282
0.019469013 0.69400001 -0.051106159 1.3189423e-38 336 282
0.020656019 0.69300002 -0.051032521 1.3097228e-38 337 282
0.021871079 0.69300002 -0.051032521 1.1533869e-38 338 282
0.02308614 0.69300002 -0.051032521 1.1257282e-38 339 282
0.024301201 0.69300002 -0.051032521 1.0705556e-38 340 282
0.02551626 0.69300002 -0.051032521 1.0521165e-38 341 282
0.02673132 0.69300002 -0.051032521 1.0429688e-38 342 282
0.027946379 0.69300002 -0.051032521 1.0429688e-38 343 282
0.029161438 0.69300002 -0.051032521 1.0154177e-38 344 282
0.0303765 0.69300002 -0.051032521 1.0061623e-38 345 282
0.031591557 0.69300002 -0.051032521 1.0337124e-38 346 282
0.03280662 0.69300002 -0.051032521 1.0337124e-38 347 282
0.034021679 0.69300002 -0.051032521 1.0337118e-38 348 282
0.035236739 0.69300002 -0.051032521 1.0337118e-38 349 282
0.036504399 0.69400001 -0.051106159 9.9694104e-39 350 282
0.037721213 0.69400001 -0.051106159 9.8772148e-39 351 282
0.038938027 0.69400001 -0.051106159 9.8764959e-39 352 282
0.040154841 0.69400001 -0.051106159 9.8764959e-39 353 282
0.041371655 0.69400001 -0.051106159 9.7842975e-39 354 282
0.042711195 0.69599998 -0.051253434 9.7842975e-39 355 282
0.043931518 0.69599998 -0.051253434 9.1396469e-39 356 282
0.045216713 0.69700003 -0.051327083 8.3102464e-39 357 282
0.046505414 0.69800001 -0.051400717 8.4957097e-39 358 282
0.047865998 0.69999999 -0.051547997 9.417666e-39 359 282
0.049163464 0.70099998 -0.051621638 1.1436246e-38 360 282
0.050536323 0.70300001 -0.051768921 1.1251855e-38 361 282
0.051842559 0.704 -0.051842559 1.0881628e-38 362 282
0.053227689 0.70599997 -0.051989835 1.0973823e-38 363 282
0.054465543 0.70599997 -0.051989835 1.1710657e-38 364 282
0.055782299 0.70700002 -0.05206348 1.2356026e-38 365 282
0.057021905 0.70700002 -0.05206348 1.3094284e-38 366 282
0.05826151 0.70700002 -0.05206348 1.6321131e-38 367 282
-0.0049864799 0.71100003 -0.053604662 1.539845e-38 316 283
-0.0037398601 0.71100003 -0.053604662 1.3738568e-38 317 283
-0.0024932399 0.71100003 -0.053604662 1.282562e-38 318 283
-0.00124662 0.71100003 -0.053604662 1.3378793e-38 319 283
0 0.70999998 -0.053529263 1.4573412e-38 320 283
0.00124136 0.708 -0.053378478 1.337487e-38 321 283
0.0024792133 0.70700002 -0.053303085 9.7789095e-39 322 283
0.0037135598 0.70599997 -0.053227689 9.5945168e-39 323 283
0.0049303733 0.70300001 -0.053001512 9.6881614e-39 324 283
0.0061454331 0.70099998 -0.052850723 1.014914e-38 325 283
0.0073639993 0.69999999 -0.052775331 1.0151291e-38 326 283
0.0085913334 0.69999999 -0.052775331 9.9665405e-39 327 283
0.0097906133 0.69800001 -0.052624546 9.0442269e-39 328 283
0.01101444 0.69800001 -0.052624546 8.7680002e-39 329 283
0.012238266 0.69800001 -0.052624546 9.777476e-39 330 283
0.013442807 0.69700003 -0.052549154 9.9622274e-39 331 283
0.01466488 0.69700003 -0.052549154 9.8707548e-39 332 283
0.015864158 0.69599998 -0.052473757 1.0239536e-38 333 283
0.017084479 0.69599998 -0.052473757 1.0334966e-38 334 283
0.018304799 0.69599998 -0.052473757 1.1165085e-38 335 283
0.019469013 0.69400001 -0.052322973 1.2452583e-38 336 283
0.020685827 0.69400001 -0.052322973 1.2452583e-38 337 283
0.021902639 0.69400001 -0.052322973 1.0706629e-38 338 283
0.023119451 0.69400001 -0.052322973 1.0429682e-38 339 283
0.024301201 0.69300002 -0.05224758 1.0061628e-38 340 283
0.02551626 0.69300002 -0.05224758 9.8772386e-39 341 283
0.02673132 0.69300002 -0.05224758 9.6024496e-39 342 283
0.027946379 0.69300002 -0.05224758 9.6946452e-39 343 283
0.029161438 0.69300002 -0.05224758 9.693562e-39 344 283
0.0303765 0.69300002 -0.05224758 9.6013664e-39 345 283
0.031591557 0.69300002 -0.05224758 9.6931963e-39 346 283
0.03280662 0.69300002 -0.05224758 9.6931963e-39 347 283
0.034021679 0.69300002 -0.05224758 9.7857478e-39 348 283
0.035287585 0.69400001 -0.052322973 9.7857478e-39 349 283
0.036504399 0.69400001 -0.052322973 9.6013566e-39 350 283
0.037721213 0.69400001 -0.052322973 9.5088022e-39 351 283
0.038938027 0.69400001 -0.052322973 9.5080833e-39 352 283
0.040154841 0.69400001 -0.052322973 9.5080833e-39 353 283
0.041490879 0.69599998 -0.052473757 9.5995517e-39 354 283
0.042711195 0.69599998 -0.052473757 9.5995517e-39 355 283
0.043994639 0.69700003 -0.052549154 7.2075072e-39 356 283
0.045216713 0.69700003 -0.052549154 4.7182252e-39 357 283
0.046505414 0.69800001 -0.052624546 6.9280336e-39 358 283
0.047865998 0.69999999 -0.052775331 1.0339272e-38 359 283
0.049163464 0.70099998 -0.052850723 1.3553502e-38 360 283
0.050536323 0.70300001 -0.053001512 1.3000328e-38 361 283
0.051842559 0.704 -0.053076904 1.2724091e-38 362 283
0.053227689 0.70599997 -0.053227689 1.2355309e-38 363 283
0.054465543 0.70599997 -0.053227689 1.2081223e-38 364 283
0.055782299 0.70700002 -0.053303085 1.2357812e-38 365 283
0.057102561 0.708 -0.053378478 1.2910959e-38 366 283
0.058343921 0.708 -0.053378478 1.650659e-38 367 283
-0.0049864799 0.71100003 -0.054851279 1.5951256e-38 316 284
-0.0037398601 0.71100003 -0.054851279 1.3830398e-38 317 284
-0.0024932399 0.71100003 -0.054851279 1.1904367e-38 318 284
-0.00124662 0.71100003 -0.054851279 1.2365705e-38 319 284
0 0.70999998 -0.054774132 1.4021664e-38 320 284
0.00124136 0.708 -0.054619838 1.3468491e-38 321 284
0.00248272 0.708 -0.054619838 1.1530612e-38 322 284
0.0037135598 0.70599997 -0.054465543 1.1345862e-38 323 284
0.0049373866 0.704 -0.054311249 1.1528824e-38 324 284
0.0061629666 0.70300001 -0.054234106 1.1252596e-38 325 284
0.0073745195 0.70099998 -0.054079808 1.1346231e-38 326 284
0.0085913334 0.69999999 -0.054002665 1.1346231e-38 327 284
0.0098186666 0.69999999 -0.054002665 1.051683e-38 328 284
0.01101444 0.69800001 -0.053848371 1.0239883e-38 329 284
0.012238266 0.69800001 -0.053848371 9.9622245e-39 330 284
0.013462093 0.69800001 -0.053848371 9.8700275e-39 331 284
0.01468592 0.69800001 -0.053848371 9.2279021e-39 332 284
0.015886955 0.69700003 -0.053771228 9.3204579e-39 333 284
0.017109027 0.69700003 -0.053771228 9.5992e-39 334 284
0.018304799 0.69599998 -0.053694077 1.0613711e-38 335 284
0.019525118 0.69599998 -0.053694077 1.2175994e-38 336 284
0.020685827 0.69400001 -0.053539783 1.2175994e-38 337 284
0.021902639 0.69400001 -0.053539783 9.4202093e-39 338 284
0.023119451 0.69400001 -0.053539783 9.0510667e-39 339 284
0.024336265 0.69400001 -0.053539783 9.1421931e-39 340 284
0.025553079 0.69400001 -0.053539783 9.1421931e-39 341 284
0.026769891 0.69400001 -0.053539783 9.0507135e-39 342 284
0.027986705 0.69400001 -0.053539783 9.1429092e-39 343 284
0.029203519 0.69400001 -0.053539783 9.2333069e-39 344 284
0.030420333 0.69400001 -0.053539783 9.2333069e-39 345 284
0.031637147 0.69400001 -0.053539783 9.2329412e-39 346 284
0.032853961 0.69400001 -0.053539783 9.2329412e-39 347 284
0.034070771 0.69400001 -0.053539783 9.3254927e-39 348 284
0.035287585 0.69400001 -0.053539783 9.3254927e-39 349 284
0.036504399 0.69400001 -0.053539783 9.2325782e-39 350 284
0.037721213 0.69400001 -0.053539783 9.1400225e-39 351 284
0.038938027 0.69400001 -0.053539783 8.9563501e-39 352 284
0.040270556 0.69599998 -0.053694077 8.9563501e-39 353 284
0.041490879 0.69599998 -0.053694077 8.8616335e-39 354 284
0.042772565 0.69700003 -0.053771228 7.6630917e-39 355 284
0.04405776 0.69800001 -0.053848371 4.5324088e-39 356 284
0.045281585 0.69800001 -0.053848371 2.1356812e-39 357 284
0.046638668 0.69999999 -0.054002665 5.9120964e-39 358 284
0.047865998 0.69999999 -0.054002665 9.8765085e-39 359 284
0.049303733 0.70300001 -0.054234106 1.3554948e-38 360 284
0.050608214 0.704 -0.054311249 1.2725187e-38 361 284
0.051989835 0.70599997 -0.054465543 1.2356026e-38 362 284
0.053303085 0.70700002 -0.054542694 1.2079798e-38 363 284
0.054542694 0.70700002 -0.054542694 1.1989375e-38 364 284
0.056018997 0.70999998 -0.054774132 1.2266322e-38 365 284
0.057263866 0.70999998 -0.054774132 1.2820192e-38 366 284
0.058838356 0.71399999 -0.05508272 1.6784604e-38 367 284
0.060090236 0.71399999 -0.05508272 1.9080867e-38 368 284
-0.0050285598 0.71700001 -0.056571297 1.6319677e-38 316 285
-0.0037714199 0.71700001 -0.056571297 1.392295e-38 317 285
-0.0024932399 0.71100003 -0.056097899 1.19933e-38 318 285
-0.00124662 0.71100003 -0.056097899 1.2177691e-38 319 285
0 0.70999998 -0.056018997 1.2641228e-38 320 285
0.0012448666 0.70999998 -0.056018997 1.2641228e-38 321 285
0.00248272 0.708 -0.055861197 1.2084499e-38 322 285
0.00372408 0.708 -0.055861197 1.1716076e-38 323 285
0.0049514128 0.70599997 -0.055703394 1.1622455e-38 324 285
0.0061717331 0.704 -0.055545598 1.1622455e-38 325 285
0.0073955595 0.70300001 -0.0554667 1.2266389e-38 326 285
0.0086036054 0.70099998 -0.055308893 1.2266389e-38 327 285
0.0098186666 0.69999999 -0.055229999 1.1713572e-38 328 285
0.011045999 0.69999999 -0.055229999 1.152918e-38 329 285
0.012273333 0.69999999 -0.055229999 1.1068205e-38 330 285
0.013462093 0.69800001 -0.0550722 1.0422836e-38 331 285
0.01468592 0.69800001 -0.0550722 8.8605517e-39 332 285
0.015909746 0.69800001 -0.0550722 8.4914091e-39 333 285
0.017109027 0.69700003 -0.054993302 1.0151291e-38 334 285
0.018331099 0.69700003 -0.054993302 1.1072887e-38 335 285
0.019525118 0.69599998 -0.054914396 1.2175276e-38 336 285
0.020745439 0.69599998 -0.054914396 1.208308e-38 337 285
0.021902639 0.69400001 -0.054756597 9.0521485e-39 338 285
0.023119451 0.69400001 -0.054756597 8.4989761e-39 339 285
0.024336265 0.69400001 -0.054756597 8.4064259e-39 340 285
0.025553079 0.69400001 -0.054756597 8.7748497e-39 341 285
0.026769891 0.69400001 -0.054756597 9.0507163e-39 342 285
0.027986705 0.69400001 -0.054756597 8.6819352e-39 343 285
0.029203519 0.69400001 -0.054756597 8.2223976e-39 344 285
0.030420333 0.69400001 -0.054756597 8.2223976e-39 345 285
0.031637147 0.69400001 -0.054756597 8.1294803e-39 346 285
0.032853961 0.69400001 -0.054756597 8.2220347e-39 347 285
0.034070771 0.69400001 -0.054756597 9.0481954e-39 348 285
0.035287585 0.69400001 -0.054756597 9.0481954e-39 349 285
0.036609598 0.69599998 -0.054914396 9.3236935e-39 350 285
0.037829921 0.69599998 -0.054914396 9.3236935e-39 351 285
0.039050236 0.69599998 -0.054914396 9.231495e-39 352 285
0.040270556 0.69599998 -0.054914396 8.6783213e-39 353 285
0.041550495 0.69700003 -0.054993302 7.1142368e-39 354 285
0.042772565 0.69700003 -0.054993302 4.7175091e-39 355 285
0.04405776 0.69800001 -0.0550722 4.0660413e-39 356 285
0.04541133 0.69999999 -0.055229999 3.236282e-39 357 285
0.046705291 0.70099998 -0.055308893 4.6228066e-39 358 285
0.047934376 0.70099998 -0.055308893 7.4812298e-39 359 285
0.049303733 0.70300001 -0.0554667 1.107035e-38 360 285
0.050608214 0.704 -0.055545598 1.1439133e-38 361 285
0.051989835 0.70599997 -0.055703394 1.1528066e-38 362 285
0.053303085 0.70700002 -0.055782299 1.1620262e-38 363 285
0.054542694 0.70700002 -0.055782299 1.143907e-38 364 285
0.056018997 0.70999998 -0.056018997 1.1900048e-38 365 285
0.057344519 0.71100003 -0.056097899 1.3831458e-38 366 285
0.058838356 0.71399999 -0.0563346 1.779587e-38 367 285
-0.00376616 0.71600002 -0.057747785 1.5027145e-38 317 286
-0.0025002533 0.713 -0.057505824 1.3281155e-38 318 286
-0.00124662 0.71100003 -0.057344519 1.2912012e-38 319 286
0 0.71100003 -0.057344519 1.2088745e-38 320 286
0.0012448666 0.70999998 -0.057263866 1.199655e-38 321 286
0.0024897333 0.70999998 -0.057263866 1.2085556e-38 322 286
0.00372408 0.708 -0.057102561 1.1440187e-38 323 286
0.0049654399 0.708 -0.057102561 1.0978158e-38 324 286
0.0061980332 0.70700002 -0.057021905 1.1438777e-38 325 286
0.0074060797 0.704 -0.056779943 1.1624976e-38 326 286
0.0086281532 0.70300001 -0.056699295 1.1901203e-38 327 286
0.0098326923 0.70099998 -0.056537982 1.1990879e-38 328 286
0.011045999 0.69999999 -0.056457333 1.1161117e-38 329 286
0.012273333 0.69999999 -0.056457333 1.1712853e-38 330 286
0.013500666 0.69999999 -0.056457333 1.134371e-38 331 286
0.014727999 0.69999999 -0.056457333 1.0332438e-38 332 286
0.015909746 0.69800001 -0.056296028 1.051683e-38 333 286
0.017133573 0.69800001 -0.056296028 1.1438783e-38 334 286
0.0183574 0.69800001 -0.056296028 1.1991598e-38 335 286
0.019553173 0.69700003 -0.056215372 1.2911759e-38 336 286
0.020775247 0.69700003 -0.056215372 1.1252596e-38 337 286
0.021965759 0.69599998 -0.056134716 6.5632364e-39 338 286
0.023186078 0.69599998 -0.056134716 2.6910199e-39 339 286
0.0244064 0.69599998 -0.056134716 2.8829796e-39 340 286
0.025553079 0.69400001 -0.055973411 5.557013e-39 341 286
0.026769891 0.69400001 -0.055973411 8.5875872e-39 342 286
0.027986705 0.69400001 -0.055973411 8.6797828e-39 343 286
0.029203519 0.69400001 -0.055973411 8.0383693e-39 344 286
0.030420333 0.69400001 -0.055973411 7.577031e-39 345 286
0.031637147 0.69400001 -0.055973411 5.8307034e-39 346 286
0.032853961 0.69400001 -0.055973411 6.5682685e-39 347 286
0.034070771 0.69400001 -0.055973411 8.5857725e-39 348 286
0.035389278 0.69599998 -0.056134716 9.1389463e-39 349 286
0.036609598 0.69599998 -0.056134716 9.4166066e-39 350 286
0.037829921 0.69599998 -0.056134716 9.6935522e-39 351 286
0.039106347 0.69700003 -0.056215372 1.0790542e-38 352 286
0.040328421 0.69700003 -0.056215372 8.6696837e-39 353 286
0.041550495 0.69700003 -0.056215372 5.2642089e-39 354 286
0.042833932 0.69800001 -0.056296028 3.4206564e-39 355 286
0.044183996 0.69999999 -0.056457333 4.1546468e-39 356 286
0.04541133 0.69999999 -0.056457333 3.4170817e-39 357 286
0.046705291 0.70099998 -0.056537982 1.0883605e-40 358 286
0.048071139 0.70300001 -0.056699295 1.2151836e-39 359 286
0.049373865 0.704 -0.056779943 4.628898e-39 360 286
0.050751984 0.70599997 -0.056941248 7.6717139e-39 361 286
0.05206348 0.70700002 -0.057021905 1.0794799e-38 362 286
0.053303085 0.70700002 -0.057021905 1.0886995e-38 363 286
0.054542694 0.70700002 -0.057021905 1.03363e-38 364 286
0.056097899 0.71100003 -0.057344519 1.1534843e-38 365 286
0.057344519 0.71100003 -0.057344519 1.5121841e-38 366 286
-0.0050215465 0.71600002 -0.059003171 1.7330605e-38 316 287
-0.00376616 0.71600002 -0.059003171 1.6039866e-38 317 287
-0.0025037599 0.71399999 -0.058838356 1.4937432e-38 318 287
-0.0012501266 0.713 -0.058755953 1.4107672e-38 319 287
0 0.71100003 -0.058591139 1.1534448e-38 320 287
0.00124662 0.71100003 -0.058591139 1.1811393e-38 321 287
0.0024897333 0.70999998 -0.058508728 1.1904717e-38 322 287
0.0037345996 0.70999998 -0.058508728 1.1812521e-38 323 287
0.0049654399 0.708 -0.058343921 1.0613669e-38 324 287
0.0061980332 0.70700002 -0.05826151 1.0705866e-38 325 287
0.0074271196 0.70599997 -0.058179103 1.180936e-38 326 287
0.0086404262 0.704 -0.058014292 1.3192295e-38 327 287
0.0098607466 0.70300001 -0.057931885 1.3097222e-38 328 287
0.011061779 0.70099998 -0.057767071 1.2267822e-38 329 287
0.012290866 0.70099998 -0.057767071 1.1898316e-38 330 287
0.013500666 0.69999999 -0.05768466 1.1621729e-38 331 287
0.014727999 0.69999999 -0.05768466 1.1162197e-38 332 287
0.015955333 0.69999999 -0.05768466 1.0885609e-38 333 287
0.017133573 0.69800001 -0.057519849 1.1346228e-38 334 287
0.0183574 0.69800001 -0.057519849 1.2084152e-38 335 287
0.019581227 0.69800001 -0.057519849 1.3649311e-38 336 287
0.020805053 0.69800001 -0.057519849 1.2634799e-38 337 287
0.02199732 0.69700003 -0.05743745 7.846027e-39 338 287
0.023219392 0.69700003 -0.05743745 4.61918e-39 339 287
0.0244064 0.69599998 -0.057355035 9.428903e-40 340 287
0.025626717 0.69599998 -0.057355035 4.2622917e-39 341 287
0.026847038 0.69599998 -0.057355035 6.5610812e-39 342 287
0.028067358 0.69599998 -0.057355035 7.85182e-39 343 287
0.029287677 0.69599998 -0.057355035 9.4162562e-39 344 287
0.030507999 0.69599998 -0.057355035 9.0478325e-39 345 287
0.031728316 0.69599998 -0.057355035 6.7472493e-39 346 287
0.032948639 0.69599998 -0.057355035 6.7472493e-39 347 287
0.034168959 0.69599998 -0.057355035 9.6903054e-39 348 287
0.035389278 0.69599998 -0.057355035 1.0889209e-38 349 287
0.036662199 0.69700003 -0.05743745 1.263408e-38 350 287
0.037884273 0.69700003 -0.05743745 1.2449689e-38 351 287
0.039106347 0.69700003 -0.05743745 1.1898666e-38 352 287
0.040328421 0.69700003 -0.05743745 9.224993e-39 353 287
0.041610107 0.69800001 -0.057519849 4.4398236e-39 354 287
0.042956665 0.69999999 -0.05768466 3.9788469e-39 355 287
0.044183996 0.69999999 -0.05768466 5.3567591e-39 356 287
0.045476202 0.70099998 -0.057767071 5.6337047e-39 357 287
0.046838548 0.70300001 -0.057931885 4.1571621e-39 358 287
0.048139516 0.704 -0.058014292 2.8664233e-39 359 287
0.049373865 0.704 -0.058014292 7.1131409e-39 360 287
0.050751984 0.70599997 -0.058179103 8.4960754e-39 361 287
0.05206348 0.70700002 -0.05826151 1.0521769e-38 362 287
0.053378478 0.708 -0.058343921 1.0337019e-38 363 287
0.054619838 0.708 -0.058343921 1.1070605e-38 364 287
0.055861197 0.708 -0.058343921 1.3744279e-38 365 287
-0.0037398601 0.71100003 -0.059837762 1.6409377e-38 317 288
-0.0024932399 0.71100003 -0.059837762 1.6133118e-38 318 288
-0.00124662 0.71100003 -0.059837762 1.5487749e-38 319 288
0 0.71100003 -0.059837762 1.2913422e-38 320 288
0.0012448666 0.70999998 -0.059753593 1.2360248e-38 321 288
0.0024897333 0.70999998 -0.059753593 1.126254e-38 322 288
0.0037345996 0.70999998 -0.059753593 1.1170344e-38 323 288
0.0049654399 0.708 -0.059585281 1.0617578e-38 324 288
0.0061980332 0.70700002 -0.059501119 1.0525383e-38 325 288
0.0074376399 0.70700002 -0.059501119 1.1811493e-38 326 288
