# .PCD v.7 - Point Cloud Data file format
FIELDS x y z rgb imX imY
SIZE 4 4 4 4 4 4
TYPE F F F F F F
COUNT 1 1 1 1 1 1
WIDTH 846
HEIGHT 1
VIEWPOINT 0 0 0 1 0 0 0
POINTS 846
DATA ascii
0.0056720334 0.64700001 0.072602026 1.4762141e-38 325 176
0.0068064397 0.64700001 0.072602026 1.4761775e-38 326 176
0.0079408465 0.64700001 0.072602026 1.466958e-38 327 176
0.0090752533 0.64700001 0.072602026 1.5310625e-38 328 176
0.01020966 0.64700001 0.072602026 1.4850005e-38 329 176
0.011326533 0.64600003 0.072489813 1.4388655e-38 330 176
0.012459187 0.64600003 0.072489813 1.3650731e-38 331 176
0.01359184 0.64600003 0.072489813 1.3095392e-38 332 176
0.014747286 0.64700001 0.072602026 1.2542218e-38 333 176
0.015881693 0.64700001 0.072602026 1.0794461e-38 334 176
0.00113616 0.648 0.071578078 1.0143354e-38 321 177
0.00227232 0.648 0.071578078 9.8700121e-39 322 177
0.00340848 0.648 0.071578078 1.097636e-38 323 177
0.0045376266 0.64700001 0.071467623 1.1533131e-38 324 177
0.0056720334 0.64700001 0.071467623 1.1809357e-38 325 177
0.0068064397 0.64700001 0.071467623 1.1809355e-38 326 177
0.0079408465 0.64700001 0.071467623 1.20863e-38 327 177
0.0090752533 0.64700001 0.071467623 1.2636952e-38 328 177
0.01020966 0.64700001 0.071467623 1.2176332e-38 329 177
0.011344067 0.64700001 0.071467623 1.2081963e-38 330 177
0.012478473 0.64700001 0.071467623 1.1344398e-38 331 177
0.013612879 0.64700001 0.071467623 1.0974176e-38 332 177
0.014747286 0.64700001 0.071467623 1.0881622e-38 333 177
0.0068169599 0.648 0.070441917 1.1989414e-38 326 178
0.0079408465 0.64700001 0.070333213 1.1712826e-38 327 178
0.0090752533 0.64700001 0.070333213 1.1896498e-38 328 178
0.01020966 0.64700001 0.070333213 1.1896498e-38 329 178
0.011344067 0.64700001 0.070333213 1.2081237e-38 330 178
0.012478473 0.64700001 0.070333213 1.2265629e-38 331 178
0.013612879 0.64700001 0.070333213 1.3186143e-38 332 178
0.014747286 0.64700001 0.070333213 1.3923708e-38 333 178
0.01020966 0.64700001 0.069198802 1.3278341e-38 329 179
0.011344067 0.64700001 0.069198802 1.4014106e-38 330 179
0.013612879 0.64700001 0.069198802 1.5397396e-38 332 179
0.028914221 0.71700001 0.0251428 1.2816287e-38 343 220
0.027772799 0.72000003 0.0239856 1.2633691e-38 342 221
0.028793238 0.71399999 0.02378572 1.2910279e-38 343 221
0.030045118 0.71399999 0.02378572 1.3741115e-38 344 221
0.026363119 0.71600002 0.022596961 1.2725886e-38 341 222
0.027618507 0.71600002 0.022596961 1.2727688e-38 342 222
0.028793238 0.71399999 0.022533838 1.3373058e-38 343 222
0.030045118 0.71399999 0.022533838 1.365179e-38 344 222
0.026363119 0.71600002 0.021341572 1.3095392e-38 341 223
0.027618507 0.71600002 0.021341572 1.2914954e-38 342 223
0.028873893 0.71600002 0.021341572 1.3375573e-38 343 223
0.03012928 0.71600002 0.021341572 1.3006768e-38 344 223
0.027657079 0.71700001 0.020114239 1.3375922e-38 342 224
0.028873893 0.71600002 0.020086186 1.2823108e-38 343 224
0.03012928 0.71600002 0.020086186 1.1441577e-38 344 224
0.027965667 0.72500002 0.0190675 1.2544344e-38 342 225
0.029236834 0.72500002 0.0190675 1.1346161e-38 343 225
0.030718399 0.73000002 0.019199001 1.0244454e-38 344 225
-0.022723202 0.72000003 0.017673599 1.1903956e-38 302 226
-0.021460801 0.72000003 0.017673599 1.1350782e-38 303 226
-0.020254506 0.722 0.017722692 1.0526026e-38 304 226
-0.018935999 0.72000003 0.017673599 1.0526026e-38 305 226
-0.017673599 0.72000003 0.017673599 1.1077458e-38 306 226
0.026915418 0.73100001 0.017943613 1.2177736e-38 341 226
0.028158534 0.73000002 0.017919067 1.1348659e-38 342 226
0.029438468 0.73000002 0.017919067 1.0518899e-38 343 226
0.030718399 0.73000002 0.017919067 1.0612151e-38 344 226
0.031998333 0.73000002 0.017919067 1.0888378e-38 345 226
-0.022723202 0.72000003 0.0164112 1.1445167e-38 302 227
-0.021460801 0.72000003 0.0164112 1.0891993e-38 303 227
-0.020254506 0.722 0.016456785 1.0066512e-38 304 227
-0.018935999 0.72000003 0.0164112 1.0066512e-38 305 227
-0.017673599 0.72000003 0.0164112 1.061717e-38 306 227
-0.01647958 0.72299999 0.01647958 1.0893397e-38 307 227
-0.015211919 0.72299999 0.01647958 1.1168932e-38 308 227
0.026804959 0.72799999 0.016593546 9.9682403e-39 341 227
0.028081384 0.72799999 0.016593546 9.9692927e-39 342 227
0.029438468 0.73000002 0.016639132 1.0338075e-38 343 227
0.030718399 0.73000002 0.016639132 1.1346469e-38 344 227
0.032042164 0.73100001 0.016661927 1.1623056e-38 345 227
0.033323854 0.73100001 0.016661927 1.4014051e-38 346 227
-0.02281788 0.72299999 0.015211919 1.2088045e-38 302 228
-0.021550218 0.72299999 0.015211919 1.1442675e-38 303 228
-0.020282559 0.72299999 0.015211919 1.0342044e-38 304 228
-0.019014901 0.72299999 0.015211919 1.0249489e-38 305 228
-0.017796334 0.72500002 0.015254001 9.7913432e-39 306 228
-0.01647958 0.72299999 0.015211919 9.7913432e-39 307 228
-0.015211919 0.72299999 0.015211919 1.0434199e-38 308 228
-0.012676599 0.72299999 0.015211919 1.1077458e-38 310 228
-0.01140894 0.72299999 0.015211919 1.0893427e-38 311 228
0.026804959 0.72799999 0.01531712 1.0336611e-38 341 228
0.028081384 0.72799999 0.01531712 1.1071656e-38 342 228
0.029438468 0.73000002 0.0153592 1.1440437e-38 343 228
0.030718399 0.73000002 0.0153592 1.2265182e-38 344 228
0.031998333 0.73000002 0.0153592 1.2818355e-38 345 228
0.033278264 0.73000002 0.0153592 1.465907e-38 346 228
-0.024218792 0.727 0.014021406 1.3467068e-38 301 229
-0.022944121 0.727 0.014021406 1.2272097e-38 302 229
-0.021669446 0.727 0.014021406 1.1257944e-38 303 229
-0.020422826 0.72799999 0.014040692 1.024987e-38 304 229
-0.019120099 0.727 0.014021406 1.0433903e-38 305 229
-0.017845426 0.727 0.014021406 1.0160854e-38 306 229
-0.016525166 0.72500002 0.013982833 9.6998763e-39 307 229
-0.015254001 0.72500002 0.013982833 9.5165206e-39 308 229
-0.013982833 0.72500002 0.013982833 9.3321279e-39 309 229
-0.012676599 0.72299999 0.01394426 9.5168919e-39 310 229
-0.01140894 0.72299999 0.01394426 9.7012832e-39 311 229
-0.010127253 0.722 0.013924973 1.0617524e-38 312 229
-0.0088613462 0.722 0.013924973 1.0801555e-38 313 229
-0.0075954394 0.722 0.013924973 1.1441924e-38 314 229
-0.0063382997 0.72299999 0.01394426 1.153412e-38 315 229
0.0050425865 0.71899998 0.013867113 1.1986877e-38 324 229
0.0063032326 0.71899998 0.013867113 1.1802487e-38 325 229
0.021550218 0.72299999 0.01394426 1.1623817e-38 337 229
0.02281788 0.72299999 0.01394426 1.0429552e-38 338 229
0.024085538 0.72299999 0.01394426 1.0152964e-38 339 229
0.025353199 0.72299999 0.01394426 1.0887991e-38 340 229
0.026694499 0.72500002 0.013982833 1.1072381e-38 341 229
0.028042812 0.727 0.014021406 1.1622678e-38 342 229
0.029438468 0.73000002 0.014079267 1.1807428e-38 343 229
0.030718399 0.73000002 0.014079267 1.2817296e-38 344 229
0.031998333 0.73000002 0.014079267 1.3278634e-38 345 229
0.033278264 0.73000002 0.014079267 1.4751278e-38 346 229
-0.024218792 0.727 0.012746733 1.37451e-38 301 230
-0.022944121 0.727 0.012746733 1.245686e-38 302 230
-0.021669446 0.727 0.012746733 1.1073925e-38 303 230
-0.020422826 0.72799999 0.012764266 1.0525029e-38 304 230
-0.0191464 0.72799999 0.012764266 1.0709421e-38 305 230
-0.017869972 0.72799999 0.012764266 1.0344895e-38 306 230
-0.016570752 0.727 0.012746733 1.0160504e-38 307 230
-0.015296079 0.727 0.012746733 9.7927347e-39 308 230
-0.013982833 0.72500002 0.012711667 9.2395609e-39 309 230
-0.012676599 0.72299999 0.012676599 9.0580213e-39 310 230
-0.01140894 0.72299999 0.012676599 9.1502169e-39 311 230
-0.010127253 0.722 0.012659066 9.4253969e-39 312 230
-0.0088613462 0.722 0.012659066 9.4253969e-39 313 230
-0.0075954394 0.722 0.012659066 9.6073247e-39 314 230
-0.0063295332 0.722 0.012659066 9.7920761e-39 315 230
-0.0050636264 0.722 0.012659066 1.089199e-38 316 230
0.0037819401 0.71899998 0.012606465 1.1989022e-38 323 230
0.0050425865 0.71899998 0.012606465 1.1896824e-38 324 230
0.0063032326 0.71899998 0.012606465 1.1896824e-38 325 230
0.0075638802 0.71899998 0.012606465 1.1898261e-38 326 230
0.0088367993 0.72000003 0.012624 1.2266685e-38 327 230
0.010099201 0.72000003 0.012624 1.236033e-38 328 230
0.017747238 0.72299999 0.012676599 1.1718536e-38 334 230
0.019014901 0.72299999 0.012676599 1.1441591e-38 335 230
0.020282559 0.72299999 0.012676599 1.0981301e-38 336 230
0.021550218 0.72299999 0.012676599 1.0704712e-38 337 230
0.02281788 0.72299999 0.012676599 1.0796517e-38 338 230
0.024085538 0.72299999 0.012676599 1.0796517e-38 339 230
0.025353199 0.72299999 0.012676599 1.1254971e-38 340 230
0.026694499 0.72500002 0.012711667 1.1347167e-38 341 230
0.028042812 0.727 0.012746733 1.1714876e-38 342 230
0.029438468 0.73000002 0.012799333 1.1899267e-38 343 230
0.030718399 0.73000002 0.012799333 1.2082978e-38 344 230
0.031998333 0.73000002 0.012799333 1.2359925e-38 345 230
0.033278264 0.73000002 0.012799333 1.3832919e-38 346 230
-0.024252106 0.72799999 0.01148784 1.4020608e-38 301 231
-0.022975679 0.72799999 0.01148784 1.2733089e-38 302 231
-0.021699252 0.72799999 0.01148784 1.0981732e-38 303 231
-0.020478934 0.73000002 0.011519399 1.0248441e-38 304 231
-0.019199001 0.73000002 0.011519399 1.0525029e-38 305 231
-0.017919067 0.73000002 0.011519399 1.071225e-38 306 231
-0.016593546 0.72799999 0.01148784 1.0620054e-38 307 231
-0.015296079 0.727 0.01147206 1.0252286e-38 308 231
-0.013982833 0.72500002 0.0114405 9.7916683e-39 309 231
-0.012676599 0.72299999 0.01140894 9.2420426e-39 310 231
-0.01140894 0.72299999 0.01140894 9.1494883e-39 311 231
-0.01014128 0.72299999 0.01140894 8.9665291e-39 312 231
-0.0088613462 0.722 0.01139316 8.7821365e-39 313 231
-0.0075954394 0.722 0.01139316 8.5059223e-39 314 231
-0.0063295332 0.722 0.01139316 8.7825106e-39 315 231
-0.0050636264 0.722 0.01139316 9.9746246e-39 316 231
-0.0037819401 0.71899998 0.01134582 1.0343406e-38 317 231
-0.0025212932 0.71899998 0.01134582 1.0341298e-38 318 231
-0.0012606466 0.71899998 0.01134582 1.0617886e-38 319 231
0.0025212932 0.71899998 0.01134582 1.1073514e-38 322 231
0.0037819401 0.71899998 0.01134582 1.0981319e-38 323 231
0.0050425865 0.71899998 0.01134582 1.0980966e-38 324 231
0.0063032326 0.71899998 0.01134582 1.0980966e-38 325 231
0.0075638802 0.71899998 0.01134582 1.0799091e-38 326 231
0.0088367993 0.72000003 0.011361601 1.1168234e-38 327 231
0.010099201 0.72000003 0.011361601 1.1719606e-38 328 231
0.01647958 0.72299999 0.01140894 1.1167483e-38 333 231
0.017747238 0.72299999 0.01140894 1.0982375e-38 334 231
0.019014901 0.72299999 0.01140894 1.0705428e-38 335 231
0.020282559 0.72299999 0.01140894 1.0154397e-38 336 231
0.021550218 0.72299999 0.01140894 1.0154397e-38 337 231
0.02281788 0.72299999 0.01140894 1.0979459e-38 338 231
0.024152167 0.72500002 0.0114405 1.0979459e-38 339 231
0.025423333 0.72500002 0.0114405 1.1530116e-38 340 231
0.026694499 0.72500002 0.0114405 1.1714508e-38 341 231
0.028081384 0.72799999 0.01148784 1.1715609e-38 342 231
0.029438468 0.73000002 0.011519399 1.1991836e-38 343 231
0.030718399 0.73000002 0.011519399 1.1531603e-38 344 231
0.031998333 0.73000002 0.011519399 1.1531603e-38 345 231
-0.024318734 0.73000002 0.010239467 1.4112803e-38 301 232
-0.023038799 0.73000002 0.010239467 1.2824571e-38 302 232
-0.021758866 0.73000002 0.010239467 1.1164691e-38 303 232
-0.020506985 0.73100001 0.010253493 9.512674e-39 304 232
-0.019199001 0.73000002 0.010239467 1.0065489e-38 305 232
-0.017919067 0.73000002 0.010239467 1.0894127e-38 306 232
-0.016593546 0.72799999 0.010211413 1.0894127e-38 307 232
-0.01531712 0.72799999 0.010211413 1.0436697e-38 308 232
-0.014021406 0.727 0.010197386 9.9760778e-39 309 232
-0.012711667 0.72500002 0.010169334 9.0590961e-39 310 232
-0.01140894 0.72299999 0.01014128 8.5981193e-39 311 232
-0.01014128 0.72299999 0.01014128 8.5988158e-39 312 232
-0.0088736191 0.72299999 0.01014128 8.5066216e-39 313 232
-0.0075954394 0.722 0.010127253 8.5984571e-39 314 232
-0.0063295332 0.722 0.010127253 8.7828455e-39 315 232
-0.0050636264 0.722 0.010127253 9.2406147e-39 316 232
-0.0037819401 0.71899998 0.010085173 9.2406147e-39 317 232
-0.0025212932 0.71899998 0.010085173 9.6980335e-39 318 232
-0.0012606466 0.71899998 0.010085173 9.5140024e-39 319 232
0 0.71700001 0.01005712 8.9637335e-39 320 232
0.00125714 0.71700001 0.01005712 8.9637335e-39 321 232
0.0025212932 0.71899998 0.010085173 9.0555802e-39 322 232
0.0037819401 0.71899998 0.010085173 8.7789933e-39 323 232
0.0050425865 0.71899998 0.010085173 8.778643e-39 324 232
0.0063032326 0.71899998 0.010085173 8.9626741e-39 325 232
0.0075743999 0.72000003 0.010099201 8.4120241e-39 326 232
0.0088367993 0.72000003 0.010099201 8.4120241e-39 327 232
0.010099201 0.72000003 0.010099201 9.0552299e-39 328 232
0.011361601 0.72000003 0.010099201 8.9626741e-39 329 232
0.012659066 0.722 0.010127253 9.4207656e-39 330 232
0.013924973 0.722 0.010127253 9.5129613e-39 331 232
0.015254001 0.72500002 0.010169334 9.6980756e-39 332 232
0.01647958 0.72299999 0.01014128 9.8828256e-39 333 232
0.017747238 0.72299999 0.01014128 1.0798315e-38 334 232
0.019014901 0.72299999 0.01014128 1.0521728e-38 335 232
0.020282559 0.72299999 0.01014128 1.0796865e-38 336 232
0.021609833 0.72500002 0.010169334 1.0704668e-38 337 232
0.022880999 0.72500002 0.010169334 1.1347157e-38 338 232
0.024152167 0.72500002 0.010169334 1.1347157e-38 339 232
0.025423333 0.72500002 0.010169334 1.2265179e-38 340 232
0.026768139 0.727 0.010197386 1.2634321e-38 341 232
0.028081384 0.72799999 0.010211413 1.1715624e-38 342 232
0.029478792 0.73100001 0.010253493 1.1715624e-38 343 232
0.03076048 0.73100001 0.010253493 1.1990429e-38 344 232
-0.024451986 0.73400003 0.0090086265 1.4020611e-38 301 233
-0.023165042 0.73400003 0.0090086265 1.3007884e-38 302 233
-0.021878093 0.73400003 0.0090086265 1.1348364e-38 303 233
-0.020563092 0.73299998 0.0089963535 9.8800258e-39 304 233
-0.019225299 0.73100001 0.0089718066 1.0156971e-38 305 233
-0.017943613 0.73100001 0.0089718066 9.8828676e-39 306 233
-0.016639132 0.73000002 0.0089595336 9.8828676e-39 307 233
-0.0153592 0.73000002 0.0089595336 1.0526745e-38 308 233
-0.014040692 0.72799999 0.0089349858 1.0158321e-38 309 233
-0.012746733 0.727 0.0089227129 9.5168344e-39 310 233
-0.0114405 0.72500002 0.0088981669 9.1480533e-39 311 233
-0.010169334 0.72500002 0.0088981669 8.5062628e-39 312 233
-0.0088736191 0.72299999 0.0088736191 8.5062628e-39 313 233
-0.0076059597 0.72299999 0.0088736191 8.4144273e-39 314 233
-0.0063382997 0.72299999 0.0088736191 8.6910156e-39 315 233
-0.0050636264 0.722 0.0088613462 9.2413209e-39 316 233
-0.0037872 0.72000003 0.0088367993 9.3335166e-39 317 233
-0.0025248001 0.72000003 0.0088367993 9.1473261e-39 318 233
-0.0012606466 0.71899998 0.0088245263 8.6863493e-39 319 233
0 0.71700001 0.0087999795 8.7803344e-39 320 233
0.00125714 0.71700001 0.0087999795 8.7803344e-39 321 233
0.0025212932 0.71899998 0.0088245263 8.7803344e-39 322 233
0.0037819401 0.71899998 0.0088245263 8.7803344e-39 323 233
0.0050425865 0.71899998 0.0088245263 8.6877814e-39 324 233
0.0063032326 0.71899998 0.0088245263 8.6877814e-39 325 233
0.0075743999 0.72000003 0.0088367993 8.6877814e-39 326 233
0.0088367993 0.72000003 0.0088367993 8.4115575e-39 327 233
0.010127253 0.722 0.0088613462 8.8714524e-39 328 233
0.01139316 0.722 0.0088613462 9.0554821e-39 329 233
0.012659066 0.722 0.0088613462 1.0156107e-38 330 233
0.013924973 0.722 0.0088613462 1.0709281e-38 331 233
0.015211919 0.72299999 0.0088736191 1.1259624e-38 332 233
0.016525166 0.72500002 0.0088981669 1.1351821e-38 333 233
0.017796334 0.72500002 0.0088981669 1.0705021e-38 334 233
0.0190675 0.72500002 0.0088981669 1.0612825e-38 335 233
0.020338668 0.72500002 0.0088981669 1.1072349e-38 336 233
0.021609833 0.72500002 0.0088981669 1.0979794e-38 337 233
0.022944121 0.727 0.0089227129 1.1346098e-38 338 233
0.024218792 0.727 0.0089227129 1.1714879e-38 339 233
0.025493465 0.727 0.0089227129 1.1532322e-38 340 233
0.027209979 0.73900002 0.0090699932 1.1347931e-38 341 233
0.028505694 0.73900002 0.0090699932 1.0888381e-38 342 233
0.029882059 0.741 0.0090945391 1.0888381e-38 343 233
-0.024451986 0.73400003 0.0077216802 1.4020611e-38 301 234
-0.023165042 0.73400003 0.0077216802 1.3284475e-38 302 234
-0.021878093 0.73400003 0.0077216802 1.190154e-38 303 234
-0.020591147 0.73400003 0.0077216802 1.0338861e-38 304 234
-0.019277899 0.73299998 0.0077111595 1.0246666e-38 305 234
-0.017992707 0.73299998 0.0077111595 1.0248436e-38 306 234
-0.016661927 0.73100001 0.00769012 1.0248436e-38 307 234
-0.0153592 0.73000002 0.0076795998 1.0434574e-38 308 234
-0.014079267 0.73000002 0.0076795998 1.0250183e-38 309 234
-0.012764266 0.72799999 0.0076585598 9.4257332e-39 310 234
-0.01147206 0.727 0.0076480396 8.8725608e-39 311 234
-0.010197386 0.727 0.0076480396 8.4144273e-39 312 234
-0.0088981669 0.72500002 0.0076270006 8.4144273e-39 313 234
-0.0076059597 0.72299999 0.0076059597 8.7825288e-39 314 234
-0.0063382997 0.72299999 0.0076059597 9.8888764e-39 315 234
-0.0050706398 0.72299999 0.0076059597 1.0804041e-38 316 234
-0.0037977197 0.722 0.0075954394 1.0527095e-38 317 234
-0.0025318132 0.722 0.0075954394 9.9738693e-39 318 234
-0.0012624001 0.72000003 0.0075743999 9.4206956e-39 319 234
0 0.72000003 0.0075743999 8.5970221e-39 320 234
0.0012624001 0.72000003 0.0075743999 8.5048279e-39 321 234
0.0025248001 0.72000003 0.0075743999 8.7806931e-39 322 234
0.0037872 0.72000003 0.0075743999 8.6884989e-39 323 234
0.0050496003 0.72000003 0.0075743999 8.5041104e-39 324 234
0.0063120001 0.72000003 0.0075743999 8.6884989e-39 325 234
0.0075954394 0.722 0.0075954394 8.6874227e-39 326 234
0.0088613462 0.722 0.0075954394 8.7796169e-39 327 234
0.010127253 0.722 0.0075954394 9.2384357e-39 328 234
0.01139316 0.722 0.0075954394 9.4228241e-39 329 234
0.012659066 0.722 0.0075954394 1.1260302e-38 330 234
0.013924973 0.722 0.0075954394 1.2090063e-38 331 234
0.015211919 0.72299999 0.0076059597 1.2914461e-38 332 234
0.016525166 0.72500002 0.0076270006 1.208434e-38 333 234
0.017796334 0.72500002 0.0076270006 1.1253154e-38 334 234
0.0190675 0.72500002 0.0076270006 1.1898523e-38 335 234
0.020338668 0.72500002 0.0076270006 1.1899993e-38 336 234
0.021669446 0.727 0.0076480396 1.1899993e-38 337 234
0.022944121 0.727 0.0076480396 1.1439033e-38 338 234
0.024252106 0.72799999 0.0076585598 1.1439033e-38 339 234
0.025528532 0.72799999 0.0076585598 1.0980576e-38 340 234
0.027209979 0.73900002 0.0077742799 1.0980576e-38 341 234
0.028505694 0.73900002 0.0077742799 1.0704359e-38 342 234
0.029882059 0.741 0.0077953199 1.088875e-38 343 234
0.03118128 0.741 0.0077953199 1.1347956e-38 344 234
0.032480497 0.741 0.0077953199 1.1163565e-38 345 234
-0.024451986 0.73400003 0.006434733 1.4204286e-38 301 235
-0.023165042 0.73400003 0.006434733 1.3837295e-38 302 235
-0.021878093 0.73400003 0.006434733 1.2914979e-38 303 235
-0.020591147 0.73400003 0.006434733 1.1166474e-38 304 235
-0.019304199 0.73400003 0.006434733 1.0521104e-38 305 235
-0.017992707 0.73299998 0.0064259665 1.0064054e-38 306 235
-0.016707512 0.73299998 0.0064259665 1.0064054e-38 307 235
-0.01538024 0.73100001 0.006408433 9.9753911e-39 308 235
-0.014098554 0.73100001 0.006408433 9.7906398e-39 309 235
-0.012799333 0.73000002 0.0063996664 8.9658285e-39 310 235
-0.01148784 0.72799999 0.0063821329 8.597046e-39 311 235
-0.010197386 0.727 0.0063733663 8.3225918e-39 312 235
-0.0088981669 0.72500002 0.0063558333 8.3225918e-39 313 235
-0.0076270006 0.72500002 0.0063558333 8.3237213e-39 314 235
-0.0063558333 0.72500002 0.0063558333 8.9690907e-39 315 235
-0.0050706398 0.72299999 0.0063382997 9.9760946e-39 316 235
-0.0037977197 0.722 0.0063295332 9.6073121e-39 317 235
-0.0025318132 0.722 0.0063295332 9.1477156e-39 318 235
-0.0012659066 0.722 0.0063295332 8.5945418e-39 319 235
0 0.72000003 0.0063120001 8.5970221e-39 320 235
0.0012624001 0.72000003 0.0063120001 8.5048279e-39 321 235
0.0025248001 0.72000003 0.0063120001 8.5041104e-39 322 235
0.0037872 0.72000003 0.0063120001 8.6881402e-39 323 235
0.0050496003 0.72000003 0.0063120001 8.6874227e-39 324 235
0.0063120001 0.72000003 0.0063120001 8.6874227e-39 325 235
0.0075954394 0.722 0.0063295332 8.9622117e-39 326 235
0.0088613462 0.722 0.0063295332 8.9622117e-39 327 235
0.010127253 0.722 0.0063295332 9.5135946e-39 328 235
0.01140894 0.72299999 0.0063382997 1.0527388e-38 329 235
0.012676599 0.72299999 0.0063382997 1.2179391e-38 330 235
0.01394426 0.72299999 0.0063382997 1.2364141e-38 331 235
0.015254001 0.72500002 0.0063558333 1.2270158e-38 332 235
0.016525166 0.72500002 0.0063558333 1.1809538e-38 333 235
0.017796334 0.72500002 0.0063558333 1.1162037e-38 334 235
0.019120099 0.727 0.0063733663 1.2083992e-38 335 235
0.020394772 0.727 0.0063733663 1.1900735e-38 336 235
0.021669446 0.727 0.0063733663 1.1716343e-38 337 235
0.022975679 0.72799999 0.0063821329 1.1531253e-38 338 235
0.024252106 0.72799999 0.0063821329 1.1346862e-38 339 235
0.025528532 0.72799999 0.0063821329 1.1439408e-38 340 235
0.027283618 0.741 0.0064960998 1.1255015e-38 341 235
0.028582839 0.741 0.0064960998 1.0886605e-38 342 235
0.029882059 0.741 0.0064960998 1.0794409e-38 343 235
0.03118128 0.741 0.0064960998 1.106994e-38 344 235
0.032524332 0.74199998 0.0065048663 1.0977744e-38 345 235
0.033825304 0.74199998 0.0065048663 1.6039516e-38 346 235
-0.024885058 0.74699998 0.0052389596 1.4111734e-38 301 236
-0.021937706 0.736 0.005161813 1.3837661e-38 303 236
-0.020647252 0.736 0.005161813 1.263873e-38 304 236
-0.019304199 0.73400003 0.0051477868 1.1163958e-38 305 236
-0.018017253 0.73400003 0.0051477868 1.0155168e-38 306 236
-0.016730307 0.73400003 0.0051477868 1.0155168e-38 307 236
-0.015422319 0.73299998 0.005140773 9.515485e-39 308 236
-0.014137126 0.73299998 0.005140773 9.2388995e-39 309 236
-0.012816866 0.73100001 0.0051267464 8.7814316e-39 310 236
-0.011519399 0.73000002 0.0051197335 8.5973991e-39 311 236
-0.010211413 0.72799999 0.0051057064 8.2318325e-39 312 236
-0.0089227129 0.727 0.0050986931 8.1396383e-39 313 236
-0.0076480396 0.727 0.0050986931 7.9559729e-39 314 236
-0.0063733663 0.727 0.0050986931 8.0481686e-39 315 236
-0.0050846669 0.72500002 0.0050846669 8.6881626e-39 316 236
-0.0038029798 0.72299999 0.0050706398 8.595967e-39 317 236
-0.0025353199 0.72299999 0.0050706398 8.2289641e-39 318 236
-0.0012676599 0.72299999 0.0050706398 8.2289641e-39 319 236
0 0.72299999 0.0050706398 8.7796169e-39 320 236
0.0012676599 0.72299999 0.0050706398 8.7796169e-39 321 236
0.0025318132 0.722 0.0050636264 8.6874227e-39 322 236
0.0037977197 0.722 0.0050636264 8.6874227e-39 323 236
0.0050636264 0.722 0.0050636264 8.870735e-39 324 236
0.0063295332 0.722 0.0050636264 8.870735e-39 325 236
0.0076059597 0.72299999 0.0050706398 9.145524e-39 326 236
0.0088736191 0.72299999 0.0050706398 8.7767471e-39 327 236
0.01014128 0.72299999 0.0050706398 9.8806115e-39 328 236
0.01140894 0.72299999 0.0050706398 1.1724524e-38 329 236
0.012676599 0.72299999 0.0050706398 1.2271252e-38 330 236
0.01394426 0.72299999 0.0050706398 1.190283e-38 331 236
0.015296079 0.727 0.0050986931 1.208542e-38 332 236
0.016570752 0.727 0.0050986931 1.1901027e-38 333 236
0.017845426 0.727 0.0050986931 1.1534435e-38 334 236
0.0191464 0.72799999 0.0051057064 1.144224e-38 335 236
0.020422826 0.72799999 0.0051057064 1.1164619e-38 336 236
0.021699252 0.72799999 0.0051057064 1.134901e-38 337 236
0.023038799 0.73000002 0.0051197335 1.1898975e-38 338 236
0.024352046 0.73100001 0.0051267464 1.2083726e-38 339 236
0.025633732 0.73100001 0.0051267464 1.189933e-38 340 236
0.027283618 0.741 0.0051968796 1.1346158e-38 341 236
0.028582839 0.741 0.0051968796 1.1251457e-38 342 236
0.029922385 0.74199998 0.0052038929 1.0513892e-38 343 236
0.031223357 0.74199998 0.0052038929 1.0607183e-38 344 236
0.032524332 0.74199998 0.0052038929 1.1344748e-38 345 236
0.033825304 0.74199998 0.0052038929 1.6684169e-38 346 236
-0.024885058 0.74699998 0.0039292197 1.3561081e-38 301 237
-0.023575317 0.74699998 0.0039292197 1.3929504e-38 302 237
-0.02208674 0.741 0.0038976599 1.3929504e-38 303 237
-0.020731414 0.73900002 0.00388714 1.4295384e-38 304 237
-0.019356798 0.736 0.0038713599 1.3096841e-38 305 237
-0.018066347 0.736 0.0038713599 1.1441591e-38 306 237
-0.016730307 0.73400003 0.0038608401 1.0427798e-38 307 237
-0.01544336 0.73400003 0.0038608401 8.9633832e-39 308 237
-0.014156413 0.73400003 0.0038608401 8.9633832e-39 309 237
-0.012851933 0.73299998 0.0038555798 8.7810785e-39 310 237
-0.01153518 0.73100001 0.00384506 8.597046e-39 311 237
-0.010211413 0.72799999 0.0038292799 8.3225918e-39 312 237
-0.0089349858 0.72799999 0.0038292799 8.1385621e-39 313 237
-0.0076480396 0.727 0.0038240198 8.0470854e-39 314 237
-0.0063733663 0.727 0.0038240198 8.0470854e-39 315 237
-0.0050986931 0.727 0.0038240198 8.3215156e-39 316 237
-0.0038135003 0.72500002 0.0038135003 8.3215156e-39 317 237
-0.0025423334 0.72500002 0.0038135003 8.5055454e-39 318 237
-0.0012711667 0.72500002 0.0038135003 8.5055454e-39 319 237
0 0.72500002 0.0038135003 8.7806931e-39 320 237
0.0012711667 0.72500002 0.0038135003 8.6884989e-39 321 237
0.0025353199 0.72299999 0.0038029798 8.6881402e-39 322 237
0.0038029798 0.72299999 0.0038029798 8.5041104e-39 323 237
0.0050706398 0.72299999 0.0038029798 8.6877814e-39 324 237
0.0063382997 0.72299999 0.0038029798 8.6877814e-39 325 237
0.0076059597 0.72299999 0.0038029798 9.2373931e-39 326 237
0.0088736191 0.72299999 0.0038029798 9.6061756e-39 327 237
0.010169334 0.72500002 0.0038135003 1.0616793e-38 328 237
0.01140894 0.72299999 0.0038029798 1.1630947e-38 329 237
0.012676599 0.72299999 0.0038029798 1.2362045e-38 330 237
0.013982833 0.72500002 0.0038135003 1.2085457e-38 331 237
0.01531712 0.72799999 0.0038292799 1.1718098e-38 332 237
0.016593546 0.72799999 0.0038292799 1.1534067e-38 333 237
0.017869972 0.72799999 0.0038292799 1.116782e-38 334 237
0.0191464 0.72799999 0.0038292799 1.0983429e-38 335 237
0.020422826 0.72799999 0.0038292799 1.098095e-38 336 237
0.021758866 0.73000002 0.0038397999 1.1257536e-38 337 237
0.02307036 0.73100001 0.00384506 1.1899347e-38 338 237
0.024518613 0.736 0.0038713599 1.1991543e-38 339 237
0.025984399 0.741 0.0038976599 1.1714963e-38 340 237
0.027283618 0.741 0.0038976599 1.1253625e-38 341 237
0.028621411 0.74199998 0.0039029196 1.1341154e-38 342 237
0.029922385 0.74199998 0.0039029196 1.0695785e-38 343 237
0.031223357 0.74199998 0.0039029196 1.1801056e-38 344 237
0.032612 0.74400002 0.0039134403 1.2723372e-38 345 237
0.033916477 0.74400002 0.0039134403 1.650122e-38 346 237
-0.025051624 0.75199997 0.0026370131 1.346853e-38 301 238
-0.023575317 0.74699998 0.0026194798 1.3836239e-38 302 238
-0.022265578 0.74699998 0.0026194798 1.3744043e-38 303 238
-0.020955838 0.74699998 0.0026194798 1.4480512e-38 304 238
-0.019619798 0.74599999 0.0026159731 1.4572709e-38 305 238
-0.018115439 0.73799998 0.0025879198 1.2731262e-38 306 238
-0.016775893 0.736 0.0025809065 1.0610404e-38 307 238
-0.015485439 0.736 0.0025809065 9.2374562e-39 308 238
-0.014194986 0.736 0.0025809065 9.4218488e-39 309 238
-0.012869466 0.73400003 0.0025738934 9.1480687e-39 310 238
-0.011566739 0.73299998 0.0025703865 8.9636761e-39 311 238
-0.010253493 0.73100001 0.0025633732 8.4137099e-39 312 238
-0.0089595336 0.73000002 0.0025598668 8.3215156e-39 313 238
-0.0076795998 0.73000002 0.0025598668 8.3222331e-39 314 238
-0.0063821329 0.72799999 0.0025528532 8.3222331e-39 315 238
-0.0051057064 0.72799999 0.0025528532 8.5973809e-39 316 238
-0.0038292799 0.72799999 0.0025528532 8.5973809e-39 317 238
-0.0025528532 0.72799999 0.0025528532 9.0561996e-39 318 238
-0.0012764266 0.72799999 0.0025528532 9.1487526e-39 319 238
0 0.72799999 0.0025528532 9.0561996e-39 320 238
0.0012764266 0.72799999 0.0025528532 8.8721699e-39 321 238
0.0025493465 0.727 0.0025493465 8.6874227e-39 322 238
0.0038135003 0.72500002 0.0025423334 8.5952285e-39 323 238
0.0050846669 0.72500002 0.0025423334 8.8700399e-39 324 238
0.0063558333 0.72500002 0.0025423334 9.4232137e-39 325 238
0.0076270006 0.72500002 0.0025423334 1.0432772e-38 326 238
0.0088981669 0.72500002 0.0025423334 1.1262893e-38 327 238
0.010169334 0.72500002 0.0025423334 1.2179509e-38 328 238
0.0114405 0.72500002 0.0025423334 1.23639e-38 329 238
0.012746733 0.727 0.0025493465 1.1811789e-38 330 238
0.014021406 0.727 0.0025493465 1.1442646e-38 331 238
0.01531712 0.72799999 0.0025528532 1.0984877e-38 332 238
0.016593546 0.72799999 0.0025528532 1.0707931e-38 333 238
0.017869972 0.72799999 0.0025528532 1.0064718e-38 334 238
0.0191464 0.72799999 0.0025528532 1.0340946e-38 335 238
0.020422826 0.72799999 0.0025528532 1.107387e-38 336 238
0.021788673 0.73100001 0.0025633732 1.1350097e-38 337 238
0.023291279 0.73799998 0.0025879198 1.1899347e-38 338 238
0.024618553 0.73900002 0.0025914267 1.162276e-38 339 238
0.025984399 0.741 0.0025984398 1.1804656e-38 340 238
0.027320439 0.74199998 0.0026019465 1.1067091e-38 341 238
0.028621411 0.74199998 0.0026019465 1.0053306e-38 342 238
0.029922385 0.74199998 0.0026019465 9.7767179e-39 343 238
0.031307522 0.74400002 0.00260896 1.2351712e-38 344 238
0.032612 0.74400002 0.00260896 1.3642451e-38 345 238
0.033916477 0.74400002 0.00260896 1.6685614e-38 346 238
-0.025051624 0.75199997 0.0013185065 1.2824964e-38 301 239
-0.023733119 0.75199997 0.0013185065 1.282281e-38 302 239
-0.022355 0.75 0.001315 1.2638417e-38 303 239
-0.021011947 0.74900001 0.0013132467 1.3191941e-38 304 239
-0.019646099 0.74699998 0.0013097399 1.3837311e-38 305 239
-0.018139986 0.73900002 0.0012957134 1.4204989e-38 306 239
-0.016821479 0.73799998 0.0012939599 1.291425e-38 307 239
-0.015485439 0.736 0.0012904532 1.1719603e-38 308 239
-0.014194986 0.736 0.0012904532 1.0982038e-38 309 239
-0.012904533 0.736 0.0012904532 9.238154e-39 310 239
-0.011582521 0.73400003 0.0012869467 8.8693715e-39 311 239
-0.010281546 0.73299998 0.0012851933 8.5052161e-39 312 239
-0.0089718066 0.73100001 0.0012816866 8.4130204e-39 313 239
-0.00769012 0.73100001 0.0012816866 8.1385789e-39 314 239
-0.0063996664 0.73000002 0.0012799334 8.2307746e-39 315 239
-0.0051197335 0.73000002 0.0012799334 8.7817875e-39 316 239
-0.0038292799 0.72799999 0.0012764266 8.9661788e-39 317 239
-0.0025528532 0.72799999 0.0012764266 9.3338669e-39 318 239
-0.0012764266 0.72799999 0.0012764266 9.0572786e-39 319 239
0 0.72799999 0.0012764266 9.0561996e-39 320 239
0.0012764266 0.72799999 0.0012764266 8.5952285e-39 321 239
0.0025528532 0.72799999 0.0012764266 7.7672979e-39 322 239
0.0038240198 0.727 0.0012746733 9.1502323e-39 323 239
0.0050986931 0.727 0.0012746733 1.1628814e-38 324 239
0.0063733663 0.727 0.0012746733 1.2274183e-38 325 239
0.0076480396 0.727 0.0012746733 1.2823806e-38 326 239
0.0089227129 0.727 0.0012746733 1.3284783e-38 327 239
0.010211413 0.72799999 0.0012764266 1.3007472e-38 328 239
0.01148784 0.72799999 0.0012764266 1.2362102e-38 329 239
0.012764266 0.72799999 0.0012764266 1.0341672e-38 330 239
0.014040692 0.72799999 0.0012764266 9.9728884e-39 331 239
0.01531712 0.72799999 0.0012764266 9.6062359e-39 332 239
0.016639132 0.73000002 0.0012799334 9.7906271e-39 333 239
0.017919067 0.73000002 0.0012799334 1.0155116e-38 334 239
0.019199001 0.73000002 0.0012799334 1.0339507e-38 335 239
0.020478934 0.73000002 0.0012799334 1.0797653e-38 336 239
0.02208674 0.741 0.0012992199 1.1350827e-38 337 239
0.023385961 0.741 0.0012992199 1.2083023e-38 338 239
0.024685178 0.741 0.0012992199 1.1990827e-38 339 239
0.026019465 0.74199998 0.0013009732 1.1066735e-38 340 239
0.027320439 0.74199998 0.0013009732 9.4994093e-39 341 239
0.028621411 0.74199998 0.0013009732 9.3179075e-39 342 239
0.029922385 0.74199998 0.0013009732 9.8710813e-39 343 239
0.031307522 0.74400002 0.00130448 1.2169846e-38 344 239
0.032699663 0.74599999 0.0013079866 1.3368389e-38 345 239
-0.026440267 0.75400001 -0 1.1808651e-38 300 240
-0.025118252 0.75400001 -0 1.2823163e-38 301 240
-0.023733119 0.75199997 -0 1.2455102e-38 302 240
-0.022414612 0.75199997 -0 1.1809733e-38 303 240
-0.021096105 0.75199997 -0 1.199485e-38 304 240
-0.0196987 0.74900001 -0 1.2640219e-38 305 240
-0.018336359 0.74699998 -0 1.3653645e-38 306 240
-0.016844273 0.73900002 -0 1.4022069e-38 307 240
-0.015527519 0.73799998 -0 1.3468137e-38 308 240
-0.014233559 0.73799998 -0 1.2638377e-38 309 240
-0.012904533 0.736 -0 1.0065811e-38 310 240
-0.01161408 0.736 -0 8.5906799e-39 311 240
-0.010295574 0.73400003 -0 8.6860424e-39 312 240
-0.0090086265 0.73400003 -0 9.4236075e-39 313 240
-0.0077111595 0.73299998 -0 1.0893337e-38 314 240
-0.006408433 0.73100001 -0 1.1078088e-38 315 240
-0.0051267464 0.73100001 -0 1.1169904e-38 316 240
-0.0038397999 0.73000002 -0 1.061673e-38 317 240
-0.0025598668 0.73000002 -0 9.7004942e-39 318 240
-0.0012799334 0.73000002 -0 9.2398748e-39 319 240
0 0.73000002 -0 8.8721699e-39 320 240
0.0012799334 0.73000002 -0 8.7796169e-39 321 240
0.0025598668 0.73000002 -0 8.5942335e-39 322 240
0.0038292799 0.72799999 -0 1.0806927e-38 323 240
0.0051057064 0.72799999 -0 1.3195131e-38 324 240
0.0063821329 0.72799999 -0 1.3379162e-38 325 240
0.0076795998 0.73000002 -0 1.3561405e-38 326 240
0.0089595336 0.73000002 -0 1.2639809e-38 327 240
0.010239467 0.73000002 -0 1.126113e-38 328 240
0.011519399 0.73000002 -0 1.0431369e-38 329 240
0.012799333 0.73000002 -0 9.3299643e-39 330 240
0.014079267 0.73000002 -0 9.1452129e-39 331 240
0.0153592 0.73000002 -0 9.1444968e-39 332 240
0.016639132 0.73000002 -0 9.8820619e-39 333 240
0.017943613 0.73100001 -0 1.0797624e-38 334 240
0.019277899 0.73299998 -0 1.1166767e-38 335 240
0.020787518 0.741 -0 1.2175215e-38 336 240
0.02208674 0.741 -0 1.2175215e-38 337 240
0.023385961 0.741 -0 1.2080534e-38 338 240
0.024685178 0.741 -0 1.0789795e-38 339 240
0.026019465 0.74199998 -0 9.5955706e-39 340 240
0.027320439 0.74199998 -0 9.2271482e-39 341 240
0.028621411 0.74199998 -0 1.0330972e-38 342 240
0.029922385 0.74199998 -0 1.1252568e-38 343 240
0.031307522 0.74400002 -0 1.2723738e-38 344 240
0.032612 0.74400002 -0 1.3553499e-38 345 240
-0.025118252 0.75400001 -0.0013220133 1.2730244e-38 301 241
-0.023733119 0.75199997 -0.0013185065 1.1627142e-38 302 241
-0.022414612 0.75199997 -0.0013185065 1.0612632e-38 303 241
-0.021096105 0.75199997 -0.0013185065 1.0796673e-38 304 241
-0.019724999 0.75 -0.001315 1.1442042e-38 305 241
-0.018336359 0.74699998 -0.0013097399 1.1811901e-38 306 241
-0.016889861 0.741 -0.0012992199 1.2272879e-38 307 241
-0.01559064 0.741 -0.0012992199 1.3559998e-38 308 241
-0.014252847 0.73900002 -0.0012957134 1.3652195e-38 309 241
-0.012939599 0.73799998 -0.0012939599 1.2088773e-38 310 241
-0.011645639 0.73799998 -0.0012939599 9.9686341e-39 311 241
-0.010323626 0.736 -0.0012904532 7.0323337e-39 312 241
-0.0090331733 0.736 -0.0012904532 8.9684419e-39 313 241
-0.0077216802 0.73400003 -0.0012869467 1.2641482e-38 314 241
-0.006434733 0.73400003 -0.0012869467 1.2364896e-38 315 241
-0.005140773 0.73299998 -0.0012851933 1.1628035e-38 316 241
-0.00384506 0.73100001 -0.0012816866 1.0706077e-38 317 241
-0.0025633732 0.73100001 -0.0012816866 8.7782549e-39 318 241
-0.0012816866 0.73100001 -0.0012816866 8.8704505e-39 319 241
0 0.73100001 -0.0012816866 1.0251643e-38 320 241
0.0012816866 0.73100001 -0.0012816866 1.1081405e-38 321 241
0.0025598668 0.73000002 -0.0012799334 1.2366437e-38 322 241
0.0038397999 0.73000002 -0.0012799334 1.3011806e-38 323 241
0.0051197335 0.73000002 -0.0012799334 1.2552282e-38 324 241
0.0063996664 0.73000002 -0.0012799334 1.218314e-38 325 241
0.0076795998 0.73000002 -0.0012799334 1.1537739e-38 326 241
0.0089718066 0.73100001 -0.0012816866 9.9700536e-39 327 241
0.010253493 0.73100001 -0.0012816866 8.7786598e-39 328 241
0.01153518 0.73100001 -0.0012816866 8.9634098e-39 329 241
0.012816866 0.73100001 -0.0012816866 9.7899209e-39 330 241
0.014137126 0.73299998 -0.0012851933 9.8821165e-39 331 241
0.01538024 0.73100001 -0.0012816866 9.6966715e-39 332 241
0.016661927 0.73100001 -0.0012816866 9.8810627e-39 333 241
0.018017253 0.73400003 -0.0012869467 1.1623467e-38 334 241
0.019409399 0.73799998 -0.0012939599 1.2361032e-38 335 241
0.020787518 0.741 -0.0012992199 1.3093228e-38 336 241
0.02208674 0.741 -0.0012992199 1.2540055e-38 337 241
0.023417519 0.74199998 -0.0013009732 1.0788359e-38 338 241
0.024718491 0.74199998 -0.0013009732 9.1284786e-39 339 241
0.026019465 0.74199998 -0.0013009732 8.9527221e-39 340 241
0.027320439 0.74199998 -0.0013009732 9.6902872e-39 341 241
0.028621411 0.74199998 -0.0013009732 1.1251133e-38 342 241
0.029922385 0.74199998 -0.0013009732 1.1804306e-38 343 241
0.031307522 0.74400002 -0.00130448 1.2908127e-38 344 241
-0.023733119 0.75199997 -0.0026370131 1.1718259e-38 302 242
-0.022414612 0.75199997 -0.0026370131 1.0704108e-38 303 242
-0.021096105 0.75199997 -0.0026370131 1.0612281e-38 304 242
-0.019724999 0.75 -0.00263 1.0796673e-38 305 242
-0.018385453 0.74900001 -0.0026264933 1.0615881e-38 306 242
-0.017026618 0.74699998 -0.0026194798 1.1445642e-38 307 242
-0.015653761 0.74400002 -0.00260896 1.3468898e-38 308 242
-0.01434928 0.74400002 -0.00260896 1.4022072e-38 309 242
-0.0129922 0.741 -0.0025984398 1.3377024e-38 310 242
-0.01166142 0.73900002 -0.0025914267 1.134872e-38 311 242
-0.010365707 0.73900002 -0.0025914267 9.7885308e-39 312 242
-0.0090577193 0.73799998 -0.0025879198 1.0710846e-38 313 242
-0.0077427197 0.736 -0.0025809065 1.0252681e-38 314 242
-0.0064522666 0.736 -0.0025809065 9.5151165e-39 315 242
-0.0051477868 0.73400003 -0.0025738934 1.0250141e-38 316 242
-0.0038608401 0.73400003 -0.0025738934 1.0342337e-38 317 242
-0.0025703865 0.73299998 -0.0025703865 1.0249474e-38 318 242
-0.0012851933 0.73299998 -0.0025703865 1.0710451e-38 319 242
0 0.73100001 -0.0025633732 1.2182055e-38 320 242
0.0012816866 0.73100001 -0.0025633732 1.3011456e-38 321 242
0.0025633732 0.73100001 -0.0025633732 1.3377386e-38 322 242
0.00384506 0.73100001 -0.0025633732 1.3654334e-38 323 242
0.005140773 0.73299998 -0.0025703865 1.3010752e-38 324 242
0.0064259665 0.73299998 -0.0025703865 1.199696e-38 325 242
0.0077111595 0.73299998 -0.0025703865 1.1076383e-38 326 242
0.0089963535 0.73299998 -0.0025703865 9.9703941e-39 327 242
0.010295574 0.73400003 -0.0025738934 1.0522101e-38 328 242
0.011582521 0.73400003 -0.0025738934 1.0429905e-38 329 242
0.012869466 0.73400003 -0.0025738934 9.9732808e-39 330 242
0.014156413 0.73400003 -0.0025738934 1.04339e-38 331 242
0.01544336 0.73400003 -0.0025738934 1.0339931e-38 332 242
0.016730307 0.73400003 -0.0025738934 1.0063704e-38 333 242
0.018139986 0.73900002 -0.0025914267 1.19876e-38 334 242
0.019488299 0.741 -0.0025984398 1.2079795e-38 335 242
0.020815572 0.74199998 -0.0026019465 1.0884509e-38 336 242
0.022116546 0.74199998 -0.0026019465 9.9629112e-39 337 242
0.023417519 0.74199998 -0.0026019465 9.130645e-39 338 242
0.024718491 0.74199998 -0.0026019465 8.8544182e-39 339 242
0.026019465 0.74199998 -0.0026019465 9.9632769e-39 340 242
0.027320439 0.74199998 -0.0026019465 1.0793398e-38 341 242
0.028621411 0.74199998 -0.0026019465 1.1344401e-38 342 242
0.029922385 0.74199998 -0.0026019465 1.1712823e-38 343 242
-0.023733119 0.75199997 -0.0039555198 1.1717903e-38 302 243
-0.022414612 0.75199997 -0.0039555198 1.1257285e-38 303 243
-0.021096105 0.75199997 -0.0039555198 1.1071464e-38 304 243
-0.0197776 0.75199997 -0.0039555198 1.0610488e-38 305 243
-0.018409999 0.75 -0.003945 9.5106169e-39 306 243
-0.017072206 0.74900001 -0.0039397399 1.0525128e-38 307 243
-0.015716879 0.74699998 -0.0039292197 1.2642017e-38 308 243
-0.014387853 0.74599999 -0.0039239596 1.365581e-38 309 243
-0.0130448 0.74400002 -0.0039134403 1.3653277e-38 310 243
-0.01169298 0.741 -0.0038976599 1.2270342e-38 311 243
-0.010393759 0.741 -0.0038976599 1.2271747e-38 312 243
-0.0090945391 0.741 -0.0038976599 1.2548332e-38 313 243
-0.0077742799 0.73900002 -0.00388714 1.0069385e-38 314 243
-0.0064697997 0.73799998 -0.0038818798 7.7641352e-39 315 243
-0.005161813 0.736 -0.0038713599 8.4127248e-39 316 243
-0.0038713599 0.736 -0.0038713599 1.0072606e-38 317 243
-0.0025738934 0.73400003 -0.0038608401 1.2182403e-38 318 243
-0.0012869467 0.73400003 -0.0038608401 1.1905814e-38 319 243
0 0.73400003 -0.0038608401 1.208845e-38 320 243
0.0012851933 0.73299998 -0.0038555798 1.1996254e-38 321 243
0.0025703865 0.73299998 -0.0038555798 1.2088102e-38 322 243
0.0038555798 0.73299998 -0.0038555798 1.2733472e-38 323 243
0.0051477868 0.73400003 -0.0038608401 1.319444e-38 324 243
0.006434733 0.73400003 -0.0038608401 1.2088453e-38 325 243
0.0077216802 0.73400003 -0.0038608401 1.1443054e-38 326 243
0.0090086265 0.73400003 -0.0038608401 1.0521458e-38 327 243
0.010295574 0.73400003 -0.0038608401 1.0977391e-38 328 243
0.01161408 0.736 -0.0038713599 1.0608608e-38 329 243
0.012904533 0.736 -0.0038713599 9.9711732e-39 330 243
0.014194986 0.736 -0.0038713599 1.1077162e-38 331 243
0.015527519 0.73799998 -0.0038818798 1.1257613e-38 332 243
0.016889861 0.741 -0.0038976599 1.0243461e-38 333 243
0.018213626 0.74199998 -0.0039029196 1.0145157e-38 334 243
0.0195146 0.74199998 -0.0039029196 9.5919833e-39 335 243
0.02087168 0.74400002 -0.0039134403 7.9385898e-39 336 243
0.022176161 0.74400002 -0.0039134403 7.2932204e-39 337 243
0.023480639 0.74400002 -0.0039134403 9.3107245e-39 338 243
0.02478512 0.74400002 -0.0039134403 1.0324876e-38 339 243
0.026089599 0.74400002 -0.0039134403 1.0332044e-38 340 243
0.027394081 0.74400002 -0.0039134403 1.1161805e-38 341 243
0.02869856 0.74400002 -0.0039134403 1.1437666e-38 342 243
0.030003037 0.74400002 -0.0039134403 1.1622057e-38 343 243
-0.02379624 0.75400001 -0.0052880533 1.1533872e-38 302 244
-0.022474226 0.75400001 -0.0052880533 1.1257285e-38 303 244
-0.021152213 0.75400001 -0.0052880533 1.0979269e-38 304 244
-0.019830201 0.75400001 -0.0052880533 1.0887073e-38 305 244
-0.018459093 0.75199997 -0.0052740262 9.9683538e-39 306 244
-0.017140586 0.75199997 -0.0052740262 1.0706279e-38 307 244
-0.01575896 0.74900001 -0.0052529867 1.2733134e-38 308 244
-0.014407139 0.74699998 -0.0052389596 1.3655092e-38 309 244
-0.013079867 0.74599999 -0.0052319462 1.3102271e-38 310 244
-0.011740319 0.74400002 -0.0052179201 1.1903368e-38 311 244
-0.010407786 0.74199998 -0.0052038929 1.2731667e-38 312 244
-0.009106813 0.74199998 -0.0052038929 1.393021e-38 313 244
-0.0077953199 0.741 -0.0051968796 1.255007e-38 314 244
-0.0064960998 0.741 -0.0051968796 1.0060789e-38 315 244
-0.0051828534 0.73900002 -0.0051828534 8.9655776e-39 316 244
-0.0038818798 0.73799998 -0.0051758396 1.0440708e-38 317 244
-0.0025879198 0.73799998 -0.0051758396 1.273237e-38 318 244
-0.0012904532 0.736 -0.005161813 1.1994805e-38 319 244
0 0.736 -0.005161813 3.0687876e-39 320 244
0.0012869467 0.73400003 -0.0051477868 3.3453745e-39 321 244
0.0025738934 0.73400003 -0.0051477868 6.8434134e-39 322 244
0.0038608401 0.73400003 -0.0051477868 9.424891e-39 323 244
0.0051477868 0.73400003 -0.0051477868 1.3374888e-38 324 244
0.006434733 0.73400003 -0.0051477868 1.3006105e-38 325 244
0.0077216802 0.73400003 -0.0051477868 1.1439856e-38 326 244
0.0090331733 0.736 -0.005161813 7.2910526e-39 327 244
0.010323626 0.736 -0.005161813 8.4802561e-39 328 244
0.011645639 0.73799998 -0.0051758396 8.8493988e-39 329 244
0.012939599 0.73799998 -0.0051758396 8.6775996e-39 330 244
0.014252847 0.73900002 -0.0051828534 1.0337121e-38 331 244
0.015611678 0.74199998 -0.0052038929 1.0332085e-38 332 244
0.016912652 0.74199998 -0.0052038929 8.9491502e-39 333 244
0.018311813 0.74599999 -0.0052319462 6.9298483e-39 334 244
0.019619798 0.74599999 -0.0052319462 6.6532614e-39 335 244
0.020927785 0.74599999 -0.0052319462 8.580725e-39 336 244
0.022235774 0.74599999 -0.0052319462 9.041343e-39 337 244
0.023543758 0.74599999 -0.0052319462 1.0971668e-38 338 244
0.024851745 0.74599999 -0.0052319462 1.2170211e-38 339 244
0.026159734 0.74599999 -0.0052319462 1.0977041e-38 340 244
0.027394081 0.74400002 -0.0052179201 1.1253628e-38 341 244
0.02869856 0.74400002 -0.0052179201 1.1530217e-38 342 244
0.030003037 0.74400002 -0.0052179201 1.1898641e-38 343 244
-0.021180267 0.755 -0.0066188332 1.1071462e-38 304 245
-0.0198565 0.755 -0.0066188332 1.0979266e-38 305 245
-0.018508185 0.75400001 -0.0066100666 1.042825e-38 306 245
-0.017186172 0.75400001 -0.0066100666 1.107362e-38 307 245
-0.01578 0.75 -0.006575 1.2732059e-38 308 245
-0.014445714 0.74900001 -0.0065662335 1.3469983e-38 309 245
-0.013097399 0.74699998 -0.0065486995 1.2918243e-38 310 245
-0.011771879 0.74599999 -0.0065399334 1.1720058e-38 311 245
-0.01043584 0.74400002 -0.0065223998 1.2640923e-38 312 245
-0.0091313599 0.74400002 -0.0065223998 1.439228e-38 313 245
-0.0078058392 0.74199998 -0.0065048663 1.411421e-38 314 245
-0.0065048663 0.74199998 -0.0065048663 1.2455048e-38 315 245
-0.0051968796 0.741 -0.0064960998 1.1631025e-38 316 245
-0.0038976599 0.741 -0.0064960998 1.218384e-38 317 245
-0.0025914267 0.73900002 -0.0064785667 1.3469236e-38 318 245
-0.0012939599 0.73799998 -0.0064697997 1.2916062e-38 319 245
0 0.73799998 -0.0064697997 2.5269615e-41 320 245
0.0012904532 0.736 -0.0064522666 2.8150685e-41 321 245
0.0025809065 0.736 -0.0064522666 7.9429493e-39 322 245
0.0038713599 0.736 -0.0064522666 9.2336881e-39 323 245
0.005161813 0.736 -0.0064522666 1.1714663e-38 324 245
0.0064522666 0.736 -0.0064522666 1.1807219e-38 325 245
0.0077427197 0.736 -0.0064522666 1.0516496e-38 326 245
0.0090331733 0.736 -0.0064522666 5.9067141e-39 327 245
0.010351679 0.73799998 -0.0064697997 6.4541593e-39 328 245
0.01166142 0.73900002 -0.0064785667 6.7311049e-39 329 245
0.0129922 0.741 -0.0064960998 6.7411635e-39 330 245
0.014310705 0.74199998 -0.0065048663 8.4925203e-39 331 245
0.015611678 0.74199998 -0.0065048663 8.8573441e-39 332 245
0.017003827 0.74599999 -0.0065399334 6.7368433e-39 333 245
0.018311813 0.74599999 -0.0065399334 4.8111817e-39 334 245
0.019646099 0.74699998 -0.0065486995 5.3643555e-39 335 245
0.020955838 0.74699998 -0.0065486995 8.4914091e-39 336 245
0.022265578 0.74699998 -0.0065486995 9.5059211e-39 337 245
0.023575317 0.74699998 -0.0065486995 1.1897569e-38 338 245
0.024885058 0.74699998 -0.0065486995 1.1990123e-38 339 245
0.026264934 0.74900001 -0.0065662335 1.1069962e-38 340 245
0.027578179 0.74900001 -0.0065662335 1.1254353e-38 341 245
0.028891427 0.74900001 -0.0065662335 1.1990123e-38 342 245
0.030930554 0.76700002 -0.006724033 1.2358546e-38 343 245
-0.021236373 0.75700003 -0.0079636406 1.0795954e-38 304 246
-0.019909101 0.75700003 -0.0079636406 1.0795954e-38 305 246
-0.018532733 0.755 -0.0079425992 1.1071464e-38 306 246
-0.017208965 0.755 -0.0079425992 1.1532443e-38 307 246
-0.015822079 0.75199997 -0.0079110395 1.3191238e-38 308 246
-0.014503572 0.75199997 -0.0079110395 1.3652576e-38 309 246
-0.013132467 0.74900001 -0.0078794798 1.2642017e-38 310 246
-0.011787659 0.74699998 -0.0078584393 1.1627507e-38 311 246
-0.010477919 0.74699998 -0.0078584393 1.2640933e-38 312 246
-0.0091559067 0.74599999 -0.0078479191 1.3931671e-38 313 246
-0.0078268806 0.74400002 -0.0078268806 1.402348e-38 314 246
-0.0065223998 0.74400002 -0.0078268806 1.3654699e-38 315 246
-0.0052179201 0.74400002 -0.0078268806 1.3838365e-38 316 246
-0.0039029196 0.74199998 -0.0078058392 1.3654334e-38 317 246
-0.0025984398 0.741 -0.0077953199 1.4299002e-38 318 246
-0.0012992199 0.741 -0.0077953199 1.3837664e-38 319 246
0 0.741 -0.0077953199 2.1385678e-39 320 246
0.0012957134 0.73900002 -0.0077742799 3.2445567e-39 321 246
0.0025879198 0.73799998 -0.0077637597 1.171074e-38 322 246
0.0038818798 0.73799998 -0.0077637597 1.0327805e-38 323 246
0.0051758396 0.73799998 -0.0077637597 7.7513497e-39 324 246
0.0064697997 0.73799998 -0.0077637597 6.3684153e-39 325 246
0.0077637597 0.73799998 -0.0077637597 5.9078085e-39 326 246
0.0090577193 0.73799998 -0.0077637597 5.9078085e-39 327 246
0.010393759 0.741 -0.0077953199 6.2726477e-39 328 246
0.011771879 0.74599999 -0.0078479191 6.1804521e-39 329 246
0.013079867 0.74599999 -0.0078479191 5.1702546e-39 330 246
0.014387853 0.74599999 -0.0078479191 6.8301347e-39 331 246
0.015695838 0.74599999 -0.0078479191 7.663117e-39 332 246
0.017026618 0.74699998 -0.0078584393 6.8333563e-39 333 246
0.018336359 0.74699998 -0.0078584393 8.2126754e-39 334 246
0.0196987 0.74900001 -0.0078794798 9.6881642e-39 335 246
0.021011947 0.74900001 -0.0078794798 1.1348364e-38 336 246
0.022325192 0.74900001 -0.0078794798 1.1348364e-38 337 246
0.02363844 0.74900001 -0.0078794798 1.1532017e-38 338 246
0.024984999 0.75 -0.00789 1.0149082e-38 339 246
0.0263 0.75 -0.00789 9.4161988e-39 340 246
0.02824094 0.76700002 -0.00806884 1.0799133e-38 341 246
0.029585747 0.76700002 -0.00806884 1.2818083e-38 342 246
