# .PCD v.7 - Point Cloud Data file format
FIELDS x y z rgb imX imY
SIZE 4 4 4 4 4 4
TYPE F F F F F F
COUNT 1 1 1 1 1 1
WIDTH 835
HEIGHT 1
VIEWPOINT 0 0 0 1 0 0 0
POINTS 835
DATA ascii
0.0048181596 0.68699998 -0.026499879 1.2914985e-38 324 262
0.0060139326 0.68599999 -0.026461305 1.3836942e-38 325 262
0.0071956799 0.68400002 -0.02638416 1.466274e-38 326 262
0.0083949603 0.68400002 -0.02638416 1.3279806e-38 327 262
0.0095802136 0.68300003 -0.026345588 1.1163272e-38 328 262
0.010761959 0.68199998 -0.026307013 9.9647287e-39 329 262
0.011957732 0.68199998 -0.026307013 1.0609745e-38 330 262
0.013114933 0.68000001 -0.026229866 1.0794136e-38 331 262
0.014307199 0.68000001 -0.026229866 1.1345509e-38 332 262
0.015476674 0.67900002 -0.026191294 1.1530259e-38 333 262
0.016667187 0.67900002 -0.026191294 1.1347663e-38 334 262
0.017857701 0.67900002 -0.026191294 1.1255467e-38 335 262
0.019048214 0.67900002 -0.026191294 1.1348016e-38 336 262
0.020208918 0.67799997 -0.026152719 1.2638755e-38 337 262
0.021397678 0.67799997 -0.026152719 1.3281601e-38 338 262
0.022586439 0.67799997 -0.026152719 9.3171886e-39 339 262
0.023775198 0.67799997 -0.026152719 7.8477997e-39 340 262
0.024963958 0.67799997 -0.026152719 8.5853647e-39 341 262
0.026152719 0.67799997 -0.026152719 8.7693678e-39 342 262
0.027381808 0.67900002 -0.026191294 8.7693678e-39 343 262
0.028572321 0.67900002 -0.026191294 8.7700713e-39 344 262
0.029762832 0.67900002 -0.026191294 8.6775169e-39 345 262
0.030953348 0.67900002 -0.026191294 8.5853045e-39 346 262
0.032143861 0.67900002 -0.026191294 8.1246865e-39 347 262
0.033383466 0.68000001 -0.026229866 8.0363934e-39 348 262
0.034575731 0.68000001 -0.026229866 8.0363934e-39 349 262
0.035873197 0.68199998 -0.026307013 8.3132872e-39 350 262
0.037068974 0.68199998 -0.026307013 8.1288974e-39 351 262
0.038264744 0.68199998 -0.026307013 8.4051283e-39 352 262
0.039460517 0.68199998 -0.026307013 8.5898783e-39 353 262
0.040656291 0.68199998 -0.026307013 9.2323891e-39 354 262
0.041852064 0.68199998 -0.026307013 9.3245861e-39 355 262
0.043110959 0.68300003 -0.026345588 9.781642e-39 356 262
0.04437336 0.68400002 -0.02638416 1.0242622e-38 357 262
0.045705888 0.68599999 -0.026461305 1.0424198e-38 358 262
0.046908677 0.68599999 -0.026461305 8.6724807e-39 359 262
0.048251733 0.68800002 -0.026538454 6.4576752e-39 360 262
0.049458027 0.68800002 -0.026538454 8.6703717e-39 361 262
0.050811596 0.69 -0.026615599 1.0051159e-38 362 262
0.052096792 0.69099998 -0.026654173 9.497987e-39 363 262
0.053308345 0.69099998 -0.026654173 8.8533238e-39 364 262
0.054677699 0.69300002 -0.02673132 1.1895419e-38 365 262
0.055892758 0.69300002 -0.02673132 1.6039872e-38 366 262
0.057107817 0.69300002 -0.02673132 1.9543306e-38 367 262
-0.011140679 0.70599997 -0.028470624 1.9818816e-38 311 263
-0.0099028256 0.70599997 -0.028470624 1.9727345e-38 312 263
-0.0086404262 0.704 -0.028389972 1.8989779e-38 313 263
-0.0073955595 0.70300001 -0.028349647 1.6873262e-38 314 263
-0.0061454331 0.70099998 -0.028268991 1.392336e-38 315 263
-0.0049093333 0.69999999 -0.028228667 1.2358575e-38 316 263
-0.0036714801 0.69800001 -0.028148014 1.226638e-38 317 263
-0.0024441467 0.69700003 -0.028107686 1.2725203e-38 318 263
-0.0012203199 0.69599998 -0.028067358 1.2541171e-38 319 263
0 0.69400001 -0.027986705 1.1990161e-38 320 263
0.00121506 0.69300002 -0.027946379 1.2451139e-38 321 263
0.0024231065 0.69099998 -0.027865725 1.3281253e-38 322 263
0.0036293997 0.69 -0.027825398 1.3004308e-38 323 263
0.0048181596 0.68699998 -0.027704418 1.2546922e-38 324 263
0.0060226996 0.68699998 -0.027704418 1.3561434e-38 325 263
0.0072167199 0.68599999 -0.027664091 1.4756376e-38 326 263
0.0083949603 0.68400002 -0.027583439 1.3465639e-38 327 263
0.0095802136 0.68300003 -0.027543113 1.1622452e-38 328 263
0.01077774 0.68300003 -0.027543113 1.0423549e-38 329 263
0.011957732 0.68199998 -0.027502786 1.0519347e-38 330 263
0.013153506 0.68199998 -0.027502786 1.0795575e-38 331 263
0.01434928 0.68199998 -0.027502786 1.107072e-38 332 263
0.015499466 0.68000001 -0.027422134 1.1255112e-38 333 263
0.016691733 0.68000001 -0.027422134 1.1164717e-38 334 263
0.017883999 0.68000001 -0.027422134 1.1072521e-38 335 263
0.019076265 0.68000001 -0.027422134 1.1440578e-38 336 263
0.020238725 0.67900002 -0.027381808 1.2731316e-38 337 263
0.021429239 0.67900002 -0.027381808 1.3466362e-38 338 263
0.022619752 0.67900002 -0.027381808 9.4097542e-39 339 263
0.023810266 0.67900002 -0.027381808 7.9399981e-39 340 263
0.025000781 0.67900002 -0.027381808 8.7697602e-39 341 263
0.026191294 0.67900002 -0.027381808 8.9537563e-39 342 263
0.027381808 0.67900002 -0.027381808 8.9537563e-39 343 263
0.028614398 0.68000001 -0.027422134 8.9533807e-39 344 263
0.029806666 0.68000001 -0.027422134 8.9533807e-39 345 263
0.030998932 0.68000001 -0.027422134 8.7686223e-39 346 263
0.032191198 0.68000001 -0.027422134 8.3076456e-39 347 263
0.033383466 0.68000001 -0.027422134 8.954052e-39 348 263
0.034677424 0.68199998 -0.027502786 9.1380845e-39 349 263
0.035873197 0.68199998 -0.027502786 8.7706991e-39 350 263
0.037123326 0.68300003 -0.027543113 8.3093608e-39 351 263
0.038320854 0.68300003 -0.027543113 8.1278464e-39 352 263
0.039518382 0.68300003 -0.027543113 8.7732158e-39 353 263
0.040715907 0.68300003 -0.027543113 9.1416452e-39 354 263
0.041913435 0.68300003 -0.027543113 9.1416452e-39 355 263
0.043110959 0.68300003 -0.027543113 9.6901723e-39 356 263
0.04437336 0.68400002 -0.027583439 1.0611768e-38 357 263
0.045705888 0.68599999 -0.027664091 1.1989009e-38 358 263
0.046977058 0.68699998 -0.027704418 9.8685099e-39 359 263
0.048391998 0.69 -0.027825398 8.3869493e-39 360 263
0.049673684 0.69099998 -0.027865725 1.0046472e-38 361 263
0.051032521 0.69300002 -0.027946379 1.0048287e-38 362 263
0.05224758 0.69300002 -0.027946379 1.0048287e-38 363 263
0.053462639 0.69300002 -0.027946379 1.0048627e-38 364 263
0.054677699 0.69300002 -0.027946379 1.3643897e-38 365 263
0.055892758 0.69300002 -0.027946379 1.6683799e-38 366 263
0.057107817 0.69300002 -0.027946379 1.9633701e-38 367 263
-0.011156459 0.70700002 -0.029750559 1.9818816e-38 311 264
-0.0099168532 0.70700002 -0.029750559 1.9727701e-38 312 264
-0.0086649731 0.70599997 -0.029708479 1.8897939e-38 313 264
-0.0074060797 0.704 -0.029624319 1.6689947e-38 314 264
-0.0061629666 0.70300001 -0.029582238 1.3831881e-38 315 264
-0.0049093333 0.69999999 -0.029455997 1.226638e-38 316 264
-0.0036714801 0.69800001 -0.029371841 1.2173824e-38 317 264
-0.0024441467 0.69700003 -0.02932976 1.2724847e-38 318 264
-0.0012203199 0.69599998 -0.029287677 1.2724847e-38 319 264
0 0.69400001 -0.029203519 1.1897966e-38 320 264
0.00121506 0.69300002 -0.029161438 1.2543335e-38 321 264
0.0024231065 0.69099998 -0.029077278 1.4017736e-38 322 264
0.0036346598 0.69099998 -0.029077278 1.4017736e-38 323 264
0.0048251734 0.68800002 -0.028951041 1.2914982e-38 324 264
0.0060226996 0.68699998 -0.028908957 1.3744744e-38 325 264
0.0072272392 0.68699998 -0.028908957 1.4388314e-38 326 264
0.0084195063 0.68599999 -0.02886688 1.3189771e-38 327 264
0.0095942402 0.68400002 -0.02878272 1.21749e-38 328 264
0.01077774 0.68300003 -0.028740639 1.0976357e-38 329 264
0.011975267 0.68300003 -0.028740639 1.0795205e-38 330 264
0.013172794 0.68300003 -0.028740639 1.0979957e-38 331 264
0.01434928 0.68199998 -0.02869856 1.1346584e-38 332 264
0.015545053 0.68199998 -0.02869856 1.1530975e-38 333 264
0.016740825 0.68199998 -0.02869856 1.1164717e-38 334 264
0.017883999 0.68000001 -0.028614398 1.0980325e-38 335 264
0.019076265 0.68000001 -0.028614398 1.1164714e-38 336 264
0.020268533 0.68000001 -0.028614398 1.2547648e-38 337 264
0.0214608 0.68000001 -0.028614398 1.3467086e-38 338 264
0.022653066 0.68000001 -0.028614398 9.5026743e-39 339 264
0.023845334 0.68000001 -0.028614398 8.5842927e-39 340 264
0.025037598 0.68000001 -0.028614398 9.2296621e-39 341 264
0.026229866 0.68000001 -0.028614398 9.4129338e-39 342 264
0.027422134 0.68000001 -0.028614398 9.04451e-39 343 264
0.028614398 0.68000001 -0.028614398 9.2278068e-39 344 264
0.029806666 0.68000001 -0.028614398 9.3200025e-39 345 264
0.030998932 0.68000001 -0.028614398 8.7671944e-39 346 264
0.032191198 0.68000001 -0.028614398 8.5828032e-39 347 264
0.03348165 0.68199998 -0.02869856 1.0241236e-38 348 264
0.034677424 0.68199998 -0.02869856 1.0333431e-38 349 264
0.035873197 0.68199998 -0.02869856 9.4125288e-39 350 264
0.037123326 0.68300003 -0.028740639 8.3983769e-39 351 264
0.038320854 0.68300003 -0.028740639 8.5848981e-39 352 264
0.039518382 0.68300003 -0.028740639 9.4146588e-39 353 264
0.040715907 0.68300003 -0.028740639 9.6915918e-39 354 264
0.041913435 0.68300003 -0.028740639 9.5993961e-39 355 264
0.043174081 0.68400002 -0.02878272 9.6905408e-39 356 264
0.04437336 0.68400002 -0.02878272 1.0612499e-38 357 264
0.045705888 0.68599999 -0.02886688 1.2726221e-38 358 264
0.047045439 0.68800002 -0.028951041 1.1251091e-38 359 264
0.04846213 0.69099998 -0.029077278 8.5691867e-39 360 264
0.049673684 0.69099998 -0.029077278 1.0136873e-38 361 264
0.051032521 0.69300002 -0.029161438 9.772776e-39 362 264
0.05224758 0.69300002 -0.029161438 1.0233753e-38 363 264
0.053462639 0.69300002 -0.029161438 1.1337564e-38 364 264
0.054677699 0.69300002 -0.029161438 1.4472215e-38 365 264
0.055892758 0.69300002 -0.029161438 1.6778516e-38 366 264
-0.0099168532 0.70700002 -0.030990168 1.9635868e-38 312 265
-0.0086649731 0.70599997 -0.030946331 1.8437325e-38 313 265
-0.0074060797 0.704 -0.030858666 1.6322242e-38 314 265
-0.0061629666 0.70300001 -0.030814834 1.383296e-38 315 265
-0.0049163462 0.70099998 -0.030727165 1.2450768e-38 316 265
-0.0036819996 0.69999999 -0.030683333 1.2266377e-38 317 265
-0.0024476533 0.69800001 -0.030595668 1.2358938e-38 318 265
-0.0012220733 0.69700003 -0.030551834 1.2358938e-38 319 265
0 0.69400001 -0.030420333 1.1991598e-38 320 265
0.0012168133 0.69400001 -0.030420333 1.2268543e-38 321 265
0.00243012 0.69300002 -0.0303765 1.3557837e-38 322 265
0.0036346598 0.69099998 -0.030288832 1.4202848e-38 323 265
0.0048391996 0.69 -0.030244999 1.4203201e-38 324 265
0.0060314666 0.68800002 -0.030157333 1.4387951e-38 325 265
0.0072272392 0.68699998 -0.030113498 1.383694e-38 326 265
0.0084317802 0.68699998 -0.030113498 1.3007179e-38 327 265
0.0096222926 0.68599999 -0.030069664 1.2268891e-38 328 265
0.01079352 0.68400002 -0.029982001 1.1070706e-38 329 265
0.0119928 0.68400002 -0.029982001 1.0980676e-38 330 265
0.01319208 0.68400002 -0.029982001 1.1072871e-38 331 265
0.014370319 0.68300003 -0.029938167 1.1347663e-38 332 265
0.015545053 0.68199998 -0.029894331 1.1439859e-38 333 265
0.016740825 0.68199998 -0.029894331 1.1255112e-38 334 265
0.017936599 0.68199998 -0.029894331 1.0978523e-38 335 265
0.019132372 0.68199998 -0.029894331 1.1162916e-38 336 265
0.020328145 0.68199998 -0.029894331 1.2638405e-38 337 265
0.021523919 0.68199998 -0.029894331 1.328269e-38 338 265
0.022719691 0.68199998 -0.029894331 9.1342449e-39 339 265
0.023915464 0.68199998 -0.029894331 9.4108234e-39 340 265
0.025111238 0.68199998 -0.029894331 1.0333138e-38 341 265
0.026307013 0.68199998 -0.029894331 9.9646866e-39 342 265
0.027502786 0.68199998 -0.029894331 9.5959055e-39 343 265
0.02869856 0.68199998 -0.029894331 9.7784779e-39 344 265
0.029894331 0.68199998 -0.029894331 9.5944468e-39 345 265
0.031090107 0.68199998 -0.029894331 7.6637377e-39 346 265
0.032285877 0.68199998 -0.029894331 7.8484877e-39 347 265
0.03348165 0.68199998 -0.029894331 1.0426009e-38 348 265
0.034677424 0.68199998 -0.029894331 1.0518564e-38 349 265
0.035925802 0.68300003 -0.029938167 9.8738951e-39 350 265
0.037123326 0.68300003 -0.029938167 8.1221781e-39 351 265
0.038320854 0.68300003 -0.029938167 8.6760526e-39 352 265
0.03957624 0.68400002 -0.029982001 1.0519965e-38 353 265
0.040775519 0.68400002 -0.029982001 1.0059298e-38 354 265
0.041974798 0.68400002 -0.029982001 8.861115e-39 355 265
0.043174081 0.68400002 -0.029982001 9.4150147e-39 356 265
0.044503104 0.68599999 -0.030069664 1.0521002e-38 357 265
0.045839146 0.68800002 -0.030157333 1.2634745e-38 358 265
0.047250576 0.69099998 -0.030288832 1.1436201e-38 359 265
0.048602402 0.69300002 -0.0303765 7.1905711e-39 360 265
0.049817458 0.69300002 -0.0303765 9.2188749e-39 361 265
0.051106159 0.69400001 -0.030420333 9.9582421e-39 362 265
0.05224758 0.69300002 -0.0303765 1.0972394e-38 363 265
0.053462639 0.69300002 -0.0303765 1.2997078e-38 364 265
0.054756597 0.69400001 -0.030420333 1.4933187e-38 365 265
0.055973411 0.69400001 -0.030420333 1.6869632e-38 366 265
-0.0099308798 0.708 -0.03227536 1.9727351e-38 312 266
-0.008677247 0.70700002 -0.032229774 1.8436612e-38 313 266
-0.0074060797 0.704 -0.032093015 1.6137132e-38 314 266
-0.0061629666 0.70300001 -0.032047424 1.4201023e-38 315 266
-0.0049163462 0.70099998 -0.031956252 1.2912095e-38 316 266
-0.0036819996 0.69999999 -0.031910665 1.2635508e-38 317 266
-0.0024476533 0.69800001 -0.031819493 1.2543683e-38 318 266
-0.0012220733 0.69700003 -0.03177391 1.2451487e-38 319 266
0 0.69599998 -0.031728316 1.2267822e-38 320 266
0.0012168133 0.69400001 -0.031637147 1.2451853e-38 321 266
0.00243012 0.69300002 -0.031591557 1.2269259e-38 322 266
0.0036451798 0.69300002 -0.031591557 1.2914629e-38 323 266
0.0048462129 0.69099998 -0.031500384 1.4019892e-38 324 266
0.0060489997 0.69 -0.031454802 1.4112087e-38 325 266
0.0072377604 0.68800002 -0.031363625 1.3744377e-38 326 266
0.0084440531 0.68800002 -0.031363625 1.3559985e-38 327 266
0.0096363192 0.68699998 -0.031318039 1.365038e-38 328 266
0.010825079 0.68599999 -0.031272452 1.3005011e-38 329 266
0.012027865 0.68599999 -0.031272452 1.2544038e-38 330 266
0.013230653 0.68599999 -0.031272452 1.2267093e-38 331 266
0.01439136 0.68400002 -0.03118128 1.1898316e-38 332 266
0.015567848 0.68300003 -0.031135695 1.1898316e-38 333 266
0.016765373 0.68300003 -0.031135695 1.1437708e-38 334 266
0.017936599 0.68199998 -0.031090107 1.0977088e-38 335 266
0.019132372 0.68199998 -0.031090107 1.1616337e-38 336 266
0.020328145 0.68199998 -0.031090107 1.3368054e-38 337 266
0.021523919 0.68199998 -0.031090107 1.328231e-38 338 266
0.022719691 0.68199998 -0.031090107 1.1346202e-38 339 266
0.023915464 0.68199998 -0.031090107 1.0424252e-38 340 266
0.025111238 0.68199998 -0.031090107 1.0793395e-38 341 266
0.026307013 0.68199998 -0.031090107 1.0149823e-38 342 266
0.027502786 0.68199998 -0.031090107 1.0518606e-38 343 266
0.02869856 0.68199998 -0.031090107 1.1253625e-38 344 266
0.029894331 0.68199998 -0.031090107 1.1069594e-38 345 266
0.031090107 0.68199998 -0.031090107 1.0056879e-38 346 266
0.032285877 0.68199998 -0.031090107 9.8724882e-39 347 266
0.033530746 0.68300003 -0.031135695 1.1345455e-38 348 266
0.034728274 0.68300003 -0.031135695 1.1713877e-38 349 266
0.035925802 0.68300003 -0.031135695 1.1528397e-38 350 266
0.037177678 0.68400002 -0.03118128 1.0514245e-38 351 266
0.038376961 0.68400002 -0.03118128 9.7795541e-39 352 266
0.03957624 0.68400002 -0.03118128 1.1899695e-38 353 266
0.040775519 0.68400002 -0.03118128 1.180563e-38 354 266
0.041974798 0.68400002 -0.03118128 9.8695216e-39 355 266
0.043300316 0.68599999 -0.031272452 9.4168028e-39 356 266
0.044567976 0.68699998 -0.031318039 1.052351e-38 357 266
0.045972396 0.69 -0.031454802 1.2725142e-38 358 266
0.047387339 0.69300002 -0.031591557 1.1526599e-38 359 266
0.048602402 0.69300002 -0.031591557 6.4548025e-39 360 266
0.049889345 0.69400001 -0.031637147 8.4834651e-39 361 266
0.051106159 0.69400001 -0.031637147 1.0877675e-38 362 266
0.052322973 0.69400001 -0.031637147 1.2168413e-38 363 266
0.053539783 0.69400001 -0.031637147 1.3093228e-38 364 266
0.054914396 0.69599998 -0.031728316 1.4383967e-38 365 266
0.056134716 0.69599998 -0.031728316 1.6776362e-38 366 266
-0.0099729598 0.71100003 -0.033658739 1.9910663e-38 312 267
-0.008689519 0.708 -0.033516716 1.8435532e-38 313 267
-0.0074376399 0.70700002 -0.033469379 1.6136779e-38 314 267
-0.0061717331 0.704 -0.03332736 1.4476897e-38 315 267
-0.0049163462 0.70099998 -0.03318534 1.3372004e-38 316 267
-0.0036872597 0.70099998 -0.03318534 1.281883e-38 317 267
-0.0024546667 0.69999999 -0.033137999 1.2451134e-38 318 267
-0.0012238267 0.69800001 -0.033043321 1.2451134e-38 319 267
0 0.69599998 -0.032948639 1.2175629e-38 320 267
0.0012168133 0.69400001 -0.032853961 1.2451855e-38 321 267
0.0024336267 0.69400001 -0.032853961 1.19012e-38 322 267
0.0036451798 0.69300002 -0.03280662 1.2178147e-38 323 267
0.0048462129 0.69099998 -0.032711938 1.3192295e-38 324 267
0.0060577663 0.69099998 -0.032711938 1.3561079e-38 325 267
0.0072587994 0.69 -0.032664597 1.3469955e-38 326 267
0.0084440531 0.68800002 -0.032569919 1.3377759e-38 327 267
0.0096503468 0.68800002 -0.032569919 1.4019886e-38 328 267
0.010840859 0.68699998 -0.032522578 1.4204636e-38 329 267
0.012045399 0.68699998 -0.032522578 1.4015573e-38 330 267
0.013249939 0.68699998 -0.032522578 1.2909225e-38 331 267
0.01443344 0.68599999 -0.032475237 1.116255e-38 332 267
0.01559064 0.68400002 -0.032380559 1.1531331e-38 333 267
0.016789921 0.68400002 -0.032380559 1.1713572e-38 334 267
0.017962901 0.68300003 -0.032333218 1.1713572e-38 335 267
0.019160427 0.68300003 -0.032333218 1.1989435e-38 336 267
0.020357953 0.68300003 -0.032333218 1.3280174e-38 337 267
0.02155548 0.68300003 -0.032333218 1.3926247e-38 338 267
0.022719691 0.68199998 -0.032285877 1.3649662e-38 339 267
0.023915464 0.68199998 -0.032285877 1.3650018e-38 340 267
0.025111238 0.68199998 -0.032285877 1.3650018e-38 341 267
0.026307013 0.68199998 -0.032285877 1.3558182e-38 342 267
0.027502786 0.68199998 -0.032285877 1.3742932e-38 343 267
0.028740639 0.68300003 -0.032333218 1.401879e-38 344 267
0.029938167 0.68300003 -0.032333218 1.4110986e-38 345 267
0.031135695 0.68300003 -0.032333218 1.411062e-38 346 267
0.032333218 0.68300003 -0.032333218 1.3465251e-38 347 267
0.033530746 0.68300003 -0.032333218 1.3554205e-38 348 267
0.034728274 0.68300003 -0.032333218 1.3738598e-38 349 267
0.035978399 0.68400002 -0.032380559 1.3554205e-38 350 267
0.037177678 0.68400002 -0.032380559 1.1618097e-38 351 267
0.038376961 0.68400002 -0.032380559 1.0790849e-38 352 267
0.03957624 0.68400002 -0.032380559 1.3464522e-38 353 267
0.040894743 0.68599999 -0.032475237 1.4013711e-38 354 267
0.042097531 0.68599999 -0.032475237 1.2999919e-38 355 267
0.043363437 0.68699998 -0.032522578 1.1992594e-38 356 267
0.044632856 0.68800002 -0.032569919 1.226954e-38 357 267
0.046039023 0.69099998 -0.032711938 1.3276524e-38 358 267
0.047387339 0.69300002 -0.03280662 1.1893589e-38 359 267
0.048672531 0.69400001 -0.032853961 5.7172235e-39 360 267
0.049889345 0.69400001 -0.032853961 7.5611361e-39 361 267
0.051106159 0.69400001 -0.032853961 1.170707e-38 362 267
0.052322973 0.69400001 -0.032853961 1.3090004e-38 363 267
0.053539783 0.69400001 -0.032853961 1.2909555e-38 364 267
0.054756597 0.69400001 -0.032853961 1.4015904e-38 365 267
-0.0099729598 0.71100003 -0.034905359 1.9542602e-38 312 268
-0.0087140659 0.70999998 -0.034856264 1.8159668e-38 313 268
-0.0074481601 0.708 -0.034758076 1.6320094e-38 314 268
-0.0061980332 0.70700002 -0.034708988 1.4568377e-38 315 268
-0.0049514128 0.70599997 -0.034659892 1.3280171e-38 316 268
-0.0037030398 0.704 -0.034561705 1.2726998e-38 317 268
-0.0024581731 0.70099998 -0.034414422 1.2451137e-38 318 268
-0.0012273333 0.69999999 -0.034365334 1.2266745e-38 319 268
0 0.69800001 -0.034267146 1.2175629e-38 320 268
0.0012203199 0.69599998 -0.034168959 1.2544051e-38 321 268
0.0024336267 0.69400001 -0.034070771 1.291391e-38 322 268
0.0036504399 0.69400001 -0.034070771 1.3467084e-38 323 268
0.00486024 0.69300002 -0.034021679 1.3652551e-38 324 268
0.0060577663 0.69099998 -0.033923492 1.3836942e-38 325 268
0.0072587994 0.69 -0.0338744 1.383694e-38 326 268
0.0084686 0.69 -0.0338744 1.3284124e-38 327 268
0.0096503468 0.68800002 -0.033776212 1.3006815e-38 328 268
0.010856641 0.68800002 -0.033776212 1.2453642e-38 329 268
0.012045399 0.68699998 -0.033727121 1.2544401e-38 330 268
0.013249939 0.68699998 -0.033727121 1.1991588e-38 331 268
0.014454478 0.68699998 -0.033727121 1.1805764e-38 332 268
0.015636226 0.68599999 -0.033678025 1.1805764e-38 333 268
0.016839013 0.68599999 -0.033678025 1.1623174e-38 334 268
0.0179892 0.68400002 -0.033579841 1.1438783e-38 335 268
0.01918848 0.68400002 -0.033579841 1.1073593e-38 336 268
0.020387759 0.68400002 -0.033579841 1.2179942e-38 337 268
0.02155548 0.68300003 -0.033530746 1.3925891e-38 338 268
0.022753006 0.68300003 -0.033530746 1.374186e-38 339 268
0.023950534 0.68300003 -0.033530746 1.4017721e-38 340 268
0.02514806 0.68300003 -0.033530746 1.4017721e-38 341 268
0.026345588 0.68300003 -0.033530746 1.4018077e-38 342 268
0.027543113 0.68300003 -0.033530746 1.4018077e-38 343 268
0.02878272 0.68400002 -0.033579841 1.4109194e-38 344 268
0.029982001 0.68400002 -0.033579841 1.4201389e-38 345 268
0.03118128 0.68400002 -0.033579841 1.3923723e-38 346 268
0.032380559 0.68400002 -0.033579841 1.3647497e-38 347 268
0.033579841 0.68400002 -0.033579841 1.3371626e-38 348 268
0.034880809 0.68599999 -0.033678025 1.3463821e-38 349 268
0.036083598 0.68599999 -0.033678025 1.3554945e-38 350 268
0.037286382 0.68599999 -0.033678025 1.1250053e-38 351 268
0.03848917 0.68599999 -0.033678025 1.005618e-38 352 268
0.039749816 0.68699998 -0.033727121 1.2729853e-38 353 268
0.040954359 0.68699998 -0.033727121 1.4015178e-38 354 268
0.042158898 0.68699998 -0.033727121 1.3369808e-38 355 268
0.043426562 0.68800002 -0.033776212 1.3094654e-38 356 268
0.0447626 0.69 -0.0338744 1.3279045e-38 357 268
0.046039023 0.69099998 -0.033923492 1.318505e-38 358 268
0.047455717 0.69400001 -0.034070771 1.1986508e-38 359 268
0.048672531 0.69400001 -0.034070771 9.1288121e-39 360 268
0.050033119 0.69599998 -0.034168959 9.2210091e-39 361 268
0.051253434 0.69599998 -0.034168959 1.2907761e-38 362 268
0.052473757 0.69599998 -0.034168959 1.3276543e-38 363 268
0.053694077 0.69599998 -0.034168959 1.2265266e-38 364 268
0.054914396 0.69599998 -0.034168959 1.4016622e-38 365 268
-0.010043093 0.71600002 -0.036406212 1.9175615e-38 312 269
-0.0087877065 0.71600002 -0.036406212 1.7977072e-38 313 269
-0.0074797203 0.71100003 -0.036151983 1.6227539e-38 314 269
-0.0062067998 0.708 -0.03599944 1.4476181e-38 315 269
-0.0049584266 0.70700002 -0.035948593 1.3279818e-38 316 269
-0.0037135598 0.70599997 -0.035897743 1.2726645e-38 317 269
-0.0024686933 0.704 -0.035796054 1.2451137e-38 318 269
-0.0012290865 0.70099998 -0.035643511 1.2358941e-38 319 269
0 0.69999999 -0.035592664 1.2543688e-38 320 269
0.0012220733 0.69700003 -0.035440128 1.3004308e-38 321 269
0.0024406398 0.69599998 -0.035389278 1.3466362e-38 322 269
0.0036504399 0.69400001 -0.035287585 1.4204286e-38 323 269
0.0048672534 0.69400001 -0.035287585 1.3838014e-38 324 269
0.0060753003 0.69300002 -0.035236739 1.3561788e-38 325 269
0.0072693196 0.69099998 -0.035135046 1.3836579e-38 326 269
0.0084686 0.69 -0.035084199 1.3098656e-38 327 269
0.0096783992 0.69 -0.035084199 1.1348385e-38 328 269
0.010856641 0.68800002 -0.03498251 9.9650916e-39 329 269
0.012062933 0.68800002 -0.03498251 1.0704459e-38 330 269
0.013269227 0.68800002 -0.03498251 1.107324e-38 331 269
0.014454478 0.68699998 -0.034931656 1.1806486e-38 332 269
0.015659019 0.68699998 -0.034931656 1.1806486e-38 333 269
0.01686356 0.68699998 -0.034931656 1.1623174e-38 334 269
0.018041799 0.68599999 -0.034880809 1.1346228e-38 335 269
0.019244585 0.68599999 -0.034880809 1.0429304e-38 336 269
0.020387759 0.68400002 -0.03477912 1.1904074e-38 337 269
0.02158704 0.68400002 -0.03477912 1.3650027e-38 338 269
0.022786319 0.68400002 -0.03477912 1.2912462e-38 339 269
0.0239856 0.68400002 -0.03477912 1.2819902e-38 340 269
0.025184879 0.68400002 -0.03477912 1.2912099e-38 341 269
0.02638416 0.68400002 -0.03477912 1.2819181e-38 342 269
0.027583439 0.68400002 -0.03477912 1.2726985e-38 343 269
0.02886688 0.68599999 -0.034880809 1.2451118e-38 344 269
0.030069664 0.68599999 -0.034880809 1.217453e-38 345 269
0.031272452 0.68599999 -0.034880809 1.2540439e-38 346 269
0.032475237 0.68599999 -0.034880809 1.2632634e-38 347 269
0.033727121 0.68699998 -0.034931656 1.3187958e-38 348 269
0.034931656 0.68699998 -0.034931656 1.3464903e-38 349 269
0.036136195 0.68699998 -0.034931656 1.3555664e-38 350 269
0.037340738 0.68699998 -0.034931656 1.1066741e-38 351 269
0.038545277 0.68699998 -0.034931656 9.5952049e-39 352 269
0.039807681 0.68800002 -0.03498251 1.2545105e-38 353 269
0.041013971 0.68800002 -0.03498251 1.3924064e-38 354 269
0.042342998 0.69 -0.035084199 1.3647118e-38 355 269
0.043615919 0.69099998 -0.035135046 1.3646751e-38 356 269
0.044957221 0.69300002 -0.035236739 1.3554555e-38 357 269
0.046238903 0.69400001 -0.035287585 1.3369092e-38 358 269
0.047592476 0.69599998 -0.035389278 1.2631527e-38 359 269
0.048812799 0.69599998 -0.035389278 1.2170912e-38 360 269
0.050105009 0.69700003 -0.035440128 1.3001031e-38 361 269
0.051327083 0.69700003 -0.035440128 1.3279057e-38 362 269
0.052549154 0.69700003 -0.035440128 1.2633688e-38 363 269
0.053848371 0.69800001 -0.035490975 1.208087e-38 364 269
0.0550722 0.69800001 -0.035490975 1.4109175e-38 365 269
0.056296028 0.69800001 -0.035490975 1.7237336e-38 366 269
-0.010043093 0.71600002 -0.037661601 1.9359643e-38 312 270
-0.0087877065 0.71600002 -0.037661601 1.8345132e-38 313 270
-0.0074797203 0.71100003 -0.037398599 1.595203e-38 314 270
-0.0062243328 0.70999998 -0.037345998 1.3831531e-38 315 270
-0.0049584266 0.70700002 -0.037188202 1.2452936e-38 316 270
-0.0037188199 0.70700002 -0.037188202 1.2268543e-38 317 270
-0.0024757064 0.70599997 -0.037135597 1.2451137e-38 318 270
-0.0012325933 0.70300001 -0.036977798 1.2451137e-38 319 270
0 0.69999999 -0.036819998 1.2544051e-38 320 270
0.0012238267 0.69800001 -0.0367148 1.2451855e-38 321 270
0.0024441467 0.69700003 -0.036662199 1.2546569e-38 322 270
0.0036609597 0.69599998 -0.036609598 1.3468886e-38 323 270
0.0048672534 0.69400001 -0.036504399 1.3654346e-38 324 270
0.0060840664 0.69400001 -0.036504399 1.356215e-38 325 270
0.0072903596 0.69300002 -0.036451802 1.4112087e-38 326 270
0.008480873 0.69099998 -0.036346599 1.3189771e-38 327 270
0.0096783992 0.69 -0.036293998 1.1164717e-38 328 270
0.010888199 0.69 -0.036293998 9.7817821e-39 329 270
0.012062933 0.68800002 -0.0361888 1.1162919e-38 330 270
0.013269227 0.68800002 -0.0361888 1.1439506e-38 331 270
0.014475521 0.68800002 -0.0361888 1.1715367e-38 332 270
0.015659019 0.68699998 -0.036136195 1.1715367e-38 333 270
0.01686356 0.68699998 -0.036136195 1.1623527e-38 334 270
0.018068098 0.68699998 -0.036136195 1.1438777e-38 335 270
0.019272638 0.68699998 -0.036136195 1.1346937e-38 336 270
0.020447372 0.68599999 -0.036083598 1.2637676e-38 337 270
0.021650158 0.68599999 -0.036083598 1.34642e-38 338 270
0.022852944 0.68599999 -0.036083598 1.2081265e-38 339 270
0.024055731 0.68599999 -0.036083598 1.2356773e-38 340 270
0.025258519 0.68599999 -0.036083598 1.2541166e-38 341 270
0.026461305 0.68599999 -0.036083598 1.2266374e-38 342 270
0.027704418 0.68699998 -0.036136195 1.2174177e-38 343 270
0.028908957 0.68699998 -0.036136195 1.2173814e-38 344 270
0.030113498 0.68699998 -0.036136195 1.1989064e-38 345 270
0.031318039 0.68699998 -0.036136195 1.2080186e-38 346 270
0.032522578 0.68699998 -0.036136195 1.1895796e-38 347 270
0.033727121 0.68699998 -0.036136195 1.2634789e-38 348 270
0.034931656 0.68699998 -0.036136195 1.3280159e-38 349 270
0.0361888 0.68800002 -0.0361888 1.3554945e-38 350 270
0.037395094 0.68800002 -0.0361888 1.1250053e-38 351 270
0.038601387 0.68800002 -0.0361888 9.9629084e-39 352 270
0.0399234 0.69 -0.036293998 1.2913169e-38 353 270
0.041133199 0.69 -0.036293998 1.3831512e-38 354 270
0.042404365 0.69099998 -0.036346599 1.3554924e-38 355 270
0.043742158 0.69300002 -0.036451802 1.3554918e-38 356 270
0.045022093 0.69400001 -0.036504399 1.3278692e-38 357 270
0.046238903 0.69400001 -0.036504399 1.3278339e-38 358 270
0.047592476 0.69599998 -0.036609598 1.3001752e-38 359 270
0.048882935 0.69700003 -0.036662199 1.2725886e-38 360 270
0.050176892 0.69800001 -0.0367148 1.2633691e-38 361 270
0.051400717 0.69800001 -0.0367148 1.2541139e-38 362 270
0.052775331 0.69999999 -0.036819998 1.2264912e-38 363 270
0.054079808 0.70099998 -0.036872596 1.2355662e-38 364 270
0.055308893 0.70099998 -0.036872596 1.4476163e-38 365 270
0.057344519 0.71100003 -0.037398599 1.7236973e-38 366 270
-0.010043093 0.71600002 -0.038916986 1.9450038e-38 312 271
-0.0087877065 0.71600002 -0.038916986 1.852808e-38 313 271
-0.0074797203 0.71100003 -0.038645219 1.5767639e-38 314 271
-0.0062243328 0.70999998 -0.038590867 1.3370552e-38 315 271
-0.0049584266 0.70700002 -0.038427804 1.2176348e-38 316 271
-0.0037188199 0.70700002 -0.038427804 1.2176348e-38 317 271
-0.0024757064 0.70599997 -0.038373452 1.2543332e-38 318 271
-0.0012325933 0.70300001 -0.038210396 1.2635528e-38 319 271
0 0.70099998 -0.038101684 1.2543332e-38 320 271
0.0012273333 0.69999999 -0.038047329 1.2358941e-38 321 271
0.0024476533 0.69800001 -0.037938625 1.2269989e-38 322 271
0.00366622 0.69700003 -0.037884273 1.3191944e-38 323 271
0.0048812795 0.69599998 -0.037829921 1.392986e-38 324 271
0.0060840664 0.69400001 -0.037721213 1.3837664e-38 325 271
0.0072903596 0.69300002 -0.037666857 1.4019536e-38 326 271
0.008480873 0.69099998 -0.03755815 1.3281971e-38 327 271
0.0096924258 0.69099998 -0.03755815 1.1623537e-38 328 271
0.010888199 0.69 -0.037503798 1.0148767e-38 329 271
0.012062933 0.68800002 -0.037395094 1.1162919e-38 330 271
0.013269227 0.68800002 -0.037395094 1.1623537e-38 331 271
0.014475521 0.68800002 -0.037395094 1.1715367e-38 332 271
0.015681813 0.68800002 -0.037395094 1.1715367e-38 333 271
0.016888106 0.68800002 -0.037395094 1.1439856e-38 334 271
0.018068098 0.68699998 -0.037340738 1.1163269e-38 335 271
0.019272638 0.68699998 -0.037340738 1.153061e-38 336 271
0.020477179 0.68699998 -0.037340738 1.2729153e-38 337 271
0.021681719 0.68699998 -0.037340738 1.3463844e-38 338 271
0.022886258 0.68699998 -0.037340738 1.1896518e-38 339 271
0.024090799 0.68699998 -0.037340738 1.2264224e-38 340 271
0.025295338 0.68699998 -0.037340738 1.2172029e-38 341 271
0.026499879 0.68699998 -0.037340738 1.1622808e-38 342 271
0.027704418 0.68699998 -0.037340738 1.1530612e-38 343 271
0.028908957 0.68699998 -0.037340738 1.1438414e-38 344 271
0.030113498 0.68699998 -0.037340738 1.1438414e-38 345 271
0.031318039 0.68699998 -0.037340738 1.1713203e-38 346 271
0.032522578 0.68699998 -0.037340738 1.1621007e-38 347 271
0.033776212 0.68800002 -0.037395094 1.2081979e-38 348 271
0.03498251 0.68800002 -0.037395094 1.2819902e-38 349 271
0.0361888 0.68800002 -0.037395094 1.3186884e-38 350 271
0.037395094 0.68800002 -0.037395094 1.0974189e-38 351 271
0.038713597 0.69 -0.037503798 1.0330972e-38 352 271
0.039981257 0.69099998 -0.03755815 1.3096841e-38 353 271
0.041192811 0.69099998 -0.03755815 1.3648203e-38 354 271
0.042527102 0.69300002 -0.037666857 1.327906e-38 355 271
0.043742158 0.69300002 -0.037666857 1.3278341e-38 356 271
0.045022093 0.69400001 -0.037721213 1.3278341e-38 357 271
0.046372157 0.69599998 -0.037829921 1.3277985e-38 358 271
0.047660861 0.69700003 -0.037884273 1.2909201e-38 359 271
0.048953064 0.69800001 -0.037938625 1.1896854e-38 360 271
0.050320663 0.69999999 -0.038047329 1.1527713e-38 361 271
0.051621638 0.70099998 -0.038101684 1.1895419e-38 362 271
0.052850723 0.70099998 -0.038101684 1.2079811e-38 363 271
0.054234106 0.70300001 -0.038210396 1.2265266e-38 364 271
0.056097899 0.71100003 -0.038645219 1.4201374e-38 365 271
0.057344519 0.71100003 -0.038645219 1.7144775e-38 366 271
-0.010043093 0.71600002 -0.040172372 1.9175249e-38 312 272
-0.0087877065 0.71600002 -0.040172372 1.788451e-38 313 272
-0.0074797203 0.71100003 -0.039891839 1.5583605e-38 314 272
-0.0062243328 0.70999998 -0.039835732 1.2909932e-38 315 272
-0.0049584266 0.70700002 -0.039667413 1.1255112e-38 316 272
-0.0037188199 0.70700002 -0.039667413 1.1623893e-38 317 272
-0.0024757064 0.70599997 -0.039611302 1.2819196e-38 318 272
-0.0012343467 0.704 -0.039499093 1.3095784e-38 319 272
0 0.70300001 -0.039442986 1.2451134e-38 320 272
0.0012290865 0.70099998 -0.039330769 1.2543688e-38 321 272
0.0024546667 0.69999999 -0.039274666 1.2452936e-38 322 272
0.0036714801 0.69800001 -0.039162453 1.2729521e-38 323 272
0.0048882933 0.69700003 -0.039106347 1.3283771e-38 324 272
0.0061015999 0.69599998 -0.039050236 1.3744749e-38 325 272
0.0073008798 0.69400001 -0.038938027 1.420393e-38 326 272
0.0085054198 0.69300002 -0.03888192 1.3374169e-38 327 272
0.0097204801 0.69300002 -0.03888192 1.1623537e-38 328 272
0.01090398 0.69099998 -0.038769703 1.0148767e-38 329 272
0.012097999 0.69 -0.038713597 1.11622e-38 330 272
0.0133078 0.69 -0.038713597 1.1623177e-38 331 272
0.014475521 0.68800002 -0.038601387 1.1899038e-38 332 272
0.015681813 0.68800002 -0.038601387 1.1899038e-38 333 272
0.016888106 0.68800002 -0.038601387 1.1899038e-38 334 272
0.0180944 0.68800002 -0.038601387 1.1622452e-38 335 272
0.019300694 0.68800002 -0.038601387 1.1806483e-38 336 272
0.020506985 0.68800002 -0.038601387 1.2913191e-38 337 272
0.021681719 0.68699998 -0.038545277 1.3465283e-38 338 272
0.022886258 0.68699998 -0.038545277 1.180612e-38 339 272
0.024090799 0.68699998 -0.038545277 1.2172026e-38 340 272
0.02533216 0.68800002 -0.038601387 1.207983e-38 341 272
0.026538454 0.68800002 -0.038601387 1.1529531e-38 342 272
0.027744746 0.68800002 -0.038601387 1.1345498e-38 343 272
0.028951041 0.68800002 -0.038601387 1.0885962e-38 344 272
0.030157333 0.68800002 -0.038601387 1.0978158e-38 345 272
0.031363625 0.68800002 -0.038601387 1.1436615e-38 346 272
0.032569919 0.68800002 -0.038601387 1.1713203e-38 347 272
0.033776212 0.68800002 -0.038601387 1.2449319e-38 348 272
0.03498251 0.68800002 -0.038601387 1.3094689e-38 349 272
0.036293998 0.69 -0.038713597 1.2819178e-38 350 272
0.037503798 0.69 -0.038713597 1.088307e-38 351 272
0.038713597 0.69 -0.038713597 1.1158933e-38 352 272
0.039981257 0.69099998 -0.038769703 1.355602e-38 353 272
0.041312039 0.69300002 -0.03888192 1.3555651e-38 354 272
0.042527102 0.69300002 -0.03888192 1.3186509e-38 355 272
0.043805279 0.69400001 -0.038938027 1.318579e-38 356 272
0.045151837 0.69599998 -0.039050236 1.3093594e-38 357 272
0.046438783 0.69700003 -0.039106347 1.2356755e-38 358 272
0.047729239 0.69800001 -0.039162453 1.1987971e-38 359 272
0.049093332 0.69999999 -0.039274666 1.0240221e-38 360 272
0.050392549 0.70099998 -0.039330769 1.0609002e-38 361 272
0.051768921 0.70300001 -0.039442986 1.1894701e-38 362 272
0.053001512 0.70300001 -0.039442986 1.2355679e-38 363 272
0.054234106 0.70300001 -0.039442986 1.2265263e-38 364 272
0.055545598 0.704 -0.039499093 1.4016978e-38 365 272
0.056779943 0.704 -0.039499093 1.7512837e-38 366 272
-0.0087877065 0.71600002 -0.041427758 1.7977425e-38 313 273
-0.0074797203 0.71100003 -0.041138459 1.5859832e-38 314 273
-0.0062243328 0.70999998 -0.041080594 1.2632985e-38 315 273
-0.0049584266 0.70700002 -0.040907022 1.107e-38 316 273
-0.0037188199 0.70700002 -0.040907022 1.1438783e-38 317 273
-0.0024792133 0.70700002 -0.040907022 1.2085231e-38 318 273
-0.0012378532 0.70599997 -0.040849157 1.254585e-38 319 273
0 0.704 -0.040733438 1.2912112e-38 320 273
0.0012325933 0.70300001 -0.040675577 1.3004308e-38 321 273
0.0024546667 0.69999999 -0.040502001 1.2636967e-38 322 273
0.0036714801 0.69800001 -0.040386278 1.2452936e-38 323 273
0.0048953067 0.69800001 -0.040386278 1.2913191e-38 324 273
0.0061015999 0.69599998 -0.040270556 1.3835146e-38 325 273
0.0073219193 0.69599998 -0.040270556 1.4019536e-38 326 273
0.0085176928 0.69400001 -0.040154841 1.3466362e-38 327 273
0.0097204801 0.69300002 -0.04009698 1.1624976e-38 328 273
0.010935539 0.69300002 -0.04009698 1.005729e-38 329 273
0.012115533 0.69099998 -0.039981257 1.0795578e-38 330 273
0.013327086 0.69099998 -0.039981257 1.1072165e-38 331 273
0.014517599 0.69 -0.0399234 1.1806486e-38 332 273
0.015727401 0.69 -0.0399234 1.1898682e-38 333 273
0.016888106 0.68800002 -0.039807681 1.1530978e-38 334 273
0.0180944 0.68800002 -0.039807681 1.1438783e-38 335 273
0.019300694 0.68800002 -0.039807681 1.1257265e-38 336 273
0.020506985 0.68800002 -0.039807681 1.2363613e-38 337 273
0.021713281 0.68800002 -0.039807681 1.3006111e-38 338 273
0.022919573 0.68800002 -0.039807681 1.051683e-38 339 273
0.024125867 0.68800002 -0.039807681 1.134371e-38 340 273
0.02533216 0.68800002 -0.039807681 1.1251514e-38 341 273
0.026538454 0.68800002 -0.039807681 1.0975635e-38 342 273
0.027744746 0.68800002 -0.039807681 1.0883438e-38 343 273
0.028951041 0.68800002 -0.039807681 1.0240592e-38 344 273
0.030157333 0.68800002 -0.039807681 9.8718114e-39 345 273
0.031363625 0.68800002 -0.039807681 1.0333151e-38 346 273
0.032664597 0.69 -0.0399234 1.1255467e-38 347 273
0.0338744 0.69 -0.0399234 1.2084499e-38 348 273
0.035084199 0.69 -0.0399234 1.2453642e-38 349 273
0.036293998 0.69 -0.0399234 1.3002496e-38 350 273
0.03755815 0.69099998 -0.039981257 1.1158583e-38 351 273
0.038769703 0.69099998 -0.039981257 1.097706e-38 352 273
0.04009698 0.69300002 -0.04009698 1.263694e-38 353 273
0.041371655 0.69400001 -0.040154841 1.3371259e-38 354 273
0.042588469 0.69400001 -0.040154841 1.3002477e-38 355 273
0.043805279 0.69400001 -0.040154841 1.2542944e-38 356 273
0.045151837 0.69599998 -0.040270556 1.2174162e-38 357 273
0.046505414 0.69800001 -0.040386278 1.1896503e-38 358 273
0.047865998 0.69999999 -0.040502001 1.1251133e-38 359 273
0.049163464 0.70099998 -0.040559858 1.079124e-38 360 273
0.050536323 0.70300001 -0.040675577 1.1068187e-38 361 273
0.051842559 0.704 -0.040733438 1.116182e-38 362 273
0.053076904 0.704 -0.040733438 1.1438767e-38 363 273
0.054311249 0.704 -0.040733438 1.2448581e-38 364 273
0.055545598 0.704 -0.040733438 1.4476884e-38 365 273
0.056779943 0.704 -0.040733438 1.7790147e-38 366 273
-0.0074691991 0.70999998 -0.042325463 1.576727e-38 314 274
-0.0062067998 0.708 -0.042206239 1.2540423e-38 315 274
-0.0049584266 0.70700002 -0.042146627 1.0885243e-38 316 274
-0.0037188199 0.70700002 -0.042146627 1.0700493e-38 317 274
-0.0024792133 0.70700002 -0.042146627 1.1255833e-38 318 274
-0.0012378532 0.70599997 -0.042087011 1.1901203e-38 319 274
0 0.704 -0.041967787 1.2911393e-38 320 274
0.0012325933 0.70300001 -0.041908171 1.4109935e-38 321 274
0.0024581731 0.70099998 -0.041788943 1.3744747e-38 322 274
0.0036819996 0.69999999 -0.041729331 1.3191573e-38 323 274
0.0048953067 0.69800001 -0.041610107 1.3375241e-38 324 274
0.0061103669 0.69700003 -0.041550495 1.3651828e-38 325 274
0.0073219193 0.69599998 -0.041490879 1.42954e-38 326 274
0.0085422397 0.69599998 -0.041490879 1.3557834e-38 327 274
0.0097345067 0.69400001 -0.041371655 1.162497e-38 328 274
0.01095132 0.69400001 -0.041371655 1.0149839e-38 329 274
0.012150601 0.69300002 -0.041312039 1.0795211e-38 330 274
0.013327086 0.69099998 -0.041192811 1.1348385e-38 331 274
0.014517599 0.69 -0.041133199 1.1623177e-38 332 274
0.015727401 0.69 -0.041133199 1.1530622e-38 333 274
0.0169372 0.69 -0.041133199 1.1437711e-38 334 274
0.018146999 0.69 -0.041133199 1.0884537e-38 335 274
0.019356798 0.69 -0.041133199 9.8764987e-39 336 274
0.020566599 0.69 -0.041133199 1.1351629e-38 337 274
0.021776399 0.69 -0.041133199 1.2546219e-38 338 274
0.022986198 0.69 -0.041133199 9.0431451e-39 339 274
0.024195999 0.69 -0.041133199 8.9491502e-39 340 274
0.025405798 0.69 -0.041133199 9.5019653e-39 341 274
0.026615599 0.69 -0.041133199 9.041699e-39 342 274
0.027825398 0.69 -0.041133199 8.9491446e-39 343 274
0.029035198 0.69 -0.041133199 9.5912826e-39 344 274
0.030244999 0.69 -0.041133199 9.4987283e-39 345 274
0.031454802 0.69 -0.041133199 9.596672e-39 346 274
0.032664597 0.69 -0.041133199 1.0979606e-38 347 274
0.0338744 0.69 -0.041133199 1.2544036e-38 348 274
0.035084199 0.69 -0.041133199 1.2636231e-38 349 274
0.036293998 0.69 -0.041133199 1.2818099e-38 350 274
0.03755815 0.69099998 -0.041192811 1.1066741e-38 351 274
0.038769703 0.69099998 -0.041192811 1.0333855e-38 352 274
0.04009698 0.69300002 -0.041312039 1.1809345e-38 353 274
0.041371655 0.69400001 -0.041371655 1.27259e-38 354 274
0.042588469 0.69400001 -0.041371655 1.2449672e-38 355 274
0.043931518 0.69599998 -0.041490879 1.2082688e-38 356 274
0.045216713 0.69700003 -0.041550495 1.1897938e-38 357 274
0.046638668 0.69999999 -0.041729331 1.1621714e-38 358 274
0.047934376 0.70099998 -0.041788943 1.1252571e-38 359 274
0.049303733 0.70300001 -0.041908171 1.0701562e-38 360 274
0.050608214 0.704 -0.041967787 1.0701562e-38 361 274
0.051842559 0.704 -0.041967787 1.1436965e-38 362 274
0.053227689 0.70599997 -0.042087011 1.1529161e-38 363 274
0.054465543 0.70599997 -0.042087011 1.226311e-38 364 274
0.055703394 0.70599997 -0.042087011 1.4936784e-38 365 274
0.056941248 0.70599997 -0.042087011 1.7974538e-38 366 274
-0.0074691991 0.70999998 -0.043570329 1.6503035e-38 314 275
-0.0062067998 0.708 -0.043447599 1.382936e-38 315 275
-0.0049584266 0.70700002 -0.043386232 1.2173458e-38 316 275
-0.0037188199 0.70700002 -0.043386232 1.1528089e-38 317 275
-0.0024792133 0.70700002 -0.043386232 1.0702659e-38 318 275
-0.0012378532 0.70599997 -0.043324865 1.0887052e-38 319 275
0 0.704 -0.043202132 1.2453658e-38 320 275
0.0012325933 0.70300001 -0.043140765 1.3836592e-38 321 275
0.0024581731 0.70099998 -0.043018032 1.4297197e-38 322 275
0.0036819996 0.69999999 -0.042956665 1.4112806e-38 323 275
0.0049093333 0.69999999 -0.042956665 1.3836577e-38 324 275
0.006119133 0.69800001 -0.042833932 1.374438e-38 325 275
0.0073429602 0.69800001 -0.042833932 1.4111004e-38 326 275
0.0085545136 0.69700003 -0.042772565 1.3557832e-38 327 275
0.0097625591 0.69599998 -0.042711195 1.2452206e-38 328 275
0.010982879 0.69599998 -0.042711195 1.1161467e-38 329 275
0.012168133 0.69400001 -0.042588469 1.1255467e-38 330 275
0.01336566 0.69300002 -0.042527102 1.1439859e-38 331 275
0.014580719 0.69300002 -0.042527102 1.1530978e-38 332 275
0.015750192 0.69099998 -0.042404365 1.1623174e-38 333 275
0.016961746 0.69099998 -0.042404365 1.1437708e-38 334 275
0.0181733 0.69099998 -0.042404365 1.1253315e-38 335 275
0.019384852 0.69099998 -0.042404365 1.1162197e-38 336 275
0.020566599 0.69 -0.042342998 1.2452936e-38 337 275
0.021776399 0.69 -0.042342998 1.2913206e-38 338 275
0.022986198 0.69 -0.042342998 9.5019681e-39 339 275
0.024195999 0.69 -0.042342998 8.8562483e-39 340 275
0.025442619 0.69099998 -0.042404365 9.5016177e-39 341 275
0.026654173 0.69099998 -0.042404365 9.3168579e-39 342 275
0.027865725 0.69099998 -0.042404365 9.3168579e-39 343 275
0.029035198 0.69 -0.042342998 9.1321094e-39 344 275
0.030244999 0.69 -0.042342998 9.1321094e-39 345 275
0.031500384 0.69099998 -0.042404365 1.0422836e-38 346 275
0.032711938 0.69099998 -0.042404365 1.1344792e-38 347 275
0.033923492 0.69099998 -0.042404365 1.2726985e-38 348 275
0.035135046 0.69099998 -0.042404365 1.3003212e-38 349 275
0.036346599 0.69099998 -0.042404365 1.2542235e-38 350 275
0.037666857 0.69300002 -0.042527102 1.1159301e-38 351 275
0.03888192 0.69300002 -0.042527102 1.0794117e-38 352 275
0.040154841 0.69400001 -0.042588469 1.1623877e-38 353 275
0.041371655 0.69400001 -0.042588469 1.1991218e-38 354 275
0.042711195 0.69599998 -0.042711195 1.1806468e-38 355 275
0.043931518 0.69599998 -0.042711195 1.1163256e-38 356 275
0.045281585 0.69800001 -0.042833932 1.0978505e-38 357 275
0.046638668 0.69999999 -0.042956665 1.0977789e-38 358 275
0.048071139 0.70300001 -0.043140765 1.0977789e-38 359 275
0.049303733 0.70300001 -0.043140765 1.0700843e-38 360 275
0.050608214 0.704 -0.043202132 1.0885593e-38 361 275
0.051989835 0.70599997 -0.043324865 1.0977786e-38 362 275
0.053227689 0.70599997 -0.043324865 1.0516448e-38 363 275
0.054542694 0.70700002 -0.043386232 1.1067088e-38 364 275
0.055782299 0.70700002 -0.043386232 1.4293935e-38 365 275
0.057021905 0.70700002 -0.043386232 1.7883061e-38 366 275
-0.0074691991 0.70999998 -0.044815198 1.6873262e-38 314 276
-0.0062067998 0.708 -0.044688959 1.4476534e-38 315 276
-0.0049654399 0.708 -0.044688959 1.3278004e-38 316 276
-0.00372408 0.708 -0.044688959 1.2632634e-38 317 276
-0.0024792133 0.70700002 -0.044625837 1.1162197e-38 318 276
-0.0012378532 0.70599997 -0.044562716 1.0240239e-38 319 276
0 0.70599997 -0.044562716 1.1533143e-38 320 276
0.0012343467 0.704 -0.044436477 1.3100828e-38 321 276
0.0024651866 0.70300001 -0.04437336 1.43894e-38 322 276
0.0036872597 0.70099998 -0.044247117 1.4481596e-38 323 276
0.0049093333 0.69999999 -0.044183996 1.4205002e-38 324 276
0.0061366665 0.69999999 -0.044183996 1.4020611e-38 325 276
0.0073429602 0.69800001 -0.04405776 1.4203201e-38 326 276
0.0085667865 0.69800001 -0.04405776 1.3834777e-38 327 276
0.0097765867 0.69700003 -0.043994639 1.3557113e-38 328 276
0.01099866 0.69700003 -0.043994639 1.2451124e-38 329 276
0.012168133 0.69400001 -0.043805279 1.2083427e-38 330 276
0.013384946 0.69400001 -0.043805279 1.1622808e-38 331 276
0.01460176 0.69400001 -0.043805279 1.1438427e-38 332 276
0.015795778 0.69300002 -0.043742158 1.1530622e-38 333 276
0.01701084 0.69300002 -0.043742158 1.1438427e-38 334 276
0.018225901 0.69300002 -0.043742158 1.11622e-38 335 276
0.019384852 0.69099998 -0.043615919 1.152918e-38 336 276
0.020596405 0.69099998 -0.043615919 1.2635528e-38 337 276
0.021807959 0.69099998 -0.043615919 1.25455e-38 338 276
0.023019511 0.69099998 -0.043615919 9.1342617e-39 339 276
0.024231065 0.69099998 -0.043615919 8.7654848e-39 340 276
0.025442619 0.69099998 -0.043615919 9.2261042e-39 341 276
0.026654173 0.69099998 -0.043615919 9.4090508e-39 342 276
0.027865725 0.69099998 -0.043615919 9.3168551e-39 343 276
0.029077278 0.69099998 -0.043615919 9.3164908e-39 344 276
0.030288832 0.69099998 -0.043615919 9.6849146e-39 345 276
0.031591557 0.69300002 -0.043742158 1.0606501e-38 346 276
0.03280662 0.69300002 -0.043742158 1.1436262e-38 347 276
0.034021679 0.69300002 -0.043742158 1.2726629e-38 348 276
0.035236739 0.69300002 -0.043742158 1.2726629e-38 349 276
0.036451802 0.69300002 -0.043742158 1.2174897e-38 350 276
0.037666857 0.69300002 -0.043742158 1.1345495e-38 351 276
0.038938027 0.69400001 -0.043805279 1.1070353e-38 352 276
0.040154841 0.69400001 -0.043805279 1.1346581e-38 353 276
0.041490879 0.69599998 -0.043931518 1.1163622e-38 354 276
0.042711195 0.69599998 -0.043931518 1.0978871e-38 355 276
0.043994639 0.69700003 -0.043994639 1.0610448e-38 356 276
0.04541133 0.69999999 -0.044183996 1.0426057e-38 357 276
0.046705291 0.70099998 -0.044247117 1.0701568e-38 358 276
0.048071139 0.70300001 -0.04437336 1.0701568e-38 359 276
0.049373865 0.704 -0.044436477 1.0425701e-38 360 276
0.050751984 0.70599997 -0.044562716 1.0425701e-38 361 276
0.05206348 0.70700002 -0.044625837 1.0884512e-38 362 276
0.053303085 0.70700002 -0.044625837 9.778164e-39 363 276
0.054619838 0.708 -0.044688959 9.5011946e-39 364 276
0.055861197 0.708 -0.044688959 1.3649638e-38 365 276
0.057102561 0.708 -0.044688959 1.7882696e-38 366 276
-0.0074481601 0.708 -0.045930319 1.6689947e-38 314 277
-0.0062067998 0.708 -0.045930319 1.4753839e-38 315 277
-0.0049654399 0.708 -0.045930319 1.3463115e-38 316 277
-0.00372408 0.708 -0.045930319 1.2541519e-38 317 277
-0.00248272 0.708 -0.045930319 1.2081631e-38 318 277
-0.0012396066 0.70700002 -0.045865446 1.1436262e-38 319 277
0 0.70599997 -0.04580057 9.9661762e-39 320 277
0.0012343467 0.704 -0.045670826 1.051935e-38 321 277
0.0024686933 0.704 -0.045670826 1.0799175e-38 322 277
0.0036977797 0.70300001 -0.04560595 1.2274305e-38 323 277
0.0049163462 0.70099998 -0.045476202 1.4388317e-38 324 277
0.0061366665 0.69999999 -0.04541133 1.4572709e-38 325 277
0.0073639993 0.69999999 -0.04541133 1.438867e-38 326 277
0.0085667865 0.69800001 -0.045281585 1.4112084e-38 327 277
0.0097906133 0.69800001 -0.045281585 1.4295753e-38 328 277
0.01099866 0.69700003 -0.045216713 1.3834775e-38 329 277
0.0122032 0.69599998 -0.045151837 1.3279453e-38 330 277
0.013423519 0.69599998 -0.045151837 1.1896518e-38 331 277
0.01460176 0.69400001 -0.045022093 1.0150206e-38 332 277
0.015818574 0.69400001 -0.045022093 1.0795575e-38 333 277
0.01701084 0.69300002 -0.044957221 1.1346231e-38 334 277
0.018225901 0.69300002 -0.044957221 1.11622e-38 335 277
0.01944096 0.69300002 -0.044957221 1.1345512e-38 336 277
0.020656019 0.69300002 -0.044957221 1.2267827e-38 337 277
0.021871079 0.69300002 -0.044957221 1.2085241e-38 338 277
0.02308614 0.69300002 -0.044957221 8.8587539e-39 339 277
0.024301201 0.69300002 -0.044957221 8.9484314e-39 340 277
