# .PCD v.7 - Point Cloud Data file format
FIELDS x y z rgb imX imY
SIZE 4 4 4 4 4 4
TYPE F F F F F F
COUNT 1 1 1 1 1 1
WIDTH 823
HEIGHT 1
VIEWPOINT 0 0 0 1 0 0 0
POINTS 823
DATA ascii
-0.020447372 0.68599999 -0.0012027866 8.2054517e-39 303 241
-0.01918848 0.68400002 -0.00119928 1.0601797e-38 304 241
-0.017962901 0.68300003 -0.0011975267 1.0048624e-38 305 241
-0.016765373 0.68300003 -0.0011975267 9.6794719e-39 306 241
-0.015545053 0.68199998 -0.0011957732 1.0047894e-38 307 241
-0.014307199 0.68000001 -0.0011922666 1.180069e-38 308 241
-0.013095647 0.67900002 -0.0011905134 1.180069e-38 309 241
-0.011905133 0.67900002 -0.0011905134 1.1432981e-38 310 241
-0.010698839 0.67799997 -0.0011887599 1.1340786e-38 311 241
-0.0095100794 0.67799997 -0.0011887599 1.1247867e-38 312 241
-0.0083213197 0.67799997 -0.0011887599 1.1247867e-38 313 241
-0.0071325595 0.67799997 -0.0011887599 1.1524454e-38 314 241
-0.0059262668 0.676 -0.0011852533 1.1616649e-38 315 241
-0.0047410131 0.676 -0.0011852533 9.5879924e-39 316 241
-0.0035557596 0.676 -0.0011852533 5.9923628e-39 317 241
-0.0023705065 0.676 -0.0011852533 5.0704093e-39 318 241
-0.0011852533 0.676 -0.0011852533 4.7938224e-39 319 241
0 0.676 -0.0011852533 5.0704093e-39 320 241
0.0011852533 0.676 -0.0011852533 7.4674971e-39 321 241
0.0023705065 0.676 -0.0011852533 1.0050044e-38 322 241
0.0035557596 0.676 -0.0011852533 1.032699e-38 323 241
0.0047550397 0.67799997 -0.0011887599 1.0326614e-38 324 241
0.0059437994 0.67799997 -0.0011887599 1.0603201e-38 325 241
0.0071325595 0.67799997 -0.0011887599 1.0969465e-38 326 241
0.0083213197 0.67799997 -0.0011887599 6.544075e-39 327 241
0.0095100794 0.67799997 -0.0011887599 5.6250068e-39 328 241
0.010698839 0.67799997 -0.0011887599 8.4830699e-39 329 241
0.011905133 0.67900002 -0.0011905134 1.0506336e-38 330 241
0.013095647 0.67900002 -0.0011905134 1.0598532e-38 331 241
0.01428616 0.67900002 -0.0011905134 1.0506686e-38 332 241
0.015499466 0.68000001 -0.0011922666 1.0138263e-38 333 241
0.016691733 0.68000001 -0.0011922666 1.0322647e-38 334 241
0.017936599 0.68199998 -0.0011957732 1.0322647e-38 335 241
0.019132372 0.68199998 -0.0011957732 1.0138966e-38 336 241
0.020357953 0.68300003 -0.0011975267 1.004677e-38 337 241
0.02158704 0.68400002 -0.00119928 1.0322632e-38 338 241
0.022852944 0.68599999 -0.0012027866 1.0507024e-38 339 241
0.024090799 0.68699998 -0.0012045399 1.050739e-38 340 241
0.02533216 0.68800002 -0.0012062934 1.050739e-38 341 241
0.026538454 0.68800002 -0.0012062934 1.0415923e-38 342 241
0.027825398 0.69 -0.0012097999 1.0323727e-38 343 241
0.029035198 0.69 -0.0012097999 8.6627767e-39 344 241
0.030288832 0.69099998 -0.0012115532 6.7266684e-39 345 241
0.031454802 0.69 -0.0012097999 1.0691446e-38 346 241
0.032664597 0.69 -0.0012097999 1.3272924e-38 347 241
0.033923492 0.69099998 -0.0012115532 1.4842773e-38 348 241
-0.03177391 0.69700003 -0.0024441467 1.4197052e-38 294 242
-0.030507999 0.69599998 -0.0024406398 1.2906313e-38 295 242
-0.029203519 0.69400001 -0.0024336267 9.7720361e-39 296 242
-0.027946379 0.69300002 -0.00243012 7.4671468e-39 297 242
-0.026654173 0.69099998 -0.0024231065 6.0860256e-39 298 242
-0.025405798 0.69 -0.0024195998 4.0577217e-39 299 242
-0.024125867 0.68800002 -0.0024125867 4.0526995e-39 300 242
-0.022886258 0.68699998 -0.0024090798 3.9605039e-39 301 242
-0.021681719 0.68699998 -0.0024090798 4.1466972e-39 302 242
-0.020477179 0.68699998 -0.0024090798 6.3590322e-39 303 242
-0.01918848 0.68400002 -0.0023985601 7.3774805e-39 304 242
-0.017962901 0.68300003 -0.0023950534 7.7466231e-39 305 242
-0.016765373 0.68300003 -0.0023950534 8.5716951e-39 306 242
-0.015545053 0.68199998 -0.0023915465 9.4014557e-39 307 242
-0.014307199 0.68000001 -0.0023845332 1.0048976e-38 308 242
-0.013114933 0.68000001 -0.0023845332 1.04174e-38 309 242
-0.011922667 0.68000001 -0.0023845332 1.0327355e-38 310 242
-0.010714619 0.67900002 -0.0023810267 1.0880529e-38 311 242
-0.0095100794 0.67799997 -0.0023775198 1.143046e-38 312 242
-0.0083213197 0.67799997 -0.0023775198 1.0877645e-38 313 242
-0.0071325595 0.67799997 -0.0023775198 1.1060239e-38 314 242
-0.0059437994 0.67799997 -0.0023775198 1.0968043e-38 315 242
-0.0047550397 0.67799997 -0.0023775198 7.7426575e-39 316 242
-0.0035662798 0.67799997 -0.0023775198 3.6860497e-39 317 242
-0.0023775198 0.67799997 -0.0023775198 3.9630052e-39 318 242
-0.0011887599 0.67799997 -0.0023775198 4.4239833e-39 319 242
0 0.676 -0.0023705065 3.2275953e-39 320 242
0.0011852533 0.676 -0.0023705065 3.8729647e-39 321 242
0.0023705065 0.676 -0.0023705065 8.5760083e-39 322 242
0.0035557596 0.676 -0.0023705065 9.9589427e-39 323 242
0.0047550397 0.67799997 -0.0023775198 1.0050033e-38 324 242
0.0059437994 0.67799997 -0.0023775198 1.0326261e-38 325 242
0.0071325595 0.67799997 -0.0023775198 1.0965872e-38 326 242
0.0083213197 0.67799997 -0.0023775198 8.2921991e-39 327 242
0.0095100794 0.67799997 -0.0023775198 6.6330477e-39 328 242
0.010714619 0.67900002 -0.0023810267 9.0301327e-39 329 242
0.011905133 0.67900002 -0.0023810267 9.2156001e-39 330 242
0.013114933 0.68000001 -0.0023845332 8.754622e-39 331 242
0.014307199 0.68000001 -0.0023845332 8.4765861e-39 332 242
0.015499466 0.68000001 -0.0023845332 9.3063482e-39 333 242
0.016691733 0.68000001 -0.0023845332 9.9556707e-39 334 242
0.017936599 0.68199998 -0.0023915465 1.0139702e-38 335 242
0.019160427 0.68300003 -0.0023950534 1.0597433e-38 336 242
0.020357953 0.68300003 -0.0023950534 1.0597433e-38 337 242
0.021650158 0.68599999 -0.0024055731 1.0873654e-38 338 242
0.022852944 0.68599999 -0.0024055731 1.096585e-38 339 242
0.024090799 0.68699998 -0.0024090798 1.0690708e-38 340 242
0.02533216 0.68800002 -0.0024125867 1.0782903e-38 341 242
0.026538454 0.68800002 -0.0024125867 1.0782547e-38 342 242
0.027825398 0.69 -0.0024195998 1.0506321e-38 343 242
0.029035198 0.69 -0.0024195998 8.8453701e-39 344 242
0.030288832 0.69099998 -0.0024231065 6.7248706e-39 345 242
0.031454802 0.69 -0.0024195998 1.0415941e-38 346 242
0.032664597 0.69 -0.0024195998 1.318181e-38 347 242
-0.033137999 0.69999999 -0.0036819996 1.566677e-38 293 243
-0.031819493 0.69800001 -0.0036714801 1.4840254e-38 294 243
-0.030551834 0.69700003 -0.00366622 1.3272927e-38 295 243
-0.029287677 0.69599998 -0.0036609597 1.0231923e-38 296 243
-0.027986705 0.69400001 -0.0036504399 7.2813038e-39 297 243
-0.02673132 0.69300002 -0.0036451798 4.9767872e-39 298 243
-0.025405798 0.69 -0.0036293997 4.3314192e-39 299 243
-0.024125867 0.68800002 -0.0036188802 4.7891729e-39 300 243
-0.022919573 0.68800002 -0.0036188802 4.5129448e-39 301 243
-0.021713281 0.68800002 -0.0036188802 3.7789867e-39 302 243
-0.020506985 0.68800002 -0.0036188802 3.686791e-39 303 243
-0.019300694 0.68800002 -0.0036188802 5.0704317e-39 304 243
-0.018068098 0.68699998 -0.0036136196 6.3611706e-39 305 243
-0.016765373 0.68300003 -0.0035925799 5.8987505e-39 306 243
-0.015567848 0.68300003 -0.0035925799 5.5296078e-39 307 243
-0.01434928 0.68199998 -0.00358732 5.9931083e-39 308 243
-0.013153506 0.68199998 -0.00358732 6.4540851e-39 309 243
-0.011957732 0.68199998 -0.00358732 6.4569563e-39 310 243
-0.0107304 0.68000001 -0.0035767998 8.0242834e-39 311 243
-0.009524107 0.67900002 -0.0035715401 1.0047897e-38 312 243
-0.0083335936 0.67900002 -0.0035715401 9.0337466e-39 313 243
-0.0071325595 0.67799997 -0.0035662798 8.5698804e-39 314 243
-0.0059437994 0.67799997 -0.0035662798 7.924511e-39 315 243
-0.0047550397 0.67799997 -0.0035662798 5.1611826e-39 316 243
-0.0035662798 0.67799997 -0.0035662798 3.2250744e-39 317 243
-0.0023775198 0.67799997 -0.0035662798 4.976804e-39 318 243
-0.0011887599 0.67799997 -0.0035662798 6.0835117e-39 319 243
0 0.67799997 -0.0035662798 4.0537743e-39 320 243
0.0011887599 0.67799997 -0.0035662798 2.8552311e-39 321 243
0.0023775198 0.67799997 -0.0035662798 7.6537002e-39 322 243
0.0035662798 0.67799997 -0.0035662798 9.0366361e-39 323 243
0.0047550397 0.67799997 -0.0035662798 8.942253e-39 324 243
0.0059437994 0.67799997 -0.0035662798 8.8500574e-39 325 243
0.0071325595 0.67799997 -0.0035662798 1.004356e-38 326 243
0.0083335936 0.67900002 -0.0035715401 9.3059951e-39 327 243
0.009524107 0.67900002 -0.0035715401 8.0170541e-39 328 243
0.010714619 0.67900002 -0.0035715401 7.4638803e-39 329 243
0.011922667 0.68000001 -0.0035767998 6.1731415e-39 330 243
0.013114933 0.68000001 -0.0035767998 5.1589896e-39 331 243
0.014307199 0.68000001 -0.0035767998 4.7880463e-39 332 243
0.015545053 0.68199998 -0.00358732 7.0003813e-39 333 243
0.016740825 0.68199998 -0.00358732 9.863838e-39 334 243
0.017962901 0.68300003 -0.0035925799 1.0048229e-38 335 243
0.01918848 0.68400002 -0.00359784 1.0413768e-38 336 243
0.020447372 0.68599999 -0.00360836 1.0506324e-38 337 243
0.021650158 0.68599999 -0.00360836 1.0689636e-38 338 243
0.022886258 0.68699998 -0.0036136196 1.0781831e-38 339 243
0.024125867 0.68800002 -0.0036188802 1.0781829e-38 340 243
0.02533216 0.68800002 -0.0036188802 1.0874383e-38 341 243
0.026538454 0.68800002 -0.0036188802 1.078255e-38 342 243
0.027825398 0.69 -0.0036293997 1.0506324e-38 343 243
0.029077278 0.69099998 -0.0036346598 8.7531772e-39 344 243
0.0303765 0.69300002 -0.0036451798 6.7248734e-39 345 243
0.031591557 0.69300002 -0.0036451798 1.0232273e-38 346 243
-0.033137999 0.69999999 -0.0049093333 1.7306491e-38 293 244
-0.031819493 0.69800001 -0.0048953067 1.4836291e-38 294 244
-0.030551834 0.69700003 -0.0048882933 1.3729943e-38 295 244
-0.029287677 0.69599998 -0.0048812795 1.0601055e-38 296 244
-0.027986705 0.69400001 -0.0048672534 7.2816541e-39 297 244
-0.02673132 0.69300002 -0.00486024 5.1597309e-39 298 244
-0.025442619 0.69099998 -0.0048462129 5.3444823e-39 299 244
-0.024195999 0.69 -0.0048391996 4.6065767e-39 300 244
-0.022919573 0.68800002 -0.0048251734 4.3303486e-39 301 244
-0.021713281 0.68800002 -0.0048251734 3.6871414e-39 302 244
-0.020506985 0.68800002 -0.0048251734 3.3183574e-39 303 244
-0.019300694 0.68800002 -0.0048251734 5.4384926e-39 304 244
-0.018068098 0.68699998 -0.0048181596 7.2824038e-39 305 244
-0.016789921 0.68400002 -0.0047971201 4.3335856e-39 306 244
-0.015567848 0.68300003 -0.0047901068 2.6740656e-39 307 244
-0.01434928 0.68199998 -0.004783093 3.7818607e-39 308 244
-0.013153506 0.68199998 -0.004783093 4.7034569e-39 309 244
-0.011957732 0.68199998 -0.004783093 3.5999834e-39 310 244
-0.0107304 0.68000001 -0.0047690663 3.692179e-39 311 244
-0.0095381327 0.68000001 -0.0047690663 4.6130465e-39 312 244
-0.0083335936 0.67900002 -0.0047620535 4.9814703e-39 313 244
-0.0071430802 0.67900002 -0.0047620535 5.4399149e-39 314 244
-0.0059525664 0.67900002 -0.0047620535 4.7945455e-39 315 244
-0.0047620535 0.67900002 -0.0047620535 4.7945581e-39 316 244
-0.0035662798 0.67799997 -0.0047550397 3.9651576e-39 317 244
-0.0023775198 0.67799997 -0.0047550397 5.3463068e-39 318 244
-0.0011887599 0.67799997 -0.0047550397 5.9916762e-39 319 244
0 0.67799997 -0.0047550397 3.4998788e-39 320 244
0.0011887599 0.67799997 -0.0047550397 2.8545094e-39 321 244
0.0023775198 0.67799997 -0.0047550397 7.1884047e-39 322 244
0.0035662798 0.67799997 -0.0047550397 6.5430353e-39 323 244
0.0047550397 0.67799997 -0.0047550397 4.5190306e-39 324 244
0.0059437994 0.67799997 -0.0047550397 4.3346393e-39 325 244
0.0071325595 0.67799997 -0.0047550397 6.0802452e-39 326 244
0.0083335936 0.67900002 -0.0047620535 6.0802452e-39 327 244
0.009524107 0.67900002 -0.0047620535 3.9665799e-39 328 244
0.0107304 0.68000001 -0.0047690663 3.5981561e-39 329 244
0.011922667 0.68000001 -0.0047690663 4.5154363e-39 330 244
0.013114933 0.68000001 -0.0047690663 4.6076333e-39 331 244
0.01434928 0.68199998 -0.004783093 4.512551e-39 332 244
0.015545053 0.68199998 -0.004783093 5.6185384e-39 333 244
0.016740825 0.68199998 -0.004783093 9.9553175e-39 334 244
0.017962901 0.68300003 -0.0047901068 1.032374e-38 335 244
0.01918848 0.68400002 -0.0047971201 1.0597084e-38 336 244
0.020447372 0.68599999 -0.0048111463 1.068928e-38 337 244
0.021650158 0.68599999 -0.0048111463 1.0690355e-38 338 244
0.022886258 0.68699998 -0.0048181596 1.0690355e-38 339 244
0.024125867 0.68800002 -0.0048251734 1.078255e-38 340 244
0.02533216 0.68800002 -0.0048251734 1.078255e-38 341 244
0.026615599 0.69 -0.0048391996 1.0599238e-38 342 244
0.027865725 0.69099998 -0.0048462129 1.0414488e-38 343 244
0.029077278 0.69099998 -0.0048462129 8.2018013e-39 344 244
0.0303765 0.69300002 -0.00486024 6.1734975e-39 345 244
0.031591557 0.69300002 -0.00486024 1.0600337e-38 346 244
-0.033137999 0.69999999 -0.0061366665 1.655379e-38 293 245
-0.031819493 0.69800001 -0.006119133 1.4923075e-38 294 245
-0.030551834 0.69700003 -0.0061103669 1.4830879e-38 295 245
-0.029287677 0.69599998 -0.0061015999 1.1705232e-38 296 245
-0.027986705 0.69400001 -0.0060840664 9.0315592e-39 297 245
-0.02673132 0.69300002 -0.0060753003 6.6334008e-39 298 245
-0.025442619 0.69099998 -0.0060577663 5.9880314e-39 299 245
-0.024195999 0.69 -0.0060489997 3.6864015e-39 300 245
-0.022986198 0.69 -0.0060489997 4.2392165e-39 301 245
-0.021776399 0.69 -0.0060489997 4.3299926e-39 302 245
-0.020566599 0.69 -0.0060489997 4.3299926e-39 303 245
-0.019300694 0.68800002 -0.0060314666 5.4395744e-39 304 245
-0.018068098 0.68699998 -0.0060226996 7.0994545e-39 305 245
-0.016789921 0.68400002 -0.0059964 4.0577245e-39 306 245
-0.015567848 0.68300003 -0.0059876335 2.0294207e-39 307 245
-0.014370319 0.68300003 -0.0059876335 4.0573714e-39 308 245
-0.013172794 0.68300003 -0.0059876335 4.7027408e-39 309 245
-0.011957732 0.68199998 -0.005978866 3.7829327e-39 310 245
-0.010761959 0.68199998 -0.005978866 2.4921939e-39 311 245
-0.0095381327 0.68000001 -0.0059613334 1.848621e-39 312 245
-0.0083458666 0.68000001 -0.0059613334 3.7847292e-39 313 245
-0.0071430802 0.67900002 -0.0059525664 5.5314043e-39 314 245
-0.0059525664 0.67900002 -0.0059525664 4.7016436e-39 315 245
-0.0047620535 0.67900002 -0.0059525664 4.9793053e-39 316 245
-0.0035715401 0.67900002 -0.0059525664 4.794914e-39 317 245
-0.0023810267 0.67900002 -0.0059525664 4.6101767e-39 318 245
-0.0011887599 0.67799997 -0.0059437994 4.425784e-39 319 245
0 0.67799997 -0.0059437994 3.8657873e-39 320 245
0.0011887599 0.67799997 -0.0059437994 4.6033523e-39 321 245
0.0023775198 0.67799997 -0.0059437994 7.0954916e-39 322 245
0.0035662798 0.67799997 -0.0059437994 6.5423178e-39 323 245
0.0047550397 0.67799997 -0.0059437994 5.4366905e-39 324 245
0.0059437994 0.67799997 -0.0059437994 4.1459517e-39 325 245
0.0071430802 0.67900002 -0.0059525664 4.0537715e-39 326 245
0.0083335936 0.67900002 -0.0059525664 3.7775447e-39 327 245
0.009524107 0.67900002 -0.0059525664 2.399292e-39 328 245
0.0107304 0.68000001 -0.0059613334 2.399292e-39 329 245
0.011922667 0.68000001 -0.0059613334 3.5970995e-39 330 245
0.013153506 0.68199998 -0.005978866 4.5186971e-39 331 245
0.01434928 0.68199998 -0.005978866 4.1441342e-39 332 245
0.015545053 0.68199998 -0.005978866 5.1582861e-39 333 245
0.016765373 0.68300003 -0.0059876335 1.0231547e-38 334 245
0.017962901 0.68300003 -0.0059876335 1.0231547e-38 335 245
0.019244585 0.68599999 -0.0060139326 1.0321578e-38 336 245
0.020447372 0.68599999 -0.0060139326 1.050597e-38 337 245
0.021681719 0.68699998 -0.0060226996 1.0781834e-38 338 245
0.022886258 0.68699998 -0.0060226996 1.0781834e-38 339 245
0.024125867 0.68800002 -0.0060314666 1.0781831e-38 340 245
0.025405798 0.69 -0.0060489997 1.0874027e-38 341 245
0.026615599 0.69 -0.0060489997 1.0782547e-38 342 245
0.027865725 0.69099998 -0.0060577663 1.0414124e-38 343 245
0.029077278 0.69099998 -0.0060577663 8.6613319e-39 344 245
0.0303765 0.69300002 -0.0060753003 6.6330267e-39 345 245
0.031591557 0.69300002 -0.0060753003 1.1151703e-38 346 245
-0.031819493 0.69800001 -0.0073429602 1.51035e-38 294 246
-0.030595668 0.69800001 -0.0073429602 1.5380089e-38 295 246
-0.029287677 0.69599998 -0.0073219193 1.2901981e-38 296 246
-0.027986705 0.69400001 -0.0073008798 1.142685e-38 297 246
-0.02673132 0.69300002 -0.0072903596 9.1226856e-39 298 246
-0.025442619 0.69099998 -0.0072693196 6.264261e-39 299 246
-0.024231065 0.69099998 -0.0072693196 3.1350242e-39 300 246
-0.022986198 0.69 -0.0072587994 2.6740446e-39 301 246
-0.021776399 0.69 -0.0072587994 3.0424908e-39 302 246
-0.020566599 0.69 -0.0072587994 3.7804146e-39 303 246
-0.019300694 0.68800002 -0.0072377604 4.7038072e-39 304 246
-0.018068098 0.68699998 -0.0072272392 4.8885586e-39 305 246
-0.016839013 0.68599999 -0.0072167199 3.9648073e-39 306 246
-0.01559064 0.68400002 -0.0071956799 3.0424908e-39 307 246
-0.014370319 0.68300003 -0.0071851597 4.5186999e-39 308 246
-0.013172794 0.68300003 -0.0071851597 5.3484606e-39 309 246
-0.011975267 0.68300003 -0.0071851597 4.7956399e-39 310 246
-0.010761959 0.68199998 -0.00717464 4.1502705e-39 311 246
-0.009566186 0.68199998 -0.00717464 3.9651576e-39 312 246
-0.0083458666 0.68000001 -0.0071535995 4.610527e-39 313 246
-0.0071535995 0.68000001 -0.0071535995 5.2537286e-39 314 246
-0.0059613334 0.68000001 -0.0071535995 4.9771403e-39 315 246
-0.0047620535 0.67900002 -0.0071430802 5.5324791e-39 316 246
-0.0035715401 0.67900002 -0.0071430802 4.8871097e-39 317 246
-0.0023810267 0.67900002 -0.0071430802 4.0577189e-39 318 246
-0.0011887599 0.67799997 -0.0071325595 3.5970995e-39 319 246
0 0.67799997 -0.0071325595 4.5107882e-39 320 246
0.0011887599 0.67799997 -0.0071325595 6.1703081e-39 321 246
0.0023775198 0.67799997 -0.0071325595 7.5564641e-39 322 246
0.0035662798 0.67799997 -0.0071325595 7.372433e-39 323 246
0.0047620535 0.67900002 -0.0071430802 5.9905706e-39 324 246
0.0059525664 0.67900002 -0.0071430802 5.1604498e-39 325 246
0.0071430802 0.67900002 -0.0071430802 4.4214624e-39 326 246
0.0083458666 0.68000001 -0.0071535995 4.05304e-39 327 246
0.0095381327 0.68000001 -0.0071535995 3.1354123e-39 328 246
0.0107304 0.68000001 -0.0071535995 3.227608e-39 329 246
0.011922667 0.68000001 -0.0071535995 4.2410214e-39 330 246
0.013153506 0.68199998 -0.00717464 5.2548132e-39 331 246
0.01434928 0.68199998 -0.00717464 4.9749711e-39 332 246
0.015545053 0.68199998 -0.00717464 5.1593623e-39 333 246
0.016765373 0.68300003 -0.0071851597 1.0599253e-38 334 246
0.0179892 0.68400002 -0.0071956799 1.0599253e-38 335 246
0.019244585 0.68599999 -0.0072167199 1.050489e-38 336 246
0.020477179 0.68699998 -0.0072272392 1.0689283e-38 337 246
0.021681719 0.68699998 -0.0072272392 1.0781834e-38 338 246
0.022886258 0.68699998 -0.0072272392 1.0781834e-38 339 246
0.024125867 0.68800002 -0.0072377604 1.0690355e-38 340 246
0.025405798 0.69 -0.0072587994 1.078255e-38 341 246
0.026654173 0.69099998 -0.0072693196 1.0690355e-38 342 246
0.027946379 0.69300002 -0.0072903596 1.0321572e-38 343 246
0.029161438 0.69300002 -0.0072903596 8.9379188e-39 344 246
0.030420333 0.69400001 -0.0073008798 7.1858417e-39 345 246
0.031637147 0.69400001 -0.0073008798 1.1335724e-38 346 246
0.032853961 0.69400001 -0.0073008798 1.4193789e-38 347 246
-0.03318534 0.70099998 -0.0086036054 1.6182835e-38 293 247
-0.031910665 0.69999999 -0.0085913334 1.4552482e-38 294 247
-0.030595668 0.69800001 -0.0085667865 1.4736513e-38 295 247
-0.02932976 0.69700003 -0.0085545136 1.2351331e-38 296 247
-0.028067358 0.69599998 -0.0085422397 1.1889992e-38 297 247
-0.02673132 0.69300002 -0.0085054198 1.0968762e-38 298 247
-0.02551626 0.69300002 -0.0085054198 9.7702186e-39 299 247
-0.024231065 0.69099998 -0.008480873 7.739761e-39 300 247
-0.022986198 0.69 -0.0084686 6.172794e-39 301 247
-0.021776399 0.69 -0.0084686 4.7949112e-39 302 247
-0.020566599 0.69 -0.0084686 5.6246719e-39 303 247
-0.019300694 0.68800002 -0.0084440531 5.9898643e-39 304 247
-0.018068098 0.68699998 -0.0084317802 5.1601036e-39 305 247
-0.016839013 0.68599999 -0.0084195063 3.9637268e-39 306 247
-0.01559064 0.68400002 -0.0083949603 3.4105545e-39 307 247
-0.014370319 0.68300003 -0.0083826864 4.8835223e-39 308 247
-0.013172794 0.68300003 -0.0083826864 5.9895112e-39 309 247
-0.011975267 0.68300003 -0.0083826864 5.4399303e-39 310 247
-0.010761959 0.68199998 -0.0083704125 4.1491915e-39 311 247
-0.009566186 0.68199998 -0.0083704125 4.2413871e-39 312 247
-0.0083458666 0.68000001 -0.0083458666 4.5179754e-39 313 247
-0.0071535995 0.68000001 -0.0083458666 5.1600868e-39 314 247
-0.0059613334 0.68000001 -0.0083458666 6.3582713e-39 315 247
-0.0047620535 0.67900002 -0.0083335936 6.3607922e-39 316 247
-0.0035715401 0.67900002 -0.0083335936 5.0700534e-39 317 247
-0.0023810267 0.67900002 -0.0083335936 4.2428193e-39 318 247
-0.0011887599 0.67799997 -0.0083213197 4.4268504e-39 319 247
0 0.67799997 -0.0083213197 4.4218155e-39 320 247
0.0011887599 0.67799997 -0.0083213197 5.8969456e-39 321 247
0.0023810267 0.67900002 -0.0083335936 7.1898396e-39 322 247
0.0035715401 0.67900002 -0.0083335936 6.820697e-39 323 247
0.0047620535 0.67900002 -0.0083335936 6.4479558e-39 324 247
0.0059613334 0.68000001 -0.0083458666 5.5256393e-39 325 247
0.0071535995 0.68000001 -0.0083458666 5.0635976e-39 326 247
0.0083458666 0.68000001 -0.0083458666 4.6944564e-39 327 247
0.0095381327 0.68000001 -0.0083458666 3.2268891e-39 328 247
0.0107304 0.68000001 -0.0083458666 3.1346921e-39 329 247
0.011957732 0.68199998 -0.0083704125 4.3339331e-39 330 247
0.013153506 0.68199998 -0.0083704125 5.6246719e-39 331 247
0.01434928 0.68199998 -0.0083704125 4.5132699e-39 332 247
0.015567848 0.68300003 -0.0083826864 4.8820524e-39 333 247
0.016789921 0.68400002 -0.0083949603 9.5858246e-39 334 247
0.0179892 0.68400002 -0.0083949603 1.0231194e-38 335 247
0.019244585 0.68599999 -0.0084195063 1.0046433e-38 336 247
0.020477179 0.68699998 -0.0084317802 1.0230825e-38 337 247
0.021681719 0.68699998 -0.0084317802 1.0505968e-38 338 247
0.022919573 0.68800002 -0.0084440531 1.0505968e-38 339 247
0.024125867 0.68800002 -0.0084440531 1.0690355e-38 340 247
0.025405798 0.69 -0.0084686 1.0690355e-38 341 247
0.02673132 0.69300002 -0.0085054198 1.0506321e-38 342 247
0.027986705 0.69400001 -0.0085176928 1.0229732e-38 343 247
0.029203519 0.69400001 -0.0085176928 9.121587e-39 344 247
0.030420333 0.69400001 -0.0085176928 7.36987e-39 345 247
0.031728316 0.69599998 -0.0085422397 1.1518668e-38 346 247
0.033137999 0.69999999 -0.0085913334 1.4284537e-38 347 247
-0.03318534 0.70099998 -0.0098326923 1.6750777e-38 293 248
-0.031910665 0.69999999 -0.0098186666 1.4369901e-38 294 248
-0.030683333 0.69999999 -0.0098186666 1.418551e-38 295 248
-0.02932976 0.69700003 -0.0097765867 1.1155671e-38 296 248
-0.028107686 0.69700003 -0.0097765867 1.1063476e-38 297 248
-0.026769891 0.69400001 -0.0097345067 1.2076551e-38 298 248
-0.02551626 0.69300002 -0.0097204801 1.2260944e-38 299 248
-0.024231065 0.69099998 -0.0096924258 1.2350621e-38 300 248
-0.022986198 0.69 -0.0096783992 1.1336468e-38 301 248
-0.021776399 0.69 -0.0096783992 1.0233009e-38 302 248
-0.020566599 0.69 -0.0096783992 9.2192155e-39 303 248
-0.019300694 0.68800002 -0.0096503468 7.5550236e-39 304 248
-0.018068098 0.68699998 -0.0096363192 5.1579358e-39 305 248
-0.016839013 0.68599999 -0.0096222926 2.5861888e-39 306 248
-0.01559064 0.68400002 -0.0095942402 1.7564267e-39 307 248
-0.01439136 0.68400002 -0.0095942402 4.5161818e-39 308 248
-0.01319208 0.68400002 -0.0095942402 6.0835089e-39 309 248
-0.011975267 0.68300003 -0.0095802136 5.1633448e-39 310 248
-0.01077774 0.68300003 -0.0095802136 4.2413871e-39 311 248
-0.009566186 0.68199998 -0.009566186 4.6094466e-39 312 248
-0.0083458666 0.68000001 -0.0095381327 4.8860349e-39 313 248
-0.0071535995 0.68000001 -0.0095381327 5.7168549e-39 314 248
-0.0059613334 0.68000001 -0.0095381327 6.7310069e-39 315 248
-0.0047690663 0.68000001 -0.0095381327 6.2729154e-39 316 248
-0.0035715401 0.67900002 -0.009524107 5.0743722e-39 317 248
-0.0023810267 0.67900002 -0.009524107 4.6137626e-39 318 248
-0.0011905134 0.67900002 -0.009524107 4.7059596e-39 319 248
0 0.67900002 -0.009524107 4.0584252e-39 320 248
0.0011905134 0.67900002 -0.009524107 4.2428165e-39 321 248
0.0023810267 0.67900002 -0.009524107 5.3491668e-39 322 248
0.0035715401 0.67900002 -0.009524107 5.0722198e-39 323 248
0.0047690663 0.68000001 -0.0095381327 5.8040283e-39 324 248
0.0059613334 0.68000001 -0.0095381327 5.5274414e-39 325 248
0.0071535995 0.68000001 -0.0095381327 4.4210995e-39 326 248
0.0083704125 0.68199998 -0.009566186 4.3285451e-39 327 248
0.009566186 0.68199998 -0.009566186 3.1343263e-39 328 248
0.010761959 0.68199998 -0.009566186 2.5807924e-39 329 248
0.011957732 0.68199998 -0.009566186 4.5150803e-39 330 248
0.013153506 0.68199998 -0.009566186 6.0827662e-39 331 248
0.014370319 0.68300003 -0.0095802136 5.2497391e-39 332 248
0.015567848 0.68300003 -0.0095802136 4.6965667e-39 333 248
0.016839013 0.68599999 -0.0096222926 8.8486071e-39 334 248
0.018041799 0.68599999 -0.0096222926 9.5861721e-39 335 248
0.019244585 0.68599999 -0.0096222926 1.0229026e-38 336 248
0.020477179 0.68699998 -0.0096363192 1.0505614e-38 337 248
0.021681719 0.68699998 -0.0096363192 1.0505968e-38 338 248
0.022919573 0.68800002 -0.0096503468 1.0505968e-38 339 248
0.024195999 0.69 -0.0096783992 1.0414488e-38 340 248
0.025442619 0.69099998 -0.0096924258 1.0507042e-38 341 248
0.026769891 0.69400001 -0.0097345067 1.0231179e-38 342 248
0.027986705 0.69400001 -0.0097345067 9.8620359e-39 343 248
0.029203519 0.69400001 -0.0097345067 9.0308333e-39 344 248
0.030507999 0.69599998 -0.0097625591 7.2794765e-39 345 248
0.031819493 0.69800001 -0.0097906133 1.1610863e-38 346 248
0.033137999 0.69999999 -0.0098186666 1.4284537e-38 347 248
-0.031956252 0.70099998 -0.011061779 1.4557535e-38 294 249
-0.030683333 0.69999999 -0.011045999 1.3819611e-38 295 249
-0.029371841 0.69800001 -0.01101444 1.0878731e-38 296 249
-0.028107686 0.69700003 -0.01099866 9.680188e-39 297 249
-0.026847038 0.69599998 -0.010982879 9.4993953e-39 298 249
-0.02551626 0.69300002 -0.010935539 1.0513188e-38 299 249
-0.024301201 0.69300002 -0.010935539 1.2166952e-38 300 249
-0.022986198 0.69 -0.010888199 1.1613778e-38 301 249
-0.021776399 0.69 -0.010888199 1.0695063e-38 302 249
-0.020566599 0.69 -0.010888199 1.051067e-38 303 249
-0.019300694 0.68800002 -0.010856641 1.0323039e-38 304 249
-0.018068098 0.68699998 -0.010840859 8.5713237e-39 305 249
-0.016839013 0.68599999 -0.010825079 7.1905585e-39 306 249
-0.01559064 0.68400002 -0.01079352 6.0842109e-39 307 249
-0.01439136 0.68400002 -0.01079352 7.5564613e-39 308 249
-0.01319208 0.68400002 -0.01079352 8.0177996e-39 309 249
-0.011975267 0.68300003 -0.01077774 6.3622271e-39 310 249
-0.01077774 0.68300003 -0.01077774 5.5321077e-39 311 249
-0.009566186 0.68199998 -0.010761959 5.8980162e-39 312 249
-0.0083704125 0.68199998 -0.010761959 5.5295924e-39 313 249
-0.0071535995 0.68000001 -0.0107304 5.2540817e-39 314 249
-0.0059613334 0.68000001 -0.0107304 6.5448205e-39 315 249
-0.0047690663 0.68000001 -0.0107304 6.1771268e-39 316 249
-0.0035715401 0.67900002 -0.010714619 5.2551691e-39 317 249
-0.0023810267 0.67900002 -0.010714619 5.4402778e-39 318 249
-0.0011905134 0.67900002 -0.010714619 6.5469855e-39 319 249
0 0.67900002 -0.010714619 5.1597309e-39 320 249
0.0011922666 0.68000001 -0.0107304 4.4221658e-39 321 249
0.0023845332 0.68000001 -0.0107304 4.2435423e-39 322 249
0.0035767998 0.68000001 -0.0107304 4.2435423e-39 323 249
0.004783093 0.68199998 -0.010761959 5.3437732e-39 324 249
0.005978866 0.68199998 -0.010761959 5.1593806e-39 325 249
0.00717464 0.68199998 -0.010761959 4.5161663e-39 326 249
0.0083704125 0.68199998 -0.010761959 4.608362e-39 327 249
0.009566186 0.68199998 -0.010761959 4.1491887e-39 328 249
0.010761959 0.68199998 -0.010761959 3.9651576e-39 329 249
0.011975267 0.68300003 -0.01077774 5.7157787e-39 330 249
0.013172794 0.68300003 -0.01077774 7.1909088e-39 331 249
0.014370319 0.68300003 -0.01077774 7.3702372e-39 332 249
0.01559064 0.68400002 -0.01079352 6.9096178e-39 333 249
0.016839013 0.68599999 -0.010825079 9.4936107e-39 334 249
0.018041799 0.68599999 -0.010825079 9.8623918e-39 335 249
0.019272638 0.68699998 -0.010840859 9.8620387e-39 336 249
0.020477179 0.68699998 -0.010840859 9.4932576e-39 337 249
0.021681719 0.68699998 -0.010840859 9.4010606e-39 338 249
0.022919573 0.68800002 -0.010856641 9.4010606e-39 339 249
0.024195999 0.69 -0.010888199 9.5861749e-39 340 249
0.02551626 0.69300002 -0.010935539 9.7705662e-39 341 249
0.026769891 0.69400001 -0.01095132 9.7705662e-39 342 249
0.028067358 0.69599998 -0.010982879 9.4939793e-39 343 249
0.02932976 0.69700003 -0.01099866 8.8457232e-39 344 249
0.030595668 0.69800001 -0.01101444 7.5549844e-39 345 249
0.031819493 0.69800001 -0.01101444 1.1794895e-38 346 249
0.033043321 0.69800001 -0.01101444 1.4376372e-38 347 249
0.034267146 0.69800001 -0.01101444 1.7139357e-38 348 249
-0.031956252 0.70099998 -0.012290866 1.4559344e-38 294 250
-0.030683333 0.69999999 -0.012273333 1.3545552e-38 295 250
-0.029371841 0.69800001 -0.012238266 1.097093e-38 296 250
-0.028107686 0.69700003 -0.012220734 8.389452e-39 297 250
-0.026847038 0.69599998 -0.0122032 6.274716e-39 298 250
-0.025553079 0.69400001 -0.012168133 8.1182699e-39 299 250
-0.024301201 0.69300002 -0.012150601 1.0325204e-38 300 250
-0.023019511 0.69099998 -0.012115533 1.04174e-38 301 250
-0.021807959 0.69099998 -0.012115533 9.9574966e-39 302 250
-0.020566599 0.69 -0.012097999 9.8653009e-39 303 250
-0.019300694 0.68800002 -0.012062933 1.0695419e-38 304 250
-0.018068098 0.68699998 -0.012045399 1.1340788e-38 305 250
-0.01686356 0.68699998 -0.012045399 1.1338986e-38 306 250
-0.015636226 0.68599999 -0.012027865 1.0878008e-38 307 250
-0.01439136 0.68400002 -0.0119928 1.0784012e-38 308 250
-0.01319208 0.68400002 -0.0119928 1.0415588e-38 309 250
-0.011975267 0.68300003 -0.011975267 9.1266457e-39 310 250
-0.01077774 0.68300003 -0.011975267 7.4671229e-39 311 250
-0.0095802136 0.68300003 -0.011975267 6.821385e-39 312 250
-0.0083704125 0.68199998 -0.011957732 5.6228418e-39 313 250
-0.00717464 0.68199998 -0.011957732 4.9756773e-39 314 250
-0.005978866 0.68199998 -0.011957732 6.2664162e-39 315 250
-0.004783093 0.68199998 -0.011957732 6.2650036e-39 316 250
-0.0035767998 0.68000001 -0.011922667 5.7121886e-39 317 250
-0.0023845332 0.68000001 -0.011922667 6.7285013e-39 318 250
-0.0011922666 0.68000001 -0.011922667 8.2958284e-39 319 250
0 0.68000001 -0.011922667 6.4508354e-39 320 250
0.0011922666 0.68000001 -0.011922667 4.9760655e-39 321 250
0.0023845332 0.68000001 -0.011922667 5.1636994e-39 322 250
0.00358732 0.68199998 -0.011957732 5.2558964e-39 323 250
0.004783093 0.68199998 -0.011957732 5.6221538e-39 324 250
0.005978866 0.68199998 -0.011957732 5.6221538e-39 325 250
0.00717464 0.68199998 -0.011957732 5.8994637e-39 326 250
0.0083704125 0.68199998 -0.011957732 6.3604419e-39 327 250
0.0095802136 0.68300003 -0.011975267 6.6381008e-39 328 250
0.01077774 0.68300003 -0.011975267 7.1912745e-39 329 250
0.011975267 0.68300003 -0.011975267 8.3887275e-39 330 250
0.013172794 0.68300003 -0.011975267 9.1266513e-39 331 250
0.01439136 0.68400002 -0.0119928 9.6765755e-39 332 250
0.015636226 0.68599999 -0.012027865 9.7687711e-39 333 250
0.01686356 0.68699998 -0.012045399 9.7709221e-39 334 250
0.018068098 0.68699998 -0.012045399 9.6787265e-39 335 250
0.019272638 0.68699998 -0.012045399 9.4914611e-39 336 250
0.020477179 0.68699998 -0.012045399 8.7538961e-39 337 250
0.021713281 0.68800002 -0.012062933 7.3749245e-39 338 250
0.022919573 0.68800002 -0.012062933 7.8362628e-39 339 250
0.024231065 0.69099998 -0.012115533 8.6649473e-39 340 250
0.025553079 0.69400001 -0.012168133 9.1255653e-39 341 250
0.026847038 0.69599998 -0.0122032 9.1255653e-39 342 250
0.028107686 0.69700003 -0.012220734 8.9415342e-39 343 250
0.02932976 0.69700003 -0.012220734 8.2017985e-39 344 250
0.030595668 0.69800001 -0.012238266 7.0028952e-39 345 250
0.031819493 0.69800001 -0.012238266 1.1795613e-38 346 250
0.033043321 0.69800001 -0.012238266 1.4469287e-38 347 250
-0.031956252 0.70099998 -0.013519952 1.4192722e-38 294 251
-0.030683333 0.69999999 -0.013500666 1.3362603e-38 295 251
-0.029371841 0.69800001 -0.013462093 1.1430829e-38 296 251
-0.028107686 0.69700003 -0.013442807 9.6794719e-39 297 251
-0.026847038 0.69599998 -0.013423519 7.4703824e-39 298 251
-0.025553079 0.69400001 -0.013384946 8.0235561e-39 299 251
-0.024301201 0.69300002 -0.01336566 7.7430106e-39 300 251
-0.023019511 0.69099998 -0.013327086 7.650815e-39 301 251
-0.021807959 0.69099998 -0.013327086 7.1916277e-39 302 251
-0.020566599 0.69 -0.0133078 7.5604116e-39 303 251
-0.019300694 0.68800002 -0.013269227 8.3955659e-39 304 251
-0.018068098 0.68699998 -0.013249939 9.9625328e-39 305 251
-0.01686356 0.68699998 -0.013249939 1.1155674e-38 306 251
-0.015636226 0.68599999 -0.013230653 1.1340065e-38 307 251
-0.01439136 0.68400002 -0.01319208 1.0972712e-38 308 251
-0.01319208 0.68400002 -0.01319208 1.0880158e-38 309 251
-0.011975267 0.68300003 -0.013172794 1.0691436e-38 310 251
-0.01077774 0.68300003 -0.013172794 7.8330132e-39 311 251
-0.0095802136 0.68300003 -0.013172794 6.3625494e-39 312 251
-0.0083704125 0.68199998 -0.013153506 8.2986563e-39 313 251
-0.00717464 0.68199998 -0.013153506 8.7538905e-39 314 251
-0.005978866 0.68199998 -0.013153506 7.8322943e-39 315 251
-0.004783093 0.68199998 -0.013153506 6.083464e-39 316 251
-0.00358732 0.68199998 -0.013153506 6.083464e-39 317 251
-0.0023915465 0.68199998 -0.013153506 9.1248464e-39 318 251
-0.0011957732 0.68199998 -0.013153506 1.0600337e-38 319 251
0 0.68199998 -0.013153506 9.4950765e-39 320 251
0.0011957732 0.68199998 -0.013153506 9.1262954e-39 321 251
0.0023915465 0.68199998 -0.013153506 9.5872721e-39 322 251
0.00358732 0.68199998 -0.013153506 9.5872721e-39 323 251
0.004783093 0.68199998 -0.013153506 9.6776671e-39 324 251
0.005978866 0.68199998 -0.013153506 9.8624171e-39 325 251
0.0071851597 0.68300003 -0.013172794 1.0045729e-38 326 251
0.0083826864 0.68300003 -0.013172794 1.0045729e-38 327 251
0.0095802136 0.68300003 -0.013172794 1.0045727e-38 328 251
0.01077774 0.68300003 -0.013172794 1.0045727e-38 329 251
0.0119928 0.68400002 -0.01319208 1.0321589e-38 330 251
0.01319208 0.68400002 -0.01319208 1.0321589e-38 331 251
0.01439136 0.68400002 -0.01319208 9.8631205e-39 332 251
0.015636226 0.68599999 -0.013230653 9.7705662e-39 333 251
0.01686356 0.68699998 -0.013249939 9.3103111e-39 334 251
0.018068098 0.68699998 -0.013249939 8.480549e-39 335 251
0.019272638 0.68699998 -0.013249939 7.3731337e-39 336 251
0.020506985 0.68800002 -0.013269227 6.6355686e-39 337 251
0.021713281 0.68800002 -0.013269227 6.5437415e-39 338 251
0.022986198 0.69 -0.0133078 7.4656978e-39 339 251
0.024301201 0.69300002 -0.01336566 7.8359125e-39 340 251
0.025553079 0.69400001 -0.013384946 8.3887275e-39 341 251
0.026885614 0.69700003 -0.013442807 8.7571429e-39 342 251
0.028148014 0.69800001 -0.013462093 8.6649473e-39 343 251
0.029371841 0.69800001 -0.013462093 7.9248557e-39 344 251
0.030595668 0.69800001 -0.013462093 6.4497256e-39 345 251
0.031819493 0.69800001 -0.013462093 1.1335721e-38 346 251
0.033043321 0.69800001 -0.013462093 1.428634e-38 347 251
-0.032093015 0.704 -0.014812159 1.4193085e-38 294 252
-0.030727165 0.70099998 -0.014749039 1.3179293e-38 295 252
-0.029455997 0.69999999 -0.014727999 1.1340798e-38 296 252
-0.028148014 0.69800001 -0.01468592 1.0234809e-38 297 252
-0.026885614 0.69700003 -0.01466488 9.2213777e-39 298 252
-0.025553079 0.69400001 -0.01460176 8.6682039e-39 299 252
-0.024301201 0.69300002 -0.014580719 7.467846e-39 300 252
-0.02308614 0.69300002 -0.014580719 6.9146722e-39 301 252
-0.021871079 0.69300002 -0.014580719 6.5476918e-39 302 252
-0.020596405 0.69099998 -0.014538639 6.6398874e-39 303 252
-0.019356798 0.69 -0.014517599 7.381058e-39 304 252
-0.0180944 0.68800002 -0.014475521 8.7639924e-39 305 252
-0.016888106 0.68800002 -0.014475521 1.0511023e-38 306 252
-0.015659019 0.68699998 -0.014454478 1.0879807e-38 307 252
-0.01443344 0.68599999 -0.01443344 1.1156022e-38 308 252
-0.013230653 0.68599999 -0.01443344 1.097163e-38 309 252
-0.0119928 0.68400002 -0.01439136 1.0232245e-38 310 252
-0.01079352 0.68400002 -0.01439136 7.0053979e-39 311 252
-0.0095802136 0.68300003 -0.014370319 6.3629026e-39 312 252
-0.0083826864 0.68300003 -0.014370319 1.0051086e-38 313 252
-0.0071851597 0.68300003 -0.014370319 1.0785794e-38 314 252
-0.0059876335 0.68300003 -0.014370319 9.2184686e-39 315 252
-0.0047901068 0.68300003 -0.014370319 7.189792e-39 316 252
-0.00358732 0.68199998 -0.01434928 6.6369769e-39 317 252
-0.0023915465 0.68199998 -0.01434928 9.4961275e-39 318 252
-0.0011957732 0.68199998 -0.01434928 1.0602475e-38 319 252
0 0.68199998 -0.01434928 1.0508857e-38 320 252
0.0011957732 0.68199998 -0.01434928 1.0785444e-38 321 252
0.0023915465 0.68199998 -0.01434928 1.0878358e-38 322 252
0.00358732 0.68199998 -0.01434928 1.0878358e-38 323 252
0.004783093 0.68199998 -0.01434928 1.124462e-38 324 252
0.0059876335 0.68300003 -0.014370319 1.124462e-38 325 252
0.0071851597 0.68300003 -0.014370319 1.1060586e-38 326 252
0.0083826864 0.68300003 -0.014370319 1.0691802e-38 327 252
0.0095942402 0.68400002 -0.01439136 1.0415573e-38 328 252
0.01079352 0.68400002 -0.01439136 1.0415573e-38 329 252
0.0119928 0.68400002 -0.01439136 1.0323021e-38 330 252
0.01319208 0.68400002 -0.01439136 1.013863e-38 331 252
0.01443344 0.68599999 -0.01443344 9.4032256e-39 332 252
0.015636226 0.68599999 -0.01443344 9.3110299e-39 333 252
0.01686356 0.68699998 -0.014454478 8.8471847e-39 334 252
0.018068098 0.68699998 -0.014454478 8.0174227e-39 335 252
0.019272638 0.68699998 -0.014454478 6.2675232e-39 336 252
0.020506985 0.68800002 -0.014475521 5.5299581e-39 337 252
0.021713281 0.68800002 -0.014475521 4.2431892e-39 338 252
0.022986198 0.69 -0.014517599 5.441731e-39 339 252
0.024301201 0.69300002 -0.014580719 6.4565906e-39 340 252
0.025553079 0.69400001 -0.01460176 7.2859911e-39 341 252
0.026885614 0.69700003 -0.01466488 8.2972508e-39 342 252
0.028107686 0.69700003 -0.01466488 8.1132182e-39 343 252
0.029371841 0.69800001 -0.01468592 7.2816429e-39 344 252
0.030595668 0.69800001 -0.01468592 6.2671322e-39 345 252
0.031910665 0.69999999 -0.014727999 1.1887453e-38 346 252
0.033137999 0.69999999 -0.014727999 1.4653682e-38 347 252
-0.032093015 0.704 -0.016046507 1.4193085e-38 294 253
-0.030858666 0.704 -0.016046507 1.3179293e-38 295 253
-0.029498078 0.70099998 -0.015978126 1.0881978e-38 296 253
-0.028148014 0.69800001 -0.015909746 1.0328804e-38 297 253
-0.026885614 0.69700003 -0.015886955 1.0236253e-38 298 253
-0.025626717 0.69599998 -0.015864158 1.0512838e-38 299 253
-0.024336265 0.69400001 -0.015818574 1.0140446e-38 300 253
-0.02308614 0.69300002 -0.015795778 9.1262954e-39 301 253
-0.021871079 0.69300002 -0.015795778 8.2083019e-39 302 253
-0.020656019 0.69300002 -0.015795778 7.6551282e-39 303 253
-0.019384852 0.69099998 -0.015750192 6.2736441e-39 304 253
-0.018146999 0.69 -0.015727401 5.9966984e-39 305 253
-0.016888106 0.68800002 -0.015681813 7.1930766e-39 306 253
-0.015659019 0.68699998 -0.015659019 7.4696635e-39 307 253
-0.014454478 0.68699998 -0.015659019 8.2979794e-39 308 253
-0.013230653 0.68599999 -0.015636226 9.12738e-39 309 253
-0.012027865 0.68599999 -0.015636226 9.1273491e-39 310 253
-0.010825079 0.68599999 -0.015636226 7.560022e-39 311 253
-0.0095942402 0.68400002 -0.01559064 8.1131902e-39 312 253
-0.0083949603 0.68400002 -0.01559064 1.0879418e-38 313 253
-0.0071851597 0.68300003 -0.015567848 9.8703232e-39 314 253
-0.0059876335 0.68300003 -0.015567848 9.8703232e-39 315 253
-0.0047901068 0.68300003 -0.015567848 8.3854639e-39 316 253
-0.00358732 0.68199998 -0.015545053 6.4493557e-39 317 253
-0.0023915465 0.68199998 -0.015545053 8.300108e-39 318 253
-0.0011957732 0.68199998 -0.015545053 8.8532818e-39 319 253
0 0.68199998 -0.015545053 7.3731337e-39 320 253
0.0011957732 0.68199998 -0.015545053 7.6497191e-39 321 253
0.0023915465 0.68199998 -0.015545053 7.5589655e-39 322 253
0.0035925799 0.68300003 -0.015567848 8.2043349e-39 323 253
0.0047901068 0.68300003 -0.015567848 9.3074454e-39 324 253
0.0059876335 0.68300003 -0.015567848 9.2152498e-39 325 253
0.0071851597 0.68300003 -0.015567848 8.4801959e-39 326 253
0.0083949603 0.68400002 -0.01559064 7.2816541e-39 327 253
0.0095942402 0.68400002 -0.01559064 7.3760063e-39 328 253
0.010825079 0.68599999 -0.015636226 7.8366257e-39 329 253
0.012027865 0.68599999 -0.015636226 8.2925676e-39 330 253
0.013230653 0.68599999 -0.015636226 8.753187e-39 331 253
0.01443344 0.68599999 -0.015636226 8.9397391e-39 332 253
0.015659019 0.68699998 -0.015659019 8.9397391e-39 333 253
0.01686356 0.68699998 -0.015659019 8.2940166e-39 334 253
0.0180944 0.68800002 -0.015681813 6.8185278e-39 335 253
0.019300694 0.68800002 -0.015681813 5.2515804e-39 336 253
0.020506985 0.68800002 -0.015681813 5.1593834e-39 337 253
0.021776399 0.69 -0.015727401 4.9757292e-39 338 253
0.023019511 0.69099998 -0.015750192 5.1604792e-39 339 253
0.024301201 0.69300002 -0.015795778 5.9012686e-39 340 253
0.025553079 0.69400001 -0.015818574 7.007256e-39 341 253
0.026885614 0.69700003 -0.015886955 7.2856198e-39 342 253
0.028107686 0.69700003 -0.015886955 7.3781741e-39 343 253
0.029371841 0.69800001 -0.015909746 7.1890885e-39 344 253
0.030683333 0.69999999 -0.015955333 6.4515235e-39 345 253
0.031910665 0.69999999 -0.015955333 1.2256236e-38 346 253
-0.032093015 0.704 -0.017280852 1.4193088e-38 294 254
-0.030858666 0.704 -0.017280852 1.3178937e-38 295 254
-0.029582238 0.70300001 -0.017256306 1.0789425e-38 296 254
-0.028228667 0.69999999 -0.017182667 1.0605034e-38 297 254
-0.027001332 0.69999999 -0.017182667 1.0144779e-38 298 254
-0.025663542 0.69700003 -0.017109027 1.032917e-38 299 254
-0.024336265 0.69400001 -0.017035386 1.0604315e-38 300 254
-0.02308614 0.69300002 -0.01701084 9.7745542e-39 301 254
-0.021871079 0.69300002 -0.01701084 9.1317016e-39 302 254
-0.020656019 0.69300002 -0.01701084 8.4863322e-39 303 254
-0.019384852 0.69099998 -0.016961746 7.5643801e-39 304 254
-0.0181733 0.69099998 -0.016961746 6.549868e-39 305 254
-0.0169372 0.69 -0.0169372 7.6533471e-39 306 254
-0.015681813 0.68800002 -0.016888106 7.284566e-39 307 254
-0.014475521 0.68800002 -0.016888106 7.2838471e-39 308 254
-0.013249939 0.68699998 -0.01686356 8.2979976e-39 309 254
-0.012045399 0.68699998 -0.01686356 8.5774306e-39 310 254
-0.010825079 0.68599999 -0.016839013 7.3788874e-39 311 254
-0.0096222926 0.68599999 -0.016839013 7.7487461e-39 312 254
-0.0083949603 0.68400002 -0.016789921 9.0394849e-39 313 254
-0.0071956799 0.68400002 -0.016789921 8.7636267e-39 314 254
-0.0059876335 0.68300003 -0.016765373 8.6714311e-39 315 254
-0.0047901068 0.68300003 -0.016765373 7.9259305e-39 316 254
-0.0035925799 0.68300003 -0.016765373 6.1742135e-39 317 254
-0.0023950534 0.68300003 -0.016765373 8.4830671e-39 318 254
-0.0011975267 0.68300003 -0.016765373 8.6674584e-39 319 254
0 0.68300003 -0.016765373 6.0842081e-39 320 254
0.0011975267 0.68300003 -0.016765373 5.9920125e-39 321 254
0.0023950534 0.68300003 -0.016765373 6.0838578e-39 322 254
0.0035925799 0.68300003 -0.016765373 6.5448359e-39 323 254
0.0047901068 0.68300003 -0.016765373 7.6504618e-39 324 254
0.0059964 0.68400002 -0.016789921 7.6504618e-39 325 254
0.0071956799 0.68400002 -0.016789921 7.4660692e-39 326 254
0.0084195063 0.68599999 -0.016839013 6.8206998e-39 327 254
0.0096222926 0.68599999 -0.016839013 6.7299475e-39 328 254
0.010840859 0.68699998 -0.01686356 6.8221431e-39 329 254
0.012045399 0.68699998 -0.01686356 7.2798843e-39 330 254
0.013249939 0.68699998 -0.01686356 7.6483066e-39 331 254
0.014454478 0.68699998 -0.01686356 7.6522597e-39 332 254
0.015681813 0.68800002 -0.016888106 7.4678684e-39 333 254
0.016888106 0.68800002 -0.016888106 6.5459079e-39 334 254
0.0180944 0.68800002 -0.016888106 5.7161487e-39 335 254
0.019300694 0.68800002 -0.016888106 4.4236274e-39 336 254
0.020566599 0.69 -0.0169372 4.5161818e-39 337 254
0.021776399 0.69 -0.0169372 4.2417655e-39 338 254
0.02308614 0.69300002 -0.01701084 4.5179936e-39 339 254
0.024336265 0.69400001 -0.017035386 4.6134137e-39 340 254
0.025626717 0.69599998 -0.017084479 6.0885437e-39 341 254
0.026847038 0.69599998 -0.017084479 6.4580227e-39 342 254
0.028148014 0.69800001 -0.017133573 6.7349697e-39 343 254
0.029371841 0.69800001 -0.017133573 7.1898074e-39 344 254
0.030683333 0.69999999 -0.017182667 6.544438e-39 345 254
0.031910665 0.69999999 -0.017182667 1.2348784e-38 346 254
-0.032184184 0.70599997 -0.018567799 1.4193088e-38 294 255
-0.030858666 0.704 -0.018515198 1.2994546e-38 295 255
-0.029624319 0.704 -0.018515198 1.0512838e-38 296 255
-0.028268991 0.70099998 -0.018436298 1.0328807e-38 297 255
-0.027001332 0.69999999 -0.018409999 9.7778011e-39 298 255
-0.025663542 0.69700003 -0.018331099 9.6856054e-39 299 255
-0.024336265 0.69400001 -0.0182522 9.50121e-39 300 255
-0.02308614 0.69300002 -0.018225901 9.1324288e-39 301 255
-0.021871079 0.69300002 -0.018225901 8.6728912e-39 302 255
-0.020656019 0.69300002 -0.018225901 8.7650883e-39 303 255
-0.01944096 0.69300002 -0.018225901 9.0402304e-39 304 255
-0.0181733 0.69099998 -0.0181733 8.7636421e-39 305 255
-0.0169372 0.69 -0.018146999 7.9360268e-39 306 255
-0.015727401 0.69 -0.018146999 7.1984618e-39 307 255
-0.014475521 0.68800002 -0.0180944 7.2874232e-39 308 255
-0.013269227 0.68800002 -0.0180944 7.9327926e-39 309 255
-0.012045399 0.68699998 -0.018068098 8.8536545e-39 310 255
-0.010840859 0.68699998 -0.018068098 7.9316982e-39 311 255
-0.0096363192 0.68699998 -0.018068098 7.7473028e-39 312 255
-0.0084317802 0.68699998 -0.018068098 7.7473028e-39 313 255
-0.0072272392 0.68699998 -0.018068098 6.7313558e-39 314 255
-0.0060139326 0.68599999 -0.018041799 5.3484213e-39 315 255
-0.0048111463 0.68599999 -0.018041799 5.4395197e-39 316 255
-0.00359784 0.68400002 -0.0179892 6.0848892e-39 317 255
-0.0023985601 0.68400002 -0.0179892 8.5766963e-39 318 255
-0.00119928 0.68400002 -0.0179892 9.2220657e-39 319 255
0 0.68400002 -0.0179892 5.8097694e-39 320 255
0.00119928 0.68400002 -0.0179892 5.256597e-39 321 255
0.0023985601 0.68400002 -0.0179892 6.359723e-39 322 255
0.00359784 0.68400002 -0.0179892 6.359723e-39 323 255
0.0047971201 0.68400002 -0.0179892 5.4410093e-39 324 255
0.0060139326 0.68599999 -0.018041799 5.9941831e-39 325 255
0.0072167199 0.68599999 -0.018041799 6.6377476e-39 326 255
0.0084195063 0.68599999 -0.018041799 6.545552e-39 327 255
0.0096363192 0.68699998 -0.018068098 7.0057987e-39 328 255
0.010840859 0.68699998 -0.018068098 7.3742211e-39 329 255
0.012045399 0.68699998 -0.018068098 7.7422833e-39 330 255
0.013249939 0.68699998 -0.018068098 7.926676e-39 331 255
0.014454478 0.68699998 -0.018068098 7.7440826e-39 332 255
0.015681813 0.68800002 -0.0180944 7.4674971e-39 333 255
0.016888106 0.68800002 -0.0180944 6.3618712e-39 334 255
0.0180944 0.68800002 -0.0180944 5.5321105e-39 335 255
0.019300694 0.68800002 -0.0180944 4.4254155e-39 336 255
0.020566599 0.69 -0.018146999 4.4254155e-39 337 255
0.021807959 0.69099998 -0.0181733 4.2410368e-39 338 255
0.02308614 0.69300002 -0.018225901 4.1488412e-39 339 255
0.024336265 0.69400001 -0.0182522 4.9811074e-39 340 255
0.025626717 0.69599998 -0.018304799 6.4562374e-39 341 255
0.026847038 0.69599998 -0.018304799 6.8253661e-39 342 255
0.028148014 0.69800001 -0.0183574 6.9175631e-39 343 255
0.029371841 0.69800001 -0.0183574 7.6497163e-39 344 255
0.030727165 0.70099998 -0.018436298 7.5575207e-39 345 255
0.031956252 0.70099998 -0.018436298 1.2623939e-38 346 255
-0.030858666 0.704 -0.019749546 1.2902702e-38 295 256
-0.029624319 0.704 -0.019749546 9.9589427e-39 296 256
-0.028268991 0.70099998 -0.019665385 1.0143693e-38 297 256
-0.027001332 0.69999999 -0.019637333 9.5937699e-39 298 256
-0.025663542 0.69700003 -0.019553173 9.3175418e-39 299 256
-0.024336265 0.69400001 -0.019469013 9.2253461e-39 300 256
-0.023119451 0.69400001 -0.019469013 9.0409549e-39 301 256
-0.021902639 0.69400001 -0.019469013 8.9484005e-39 302 256
-0.020685827 0.69400001 -0.019469013 8.9484005e-39 303 256
-0.01944096 0.69300002 -0.01944096 8.7647183e-39 304 256
-0.0181733 0.69099998 -0.019384852 8.6725227e-39 305 256
-0.016961746 0.69099998 -0.019384852 8.3040891e-39 306 256
-0.015727401 0.69 -0.019356798 7.7509167e-39 307 256
-0.014517599 0.69 -0.019356798 7.7480427e-39 308 256
-0.013269227 0.68800002 -0.019300694 8.3934121e-39 309 256
-0.012062933 0.68800002 -0.019300694 9.0384157e-39 310 256
-0.010856641 0.68800002 -0.019300694 8.3930463e-39 311 256
-0.0096503468 0.68800002 -0.019300694 7.8391495e-39 312 256
-0.0084440531 0.68800002 -0.019300694 7.1015844e-39 313 256
-0.0072377604 0.68800002 -0.019300694 5.9934348e-39 314 256
-0.0060226996 0.68699998 -0.019272638 5.4402624e-39 315 256
