# .PCD v.7 - Point Cloud Data file format
FIELDS x y z rgb imX imY
SIZE 4 4 4 4 4 4
TYPE F F F F F F
COUNT 1 1 1 1 1 1
WIDTH 848
HEIGHT 1
VIEWPOINT 0 0 0 1 0 0 0
POINTS 848
DATA ascii
-0.021937706 0.736 0.0077427197 1.4297901e-38 303 234
-0.020591147 0.73400003 0.0077216802 1.3932671e-38 304 234
-0.019277899 0.73299998 0.0077111595 1.3011074e-38 305 234
-0.017992707 0.73299998 0.0077111595 1.1813151e-38 306 234
-0.016661927 0.73100001 0.00769012 1.0983031e-38 307 234
-0.0153592 0.73000002 0.0076795998 9.7923241e-39 308 234
-0.014040692 0.72799999 0.0076585598 9.8845197e-39 309 234
-0.012764266 0.72799999 0.0076585598 9.2430992e-39 310 234
-0.01147206 0.727 0.0076480396 9.150905e-39 311 234
-0.010197386 0.727 0.0076480396 8.5984571e-39 312 234
-0.0088736191 0.72299999 0.0076059597 8.5062628e-39 313 234
-0.0076059597 0.72299999 0.0076059597 8.3225918e-39 314 234
-0.0063382997 0.72299999 0.0076059597 8.1385621e-39 315 234
-0.0050636264 0.722 0.0075954394 8.0463679e-39 316 234
-0.0037977197 0.722 0.0075954394 8.2311151e-39 317 234
-0.0025318132 0.722 0.0075954394 9.1477002e-39 318 234
-0.0012659066 0.722 0.0075954394 9.3317313e-39 319 234
0 0.72000003 0.0075743999 9.6990719e-39 320 234
0.0012624001 0.72000003 0.0075743999 9.6990719e-39 321 234
0.0025212932 0.71899998 0.0075638802 9.3320676e-39 322 234
0.0037714199 0.71700001 0.0075428397 9.0554821e-39 323 234
0.0050285598 0.71700001 0.0075428397 9.0551234e-39 324 234
0.0063120001 0.72000003 0.0075743999 8.9629292e-39 325 234
0.0075954394 0.722 0.0075954394 8.9625705e-39 326 234
0.0088613462 0.722 0.0075954394 9.0547647e-39 327 234
0.010127253 0.722 0.0075954394 9.1458827e-39 328 234
0.01139316 0.722 0.0075954394 9.2380769e-39 329 234
0.012676599 0.72299999 0.0076059597 9.603984e-39 330 234
0.01394426 0.72299999 0.0076059597 9.6961782e-39 331 234
0.015211919 0.72299999 0.0076059597 1.0152863e-38 332 234
0.016525166 0.72500002 0.0076270006 1.0982623e-38 333 234
0.017796334 0.72500002 0.0076270006 1.3003798e-38 334 234
0.019120099 0.727 0.0076480396 1.3003798e-38 335 234
0.020394772 0.727 0.0076480396 1.2450296e-38 336 234
0.021669446 0.727 0.0076480396 1.2265906e-38 337 234
0.022975679 0.72799999 0.0076585598 1.1990413e-38 338 234
0.024252106 0.72799999 0.0076585598 1.1990413e-38 339 234
0.025528532 0.72799999 0.0076585598 1.1532337e-38 340 234
0.026878599 0.73000002 0.0076795998 1.1717089e-38 341 234
0.028582839 0.741 0.0077953199 1.18997e-38 342 234
0.029882059 0.741 0.0077953199 1.1623114e-38 343 234
0.03118128 0.741 0.0077953199 1.1801038e-38 344 234
0.032524332 0.74199998 0.0078058392 1.1801038e-38 345 234
0.033825304 0.74199998 0.0078058392 1.7699393e-38 346 234
-0.033094164 0.755 0.0066188332 1.7609012e-38 295 235
-0.031770397 0.755 0.0066188332 1.7885975e-38 296 235
-0.030406307 0.75400001 0.0066100666 1.6134258e-38 297 235
-0.029084291 0.75400001 0.0066100666 1.3926241e-38 298 235
-0.027688639 0.75199997 0.0065925326 1.2635503e-38 299 235
-0.0263 0.75 0.006575 1.2540439e-38 300 235
-0.024984999 0.75 0.006575 1.4015569e-38 301 235
-0.023322839 0.73900002 0.0064785667 1.3837658e-38 302 235
-0.021937706 0.736 0.0064522666 1.4022408e-38 303 235
-0.020591147 0.73400003 0.006434733 1.4575917e-38 304 235
-0.019304199 0.73400003 0.006434733 1.429897e-38 305 235
-0.017992707 0.73299998 0.0064259665 1.3836825e-38 306 235
-0.016707512 0.73299998 0.0064259665 1.2546086e-38 307 235
-0.01538024 0.73100001 0.006408433 1.1905293e-38 308 235
-0.014079267 0.73000002 0.0063996664 1.1905293e-38 309 235
-0.012799333 0.73000002 0.0063996664 1.1538633e-38 310 235
-0.01148784 0.72799999 0.0063821329 1.1077298e-38 311 235
-0.010197386 0.727 0.0063733663 9.7001243e-39 312 235
-0.0089227129 0.727 0.0063733663 9.5157358e-39 313 235
-0.0076270006 0.72500002 0.0063558333 8.4151448e-39 314 235
-0.0063558333 0.72500002 0.0063558333 8.1389208e-39 315 235
-0.0050706398 0.72299999 0.0063382997 8.1389208e-39 316 235
-0.0038029798 0.72299999 0.0063382997 8.2311151e-39 317 235
-0.0025318132 0.722 0.0063295332 8.9640292e-39 318 235
-0.0012659066 0.722 0.0063295332 9.1484219e-39 319 235
0 0.722 0.0063295332 1.0066415e-38 320 235
0.0012659066 0.722 0.0063295332 9.7894697e-39 321 235
0.0025248001 0.72000003 0.0063120001 9.4224682e-39 322 235
0.0037872 0.72000003 0.0063120001 9.2380769e-39 323 235
0.0050496003 0.72000003 0.0063120001 9.0544059e-39 324 235
0.0063382997 0.72299999 0.0063382997 8.961853e-39 325 235
0.0076059597 0.72299999 0.0063382997 9.1458827e-39 326 235
0.0088736191 0.72299999 0.0063382997 9.2380769e-39 327 235
0.010169334 0.72500002 0.0063558333 9.512866e-39 328 235
0.01147206 0.727 0.0063733663 9.4206717e-39 329 235
0.012746733 0.727 0.0063733663 9.6947433e-39 330 235
0.014021406 0.727 0.0063733663 9.7869375e-39 331 235
0.015296079 0.727 0.0063733663 1.0244733e-38 332 235
0.016570752 0.727 0.0063733663 1.1166331e-38 333 235
0.017845426 0.727 0.0063733663 1.2729401e-38 334 235
0.019120099 0.727 0.0063733663 1.254501e-38 335 235
0.020394772 0.727 0.0063733663 1.1439758e-38 336 235
0.021699252 0.72799999 0.0063821329 1.1255365e-38 337 235
0.022975679 0.72799999 0.0063821329 1.0796558e-38 338 235
0.024318734 0.73000002 0.0063996664 1.1257536e-38 339 235
0.025598666 0.73000002 0.0063996664 1.1349391e-38 340 235
0.026915418 0.73100001 0.006408433 1.1626338e-38 341 235
0.028621411 0.74199998 0.0065048663 1.1898275e-38 342 235
0.029922385 0.74199998 0.0065048663 1.0884482e-38 343 235
0.031223357 0.74199998 0.0065048663 1.1065643e-38 344 235
0.032524332 0.74199998 0.0065048663 1.1618816e-38 345 235
0.033825304 0.74199998 0.0065048663 1.8160015e-38 346 235
0.03512628 0.74199998 0.0065048663 1.9635504e-38 347 235
-0.033094164 0.755 0.0052950666 1.7977069e-38 295 236
-0.03172832 0.75400001 0.0052880533 1.7793772e-38 296 236
-0.030406307 0.75400001 0.0052880533 1.5857665e-38 297 236
-0.029007144 0.75199997 0.0052740262 1.3097916e-38 298 236
-0.027688639 0.75199997 0.0052740262 1.3190111e-38 299 236
-0.0263 0.75 0.00526 1.3648231e-38 300 236
-0.024951685 0.74900001 0.0052529867 1.281883e-38 301 236
-0.023385961 0.741 0.0051968796 1.1720053e-38 302 236
-0.021997318 0.73799998 0.0051758396 1.2457976e-38 303 236
-0.020703359 0.73799998 0.0051758396 1.383694e-38 304 236
-0.019304199 0.73400003 0.0051477868 1.4297916e-38 305 236
-0.018017253 0.73400003 0.0051477868 1.5033629e-38 306 236
-0.016730307 0.73400003 0.0051477868 1.4296064e-38 307 236
-0.015422319 0.73299998 0.005140773 1.2825157e-38 308 236
-0.014098554 0.73100001 0.0051267464 1.236382e-38 309 236
-0.012799333 0.73000002 0.0051197335 1.1906362e-38 310 236
-0.011519399 0.73000002 0.0051197335 1.1260993e-38 311 236
-0.010211413 0.72799999 0.0051057064 9.8837953e-39 312 236
-0.0089227129 0.727 0.0050986931 9.5153771e-39 313 236
-0.0076480396 0.727 0.0050986931 8.5066216e-39 314 236
-0.0063733663 0.727 0.0050986931 8.3222331e-39 315 236
-0.0050846669 0.72500002 0.0050846669 8.1382034e-39 316 236
-0.0038135003 0.72500002 0.0050846669 8.3225918e-39 317 236
-0.0025423334 0.72500002 0.0050846669 8.871828e-39 318 236
-0.0012711667 0.72500002 0.0050846669 9.0562206e-39 319 236
0 0.72299999 0.0050706398 9.6058043e-39 320 236
0.0012676599 0.72299999 0.0050706398 9.5136073e-39 321 236
0.0025318132 0.722 0.0050636264 9.2380769e-39 322 236
0.0037977197 0.722 0.0050636264 9.0536885e-39 323 236
0.0050706398 0.72299999 0.0050706398 9.2380769e-39 324 236
0.0063558333 0.72500002 0.0050846669 9.2380769e-39 325 236
0.0076270006 0.72500002 0.0050846669 9.6961782e-39 326 236
0.0089227129 0.727 0.0050986931 9.603984e-39 327 236
0.010197386 0.727 0.0050986931 9.695102e-39 328 236
0.01147206 0.727 0.0050986931 9.7872963e-39 329 236
0.012764266 0.72799999 0.0051057064 9.9702946e-39 330 236
0.014021406 0.727 0.0050986931 1.0338718e-38 331 236
0.015296079 0.727 0.0050986931 1.0981274e-38 332 236
0.016570752 0.727 0.0050986931 1.1350417e-38 333 236
0.017845426 0.727 0.0050986931 1.1718494e-38 334 236
0.0191464 0.72799999 0.0051057064 1.1257518e-38 335 236
0.020422826 0.72799999 0.0051057064 1.0338063e-38 336 236
0.021699252 0.72799999 0.0051057064 1.0338063e-38 337 236
0.023038799 0.73000002 0.0051197335 1.0429923e-38 338 236
0.024352046 0.73100001 0.0051267464 1.0982738e-38 339 236
0.025984399 0.741 0.0051968796 1.1440517e-38 340 236
0.027320439 0.74199998 0.0052038929 1.18093e-38 341 236
0.028621411 0.74199998 0.0052038929 1.1713176e-38 342 236
0.029922385 0.74199998 0.0052038929 1.0514633e-38 343 236
0.031223357 0.74199998 0.0052038929 1.1250037e-38 344 236
0.032524332 0.74199998 0.0052038929 1.2448581e-38 345 236
0.033825304 0.74199998 0.0052038929 1.8252214e-38 346 236
0.03512628 0.74199998 0.0052038929 1.9450757e-38 347 236
-0.034372345 0.75400001 0.00396604 1.7885955e-38 294 237
-0.033050332 0.75400001 0.00396604 1.7793759e-38 295 237
-0.031644158 0.75199997 0.0039555198 1.7518261e-38 296 237
-0.030325651 0.75199997 0.0039555198 1.5766904e-38 297 237
-0.029007144 0.75199997 0.0039555198 1.3098279e-38 298 237
-0.027688639 0.75199997 0.0039555198 1.3743648e-38 299 237
-0.0263 0.75 0.003945 1.374151e-38 300 237
-0.024951685 0.74900001 0.0039397399 1.162101e-38 301 237
-0.023575317 0.74699998 0.0039292197 8.8652335e-39 302 237
-0.022265578 0.74699998 0.0039292197 9.0496261e-39 303 237
-0.020815572 0.74199998 0.0039029196 1.1259799e-38 304 237
-0.019356798 0.736 0.0038713599 1.2827126e-38 305 237
-0.018066347 0.736 0.0038713599 1.5219131e-38 306 237
-0.016730307 0.73400003 0.0038608401 1.4481566e-38 307 237
-0.01544336 0.73400003 0.0038608401 1.1448003e-38 308 237
-0.014137126 0.73299998 0.0038555798 1.0157264e-38 309 237
-0.012851933 0.73299998 0.0038555798 9.1484191e-39 310 237
-0.01153518 0.73100001 0.00384506 9.0562234e-39 311 237
-0.010239467 0.73000002 0.0038397999 9.1494728e-39 312 237
-0.0089349858 0.72799999 0.0038292799 9.0572758e-39 313 237
-0.0076585598 0.72799999 0.0038292799 8.5973809e-39 314 237
-0.0063733663 0.727 0.0038240198 8.5973809e-39 315 237
-0.0050986931 0.727 0.0038240198 8.5051866e-39 316 237
-0.0038240198 0.727 0.0038240198 8.3211569e-39 317 237
-0.0025493465 0.727 0.0038240198 8.6881472e-39 318 237
-0.0012746733 0.727 0.0038240198 8.6881472e-39 319 237
0 0.727 0.0038240198 8.8707462e-39 320 237
0.0012746733 0.727 0.0038240198 9.0547773e-39 321 237
0.0025423334 0.72500002 0.0038135003 9.1469589e-39 322 237
0.0038135003 0.72500002 0.0038135003 9.1469589e-39 323 237
0.0050986931 0.727 0.0038240198 9.8812841e-39 324 237
0.0063733663 0.727 0.0038240198 9.8812841e-39 325 237
0.0076480396 0.727 0.0038240198 1.0430872e-38 326 237
0.0089349858 0.72799999 0.0038292799 1.0246841e-38 327 237
0.010211413 0.72799999 0.0038292799 9.9724722e-39 328 237
0.01148784 0.72799999 0.0038292799 1.0802593e-38 329 237
0.012764266 0.72799999 0.0038292799 1.1810689e-38 330 237
0.014040692 0.72799999 0.0038292799 1.1902884e-38 331 237
0.01531712 0.72799999 0.0038292799 1.1902537e-38 332 237
0.016593546 0.72799999 0.0038292799 1.1533394e-38 333 237
0.017869972 0.72799999 0.0038292799 1.0523536e-38 334 237
0.0191464 0.72799999 0.0038292799 1.0062918e-38 335 237
0.020422826 0.72799999 0.0038292799 9.602643e-39 336 237
0.021758866 0.73000002 0.0038397999 1.0063621e-38 337 237
0.02307036 0.73100001 0.00384506 1.0797274e-38 338 237
0.024685178 0.741 0.0038976599 1.1442643e-38 339 237
0.025984399 0.741 0.0038976599 1.1623486e-38 340 237
0.027320439 0.74199998 0.0039029196 1.1346899e-38 341 237
0.028621411 0.74199998 0.0039029196 1.1341883e-38 342 237
0.029922385 0.74199998 0.0039029196 1.0972742e-38 343 237
0.031307522 0.74400002 0.0039134403 1.2353514e-38 344 237
0.032612 0.74400002 0.0039134403 1.3736448e-38 345 237
0.033916477 0.74400002 0.0039134403 1.8067104e-38 346 237
0.035220962 0.74400002 0.0039134403 1.8896864e-38 347 237
-0.034372345 0.75400001 0.0026440267 1.7885958e-38 294 238
-0.032962665 0.75199997 0.0026370131 1.7793403e-38 295 238
-0.031644158 0.75199997 0.0026370131 1.7701576e-38 296 238
-0.030325651 0.75199997 0.0026370131 1.6318642e-38 297 238
-0.029007144 0.75199997 0.0026370131 1.3926247e-38 298 238
-0.027688639 0.75199997 0.0026370131 1.4202834e-38 299 238
-0.0263 0.75 0.00263 1.383514e-38 300 238
-0.024951685 0.74900001 0.0026264933 1.153061e-38 301 238
-0.023575317 0.74699998 0.0026194798 9.3204551e-39 302 238
-0.022265578 0.74699998 0.0026194798 7.8453236e-39 303 238
-0.020955838 0.74699998 0.0026194798 8.4968237e-39 304 238
-0.019619798 0.74599999 0.0026159731 1.1446725e-38 305 238
-0.018115439 0.73799998 0.0025879198 1.4667775e-38 306 238
-0.016821479 0.73799998 0.0025879198 1.4483384e-38 307 238
-0.015485439 0.736 0.0025809065 1.2184139e-38 308 238
-0.014194986 0.736 0.0025809065 1.0340226e-38 309 238
-0.012869466 0.73400003 0.0025738934 8.6885185e-39 310 238
-0.011566739 0.73299998 0.0025703865 8.7807141e-39 311 238
-0.010253493 0.73100001 0.0025633732 9.3324236e-39 312 238
-0.0089595336 0.73000002 0.0025598668 9.2402293e-39 313 238
-0.0076795998 0.73000002 0.0025598668 8.5977396e-39 314 238
-0.0063821329 0.72799999 0.0025528532 8.5055454e-39 315 238
-0.0051057064 0.72799999 0.0025528532 8.5970221e-39 316 238
-0.0038292799 0.72799999 0.0025528532 8.5970221e-39 317 238
-0.0025528532 0.72799999 0.0025528532 8.7799757e-39 318 238
-0.0012764266 0.72799999 0.0025528532 8.8721699e-39 319 238
0 0.72799999 0.0025528532 8.9622131e-39 320 238
0.0012764266 0.72799999 0.0025528532 9.2388e-39 321 238
0.0025528532 0.72799999 0.0025528532 1.0249359e-38 322 238
0.0038292799 0.72799999 0.0025528532 1.0249359e-38 323 238
0.0051057064 0.72799999 0.0025528532 1.0340462e-38 324 238
0.0063821329 0.72799999 0.0025528532 1.0248267e-38 325 238
0.0076585598 0.72799999 0.0025528532 1.0523819e-38 326 238
0.0089349858 0.72799999 0.0025528532 1.0984438e-38 327 238
0.010211413 0.72799999 0.0025528532 1.126113e-38 328 238
0.01148784 0.72799999 0.0025528532 1.2367478e-38 329 238
0.012764266 0.72799999 0.0025528532 1.3008572e-38 330 238
0.014040692 0.72799999 0.0025528532 1.2455398e-38 331 238
0.01531712 0.72799999 0.0025528532 1.1444077e-38 332 238
0.016593546 0.72799999 0.0025528532 1.0522119e-38 333 238
0.017869972 0.72799999 0.0025528532 9.9721275e-39 334 238
0.019199001 0.73000002 0.0025598668 9.9721275e-39 335 238
0.020478934 0.73000002 0.0025598668 9.6033646e-39 336 238
0.021758866 0.73000002 0.0025598668 1.0248734e-38 337 238
0.023417519 0.74199998 0.0026019465 1.1716013e-38 338 238
0.024718491 0.74199998 0.0026019465 1.19926e-38 339 238
0.026019465 0.74199998 0.0026019465 1.1805372e-38 340 238
0.027320439 0.74199998 0.0026019465 1.079158e-38 341 238
0.02869856 0.74400002 0.00260896 1.0328101e-38 342 238
0.030003037 0.74400002 0.00260896 1.0881275e-38 343 238
0.031307522 0.74400002 0.00260896 1.2630821e-38 344 238
0.032612 0.74400002 0.00260896 1.4013755e-38 345 238
0.033916477 0.74400002 0.00260896 1.7882711e-38 346 238
-0.032962665 0.75199997 0.0013185065 1.7794478e-38 295 239
-0.031644158 0.75199997 0.0013185065 1.7610457e-38 296 239
-0.030325651 0.75199997 0.0013185065 1.6596305e-38 297 239
-0.028929999 0.75 0.001315 1.4845687e-38 298 239
-0.027615 0.75 0.001315 1.4845687e-38 299 239
-0.0263 0.75 0.001315 1.3283769e-38 300 239
-0.024951685 0.74900001 0.0013132467 1.2638399e-38 301 239
-0.02363844 0.74900001 0.0013132467 1.1620304e-38 302 239
-0.022325192 0.74900001 0.0013132467 8.9466307e-39 303 239
-0.021011947 0.74900001 0.0013132467 6.0107815e-39 304 239
-0.019646099 0.74699998 0.0013097399 7.670663e-39 305 239
-0.018189078 0.741 0.0012992199 1.1261601e-38 306 239
-0.016821479 0.73799998 0.0012939599 1.3105514e-38 307 239
-0.015485439 0.736 0.0012904532 1.5035428e-38 308 239
-0.014194986 0.736 0.0012904532 1.3560297e-38 309 239
-0.012904533 0.736 0.0012904532 1.0804394e-38 310 239
-0.011582521 0.73400003 0.0012869467 9.2367093e-39 311 239
-0.010281546 0.73299998 0.0012851933 8.6881472e-39 312 239
-0.0089718066 0.73100001 0.0012816866 9.0569297e-39 313 239
-0.00769012 0.73100001 0.0012816866 8.5973809e-39 314 239
-0.0063996664 0.73000002 0.0012799334 8.5051866e-39 315 239
-0.0051197335 0.73000002 0.0012799334 8.5048279e-39 316 239
-0.0038397999 0.73000002 0.0012799334 8.6895751e-39 317 239
-0.0025598668 0.73000002 0.0012799334 8.5966956e-39 318 239
-0.0012799334 0.73000002 0.0012799334 9.242065e-39 319 239
0 0.73000002 0.0012799334 1.1078088e-38 320 239
0.0012799334 0.73000002 0.0012799334 1.1170284e-38 321 239
0.0025598668 0.73000002 0.0012799334 1.1627292e-38 322 239
0.0038397999 0.73000002 0.0012799334 1.1166314e-38 323 239
0.0051197335 0.73000002 0.0012799334 1.0248305e-38 324 239
0.0063996664 0.73000002 0.0012799334 9.9717169e-39 325 239
0.0076795998 0.73000002 0.0012799334 1.0617524e-38 326 239
0.0089595336 0.73000002 0.0012799334 1.2092294e-38 327 239
0.010239467 0.73000002 0.0012799334 1.3191884e-38 328 239
0.011519399 0.73000002 0.0012799334 1.2915657e-38 329 239
0.012799333 0.73000002 0.0012799334 1.1260076e-38 330 239
0.014079267 0.73000002 0.0012799334 1.0614707e-38 331 239
0.0153592 0.73000002 0.0012799334 1.0065078e-38 332 239
0.016639132 0.73000002 0.0012799334 9.6044604e-39 333 239
0.017919067 0.73000002 0.0012799334 9.6051611e-39 334 239
0.019225299 0.73100001 0.0012816866 9.6051611e-39 335 239
0.020506985 0.73100001 0.0012816866 1.0061508e-38 336 239
0.022116546 0.74199998 0.0013009732 1.0983823e-38 337 239
0.023417519 0.74199998 0.0013009732 1.2083739e-38 338 239
0.024718491 0.74199998 0.0013009732 1.162276e-38 339 239
0.026089599 0.74400002 0.00130448 1.0512482e-38 340 239
0.027394081 0.74400002 0.00130448 9.6830817e-39 341 239
0.02869856 0.74400002 0.00130448 1.0973467e-38 342 239
0.03008369 0.74599999 0.0013079866 1.1987618e-38 343 239
0.031391677 0.74599999 0.0013079866 1.2724089e-38 344 239
0.032699663 0.74599999 0.0013079866 1.4014827e-38 345 239
0.034007654 0.74599999 0.0013079866 1.7606126e-38 346 239
-0.028929999 0.75 -0 1.539814e-38 298 240
-0.027578179 0.74900001 -0 1.5121195e-38 299 240
-0.026264934 0.74900001 -0 1.3283769e-38 300 240
-0.024984999 0.75 -0 1.3007182e-38 301 240
-0.023669999 0.75 -0 1.3097222e-38 302 240
-0.022355 0.75 -0 1.0884887e-38 303 240
-0.021011947 0.74900001 -0 7.5698255e-39 304 240
-0.0196987 0.74900001 -0 6.8322605e-39 305 240
-0.018336359 0.74699998 -0 8.4971894e-39 306 240
-0.016889861 0.741 -0 1.080244e-38 307 240
-0.01554856 0.73900002 -0 1.3932012e-38 308 240
-0.014233559 0.73799998 -0 1.3932012e-38 309 240
-0.012904533 0.736 -0 1.2828784e-38 310 240
-0.01161408 0.736 -0 1.0892676e-38 311 240
-0.010295574 0.73400003 -0 9.8830932e-39 312 240
-0.0090086265 0.73400003 -0 9.5143107e-39 313 240
-0.0077111595 0.73299998 -0 8.0463679e-39 314 240
-0.0064259665 0.73299998 -0 8.3225918e-39 315 240
-0.0051267464 0.73100001 -0 8.5966704e-39 316 240
-0.00384506 0.73100001 -0 8.5966704e-39 317 240
-0.0025633732 0.73100001 -0 9.2406623e-39 318 240
-0.0012799334 0.73000002 -0 1.0438845e-38 319 240
0 0.73000002 -0 1.1629865e-38 320 240
0.0012816866 0.73100001 -0 1.1353637e-38 321 240
0.0025633732 0.73100001 -0 1.0432719e-38 322 240
0.00384506 0.73100001 -0 9.8795451e-39 323 240
0.0051197335 0.73000002 -0 1.0245822e-38 324 240
0.0063996664 0.73000002 -0 1.1167778e-38 325 240
0.00769012 0.73100001 -0 1.1903645e-38 326 240
0.0089718066 0.73100001 -0 1.328658e-38 327 240
0.010253493 0.73100001 -0 1.3008584e-38 328 240
0.01153518 0.73100001 -0 1.1810043e-38 329 240
0.012816866 0.73100001 -0 1.033987e-38 330 240
0.014098554 0.73100001 -0 9.7870566e-39 331 240
0.01538024 0.73100001 -0 1.0153999e-38 332 240
0.016661927 0.73100001 -0 1.0799369e-38 333 240
0.017943613 0.73100001 -0 1.0338807e-38 334 240
0.019304199 0.73400003 -0 1.0246252e-38 335 240
0.020815572 0.74199998 -0 1.0151233e-38 336 240
0.022116546 0.74199998 -0 1.0980634e-38 337 240
0.023480639 0.74400002 -0 1.0888465e-38 338 240
0.02478512 0.74400002 -0 9.3207788e-39 339 240
0.026089599 0.74400002 -0 8.6682193e-39 340 240
0.027467718 0.74599999 -0 9.9589581e-39 341 240
0.028775707 0.74599999 -0 1.1709942e-38 342 240
0.030124018 0.74699998 -0 1.2539704e-38 343 240
0.031433757 0.74699998 -0 1.3276176e-38 344 240
0.032743499 0.74699998 -0 1.4474361e-38 345 240
0.034053236 0.74699998 -0 1.742245e-38 346 240
-0.028814279 0.74699998 -0.0013097399 1.5398137e-38 298 241
-0.027504537 0.74699998 -0.0013097399 1.5674724e-38 299 241
-0.026194798 0.74699998 -0.0013097399 1.3836589e-38 300 241
-0.024951685 0.74900001 -0.0013132467 1.3006829e-38 301 241
-0.02363844 0.74900001 -0.0013132467 1.3100825e-38 302 241
-0.022325192 0.74900001 -0.0013132467 1.3100825e-38 303 241
-0.02104 0.75 -0.001315 1.0974937e-38 304 241
-0.0196987 0.74900001 -0.0013132467 8.6696865e-39 305 241
-0.018385453 0.74900001 -0.0013132467 6.655432e-39 306 241
-0.017072206 0.74900001 -0.0013132467 8.3145932e-39 307 241
-0.01559064 0.741 -0.0012992199 1.0616229e-38 308 241
-0.014252847 0.73900002 -0.0012957134 1.2921118e-38 309 241
-0.012939599 0.73799998 -0.0012939599 1.4851781e-38 310 241
-0.011645639 0.73799998 -0.0012939599 1.383763e-38 311 241
-0.010323626 0.736 -0.0012904532 1.2643692e-38 312 241
-0.0090331733 0.736 -0.0012904532 1.098417e-38 313 241
-0.0077427197 0.736 -0.0012904532 8.781475e-39 314 241
-0.0064522666 0.736 -0.0012904532 8.2283013e-39 315 241
-0.0051477868 0.73400003 -0.0012869467 7.5843556e-39 316 241
-0.0038555798 0.73299998 -0.0012851933 7.7687468e-39 317 241
-0.0025633732 0.73100001 -0.0012816866 9.4257879e-39 318 241
-0.0012816866 0.73100001 -0.0012816866 1.0071157e-38 319 241
0 0.73100001 -0.0012816866 1.0893029e-38 320 241
0.0012851933 0.73299998 -0.0012851933 1.0524245e-38 321 241
0.0025703865 0.73299998 -0.0012851933 9.2367667e-39 322 241
0.00384506 0.73100001 -0.0012816866 1.0527506e-38 323 241
0.0051267464 0.73100001 -0.0012816866 1.2733411e-38 324 241
0.006408433 0.73100001 -0.0012816866 1.3009638e-38 325 241
0.00769012 0.73100001 -0.0012816866 1.3467044e-38 326 241
0.0089963535 0.73299998 -0.0012851933 1.3098263e-38 327 241
0.010253493 0.73100001 -0.0012816866 1.1351938e-38 328 241
0.01153518 0.73100001 -0.0012816866 1.0522176e-38 329 241
0.012816866 0.73100001 -0.0012816866 1.0248438e-38 330 241
0.014098554 0.73100001 -0.0012816866 1.0340634e-38 331 241
0.01538024 0.73100001 -0.0012816866 1.0980603e-38 332 241
0.016661927 0.73100001 -0.0012816866 1.1441221e-38 333 241
0.018115439 0.73799998 -0.0012939599 1.2268849e-38 334 241
0.0194357 0.73900002 -0.0012957134 1.1162861e-38 335 241
0.020815572 0.74199998 -0.0013009732 9.3182634e-39 336 241
0.022116546 0.74199998 -0.0013009732 9.2257091e-39 337 241
0.023480639 0.74400002 -0.00130448 8.7640317e-39 338 241
0.02478512 0.74400002 -0.00130448 8.0264666e-39 339 241
0.026089599 0.74400002 -0.00130448 9.220677e-39 340 241
0.027467718 0.74599999 -0.0013079866 1.1156785e-38 341 241
0.028814279 0.74699998 -0.0013097399 1.1987602e-38 342 241
0.030124018 0.74699998 -0.0013097399 1.2448581e-38 343 241
0.031517919 0.74900001 -0.0013132467 1.3829347e-38 344 241
0.032831166 0.74900001 -0.0013132467 1.4935336e-38 345 241
0.034144413 0.74900001 -0.0013132467 1.7146224e-38 346 241
-0.028814279 0.74699998 -0.0026194798 1.4846756e-38 298 242
-0.027504537 0.74699998 -0.0026194798 1.5031147e-38 299 242
-0.026194798 0.74699998 -0.0026194798 1.4299002e-38 300 242
-0.024951685 0.74900001 -0.0026264933 1.3008263e-38 301 242
-0.02363844 0.74900001 -0.0026264933 1.2089917e-38 302 242
-0.022325192 0.74900001 -0.0026264933 1.2274308e-38 303 242
-0.02104 0.75 -0.00263 1.2545856e-38 304 242
-0.019724999 0.75 -0.00263 1.0517193e-38 305 242
-0.018385453 0.74900001 -0.0026264933 9.5992028e-39 306 242
-0.017072206 0.74900001 -0.0026264933 9.4151702e-39 307 242
-0.015716879 0.74699998 -0.0026194798 9.9690601e-39 308 242
-0.014407139 0.74699998 -0.0026194798 1.2827126e-38 309 242
-0.0129922 0.741 -0.0025984398 1.4945088e-38 310 242
-0.01166142 0.73900002 -0.0025914267 1.448411e-38 311 242
-0.010365707 0.73900002 -0.0025914267 1.4023812e-38 312 242
-0.0090699932 0.73900002 -0.0025914267 1.3286247e-38 313 242
-0.0077637597 0.73799998 -0.0025879198 1.1999767e-38 314 242
-0.0064697997 0.73799998 -0.0025879198 1.1262202e-38 315 242
-0.005161813 0.736 -0.0025809065 1.0067231e-38 316 242
-0.0038713599 0.736 -0.0025809065 1.0159785e-38 317 242
-0.0025738934 0.73400003 -0.0025738934 1.1080675e-38 318 242
-0.0012869467 0.73400003 -0.0025738934 1.1265427e-38 319 242
0 0.73400003 -0.0025738934 1.190289e-38 320 242
0.0012869467 0.73400003 -0.0025738934 1.1533747e-38 321 242
0.0025738934 0.73400003 -0.0025738934 1.0798375e-38 322 242
0.0038608401 0.73400003 -0.0025738934 1.1628136e-38 323 242
0.0051477868 0.73400003 -0.0025738934 1.2914964e-38 324 242
0.006434733 0.73400003 -0.0025738934 1.3099714e-38 325 242
0.0077216802 0.73400003 -0.0025738934 1.3099358e-38 326 242
0.0090086265 0.73400003 -0.0025738934 1.3007162e-38 327 242
0.010295574 0.73400003 -0.0025738934 1.2638007e-38 328 242
0.011582521 0.73400003 -0.0025738934 1.1439465e-38 329 242
0.012869466 0.73400003 -0.0025738934 1.0334189e-38 330 242
0.014156413 0.73400003 -0.0025738934 9.5966244e-39 331 242
0.01544336 0.73400003 -0.0025738934 9.8728637e-39 332 242
0.016821479 0.73799998 -0.0025879198 1.0426038e-38 333 242
0.018189078 0.741 -0.0025984398 1.1346213e-38 334 242
0.019488299 0.741 -0.0025984398 1.0516451e-38 335 242
0.02087168 0.74400002 -0.00260896 8.9466307e-39 336 242
0.022176161 0.74400002 -0.00260896 8.4856525e-39 337 242
0.023543758 0.74599999 -0.0026159731 8.1193867e-39 338 242
0.024851745 0.74599999 -0.0026159731 8.8569518e-39 339 242
0.026159734 0.74599999 -0.0026159731 1.1337932e-38 340 242
0.027578179 0.74900001 -0.0026264933 1.244464e-38 341 242
0.028891427 0.74900001 -0.0026264933 1.2080514e-38 342 242
0.030204674 0.74900001 -0.0026264933 1.2357461e-38 343 242
0.031517919 0.74900001 -0.0026264933 1.4013736e-38 344 242
0.032831166 0.74900001 -0.0026264933 1.5304475e-38 345 242
-0.028814279 0.74699998 -0.0039292197 1.4571245e-38 298 243
-0.027504537 0.74699998 -0.0039292197 1.4755636e-38 299 243
-0.026194798 0.74699998 -0.0039292197 1.4205014e-38 300 243
-0.024951685 0.74900001 -0.0039397399 1.3375614e-38 301 243
-0.02363844 0.74900001 -0.0039397399 1.162967e-38 302 243
-0.022325192 0.74900001 -0.0039397399 1.1169052e-38 303 243
-0.02104 0.75 -0.003945 1.2364353e-38 304 243
-0.0197776 0.75199997 -0.0039555198 1.2917525e-38 305 243
-0.018409999 0.75 -0.003945 1.2455458e-38 306 243
-0.017072206 0.74900001 -0.0039397399 1.1164719e-38 307 243
-0.015716879 0.74699998 -0.0039292197 1.079701e-38 308 243
-0.014407139 0.74699998 -0.0039292197 1.3193738e-38 309 243
-0.0130448 0.74400002 -0.0039134403 1.439228e-38 310 243
-0.01170876 0.74199998 -0.0039029196 1.4300084e-38 311 243
-0.010407786 0.74199998 -0.0039029196 1.4391911e-38 312 243
-0.0090945391 0.741 -0.0038976599 1.4484466e-38 313 243
-0.0077953199 0.741 -0.0038976599 1.4117104e-38 314 243
-0.0064785667 0.73900002 -0.00388714 1.374832e-38 315 243
-0.0051828534 0.73900002 -0.00388714 1.3472441e-38 316 243
-0.0038818798 0.73799998 -0.0038818798 1.328805e-38 317 243
-0.0025809065 0.736 -0.0038713599 1.3379892e-38 318 243
-0.0012904532 0.736 -0.0038713599 1.3472088e-38 319 243
0 0.736 -0.0038713599 1.3468491e-38 320 243
0.0012904532 0.736 -0.0038713599 1.2454697e-38 321 243
0.0025809065 0.736 -0.0038713599 1.0889181e-38 322 243
0.0038713599 0.736 -0.0038713599 9.9675831e-39 323 243
0.005161813 0.736 -0.0038713599 9.3236753e-39 324 243
0.0064522666 0.736 -0.0038713599 1.0245271e-38 325 243
0.0077427197 0.736 -0.0038713599 1.1532775e-38 326 243
0.0090331733 0.736 -0.0038713599 1.3008263e-38 327 243
0.010323626 0.736 -0.0038713599 1.3557834e-38 328 243
0.011645639 0.73799998 -0.0038818798 1.1529531e-38 329 243
0.012939599 0.73799998 -0.0038818798 8.6718361e-39 330 243
0.014233559 0.73799998 -0.0038818798 6.8282822e-39 331 243
0.01554856 0.73900002 -0.00388714 7.0148413e-39 332 243
0.016912652 0.74199998 -0.0039029196 8.3977757e-39 333 243
0.018213626 0.74199998 -0.0039029196 9.8700303e-39 334 243
0.0195146 0.74199998 -0.0039029196 9.1321065e-39 335 243
0.02087168 0.74400002 -0.0039134403 8.8515638e-39 336 243
0.022235774 0.74599999 -0.0039239596 9.2199862e-39 337 243
0.023575317 0.74699998 -0.0039292197 9.1345953e-39 338 243
0.024885058 0.74699998 -0.0039292197 1.0425334e-38 339 243
0.026264934 0.74900001 -0.0039397399 1.1898641e-38 340 243
0.027578179 0.74900001 -0.0039397399 1.1622413e-38 341 243
0.028891427 0.74900001 -0.0039397399 1.217307e-38 342 243
0.030244999 0.75 -0.003945 1.2818439e-38 343 243
0.03156 0.75 -0.003945 1.4474714e-38 344 243
-0.027504537 0.74699998 -0.0052389596 1.5122254e-38 299 244
-0.026194798 0.74699998 -0.0052389596 1.4480515e-38 300 244
-0.024951685 0.74900001 -0.0052529867 1.3927343e-38 301 244
-0.02363844 0.74900001 -0.0052529867 1.1998813e-38 302 244
-0.022325192 0.74900001 -0.0052529867 1.162967e-38 303 244
-0.02104 0.75 -0.00526 1.1997015e-38 304 244
-0.0197776 0.75199997 -0.0052740262 1.2457992e-38 305 244
-0.018409999 0.75 -0.00526 1.2640933e-38 306 244
-0.017095 0.75 -0.00526 1.2364706e-38 307 244
-0.015716879 0.74699998 -0.0052389596 1.2730963e-38 308 244
-0.014407139 0.74699998 -0.0052389596 1.3837311e-38 309 244
-0.013079867 0.74599999 -0.0052319462 1.4116416e-38 310 244
-0.011771879 0.74599999 -0.0052319462 1.4116416e-38 311 244
-0.01043584 0.74400002 -0.0052179201 1.4116416e-38 312 244
-0.0091313599 0.74400002 -0.0052179201 1.4116416e-38 313 244
-0.0078058392 0.74199998 -0.0052038929 1.3841261e-38 314 244
-0.0064960998 0.741 -0.0051968796 1.3564315e-38 315 244
-0.0051968796 0.741 -0.0051968796 1.3564667e-38 316 244
-0.00388714 0.73900002 -0.0051828534 1.328844e-38 317 244
-0.0025879198 0.73799998 -0.0051758396 1.328844e-38 318 244
-0.0012939599 0.73799998 -0.0051758396 1.328844e-38 319 244
0 0.73799998 -0.0051758396 1.402169e-38 320 244
0.0012904532 0.736 -0.005161813 1.3007179e-38 321 244
0.0025809065 0.736 -0.005161813 1.0336401e-38 322 244
0.0038713599 0.736 -0.005161813 7.2017507e-39 323 244
0.005161813 0.736 -0.005161813 4.7221951e-39 324 244
0.0064522666 0.736 -0.005161813 7.7642907e-39 325 244
0.0077427197 0.736 -0.005161813 1.0975303e-38 326 244
0.0090577193 0.73799998 -0.0051758396 1.1067499e-38 327 244
0.010351679 0.73799998 -0.0051758396 1.0514325e-38 328 244
0.011645639 0.73799998 -0.0051758396 9.2235861e-39 329 244
0.012957133 0.73900002 -0.0051828534 7.4729608e-39 330 244
0.014252847 0.73900002 -0.0051828534 6.5513646e-39 331 244
0.01559064 0.741 -0.0051968796 7.1013112e-39 332 244
0.016912652 0.74199998 -0.0052038929 7.7466806e-39 333 244
0.018213626 0.74199998 -0.0052038929 8.5782335e-39 334 244
0.019567199 0.74400002 -0.0052179201 8.4860365e-39 335 244
0.020927785 0.74599999 -0.0052319462 8.8537148e-39 336 244
0.022235774 0.74599999 -0.0052319462 1.0420682e-38 337 244
0.023575317 0.74699998 -0.0052389596 1.0886291e-38 338 244
0.024885058 0.74699998 -0.0052389596 1.1347268e-38 339 244
0.0263 0.75 -0.00526 1.1898624e-38 340 244
0.027615 0.75 -0.00526 1.1438006e-38 341 244
0.028929999 0.75 -0.00526 1.2540408e-38 342 244
0.030406307 0.75400001 -0.0052880533 1.3462004e-38 343 244
0.032527838 0.773 -0.0054213065 1.5026086e-38 344 244
-0.023733119 0.75199997 -0.0065925326 1.273458e-38 302 245
-0.022414612 0.75199997 -0.0065925326 1.2181406e-38 303 245
-0.021152213 0.75400001 -0.0066100666 1.1629673e-38 304 245
-0.019830201 0.75400001 -0.0066100666 1.1629673e-38 305 245
-0.018508185 0.75400001 -0.0066100666 1.2182125e-38 306 245
-0.017140586 0.75199997 -0.0065925326 1.3012245e-38 307 245
-0.01575896 0.74900001 -0.0065662335 1.3561097e-38 308 245
-0.014445714 0.74900001 -0.0065662335 1.4022075e-38 309 245
-0.013097399 0.74699998 -0.0065486995 1.4116419e-38 310 245
-0.011787659 0.74699998 -0.0065486995 1.4116419e-38 311 245
-0.010463892 0.74599999 -0.0065399334 1.41157e-38 312 245
-0.0091559067 0.74599999 -0.0065399334 1.4023504e-38 313 245
-0.0078268806 0.74400002 -0.0065223998 1.3656514e-38 314 245
-0.0065223998 0.74400002 -0.0065223998 1.3564318e-38 315 245
-0.0052038929 0.74199998 -0.0065048663 1.3563948e-38 316 245
-0.0039029196 0.74199998 -0.0065048663 1.3471753e-38 317 245
-0.0025984398 0.741 -0.0064960998 1.3379554e-38 318 245
-0.0012992199 0.741 -0.0064960998 1.3379554e-38 319 245
0 0.73900002 -0.0064785667 1.4022055e-38 320 245
0.0012939599 0.73799998 -0.0064697997 1.3561079e-38 321 245
0.0025879198 0.73799998 -0.0064697997 1.0981787e-38 322 245
0.0038818798 0.73799998 -0.0064697997 6.7411466e-39 323 245
0.0051758396 0.73799998 -0.0064697997 4.3516301e-39 324 245
0.0064697997 0.73799998 -0.0064697997 7.5784771e-39 325 245
0.0077637597 0.73799998 -0.0064697997 1.09746e-38 326 245
0.0090577193 0.73799998 -0.0064697997 8.7622646e-39 327 245
0.010351679 0.73799998 -0.0064697997 6.7364775e-39 328 245
0.01166142 0.73900002 -0.0064785667 7.1970969e-39 329 245
0.0129922 0.741 -0.0064960998 7.1963809e-39 330 245
0.01429142 0.741 -0.0064960998 7.1963809e-39 331 245
0.015611678 0.74199998 -0.0065048663 6.9187178e-39 332 245
0.016912652 0.74199998 -0.0065048663 6.9187178e-39 333 245
0.01826272 0.74400002 -0.0065223998 7.749549e-39 334 245
0.019619798 0.74599999 -0.0065399334 8.4874728e-39 335 245
0.020955838 0.74699998 -0.0065486995 9.5941483e-39 336 245
0.022265578 0.74699998 -0.0065486995 1.0884887e-38 337 245
0.02363844 0.74900001 -0.0065662335 1.2083391e-38 338 245
0.024951685 0.74900001 -0.0065662335 1.1622413e-38 339 245
0.026790932 0.764 -0.006697733 1.1162508e-38 340 245
0.028204117 0.76599997 -0.0067152665 1.0517139e-38 341 245
0.02966289 0.76899999 -0.0067415666 1.2357111e-38 342 245
0.031091858 0.77100003 -0.0067590997 1.3186511e-38 343 245
0.032527838 0.773 -0.0067766332 1.5118285e-38 344 245
-0.0200406 0.76200002 -0.0080162399 1.1263416e-38 305 246
-0.018532733 0.755 -0.0079425992 1.1906264e-38 306 246
-0.017186172 0.75400001 -0.00793208 1.2090655e-38 307 246
-0.015822079 0.75199997 -0.0079110395 1.3008289e-38 308 246
-0.014465 0.75 -0.00789 1.2824258e-38 309 246
-0.013132467 0.74900001 -0.0078794798 1.3010078e-38 310 246
-0.01181922 0.74900001 -0.0078794798 1.3562892e-38 311 246
-0.010505973 0.74900001 -0.0078794798 1.3747993e-38 312 246
-0.0091681797 0.74699998 -0.0078584393 1.402422e-38 313 246
-0.0078479191 0.74599999 -0.0078479191 1.374871e-38 314 246
-0.0065399334 0.74599999 -0.0078479191 1.3564318e-38 315 246
-0.0052179201 0.74400002 -0.0078268806 1.374691e-38 316 246
-0.0039134403 0.74400002 -0.0078268806 1.3654715e-38 317 246
-0.0026019465 0.74199998 -0.0078058392 1.3470684e-38 318 246
-0.0013009732 0.74199998 -0.0078058392 1.3470684e-38 319 246
0 0.741 -0.0077953199 1.3654715e-38 320 246
0.0012992199 0.741 -0.0077953199 1.3378488e-38 321 246
0.0025984398 0.741 -0.0077953199 1.1258001e-38 322 246
0.0038976599 0.741 -0.0077953199 6.9248064e-39 323 246
0.0051968796 0.741 -0.0077953199 4.5342137e-39 324 246
0.0064785667 0.73900002 -0.0077742799 6.9309399e-39 325 246
0.0077742799 0.73900002 -0.0077742799 9.3158042e-39 326 246
0.0090945391 0.741 -0.0077953199 7.6562828e-39 327 246
0.010393759 0.741 -0.0077953199 6.8243698e-39 328 246
0.01170876 0.74199998 -0.0078058392 7.0087624e-39 329 246
0.013009733 0.74199998 -0.0078058392 6.9183647e-39 330 246
0.01434928 0.74400002 -0.0078268806 8.0247122e-39 331 246
0.015653761 0.74400002 -0.0078268806 9.8693213e-39 332 246
0.017003827 0.74599999 -0.0078479191 1.0699442e-38 333 246
0.018336359 0.74699998 -0.0078584393 1.1434108e-38 334 246
0.0196987 0.74900001 -0.0078794798 1.1711053e-38 335 246
0.02104 0.75 -0.00789 1.1804676e-38 336 246
0.022355 0.75 -0.00789 1.1804676e-38 337 246
0.02379624 0.75400001 -0.00793208 1.2080167e-38 338 246
0.025451386 0.764 -0.0080372803 1.0512482e-38 339 246
0.026790932 0.764 -0.0080372803 7.7559516e-39 340 246
0.028204117 0.76599997 -0.0080583189 7.8481472e-39 341 246
0.02966289 0.76899999 -0.0080898795 1.1438019e-38 342 246
0.03117251 0.773 -0.0081319595 1.2452531e-38 343 246
-0.0200406 0.76200002 -0.0093522798 1.1080103e-38 305 247
-0.018581826 0.75700003 -0.0092909131 1.1263416e-38 306 247
-0.017208965 0.755 -0.0092663663 1.1171219e-38 307 247
-0.01586416 0.75400001 -0.0092540924 1.1628235e-38 308 247
-0.014503572 0.75199997 -0.0092295464 1.1443844e-38 309 247
-0.01315 0.75 -0.0092049995 1.199485e-38 310 247
-0.011835 0.75 -0.0092049995 1.2363272e-38 311 247
-0.010505973 0.74900001 -0.0091927266 1.2733484e-38 312 247
-0.0091927266 0.74900001 -0.0091927266 1.3378854e-38 313 247
-0.0078794798 0.74900001 -0.0091927266 1.3655445e-38 314 247
-0.0065486995 0.74699998 -0.0091681797 1.374764e-38 315 247
-0.0052389596 0.74699998 -0.0091681797 1.3838037e-38 316 247
-0.0039292197 0.74699998 -0.0091681797 1.3653645e-38 317 247
-0.0026159731 0.74599999 -0.0091559067 1.3378132e-38 318 247
-0.00130448 0.74400002 -0.0091313599 1.3378132e-38 319 247
0 0.74400002 -0.0091313599 1.3746191e-38 320 247
0.00130448 0.74400002 -0.0091313599 1.3653996e-38 321 247
0.0026019465 0.74199998 -0.009106813 1.1809004e-38 322 247
0.0039029196 0.74199998 -0.009106813 8.6743528e-39 323 247
0.0052038929 0.74199998 -0.009106813 6.0986457e-39 324 247
0.0065048663 0.74199998 -0.009106813 7.1124375e-39 325 247
0.0078058392 0.74199998 -0.009106813 7.9371829e-39 326 247
0.009106813 0.74199998 -0.009106813 7.2918135e-39 327 247
0.010407786 0.74199998 -0.009106813 5.5447811e-39 328 247
0.011740319 0.74400002 -0.0091313599 6.0057592e-39 329 247
0.013097399 0.74699998 -0.0091681797 8.3956401e-39 330 247
0.014407139 0.74699998 -0.0091681797 9.5023464e-39 331 247
0.015716879 0.74699998 -0.0091681797 1.1526309e-38 332 247
0.017026618 0.74699998 -0.0091681797 1.2263874e-38 333 247
0.018385453 0.74900001 -0.0091927266 1.1345493e-38 334 247
0.019724999 0.75 -0.0092049995 1.1253297e-38 335 247
0.021152213 0.75400001 -0.0092540924 1.0884512e-38 336 247
0.022563647 0.75700003 -0.0092909131 1.0700479e-38 337 247
0.024017159 0.76099998 -0.0093400059 1.0606498e-38 338 247
0.025518013 0.76599997 -0.0094013726 8.9469768e-39 339 247
0.026861066 0.76599997 -0.0094013726 6.3712417e-39 340 247
0.02824094 0.76700002 -0.0094136465 8.2151543e-39 341 247
0.029740039 0.77100003 -0.0094627403 1.125146e-38 342 247
-0.020145798 0.76599997 -0.010744425 1.1169771e-38 305 248
-0.018753653 0.764 -0.010716373 1.0986471e-38 306 248
-0.017345725 0.76099998 -0.010674292 1.0710245e-38 307 248
-0.015927281 0.75700003 -0.010618187 1.0890317e-38 308 248
-0.014561433 0.755 -0.010590133 1.0060556e-38 309 248
-0.013237666 0.755 -0.010590133 8.7698148e-39 310 248
-0.01189812 0.75400001 -0.010576107 8.5854222e-39 311 248
-0.01052 0.75 -0.01052 9.0481982e-39 312 248
-0.0092049995 0.75 -0.01052 1.0338937e-38 313 248
-0.0078794798 0.74900001 -0.010505973 1.1261251e-38 314 248
-0.0065662335 0.74900001 -0.010505973 1.2275042e-38 315 248
-0.0052529867 0.74900001 -0.010505973 1.3836605e-38 316 248
-0.0039397399 0.74900001 -0.010505973 1.3836605e-38 317 248
-0.0026194798 0.74699998 -0.010477919 1.3378135e-38 318 248
-0.0013097399 0.74699998 -0.010477919 1.3285939e-38 319 248
0 0.74699998 -0.010477919 1.3653999e-38 320 248
0.0013079866 0.74599999 -0.010463892 1.3469249e-38 321 248
0.0026159731 0.74599999 -0.010463892 1.2453658e-38 322 248
0.0039239596 0.74599999 -0.010463892 1.0978167e-38 323 248
0.0052179201 0.74400002 -0.01043584 9.8739806e-39 324 248
0.0065223998 0.74400002 -0.01043584 1.0150209e-38 325 248
0.0078479191 0.74599999 -0.010463892 1.0150935e-38 326 248
0.0091559067 0.74599999 -0.010463892 1.0704108e-38 327 248
0.010463892 0.74599999 -0.010463892 1.1164363e-38 328 248
0.011787659 0.74699998 -0.010477919 1.1533146e-38 329 248
0.013132467 0.74900001 -0.010505973 1.2358219e-38 330 248
0.014445714 0.74900001 -0.010505973 1.189724e-38 331 248
0.01575896 0.74900001 -0.010505973 1.1801804e-38 332 248
0.017072206 0.74900001 -0.010505973 1.1709609e-38 333 248
0.018459093 0.75199997 -0.010548052 1.0975285e-38 334 248
0.019830201 0.75400001 -0.010576107 1.0606501e-38 335 248
0.021180267 0.755 -0.010590133 9.4115549e-39 336 248
0.022682872 0.76099998 -0.010674292 8.6739899e-39 337 248
0.02404872 0.76200002 -0.01068832 7.4758124e-39 338 248
0.025551327 0.76700002 -0.010758453 6.7382474e-39 339 248
0.026896132 0.76700002 -0.010758453 8.0253708e-39 340 248
0.028314579 0.76899999 -0.010786506 1.0238425e-38 341 248
0.029817186 0.773 -0.010842613 1.0977391e-38 342 248
-0.020172099 0.76700002 -0.01210326 1.2361109e-38 305 249
-0.018802745 0.76599997 -0.012087479 1.1353446e-38 306 249
-0.01736852 0.76200002 -0.01202436 1.1168696e-38 307 249
-0.016011439 0.76099998 -0.012008579 1.0798843e-38 308 249
-0.014600007 0.75700003 -0.01194546 9.5081044e-39 309 249
-0.013237666 0.755 -0.011913899 6.3806528e-39 310 249
-0.011913899 0.755 -0.011913899 5.7352834e-39 311 249
-0.010576107 0.75400001 -0.01189812 6.377783e-39 312 249
-0.0092540924 0.75400001 -0.01189812 7.3922936e-39 313 249
-0.0079110395 0.75199997 -0.011866559 8.6833828e-39 314 249
-0.0065925326 0.75199997 -0.011866559 1.0342904e-38 315 249
-0.0052740262 0.75199997 -0.011866559 1.2732059e-38 316 249
-0.003945 0.75 -0.011835 1.310084e-38 317 249
-0.0026264933 0.74900001 -0.01181922 1.264237e-38 318 249
-0.0013132467 0.74900001 -0.01181922 1.2826402e-38 319 249
0 0.74900001 -0.01181922 1.3468535e-38 320 249
0.0013132467 0.74900001 -0.01181922 1.3283784e-38 321 249
0.0026194798 0.74699998 -0.011787659 1.2086317e-38 322 249
0.0039292197 0.74699998 -0.011787659 1.1440948e-38 323 249
0.0052389596 0.74699998 -0.011787659 1.1347313e-38 324 249
0.0065486995 0.74699998 -0.011787659 1.1255117e-38 325 249
0.0078584393 0.74699998 -0.011787659 1.0979253e-38 326 249
0.0091927266 0.74900001 -0.01181922 1.125548e-38 327 249
0.010505973 0.74900001 -0.01181922 1.1440227e-38 328 249
0.01181922 0.74900001 -0.01181922 1.1348032e-38 329 249
0.01315 0.75 -0.011835 1.1438061e-38 330 249
0.014503572 0.75199997 -0.011866559 1.0977083e-38 331 249
0.015822079 0.75199997 -0.011866559 1.106748e-38 332 249
0.017140586 0.75199997 -0.011866559 1.0975285e-38 333 249
0.018508185 0.75400001 -0.01189812 1.0883091e-38 334 249
0.0198565 0.755 -0.011913899 1.0422114e-38 335 249
0.021348584 0.76099998 -0.012008579 9.2268077e-39 336 249
0.02271268 0.76200002 -0.01202436 8.1208189e-39 337 249
0.024269639 0.76899999 -0.012134819 7.0151916e-39 338 249
0.025617953 0.76899999 -0.012134819 7.7527566e-39 339 249
0.026966266 0.76899999 -0.012134819 1.0232302e-38 340 249
0.028388219 0.77100003 -0.01216638 1.2168411e-38 341 249
0.029817186 0.773 -0.012197939 1.1530921e-38 342 249
-0.020172099 0.76700002 -0.013448066 1.3559279e-38 305 250
-0.018827293 0.76700002 -0.013448066 1.2548384e-38 306 250
-0.017414106 0.764 -0.013395466 1.2087765e-38 307 250
-0.01603248 0.76200002 -0.0133604 1.1075427e-38 308 250
-0.014677152 0.76099998 -0.013342866 9.6002972e-39 309 250
-0.0133078 0.759 -0.0133078 6.5654042e-39 310 250
-0.01194546 0.75700003 -0.013272733 5.366861e-39 311 250
-0.010590133 0.755 -0.013237666 5.6402193e-39 312 250
-0.0092540924 0.75400001 -0.013220133 5.4561882e-39 313 250
-0.00793208 0.75400001 -0.013220133 5.3693777e-39 314 250
-0.0066100666 0.75400001 -0.013220133 7.7664641e-39 315 250
-0.0052880533 0.75400001 -0.013220133 1.0615881e-38 316 250
-0.00396604 0.75400001 -0.013220133 1.1445642e-38 317 250
-0.0026370131 0.75199997 -0.013185065 1.1997367e-38 318 250
-0.0013185065 0.75199997 -0.013185065 1.2181759e-38 319 250
0 0.75199997 -0.013185065 1.2824964e-38 320 250
0.001315 0.75 -0.01315 1.2640214e-38 321 250
0.00263 0.75 -0.01315 1.1442027e-38 322 250
0.003945 0.75 -0.01315 1.0704462e-38 323 250
0.0052529867 0.74900001 -0.013132467 1.0794858e-38 324 250
0.0065662335 0.74900001 -0.013132467 1.0702662e-38 325 250
0.0079110395 0.75199997 -0.013185065 1.0702662e-38 326 250
0.0092049995 0.75 -0.01315 1.0887055e-38 327 250
0.01052 0.75 -0.01315 1.0702662e-38 328 250
0.011866559 0.75199997 -0.013185065 1.0610467e-38 329 250
0.013220133 0.75400001 -0.013220133 1.0517912e-38 330 250
0.014503572 0.75199997 -0.013185065 1.0517912e-38 331 250
0.015822079 0.75199997 -0.013185065 1.0517549e-38 332 250
0.017186172 0.75400001 -0.013220133 1.0517549e-38 333 250
0.018581826 0.75700003 -0.013272733 1.0424984e-38 334 250
0.0199617 0.759 -0.0133078 9.8718114e-39 335 250
0.02137664 0.76200002 -0.0133604 8.6739899e-39 336 250
0.022831906 0.76599997 -0.013430533 7.9364248e-39 337 250
0.024269639 0.76899999 -0.013483133 8.3037654e-39 338 250
0.025617953 0.76899999 -0.013483133 9.5019499e-39 339 250
0.026966266 0.76899999 -0.013483133 1.0789778e-38 340 250
0.028388219 0.77100003 -0.013518199 1.1896126e-38 341 250
0.029817186 0.773 -0.013553266 1.1991896e-38 342 250
-0.018827293 0.76700002 -0.014792874 1.4850021e-38 306 251
-0.017414106 0.764 -0.014735013 1.383587e-38 307 251
-0.01603248 0.76200002 -0.01469644 1.1811901e-38 308 251
-0.01469644 0.76200002 -0.01469644 1.0336771e-38 309 251
-0.013342866 0.76099998 -0.014677152 8.1287642e-39 310 251
-0.01197702 0.759 -0.014638579 7.2990022e-39 311 251
-0.010618187 0.75700003 -0.014600007 7.2961351e-39 312 251
-0.0092663663 0.755 -0.014561433 6.5582113e-39 313 251
-0.0079425992 0.755 -0.014561433 4.9995176e-39 314 251
-0.0066188332 0.755 -0.014561433 6.9356259e-39 315 251
-0.0052950666 0.755 -0.014561433 9.0525184e-39 316 251
-0.00396604 0.75400001 -0.014542146 9.9744747e-39 317 251
-0.0026440267 0.75400001 -0.014542146 1.0801712e-38 318 251
-0.0013220133 0.75400001 -0.014542146 1.1170853e-38 319 251
0 0.75400001 -0.014542146 1.1996292e-38 320 251
0.0013220133 0.75400001 -0.014542146 1.1719705e-38 321 251
0.0026440267 0.75400001 -0.014542146 1.1074689e-38 322 251
0.00396604 0.75400001 -0.014542146 1.0244569e-38 323 251
0.0052880533 0.75400001 -0.014542146 1.0244205e-38 324 251
0.0066100666 0.75400001 -0.014542146 1.0336401e-38 325 251
0.00793208 0.75400001 -0.014542146 1.0519713e-38 326 251
0.0092540924 0.75400001 -0.014542146 1.0704106e-38 327 251
0.010576107 0.75400001 -0.014542146 1.0795578e-38 328 251
0.01189812 0.75400001 -0.014542146 1.0795578e-38 329 251
0.013237666 0.755 -0.014561433 1.0336398e-38 330 251
0.014561433 0.755 -0.014561433 1.0059811e-38 331 251
0.015885198 0.755 -0.014561433 1.0150206e-38 332 251
0.017300138 0.759 -0.014638579 1.0150206e-38 333 251
0.01870456 0.76200002 -0.01469644 1.005764e-38 334 251
0.0200406 0.76200002 -0.01469644 9.5048253e-39 335 251
0.021432746 0.764 -0.014735013 8.7665358e-39 336 251
0.022861714 0.76700002 -0.014792874 8.7665358e-39 337 251
0.024269639 0.76899999 -0.014831445 9.9618322e-39 338 251
0.02568458 0.77100003 -0.01487002 1.0791593e-38 339 251
0.027106533 0.773 -0.014908593 1.0702602e-38 340 251
0.028461859 0.773 -0.014908593 1.116358e-38 341 251
0.029817186 0.773 -0.014908593 1.2451432e-38 342 251
-0.018974574 0.773 -0.016263919 1.4759971e-38 306 252
-0.017459691 0.76599997 -0.016116638 1.4759971e-38 307 252
-0.016116638 0.76599997 -0.016116638 1.3561447e-38 308 252
-0.014735013 0.764 -0.016074561 1.2270708e-38 309 252
-0.0133604 0.76200002 -0.01603248 1.0244575e-38 310 252
-0.012008579 0.76099998 -0.016011439 8.6772493e-39 311 252
-0.01064624 0.759 -0.015969358 8.4921518e-39 312 252
-0.0092909131 0.75700003 -0.015927281 8.0315323e-39 313 252
-0.0079636406 0.75700003 -0.015927281 6.7461983e-39 314 252
-0.0066188332 0.755 -0.015885198 7.7603517e-39 315 252
-0.0052950666 0.755 -0.015885198 8.3163981e-39 316 252
-0.0039712996 0.755 -0.015885198 9.4223869e-39 317 252
-0.0026475333 0.755 -0.015885198 1.015779e-38 318 252
-0.0013237667 0.755 -0.015885198 1.0434378e-38 319 252
0 0.755 -0.015885198 1.0525849e-38 320 252
0.0013237667 0.755 -0.015885198 1.0341099e-38 321 252
0.0026475333 0.755 -0.015885198 1.0708077e-38 322 252
0.0039712996 0.755 -0.015885198 1.0154903e-38 323 252
0.0052950666 0.755 -0.015885198 9.9705062e-39 324 252
0.0066363667 0.75700003 -0.015927281 9.9705062e-39 325 252
0.0079425992 0.755 -0.015885198 9.8786665e-39 326 252
0.0092663663 0.755 -0.015885198 9.9708622e-39 327 252
0.010590133 0.755 -0.015885198 1.0613708e-38 328 252
0.011913899 0.755 -0.015885198 1.0890293e-38 329 252
0.013272733 0.75700003 -0.015927281 1.0795578e-38 330 252
0.014638579 0.759 -0.015969358 9.8739806e-39 331 252
0.015969358 0.759 -0.015969358 9.9676125e-39 332 252
0.017345725 0.76099998 -0.016011439 9.9676125e-39 333 252
0.01870456 0.76200002 -0.01603248 1.0700846e-38 334 252
