# .PCD v.7 - Point Cloud Data file format
FIELDS x y z rgb imX imY
SIZE 4 4 4 4 4 4
TYPE F F F F F F
COUNT 1 1 1 1 1 1
WIDTH 836
HEIGHT 1
VIEWPOINT 0 0 0 1 0 0 0
POINTS 836
DATA ascii
0.0024055731 0.68599999 -0.022852944 1.180792e-38 322 259
0.00359784 0.68400002 -0.022786319 1.2084146e-38 323 259
0.0047901068 0.68300003 -0.022753006 1.1808636e-38 324 259
0.005978866 0.68199998 -0.022719691 1.190119e-38 325 259
0.00717464 0.68199998 -0.022719691 1.3280509e-38 326 259
0.0083458666 0.68000001 -0.022653066 1.2174162e-38 327 259
0.0095100794 0.67799997 -0.022586439 9.8771545e-39 328 259
0.01066728 0.676 -0.022519812 9.1395895e-39 329 259
0.011852534 0.676 -0.022519812 9.0480847e-39 330 259
0.013037786 0.676 -0.022519812 8.8633333e-39 331 259
0.014202001 0.67500001 -0.022486499 8.3151692e-39 332 259
0.0153855 0.67500001 -0.022486499 8.2229735e-39 333 259
0.016569 0.67500001 -0.022486499 8.5910302e-39 334 259
0.0177525 0.67500001 -0.022486499 8.5910302e-39 335 259
0.018907947 0.67400002 -0.022453187 9.2374506e-39 336 259
0.020089693 0.67400002 -0.022453187 9.2374506e-39 337 259
0.021271439 0.67400002 -0.022453187 8.9608062e-39 338 259
0.022386558 0.67199999 -0.022386558 8.5920237e-39 339 259
0.023564799 0.67199999 -0.022386558 8.2264516e-39 340 259
0.024743039 0.67199999 -0.022386558 7.8580334e-39 341 259
0.025921278 0.67199999 -0.022386558 7.4910501e-39 342 259
0.027099518 0.67199999 -0.022386558 7.4910501e-39 343 259
0.02827776 0.67199999 -0.022386558 7.7658391e-39 344 259
0.029455997 0.67199999 -0.022386558 7.7658391e-39 345 259
0.030634239 0.67199999 -0.022386558 7.9491514e-39 346 259
0.031812478 0.67199999 -0.022386558 7.9491514e-39 347 259
0.033088908 0.67400002 -0.022453187 8.5919999e-39 348 259
0.034270655 0.67400002 -0.022453187 8.5919999e-39 349 259
0.035452399 0.67400002 -0.022453187 9.0504599e-39 350 259
0.036634147 0.67400002 -0.022453187 8.9582657e-39 351 259
0.037815895 0.67400002 -0.022453187 7.9473802e-39 352 259
0.038997639 0.67400002 -0.022453187 9.5147059e-39 353 259
0.040238999 0.67500001 -0.022486499 1.1992933e-38 354 259
0.041483864 0.676 -0.022519812 1.3098922e-38 355 259
0.042669121 0.676 -0.022519812 1.3372678e-38 356 259
0.043984115 0.67799997 -0.022586439 1.2911701e-38 357 259
0.045172878 0.67799997 -0.022586439 9.8756804e-39 358 259
0.046361636 0.67799997 -0.022586439 8.2158003e-39 359 259
0.047620531 0.67900002 -0.022619752 6.5609074e-39 360 259
0.048811045 0.67900002 -0.022619752 7.2062768e-39 361 259
0.050075196 0.68000001 -0.022653066 8.6770937e-39 362 259
0.051418249 0.68199998 -0.022719691 1.0336614e-38 363 259
0.05276832 0.68400002 -0.022786319 1.1898584e-38 364 259
0.054204296 0.68699998 -0.022886258 1.2267725e-38 365 259
0.055408835 0.68699998 -0.022886258 1.3093928e-38 366 259
0.056613375 0.68699998 -0.022886258 1.3186125e-38 367 259
0.057817914 0.68699998 -0.022886258 1.5672891e-38 368 259
0.059022456 0.68699998 -0.022886258 1.8807543e-38 369 259
-0.0048672534 0.69400001 -0.024336265 1.6227522e-38 316 260
-0.0036504399 0.69400001 -0.024336265 1.5582153e-38 317 260
-0.0024336267 0.69400001 -0.024336265 1.5215543e-38 318 260
-0.0012115532 0.69099998 -0.024231065 1.4754563e-38 319 260
0 0.69099998 -0.024231065 1.1991585e-38 320 260
0.0012097999 0.69 -0.024195999 1.1807192e-38 321 260
0.0024090798 0.68699998 -0.024090799 1.1808638e-38 322 260
0.00360836 0.68599999 -0.024055731 1.1900834e-38 323 260
0.0047901068 0.68300003 -0.023950534 1.2084146e-38 324 260
0.0059876335 0.68300003 -0.023950534 1.2268896e-38 325 260
0.00717464 0.68199998 -0.023915464 1.3004645e-38 326 260
0.0083458666 0.68000001 -0.023845334 1.1990133e-38 327 260
0.0095100794 0.67799997 -0.023775198 9.9689998e-39 328 260
0.010698839 0.67799997 -0.023775198 9.0470435e-39 329 260
0.011852534 0.676 -0.023705067 8.8633599e-39 330 260
0.013037786 0.676 -0.023705067 8.7711643e-39 331 260
0.014202001 0.67500001 -0.023669999 8.5867534e-39 332 260
0.0153855 0.67500001 -0.023669999 9.0477316e-39 333 260
0.016569 0.67500001 -0.023669999 8.7729229e-39 334 260
0.0177525 0.67500001 -0.023669999 9.0491511e-39 335 260
0.018935999 0.67500001 -0.023669999 9.327498e-39 336 260
0.020119499 0.67500001 -0.023669999 9.2353024e-39 337 260
0.021271439 0.67400002 -0.023634933 8.6849452e-39 338 260
0.022453187 0.67400002 -0.023634933 8.5001938e-39 339 260
0.023634933 0.67400002 -0.023634933 7.7661979e-39 340 260
0.024743039 0.67199999 -0.023564799 7.7661979e-39 341 260
0.025921278 0.67199999 -0.023564799 7.4910501e-39 342 260
0.027099518 0.67199999 -0.023564799 7.4910501e-39 343 260
0.02827776 0.67199999 -0.023564799 7.6743624e-39 344 260
0.029455997 0.67199999 -0.023564799 7.6743624e-39 345 260
0.030725412 0.67400002 -0.023634933 8.0402694e-39 346 260
0.03190716 0.67400002 -0.023634933 8.3168521e-39 347 260
0.033088908 0.67400002 -0.023634933 8.5916411e-39 348 260
0.034270655 0.67400002 -0.023634933 8.6838354e-39 349 260
0.035505001 0.67500001 -0.023669999 9.1422954e-39 350 260
0.036688499 0.67500001 -0.023669999 8.7738772e-39 351 260
0.037871998 0.67500001 -0.023669999 8.039964e-39 352 260
0.039055496 0.67500001 -0.023669999 1.0621442e-38 353 260
0.040298611 0.676 -0.023705067 1.3740003e-38 354 260
0.041483864 0.676 -0.023705067 1.38322e-38 355 260
0.042669121 0.676 -0.023705067 1.199189e-38 356 260
0.043984115 0.67799997 -0.023775198 1.0148337e-38 357 260
0.045172878 0.67799997 -0.023775198 7.0204619e-39 358 260
0.046430022 0.67900002 -0.023810266 6.4672881e-39 359 260
0.047620531 0.67900002 -0.023810266 5.8261968e-39 360 260
0.048811045 0.67900002 -0.023810266 6.8403474e-39 361 260
0.050075196 0.68000001 -0.023845334 9.7823805e-39 362 260
0.051418249 0.68199998 -0.023915464 1.1073119e-38 363 260
0.05292261 0.68599999 -0.024055731 1.3002804e-38 364 260
0.054283202 0.68800002 -0.024125867 1.3279392e-38 365 260
0.055489492 0.68800002 -0.024125867 1.3276171e-38 366 260
0.056695789 0.68800002 -0.024125867 1.2538606e-38 367 260
0.057902083 0.68800002 -0.024125867 1.53963e-38 368 260
0.059108373 0.68800002 -0.024125867 1.880754e-38 369 260
-0.0048812795 0.69599998 -0.025626717 1.5859816e-38 316 261
-0.0036504399 0.69400001 -0.025553079 1.5214447e-38 317 261
-0.0024336267 0.69400001 -0.025553079 1.4848556e-38 318 261
-0.00121506 0.69300002 -0.02551626 1.4571611e-38 319 261
0 0.69099998 -0.025442619 1.2175976e-38 320 261
0.0012097999 0.69 -0.025405798 1.1807192e-38 321 261
0.0024125867 0.68800002 -0.02533216 1.2083427e-38 322 261
0.00360836 0.68599999 -0.025258519 1.2268177e-38 323 261
0.0047971201 0.68400002 -0.025184879 1.2085225e-38 324 261
0.0059876335 0.68300003 -0.02514806 1.2269615e-38 325 261
0.00717464 0.68199998 -0.025111238 1.3282673e-38 326 261
0.0083458666 0.68000001 -0.025037598 1.2268881e-38 327 261
0.0095381327 0.68000001 -0.025037598 1.0612574e-38 328 261
0.010698839 0.67799997 -0.024963958 9.3218354e-39 329 261
0.011852534 0.676 -0.024890319 8.8637285e-39 330 261
0.013037786 0.676 -0.024890319 8.8637285e-39 331 261
0.014223038 0.676 -0.024890319 9.0473812e-39 332 261
0.015408293 0.676 -0.024890319 8.9548255e-39 333 261
0.016569 0.67500001 -0.0248535 8.7725726e-39 334 261
0.0177525 0.67500001 -0.0248535 8.7725726e-39 335 261
0.018935999 0.67500001 -0.0248535 8.5917308e-39 336 261
0.020119499 0.67500001 -0.0248535 8.4995352e-39 337 261
0.021303 0.67500001 -0.0248535 8.4097834e-39 338 261
0.022486499 0.67500001 -0.0248535 8.1328378e-39 339 261
0.023634933 0.67400002 -0.024816679 7.8587508e-39 340 261
0.024816679 0.67400002 -0.024816679 7.7665566e-39 341 261
0.025998428 0.67400002 -0.024816679 7.4910501e-39 342 261
0.027180174 0.67400002 -0.024816679 7.5832443e-39 343 261
0.02836192 0.67400002 -0.024816679 7.6743624e-39 344 261
0.029543666 0.67400002 -0.024816679 7.6743624e-39 345 261
0.030725412 0.67400002 -0.024816679 8.3161347e-39 346 261
0.03190716 0.67400002 -0.024816679 8.5927173e-39 347 261
0.033137999 0.67500001 -0.0248535 9.4178019e-39 348 261
0.034321502 0.67500001 -0.0248535 9.4178019e-39 349 261
0.035505001 0.67500001 -0.0248535 8.8664302e-39 350 261
0.036742851 0.676 -0.024890319 8.7742359e-39 351 261
0.037928104 0.676 -0.024890319 9.5100788e-39 352 261
0.039113361 0.676 -0.024890319 1.2275588e-38 353 261
0.040298611 0.676 -0.024890319 1.4017326e-38 354 261
0.041606598 0.67799997 -0.024963958 1.3464511e-38 355 261
0.042795356 0.67799997 -0.024963958 9.7856497e-39 356 261
0.043984115 0.67799997 -0.024963958 6.9272251e-39 357 261
0.045172878 0.67799997 -0.024963958 6.2846695e-39 358 261
0.046361636 0.67799997 -0.024963958 6.5616151e-39 359 261
0.047620531 0.67900002 -0.025000781 7.2980983e-39 360 261
0.048811045 0.67900002 -0.025000781 8.3126104e-39 361 261
0.050075196 0.68000001 -0.025037598 1.1069549e-38 362 261
0.051795214 0.68699998 -0.025295338 1.2268092e-38 363 261
0.052999757 0.68699998 -0.025295338 1.3830066e-38 364 261
0.054283202 0.68800002 -0.02533216 1.3092501e-38 365 261
0.055408835 0.68699998 -0.025295338 1.1619893e-38 366 261
0.056613375 0.68699998 -0.025295338 1.208087e-38 367 261
0.057817914 0.68699998 -0.025295338 1.5946953e-38 368 261
0.059022456 0.68699998 -0.025295338 1.9358193e-38 369 261
-0.0048812795 0.69599998 -0.026847038 1.5767623e-38 316 262
-0.0036504399 0.69400001 -0.026769891 1.4937504e-38 317 262
-0.0024336267 0.69400001 -0.026769891 1.4664165e-38 318 262
-0.00121506 0.69300002 -0.02673132 1.4848556e-38 319 262
0 0.69300002 -0.02673132 1.3005014e-38 320 262
0.0012115532 0.69099998 -0.026654173 1.245184e-38 321 262
0.0024195998 0.69 -0.026615599 1.2268177e-38 322 262
0.0036136196 0.68699998 -0.026499879 1.2452209e-38 323 262
0.0048111463 0.68599999 -0.026461305 1.2269615e-38 324 262
0.0059964 0.68400002 -0.02638416 1.2361812e-38 325 262
0.0071851597 0.68300003 -0.026345588 1.3007528e-38 326 262
0.0083704125 0.68199998 -0.026307013 1.2639105e-38 327 262
0.0095381327 0.68000001 -0.026229866 1.079517e-38 328 262
0.0107304 0.68000001 -0.026229866 9.4122359e-39 329 262
0.011887599 0.67799997 -0.026152719 9.0473939e-39 330 262
0.013076359 0.67799997 -0.026152719 9.0473939e-39 331 262
0.014265119 0.67799997 -0.026152719 8.8637159e-39 332 262
0.015453878 0.67799997 -0.026152719 8.8637159e-39 333 262
0.016593546 0.676 -0.026075572 8.7718635e-39 334 262
0.017778801 0.676 -0.026075572 8.7718635e-39 335 262
0.018964052 0.676 -0.026075572 8.6828475e-39 336 262
0.020149305 0.676 -0.026075572 8.4988163e-39 337 262
0.021303 0.67500001 -0.026037 8.2253922e-39 338 262
0.022486499 0.67500001 -0.026037 8.0406422e-39 339 262
0.023669999 0.67500001 -0.026037 7.7665566e-39 340 262
0.024816679 0.67400002 -0.025998428 7.7665566e-39 341 262
0.025998428 0.67400002 -0.025998428 7.4910501e-39 342 262
0.027220501 0.67500001 -0.026037 7.5832443e-39 343 262
0.028404001 0.67500001 -0.026037 7.8569572e-39 344 262
0.0295875 0.67500001 -0.026037 8.0413456e-39 345 262
0.030771 0.67500001 -0.026037 8.6838354e-39 346 262
0.031954501 0.67500001 -0.026037 8.9600607e-39 347 262
0.033187091 0.676 -0.026075572 9.3259762e-39 348 262
0.034372345 0.676 -0.026075572 9.2337806e-39 349 262
0.035557602 0.676 -0.026075572 8.7742696e-39 350 262
0.036742851 0.676 -0.026075572 9.3274433e-39 351 262
0.037928104 0.676 -0.026075572 1.1164966e-38 352 262
0.039113361 0.676 -0.026075572 1.3101074e-38 353 262
0.040417835 0.67799997 -0.026152719 1.3282279e-38 354 262
0.041606598 0.67799997 -0.026152719 1.1899345e-38 355 262
0.042795356 0.67799997 -0.026152719 7.9435098e-39 356 262
0.043984115 0.67799997 -0.026152719 5.5464234e-39 357 262
0.045172878 0.67799997 -0.026152719 7.6643865e-39 358 262
0.046361636 0.67799997 -0.026152719 9.047321e-39 359 262
0.047620531 0.67900002 -0.026191294 1.0336666e-38 360 262
0.048811045 0.67900002 -0.026191294 1.0798004e-38 361 262
0.05029612 0.68300003 -0.026345588 1.16206e-38 362 262
0.051795214 0.68699998 -0.026499879 1.2265969e-38 363 262
0.052999757 0.68699998 -0.026499879 1.3460209e-38 364 262
0.054283202 0.68800002 -0.026538454 1.1524101e-38 365 262
0.055408835 0.68699998 -0.026499879 9.6848571e-39 366 262
0.056613375 0.68699998 -0.026499879 1.2542922e-38 367 262
0.057817914 0.68699998 -0.026499879 1.6500124e-38 368 262
0.059022456 0.68699998 -0.026499879 1.9450744e-38 369 262
-0.0061015999 0.69599998 -0.028067358 1.7791962e-38 315 263
-0.0048812795 0.69599998 -0.028067358 1.6318642e-38 316 263
-0.0036504399 0.69400001 -0.027986705 1.5397046e-38 317 263
-0.0024336267 0.69400001 -0.027986705 1.475708e-38 318 263
-0.0012168133 0.69400001 -0.027986705 1.5033668e-38 319 263
0 0.69300002 -0.027946379 1.4570898e-38 320 263
0.00121506 0.69300002 -0.027946379 1.3740777e-38 321 263
0.0024231065 0.69099998 -0.027865725 1.2635881e-38 322 263
0.0036188802 0.68800002 -0.027744746 1.2543685e-38 323 263
0.0048181596 0.68699998 -0.027704418 1.226854e-38 324 263
0.0060139326 0.68599999 -0.027664091 1.226854e-38 325 263
0.0071851597 0.68300003 -0.027543113 1.2914263e-38 326 263
0.0083704125 0.68199998 -0.027502786 1.2729872e-38 327 263
0.009566186 0.68199998 -0.027502786 1.1255075e-38 328 263
0.0107304 0.68000001 -0.027422134 1.0056532e-38 329 263
0.011905133 0.67900002 -0.027381808 9.5069301e-39 330 263
0.013076359 0.67799997 -0.027341479 9.5069301e-39 331 263
0.014265119 0.67799997 -0.027341479 9.1392209e-39 332 263
0.015453878 0.67799997 -0.027341479 9.1392209e-39 333 263
0.016642639 0.67799997 -0.027341479 8.7722167e-39 334 263
0.017778801 0.676 -0.027260827 8.5878254e-39 335 263
0.018964052 0.676 -0.027260827 8.4076927e-39 336 263
0.020149305 0.676 -0.027260827 8.3154971e-39 337 263
0.021334561 0.676 -0.027260827 8.0420771e-39 338 263
0.022519812 0.676 -0.027260827 7.9498815e-39 339 263
0.023705067 0.676 -0.027260827 7.8587508e-39 340 263
0.0248535 0.67500001 -0.027220501 7.8587508e-39 341 263
0.026037 0.67500001 -0.027220501 7.5828856e-39 342 263
0.027220501 0.67500001 -0.027220501 7.5828856e-39 343 263
0.028404001 0.67500001 -0.027220501 8.0406282e-39 344 263
0.0295875 0.67500001 -0.027220501 8.2253768e-39 345 263
0.030816587 0.676 -0.027260827 9.6936867e-39 346 263
0.032001842 0.676 -0.027260827 9.6014897e-39 347 263
0.033187091 0.676 -0.027260827 9.2330771e-39 348 263
0.034372345 0.676 -0.027260827 9.4174684e-39 349 263
0.035557602 0.676 -0.027260827 1.0245845e-38 350 263
0.036851559 0.67799997 -0.027341479 1.1444388e-38 351 263
0.038040318 0.67799997 -0.027341479 1.272909e-38 352 263
0.039229076 0.67799997 -0.027341479 1.3467014e-38 353 263
0.040417835 0.67799997 -0.027341479 1.2270285e-38 354 263
0.041606598 0.67799997 -0.027341479 1.0518208e-38 355 263
0.042858478 0.67900002 -0.027381808 8.8640368e-39 356 263
0.044048995 0.67900002 -0.027381808 8.4034187e-39 357 263
0.045239504 0.67900002 -0.027381808 1.060928e-38 358 263
0.046430022 0.67900002 -0.027381808 1.1069899e-38 359 263
0.047620531 0.67900002 -0.027381808 1.208229e-38 360 263
0.049026705 0.68199998 -0.027502786 1.208229e-38 361 263
0.05029612 0.68300003 -0.027543113 1.1251833e-38 362 263
0.051795214 0.68699998 -0.027704418 1.1159637e-38 363 263
0.052999757 0.68699998 -0.027704418 1.134188e-38 364 263
0.054283202 0.68800002 -0.027744746 9.3135761e-39 365 263
0.055408835 0.68699998 -0.027704418 8.946939e-39 366 263
0.056613375 0.68699998 -0.027704418 1.3464525e-38 367 263
0.057817914 0.68699998 -0.027704418 1.6869267e-38 368 263
-0.0048953067 0.69800001 -0.029371841 1.613533e-38 316 264
-0.0036504399 0.69400001 -0.029203519 1.5674353e-38 317 264
-0.0024336267 0.69400001 -0.029203519 1.4848921e-38 318 264
-0.0012168133 0.69400001 -0.029203519 1.4756724e-38 319 264
0 0.69400001 -0.029203519 1.4570542e-38 320 264
0.00121506 0.69300002 -0.029161438 1.4017368e-38 321 264
0.0024231065 0.69099998 -0.029077278 1.2543685e-38 322 264
0.0036293997 0.69 -0.029035198 1.245149e-38 323 264
0.0048181596 0.68699998 -0.028908957 1.2175626e-38 324 264
0.0060139326 0.68599999 -0.02886688 1.2267822e-38 325 264
0.0071956799 0.68400002 -0.02878272 1.2361092e-38 326 264
0.0083826864 0.68300003 -0.028740639 1.263732e-38 327 264
0.009566186 0.68199998 -0.02869856 1.1532032e-38 328 264
0.010761959 0.68199998 -0.02869856 1.0978858e-38 329 264
0.011922667 0.68000001 -0.028614398 1.0150504e-38 330 264
0.013095647 0.67900002 -0.028572321 9.505135e-39 331 264
0.01428616 0.67900002 -0.028572321 9.2303404e-39 332 264
0.015453878 0.67799997 -0.028530238 9.322536e-39 333 264
0.016642639 0.67799997 -0.028530238 8.4963557e-39 334 264
0.0178314 0.67799997 -0.028530238 8.2197688e-39 335 264
0.019020159 0.67799997 -0.028530238 8.4069738e-39 336 264
0.020208918 0.67799997 -0.028530238 8.4069738e-39 337 264
0.021334561 0.676 -0.028446076 8.4087044e-39 338 264
0.022519812 0.676 -0.028446076 8.2246733e-39 339 264
0.023705067 0.676 -0.028446076 8.0417044e-39 340 264
0.024890319 0.676 -0.028446076 8.0417044e-39 341 264
0.026075572 0.676 -0.028446076 8.0413484e-39 342 264
0.027260827 0.676 -0.028446076 8.1335441e-39 343 264
0.028446076 0.676 -0.028446076 8.6834935e-39 344 264
0.029631332 0.676 -0.028446076 8.9604405e-39 345 264
0.030816587 0.676 -0.028446076 9.8770018e-39 346 264
0.032001842 0.676 -0.028446076 9.5082193e-39 347 264
0.033187091 0.676 -0.028446076 8.4951744e-39 348 264
0.034372345 0.676 -0.028446076 9.601882e-39 349 264
0.0356628 0.67799997 -0.028530238 1.2178045e-38 350 264
0.036851559 0.67799997 -0.028530238 1.310036e-38 351 264
0.038040318 0.67799997 -0.028530238 1.3649272e-38 352 264
0.039229076 0.67799997 -0.028530238 1.3464522e-38 353 264
0.040477451 0.67900002 -0.028572321 1.2177006e-38 354 264
0.041667968 0.67900002 -0.028572321 1.0978463e-38 355 264
0.042858478 0.67900002 -0.028572321 1.0703659e-38 356 264
0.044048995 0.67900002 -0.028572321 1.1164278e-38 357 264
0.045239504 0.67900002 -0.028572321 1.1896458e-38 358 264
0.046430022 0.67900002 -0.028572321 1.1251088e-38 359 264
0.047690667 0.68000001 -0.028614398 1.2081944e-38 360 264
0.049098592 0.68300003 -0.028740639 1.2081944e-38 361 264
0.050517038 0.68599999 -0.02886688 1.0974895e-38 362 264
0.051870614 0.68800002 -0.028951041 1.0421722e-38 363 264
0.053076908 0.68800002 -0.028951041 9.4979842e-39 364 264
0.054283202 0.68800002 -0.028951041 8.2997997e-39 365 264
0.055408835 0.68699998 -0.028908957 9.1317016e-39 366 264
0.056613375 0.68699998 -0.028908957 1.3925876e-38 367 264
0.057817914 0.68699998 -0.028908957 1.7330252e-38 368 264
-0.0048953067 0.69800001 -0.030595668 1.5859463e-38 316 265
-0.0036714801 0.69800001 -0.030595668 1.5306648e-38 317 265
-0.0024441467 0.69700003 -0.030551834 1.4941119e-38 318 265
-0.0012203199 0.69599998 -0.030507999 1.429575e-38 319 265
0 0.69599998 -0.030507999 1.2268891e-38 320 265
0.0012168133 0.69400001 -0.030420333 1.2268891e-38 321 265
0.00243012 0.69300002 -0.0303765 1.2358938e-38 322 265
0.0036293997 0.69 -0.030244999 1.2451134e-38 323 265
0.0048251734 0.68800002 -0.030157333 1.2451853e-38 324 265
0.0060226996 0.68699998 -0.030113498 1.2451853e-38 325 265
0.0072167199 0.68599999 -0.030069664 1.2362888e-38 326 265
0.0083949603 0.68400002 -0.029982001 1.2362888e-38 327 265
0.0095802136 0.68300003 -0.029938167 1.2084853e-38 328 265
0.010761959 0.68199998 -0.029894331 1.1623874e-38 329 265
0.011957732 0.68199998 -0.029894331 1.0241994e-38 330 265
0.013114933 0.68000001 -0.029806666 8.951255e-39 331 265
0.014307199 0.68000001 -0.029806666 7.5737057e-39 332 265
0.015476674 0.67900002 -0.029762832 8.3116295e-39 333 265
0.016642639 0.67799997 -0.029718997 8.3112581e-39 334 265
0.0178314 0.67799997 -0.029718997 8.2190625e-39 335 265
0.019020159 0.67799997 -0.029718997 8.8658248e-39 336 265
0.020208918 0.67799997 -0.029718997 9.0498573e-39 337 265
0.021397678 0.67799997 -0.029718997 8.7757339e-39 338 265
0.022586439 0.67799997 -0.029718997 8.4065913e-39 339 265
0.023775198 0.67799997 -0.029718997 8.4072793e-39 340 265
0.024890319 0.676 -0.029631332 8.4072793e-39 341 265
0.026075572 0.676 -0.029631332 8.408001e-39 342 265
0.027260827 0.676 -0.029631332 8.5923936e-39 343 265
0.028446076 0.676 -0.029631332 9.2352477e-39 344 265
0.029631332 0.676 -0.029631332 9.3274433e-39 345 265
0.030907756 0.67799997 -0.029718997 9.6008059e-39 346 265
0.03209652 0.67799997 -0.029718997 9.324219e-39 347 265
0.033285279 0.67799997 -0.029718997 9.6022954e-39 348 265
0.034474038 0.67799997 -0.029718997 1.1261457e-38 349 265
0.0356628 0.67799997 -0.029718997 1.3651042e-38 350 265
0.036905911 0.67900002 -0.029762832 1.3743237e-38 351 265
0.038096428 0.67900002 -0.029762832 1.364855e-38 352 265
0.039286941 0.67900002 -0.029762832 1.3371962e-38 353 265
0.040477451 0.67900002 -0.029762832 1.3188647e-38 354 265
0.041667968 0.67900002 -0.029762832 1.3003897e-38 355 265
0.042858478 0.67900002 -0.029762832 1.1341858e-38 356 265
0.044113863 0.68000001 -0.029806666 8.5763488e-39 357 265
0.045306131 0.68000001 -0.029806666 7.2859911e-39 358 265
0.046498399 0.68000001 -0.029806666 8.3005032e-39 359 265
0.047901068 0.68300003 -0.029938167 1.1436962e-38 360 265
0.049314249 0.68599999 -0.030069664 1.106854e-38 361 265
0.050590675 0.68699998 -0.030113498 9.223198e-39 362 265
0.051870614 0.68800002 -0.030157333 9.223198e-39 363 265
0.053076908 0.68800002 -0.030157333 9.9553708e-39 364 265
0.054440998 0.69 -0.030244999 9.4021984e-39 365 265
0.055408835 0.68699998 -0.030113498 1.0142611e-38 366 265
0.056613375 0.68699998 -0.030113498 1.4752392e-38 367 265
0.057817914 0.68699998 -0.030113498 1.7422085e-38 368 265
-0.0061366665 0.69999999 -0.031910665 1.8251861e-38 315 266
-0.0049093333 0.69999999 -0.031910665 1.6044213e-38 316 266
-0.0036819996 0.69999999 -0.031910665 1.5398844e-38 317 266
-0.0024476533 0.69800001 -0.031819493 1.4848924e-38 318 266
-0.0012238267 0.69800001 -0.031819493 1.4203554e-38 319 266
0 0.69599998 -0.031728316 1.1623527e-38 320 266
0.0012168133 0.69400001 -0.031637147 1.1715723e-38 321 266
0.00243012 0.69300002 -0.031591557 1.2358941e-38 322 266
0.0036346598 0.69099998 -0.031500384 1.2543332e-38 323 266
0.0048251734 0.68800002 -0.031363625 1.2268543e-38 324 266
0.0060314666 0.68800002 -0.031363625 1.2452936e-38 325 266
0.0072272392 0.68699998 -0.031318039 1.254692e-38 326 266
0.0084195063 0.68599999 -0.031272452 1.2823867e-38 327 266
0.0095942402 0.68400002 -0.03118128 1.2363597e-38 328 266
0.01077774 0.68300003 -0.031135695 1.2178846e-38 329 266
0.011975267 0.68300003 -0.031135695 1.180789e-38 330 266
0.013172794 0.68300003 -0.031135695 1.0517151e-38 331 266
0.01434928 0.68199998 -0.031090107 9.2296369e-39 332 266
0.015499466 0.68000001 -0.030998932 8.8612131e-39 333 266
0.016691733 0.68000001 -0.030998932 7.5751406e-39 334 266
0.017857701 0.67900002 -0.030953348 7.6673377e-39 335 266
0.019048214 0.67900002 -0.030953348 9.3246898e-39 336 266
0.020208918 0.67799997 -0.030907756 9.5090825e-39 337 266
0.021397678 0.67799997 -0.030907756 9.2335269e-39 338 266
0.022586439 0.67799997 -0.030907756 8.3115692e-39 339 266
0.023775198 0.67799997 -0.030907756 7.5786327e-39 340 266
0.024963958 0.67799997 -0.030907756 7.9474152e-39 341 266
0.026152719 0.67799997 -0.030907756 8.4991442e-39 342 266
0.027341479 0.67799997 -0.030907756 8.7757311e-39 343 266
0.028530238 0.67799997 -0.030907756 9.327093e-39 344 266
0.029718997 0.67799997 -0.030907756 9.327093e-39 345 266
0.030907756 0.67799997 -0.030907756 9.231687e-39 346 266
0.03209652 0.67799997 -0.030907756 1.0154002e-38 347 266
0.033285279 0.67799997 -0.030907756 1.1534843e-38 348 266
0.034474038 0.67799997 -0.030907756 1.2641189e-38 349 266
0.035715401 0.67900002 -0.030953348 1.3832937e-38 350 266
0.036905911 0.67900002 -0.030953348 1.3187568e-38 351 266
0.038096428 0.67900002 -0.030953348 1.0614739e-38 352 266
0.039286941 0.67900002 -0.030953348 1.098388e-38 353 266
0.040537067 0.68000001 -0.030998932 1.3465256e-38 354 266
0.041729335 0.68000001 -0.030998932 1.3741483e-38 355 266
0.042921599 0.68000001 -0.030998932 1.0513567e-38 356 266
0.044243611 0.68199998 -0.031090107 5.2584159e-39 357 266
0.045439381 0.68199998 -0.031090107 4.9829347e-39 358 266
0.04670354 0.68300003 -0.031135695 6.3658691e-39 359 266
0.048111461 0.68599999 -0.031272452 1.0237721e-38 360 266
0.049386136 0.68699998 -0.031318039 1.0145526e-38 361 266
0.050664321 0.68800002 -0.031363625 7.9310312e-39 362 266
0.052096792 0.69099998 -0.031500384 8.2998123e-39 363 266
0.053308345 0.69099998 -0.031500384 9.4057899e-39 364 266
0.054677699 0.69300002 -0.031591557 9.5901826e-39 365 266
0.055892758 0.69300002 -0.031591557 1.1243554e-38 366 266
0.057107817 0.69300002 -0.031591557 1.5392357e-38 367 266
-0.0061454331 0.70099998 -0.03318534 1.8068902e-38 315 267
-0.0049163462 0.70099998 -0.03318534 1.6411193e-38 316 267
-0.0036819996 0.69999999 -0.033137999 1.5397043e-38 317 267
-0.0024546667 0.69999999 -0.033137999 1.4663812e-38 318 267
-0.0012238267 0.69800001 -0.033043321 1.4387227e-38 319 267
0 0.69700003 -0.03299598 1.1991588e-38 320 267
0.0012203199 0.69599998 -0.032948639 1.2083783e-38 321 267
0.0024336267 0.69400001 -0.032853961 1.2267824e-38 322 267
0.0036451798 0.69300002 -0.03280662 1.2451855e-38 323 267
0.0048391996 0.69 -0.032664597 1.2451855e-38 324 267
0.0060314666 0.68800002 -0.032569919 1.2267824e-38 325 267
0.0072272392 0.68699998 -0.032522578 1.2179945e-38 326 267
0.0084317802 0.68699998 -0.032522578 1.3470684e-38 327 267
0.0096222926 0.68599999 -0.032475237 1.3929857e-38 328 267
0.01079352 0.68400002 -0.032380559 1.3929857e-38 329 267
0.0119928 0.68400002 -0.032380559 1.4020958e-38 330 267
0.013172794 0.68300003 -0.032333218 1.3560339e-38 331 267
0.014370319 0.68300003 -0.032333218 1.3466688e-38 332 267
0.015545053 0.68199998 -0.032285877 1.2545092e-38 333 267
0.016740825 0.68199998 -0.032285877 1.1072108e-38 334 267
0.017883999 0.68000001 -0.032191198 1.0426738e-38 335 267
0.019048214 0.67900002 -0.032143861 1.0427813e-38 336 267
0.020238725 0.67900002 -0.032143861 1.0612206e-38 337 267
0.021429239 0.67900002 -0.032143861 1.0428145e-38 338 267
0.022619752 0.67900002 -0.032143861 8.7686223e-39 339 267
0.023775198 0.67799997 -0.03209652 7.3924884e-39 340 267
0.024963958 0.67799997 -0.03209652 7.6687151e-39 341 267
0.026152719 0.67799997 -0.03209652 8.3126202e-39 342 267
0.027341479 0.67799997 -0.03209652 8.865794e-39 343 267
0.028530238 0.67799997 -0.03209652 9.3267399e-39 344 267
0.029762832 0.67900002 -0.032143861 9.4189355e-39 345 267
0.030953348 0.67900002 -0.032143861 9.6930435e-39 346 267
0.032143861 0.67900002 -0.032143861 1.0983782e-38 347 267
0.033334374 0.67900002 -0.032143861 1.1530915e-38 348 267
0.034524884 0.67900002 -0.032143861 9.4104156e-39 349 267
0.035715401 0.67900002 -0.032143861 6.3680047e-39 350 267
0.036905911 0.67900002 -0.032143861 5.9992208e-39 351 267
0.038152531 0.68000001 -0.032191198 1.3235152e-39 352 267
0.039344799 0.68000001 -0.032191198 5.6563511e-39 353 267
0.040537067 0.68000001 -0.032191198 1.3097207e-38 354 267
0.041729335 0.68000001 -0.032191198 1.3465988e-38 355 267
0.043047838 0.68199998 -0.032285877 1.0512861e-38 356 267
0.044243611 0.68199998 -0.032285877 6.1793072e-39 357 267
0.045506012 0.68300003 -0.032333218 6.7317874e-39 358 267
0.04670354 0.68300003 -0.032333218 7.5611879e-39 359 267
0.048181597 0.68699998 -0.032522578 1.0142656e-38 360 267
0.049458027 0.68800002 -0.032569919 1.0142656e-38 361 267
0.050811596 0.69 -0.032664597 8.7575535e-39 362 267
0.052021399 0.69 -0.032664597 8.7575535e-39 363 267
0.053231198 0.69 -0.032664597 9.4965352e-39 364 267
0.054519895 0.69099998 -0.032711938 1.1156417e-38 365 267
0.055892758 0.69300002 -0.03280662 1.2357081e-38 366 267
0.057107817 0.69300002 -0.03280662 1.4385387e-38 367 267
-0.0061629666 0.70300001 -0.034512613 1.7885224e-38 315 268
-0.0049303733 0.70300001 -0.034512613 1.613533e-38 316 268
-0.0036872597 0.70099998 -0.034414422 1.4936786e-38 317 268
-0.0024546667 0.69999999 -0.034365334 1.4480144e-38 318 268
-0.0012273333 0.69999999 -0.034365334 1.4387948e-38 319 268
0 0.69700003 -0.034218054 1.1991951e-38 320 268
0.0012203199 0.69599998 -0.034168959 1.1991951e-38 321 268
0.0024336267 0.69400001 -0.034070771 1.2267824e-38 322 268
0.0036451798 0.69300002 -0.034021679 1.2451855e-38 323 268
0.0048462129 0.69099998 -0.033923492 1.2085228e-38 324 268
0.0060577663 0.69099998 -0.033923492 1.1993033e-38 325 268
0.0072377604 0.68800002 -0.033776212 1.2821711e-38 326 268
0.0084317802 0.68699998 -0.033727121 1.4020255e-38 327 268
0.0096222926 0.68599999 -0.033678025 1.3929138e-38 328 268
0.010825079 0.68599999 -0.033678025 1.3929138e-38 329 268
0.0119928 0.68400002 -0.033579841 1.4388667e-38 330 268
0.01319208 0.68400002 -0.033579841 1.4388667e-38 331 268
0.014370319 0.68300003 -0.033530746 1.4112788e-38 332 268
0.015567848 0.68300003 -0.033530746 1.3928395e-38 333 268
0.016765373 0.68300003 -0.033530746 1.3374127e-38 334 268
0.017936599 0.68199998 -0.03348165 1.2636562e-38 335 268
0.019132372 0.68199998 -0.03348165 1.1993708e-38 336 268
0.020268533 0.68000001 -0.033383466 1.1993708e-38 337 268
0.0214608 0.68000001 -0.033383466 1.2083376e-38 338 268
0.022653066 0.68000001 -0.033383466 1.0147267e-38 339 268
0.023810266 0.67900002 -0.033334374 7.1170113e-39 340 268
0.025000781 0.67900002 -0.033334374 7.946772e-39 341 268
0.026191294 0.67900002 -0.033334374 9.5082921e-39 342 268
0.027381808 0.67900002 -0.033334374 9.4160965e-39 343 268
0.028572321 0.67900002 -0.033334374 8.4083807e-39 344 268
0.029762832 0.67900002 -0.033334374 8.5005764e-39 345 268
0.030998932 0.68000001 -0.033383466 9.6941379e-39 346 268
0.032191198 0.68000001 -0.033383466 1.1445855e-38 347 268
0.033383466 0.68000001 -0.033383466 1.2725165e-38 348 268
0.034575731 0.68000001 -0.033383466 9.7749046e-39 349 268
0.035767999 0.68000001 -0.033383466 4.344035e-39 350 268
0.037068974 0.68199998 -0.03348165 4.8972088e-39 351 268
0.038264744 0.68199998 -0.03348165 5.6337047e-39 352 268
0.039460517 0.68199998 -0.03348165 8.8605517e-39 353 268
0.040656291 0.68199998 -0.03348165 1.1986549e-38 354 268
0.041852064 0.68199998 -0.03348165 1.1617407e-38 355 268
0.043047838 0.68199998 -0.03348165 9.6791567e-39 356 268
0.044243611 0.68199998 -0.03348165 6.9132878e-39 357 268
0.045506012 0.68300003 -0.033530746 6.637445e-39 358 268
0.046908677 0.68599999 -0.033678025 6.637445e-39 359 268
0.048251733 0.68800002 -0.033776212 8.3931038e-39 360 268
0.049601797 0.69 -0.0338744 9.591647e-39 361 268
0.050811596 0.69 -0.0338744 8.7600646e-39 362 268
0.052021399 0.69 -0.0338744 9.0370116e-39 363 268
0.053231198 0.69 -0.0338744 1.0509951e-38 364 268
0.054519895 0.69099998 -0.033923492 1.2538255e-38 365 268
0.055892758 0.69300002 -0.034021679 1.3095001e-38 366 268
0.057107817 0.69300002 -0.034021679 1.4662685e-38 367 268
-0.0074797203 0.71100003 -0.036151983 1.9267442e-38 314 269
-0.0061980332 0.70700002 -0.035948593 1.7976703e-38 315 269
-0.0049584266 0.70700002 -0.035948593 1.6318639e-38 316 269
-0.0037030398 0.704 -0.035796054 1.5397043e-38 317 269
-0.0024581731 0.70099998 -0.035643511 1.4756724e-38 318 269
-0.0012273333 0.69999999 -0.035592664 1.4480497e-38 319 269
0 0.69800001 -0.035490975 1.1992307e-38 320 269
0.0012220733 0.69700003 -0.035440128 1.1807917e-38 321 269
0.0024406398 0.69599998 -0.035389278 1.2267824e-38 322 269
0.0036504399 0.69400001 -0.035287585 1.2451855e-38 323 269
0.00486024 0.69300002 -0.035236739 1.2085225e-38 324 269
0.0060577663 0.69099998 -0.035135046 1.2361812e-38 325 269
0.0072587994 0.69 -0.035084199 1.3372723e-38 326 269
0.0084440531 0.68800002 -0.03498251 1.3649311e-38 327 269
0.0096363192 0.68699998 -0.034931656 1.2730951e-38 328 269
0.010840859 0.68699998 -0.034931656 1.2546559e-38 329 269
0.012045399 0.68699998 -0.034931656 1.3006812e-38 330 269
0.013230653 0.68599999 -0.034880809 1.346779e-38 331 269
0.01439136 0.68400002 -0.03477912 1.3561057e-38 332 269
0.01559064 0.68400002 -0.03477912 1.3837646e-38 333 269
0.016765373 0.68300003 -0.034728274 1.4571964e-38 334 269
0.017962901 0.68300003 -0.034728274 1.4110986e-38 335 269
0.019132372 0.68199998 -0.034677424 1.337522e-38 336 269
0.020328145 0.68199998 -0.034677424 1.3744001e-38 337 269
0.021523919 0.68199998 -0.034677424 1.4201023e-38 338 269
0.022653066 0.68000001 -0.034575731 1.1526991e-38 339 269
0.023845334 0.68000001 -0.034575731 7.3929144e-39 340 269
0.025037598 0.68000001 -0.034575731 1.0066588e-38 341 269
0.026229866 0.68000001 -0.034575731 1.2269146e-38 342 269
0.027422134 0.68000001 -0.034575731 1.088621e-38 343 269
0.02869856 0.68199998 -0.034677424 8.131068e-39 344 269
0.029894331 0.68199998 -0.034677424 8.0388723e-39 345 269
0.031090107 0.68199998 -0.034677424 9.5104599e-39 346 269
0.032285877 0.68199998 -0.034677424 1.1170341e-38 347 269
0.03348165 0.68199998 -0.034677424 1.4108825e-38 348 269
0.034677424 0.68199998 -0.034677424 1.189577e-38 349 269
0.035873197 0.68199998 -0.034677424 5.634055e-39 350 269
0.037068974 0.68199998 -0.034677424 6.5556512e-39 351 269
0.038264744 0.68199998 -0.034677424 1.0876621e-38 352 269
0.039460517 0.68199998 -0.034677424 1.0507838e-38 353 269
0.040656291 0.68199998 -0.034677424 8.7571976e-39 354 269
0.041852064 0.68199998 -0.034677424 6.8210893e-39 355 269
0.043110959 0.68300003 -0.034728274 6.4498083e-39 356 269
0.044308487 0.68300003 -0.034728274 6.4498083e-39 357 269
0.045705888 0.68599999 -0.034880809 6.635294e-39 358 269
0.047045439 0.68800002 -0.03498251 6.0821202e-39 359 269
0.048391998 0.69 -0.035084199 7.1023706e-39 360 269
0.049673684 0.69099998 -0.035135046 8.1161624e-39 361 269
0.051032521 0.69300002 -0.035236739 8.8504624e-39 362 269
0.052096792 0.69099998 -0.035135046 1.0233756e-38 363 269
0.053308345 0.69099998 -0.035135046 1.189576e-38 364 269
0.054519895 0.69099998 -0.035135046 1.2909552e-38 365 269
0.055731449 0.69099998 -0.035135046 1.3094998e-38 366 269
0.056942999 0.69099998 -0.035135046 1.4846714e-38 367 269
-0.0074797203 0.71100003 -0.037398599 1.8807543e-38 314 270
-0.0062243328 0.70999998 -0.037345998 1.7793031e-38 315 270
-0.0049584266 0.70700002 -0.037188202 1.6503389e-38 316 270
-0.0037135598 0.70599997 -0.037135597 1.5858021e-38 317 270
-0.0024651866 0.70300001 -0.036977798 1.4941472e-38 318 270
-0.0012290865 0.70099998 -0.036872596 1.4480494e-38 319 270
0 0.69999999 -0.036819998 1.1899388e-38 320 270
0.0012238267 0.69800001 -0.0367148 1.1899388e-38 321 270
0.0024441467 0.69700003 -0.036662199 1.2267822e-38 322 270
0.0036609597 0.69599998 -0.036609598 1.2451853e-38 323 270
0.0048672534 0.69400001 -0.036504399 1.2268896e-38 324 270
0.0060753003 0.69300002 -0.036451802 1.2453289e-38 325 270
0.0072693196 0.69099998 -0.036346599 1.3097931e-38 326 270
0.0084686 0.69 -0.036293998 1.3282324e-38 327 270
0.0096503468 0.68800002 -0.0361888 1.2637673e-38 328 270
0.010840859 0.68699998 -0.036136195 1.2176695e-38 329 270
0.012045399 0.68699998 -0.036136195 1.2176698e-38 330 270
0.013249939 0.68699998 -0.036136195 1.2361089e-38 331 270
0.01443344 0.68599999 -0.036083598 1.2544757e-38 332 270
0.015636226 0.68599999 -0.036083598 1.2636954e-38 333 270
0.016789921 0.68400002 -0.035978399 1.2729506e-38 334 270
0.0179892 0.68400002 -0.035978399 1.2913897e-38 335 270
0.019160427 0.68300003 -0.035925802 1.3007165e-38 336 270
0.020357953 0.68300003 -0.035925802 1.3836927e-38 337 270
0.021523919 0.68199998 -0.035873197 1.4755286e-38 338 270
0.022719691 0.68199998 -0.035873197 1.2173808e-38 339 270
0.023915464 0.68199998 -0.035873197 8.7726272e-39 340 270
0.025111238 0.68199998 -0.035873197 1.1538498e-38 341 270
0.026307013 0.68199998 -0.035873197 1.3833623e-38 342 270
0.027502786 0.68199998 -0.035873197 1.2542884e-38 343 270
0.02869856 0.68199998 -0.035873197 9.6919449e-39 344 270
0.029894331 0.68199998 -0.035873197 8.7703487e-39 345 270
0.031090107 0.68199998 -0.035873197 8.6832244e-39 346 270
0.032285877 0.68199998 -0.035873197 1.0988114e-38 347 270
0.03348165 0.68199998 -0.035873197 1.420354e-38 348 270
0.034677424 0.68199998 -0.035873197 1.2267432e-38 349 270
0.035873197 0.68199998 -0.035873197 5.1763167e-39 350 270
0.037123326 0.68300003 -0.035925802 6.1901098e-39 351 270
0.038320854 0.68300003 -0.035925802 1.0972414e-38 352 270
0.039518382 0.68300003 -0.035925802 1.0511434e-38 353 270
0.040715907 0.68300003 -0.035925802 8.5738881e-39 354 270
0.041913435 0.68300003 -0.035925802 5.9924105e-39 355 270
0.043110959 0.68300003 -0.035925802 5.8980764e-39 356 270
0.04437336 0.68400002 -0.035978399 6.5434459e-39 357 270
0.045839146 0.68800002 -0.0361888 6.729635e-39 358 270
0.047182199 0.69 -0.036293998 7.1906131e-39 359 270
0.04846213 0.69099998 -0.036346599 6.3680383e-39 360 270
0.049817458 0.69300002 -0.036451802 7.1056048e-39 361 270
0.051106159 0.69400001 -0.036504399 9.7752955e-39 362 270
0.052322973 0.69400001 -0.036504399 1.115823e-38 363 270
0.053539783 0.69400001 -0.036504399 1.3185774e-38 364 270
0.054756597 0.69400001 -0.036504399 1.3185774e-38 365 270
0.055973411 0.69400001 -0.036504399 1.2083723e-38 366 270
0.056695789 0.68800002 -0.0361888 1.4296058e-38 367 270
-0.0074797203 0.71100003 -0.038645219 1.8897583e-38 314 271
-0.0062243328 0.70999998 -0.038590867 1.8067823e-38 315 271
-0.0049654399 0.708 -0.038482159 1.6319725e-38 316 271
-0.0037188199 0.70700002 -0.038427804 1.5674356e-38 317 271
-0.0024686933 0.704 -0.038264744 1.530846e-38 318 271
-0.0012290865 0.70099998 -0.038101684 1.4755286e-38 319 271
0 0.70099998 -0.038101684 1.2083781e-38 320 271
0.0012238267 0.69800001 -0.037938625 1.1622802e-38 321 271
0.0024476533 0.69800001 -0.037938625 1.2451134e-38 322 271
0.0036609597 0.69599998 -0.037829921 1.2543688e-38 323 271
0.0048672534 0.69400001 -0.037721213 1.2176345e-38 324 271
0.0060753003 0.69300002 -0.037666857 1.2360736e-38 325 271
0.0072693196 0.69099998 -0.03755815 1.2914263e-38 326 271
0.0084686 0.69 -0.037503798 1.3098656e-38 327 271
0.0096783992 0.69 -0.037503798 1.2546559e-38 328 271
0.010856641 0.68800002 -0.037395094 1.1993386e-38 329 271
0.012045399 0.68699998 -0.037340738 1.162497e-38 330 271
0.013249939 0.68699998 -0.037340738 1.1440578e-38 331 271
0.014454478 0.68699998 -0.037340738 1.1622808e-38 332 271
0.015636226 0.68599999 -0.037286382 1.1622808e-38 333 271
0.016839013 0.68599999 -0.037286382 1.1255467e-38 334 271
0.0179892 0.68400002 -0.037177678 1.1808641e-38 335 271
0.01918848 0.68400002 -0.037177678 1.2639474e-38 336 271
0.020357953 0.68300003 -0.037123326 1.3561432e-38 337 271
0.02155548 0.68300003 -0.037123326 1.4756727e-38 338 271
0.022753006 0.68300003 -0.037123326 1.2267446e-38 339 271
0.023950534 0.68300003 -0.037123326 9.5998894e-39 340 271
0.02514806 0.68300003 -0.037123326 1.2089171e-38 341 271
0.026307013 0.68199998 -0.037068974 1.4294286e-38 342 271
0.027502786 0.68199998 -0.037068974 1.355672e-38 343 271
0.028740639 0.68300003 -0.037123326 1.1623426e-38 344 271
0.029938167 0.68300003 -0.037123326 1.0517078e-38 345 271
0.031135695 0.68300003 -0.037123326 1.0061508e-38 346 271
0.032333218 0.68300003 -0.037123326 1.1905421e-38 347 271
0.033530746 0.68300003 -0.037123326 1.4295381e-38 348 271
0.034728274 0.68300003 -0.037123326 1.2267076e-38 349 271
0.035925802 0.68300003 -0.037123326 5.267083e-39 350 271
0.037123326 0.68300003 -0.037123326 6.1890407e-39 351 271
0.038320854 0.68300003 -0.037123326 1.0696918e-38 352 271
0.039518382 0.68300003 -0.037123326 1.0144103e-38 353 271
0.040775519 0.68400002 -0.037177678 9.0352292e-39 354 271
0.041974798 0.68400002 -0.037177678 6.1775234e-39 355 271
0.043300316 0.68599999 -0.037286382 5.7147614e-39 356 271
0.044567976 0.68699998 -0.037340738 6.2679338e-39 357 271
0.045839146 0.68800002 -0.037395094 7.9296033e-39 358 271
0.047182199 0.69 -0.037503798 8.851561e-39 359 271
0.048602402 0.69300002 -0.037666857 7.7513273e-39 360 271
0.049817458 0.69300002 -0.037666857 8.1201098e-39 361 271
0.051106159 0.69400001 -0.037721213 1.1435896e-38 362 271
0.052322973 0.69400001 -0.037721213 1.2541885e-38 363 271
0.053462639 0.69300002 -0.037666857 1.3646748e-38 364 271
0.054283202 0.68800002 -0.037395094 1.318613e-38 365 271
0.055489492 0.68800002 -0.037395094 1.1806416e-38 366 271
0.056695789 0.68800002 -0.037395094 1.4572285e-38 367 271
-0.0074797203 0.71100003 -0.039891839 1.8989782e-38 314 272
-0.0062330998 0.71100003 -0.039891839 1.7975271e-38 315 272
-0.0049794666 0.70999998 -0.039835732 1.5399564e-38 316 272
-0.00372408 0.708 -0.039723519 1.4661997e-38 317 272
-0.0024757064 0.70599997 -0.039611302 1.5215545e-38 318 272
-0.0012343467 0.704 -0.039499093 1.5215545e-38 319 272
0 0.70099998 -0.039330769 1.3097212e-38 320 272
0.0012273333 0.69999999 -0.039274666 1.2359289e-38 321 272
0.0024476533 0.69800001 -0.039162453 1.245149e-38 322 272
0.00366622 0.69700003 -0.039106347 1.245149e-38 323 272
0.0048812795 0.69599998 -0.039050236 1.2083433e-38 324 272
0.0060840664 0.69400001 -0.038938027 1.1990879e-38 325 272
0.0072903596 0.69300002 -0.03888192 1.208595e-38 326 272
0.008480873 0.69099998 -0.038769703 1.2362538e-38 327 272
0.0096783992 0.69 -0.038713597 1.1900837e-38 328 272
0.010856641 0.68800002 -0.038601387 1.1439859e-38 329 272
0.012062933 0.68800002 -0.038601387 1.1991235e-38 330 272
0.013269227 0.68800002 -0.038601387 1.208343e-38 331 272
0.014454478 0.68699998 -0.038545277 1.2267098e-38 332 272
0.015659019 0.68699998 -0.038545277 1.245149e-38 333 272
0.016839013 0.68599999 -0.03848917 1.1991951e-38 334 272
0.018041799 0.68599999 -0.03848917 1.2084146e-38 335 272
0.019244585 0.68599999 -0.03848917 1.2546557e-38 336 272
0.020387759 0.68400002 -0.038376961 1.3560348e-38 337 272
0.02158704 0.68400002 -0.038376961 1.4665255e-38 338 272
0.022753006 0.68300003 -0.038320854 1.2084137e-38 339 272
0.023950534 0.68300003 -0.038320854 9.4144261e-39 340 272
0.02514806 0.68300003 -0.038320854 1.1995904e-38 341 272
0.026345588 0.68300003 -0.038320854 1.3927676e-38 342 272
0.027543113 0.68300003 -0.038320854 1.3743285e-38 343 272
0.028740639 0.68300003 -0.038320854 1.3466304e-38 344 272
0.029938167 0.68300003 -0.038320854 1.3005325e-38 345 272
0.031135695 0.68300003 -0.038320854 1.2821657e-38 346 272
0.032333218 0.68300003 -0.038320854 1.3282635e-38 347 272
0.033530746 0.68300003 -0.038320854 1.4386502e-38 348 272
0.034728274 0.68300003 -0.038320854 1.2173808e-38 349 272
0.035925802 0.68300003 -0.038320854 5.6340704e-39 350 272
0.037177678 0.68400002 -0.038376961 6.0024942e-39 351 272
0.038376961 0.68400002 -0.038376961 8.4863896e-39 352 272
0.03957624 0.68400002 -0.038376961 8.5785852e-39 353 272
0.040775519 0.68400002 -0.038376961 9.0348761e-39 354 272
0.042097531 0.68599999 -0.03848917 6.3612028e-39 355 272
0.043300316 0.68599999 -0.03848917 5.4381703e-39 356 272
0.044632856 0.68800002 -0.038601387 6.3604867e-39 357 272
0.045972396 0.69 -0.038713597 8.9466279e-39 358 272
0.047250576 0.69099998 -0.038769703 1.0974932e-38 359 272
0.048602402 0.69300002 -0.03888192 1.1991585e-38 360 272
0.049817458 0.69300002 -0.03888192 1.2175976e-38 361 272
0.051106159 0.69400001 -0.038938027 1.3370187e-38 362 272
0.052322973 0.69400001 -0.038938027 1.3277991e-38 363 272
0.053462639 0.69300002 -0.03888192 1.3370161e-38 364 272
0.054283202 0.68800002 -0.038601387 1.2909183e-38 365 272
0.055489492 0.68800002 -0.038601387 1.2356719e-38 366 272
0.056695789 0.68800002 -0.038601387 1.5398816e-38 367 272
-0.0062506334 0.713 -0.041254178 1.7609e-38 315 273
-0.0049794666 0.70999998 -0.041080594 1.5122254e-38 316 273
-0.00372408 0.708 -0.040964879 1.3923711e-38 317 273
-0.0024792133 0.70700002 -0.040907022 1.4296106e-38 318 273
-0.0012378532 0.70599997 -0.040849157 1.5033671e-38 319 273
0 0.70300001 -0.040675577 1.4295034e-38 320 273
0.0012290865 0.70099998 -0.040559858 1.3372717e-38 321 273
0.0024476533 0.69800001 -0.040386278 1.2543688e-38 322 273
0.00366622 0.69700003 -0.040328421 1.2543688e-38 323 273
0.0048812795 0.69599998 -0.040270556 1.1532424e-38 324 273
0.0060840664 0.69400001 -0.040154841 1.1532424e-38 325 273
0.0072903596 0.69300002 -0.04009698 1.171789e-38 326 273
0.0085054198 0.69300002 -0.04009698 1.1810086e-38 327 273
0.0096924258 0.69099998 -0.039981257 1.1163638e-38 328 273
0.010888199 0.69 -0.0399234 1.0518268e-38 329 273
0.012097999 0.69 -0.0399234 1.0976735e-38 330 273
0.013269227 0.68800002 -0.039807681 1.1529909e-38 331 273
0.014475521 0.68800002 -0.039807681 1.1806486e-38 332 273
0.015659019 0.68699998 -0.039749816 1.1898682e-38 333 273
0.01686356 0.68699998 -0.039749816 1.1440212e-38 334 273
0.018068098 0.68699998 -0.039749816 1.171644e-38 335 273
0.019272638 0.68699998 -0.039749816 1.1901906e-38 336 273
0.020447372 0.68599999 -0.039691959 1.2916418e-38 337 273
0.021650158 0.68599999 -0.039691959 1.4205718e-38 338 273
0.022852944 0.68599999 -0.039691959 1.1808992e-38 339 273
0.024055731 0.68599999 -0.039691959 8.7722937e-39 340 273
0.025184879 0.68400002 -0.03957624 1.1353771e-38 341 273
0.02638416 0.68400002 -0.03957624 1.3467784e-38 342 273
0.027583439 0.68400002 -0.03957624 1.3560339e-38 343 273
0.028740639 0.68300003 -0.039518382 1.4110623e-38 344 273
0.029938167 0.68300003 -0.039518382 1.4110623e-38 345 273
0.031135695 0.68300003 -0.039518382 1.3650365e-38 346 273
0.032380559 0.68400002 -0.03957624 1.3558168e-38 347 273
0.033579841 0.68400002 -0.03957624 1.4109919e-38 348 273
0.03477912 0.68400002 -0.03957624 1.198942e-38 349 273
0.035978399 0.68400002 -0.03957624 4.8057559e-39 350 273
0.037177678 0.68400002 -0.03957624 4.8979515e-39 351 273
0.03848917 0.68599999 -0.039691959 6.919787e-39 352 273
0.039691959 0.68599999 -0.039691959 8.1183302e-39 353 273
0.040894743 0.68599999 -0.039691959 8.6714857e-39 354 273
0.042158898 0.68699998 -0.039749816 6.2747581e-39 355 273
0.043363437 0.68699998 -0.039749816 4.9865374e-39 356 273
0.044632856 0.68800002 -0.039807681 7.4754593e-39 357 273
0.046039023 0.69099998 -0.039981257 1.0973123e-38 358 273
0.047387339 0.69300002 -0.04009698 1.2540088e-38 359 273
0.048672531 0.69400001 -0.040154841 1.3277991e-38 360 273
0.049889345 0.69400001 -0.040154841 1.3277991e-38 361 273
0.051253434 0.69599998 -0.040270556 1.3001396e-38 362 273
0.052473757 0.69599998 -0.040270556 1.3001396e-38 363 273
0.053539783 0.69400001 -0.040154841 1.3001732e-38 364 273
0.054756597 0.69400001 -0.040154841 1.2264167e-38 365 273
0.055973411 0.69400001 -0.040154841 1.1346158e-38 366 273
0.057931885 0.70300001 -0.040675577 1.5033982e-38 367 273
-0.0062243328 0.70999998 -0.042325463 1.7792675e-38 315 274
-0.0049794666 0.70999998 -0.042325463 1.4938586e-38 316 274
-0.00372408 0.708 -0.042206239 1.2910282e-38 317 274
-0.0024792133 0.70700002 -0.042146627 1.2914979e-38 318 274
-0.0012378532 0.70599997 -0.042087011 1.4205718e-38 319 274
0 0.704 -0.041967787 1.5676535e-38 320 274
0.0012290865 0.70099998 -0.041788943 1.42936e-38 321 274
0.0024546667 0.69999999 -0.041729331 1.1439862e-38 322 274
0.0036714801 0.69800001 -0.041610107 1.1439862e-38 323 274
0.0048882933 0.69700003 -0.041550495 1.1716093e-38 324 274
0.0061015999 0.69599998 -0.041490879 1.1808288e-38 325 274
0.0073008798 0.69400001 -0.041371655 1.1810083e-38 326 274
0.0085054198 0.69300002 -0.041312039 1.1810083e-38 327 274
0.0097204801 0.69300002 -0.041312039 1.0702306e-38 328 274
0.01090398 0.69099998 -0.041192811 8.9509495e-39 329 274
0.012097999 0.69 -0.041133199 9.3183027e-39 330 274
0.0133078 0.69 -0.041133199 9.3183027e-39 331 274
0.014475521 0.68800002 -0.041013971 9.3183027e-39 332 274
0.015681813 0.68800002 -0.041013971 9.7792808e-39 333 274
0.01686356 0.68699998 -0.040954359 9.8739778e-39 334 274
0.018068098 0.68699998 -0.040954359 1.0980325e-38 335 274
0.019272638 0.68699998 -0.040954359 1.1994102e-38 336 274
0.020477179 0.68699998 -0.040954359 1.2823864e-38 337 274
0.021681719 0.68699998 -0.040954359 1.3837658e-38 338 274
0.022852944 0.68599999 -0.040894743 1.1440931e-38 339 274
0.024055731 0.68599999 -0.040894743 9.3225935e-39 340 274
0.025258519 0.68599999 -0.040894743 1.1904071e-38 341 274
0.026461305 0.68599999 -0.040894743 1.3559264e-38 342 274
0.027664091 0.68599999 -0.040894743 1.3374873e-38 343 274
0.02878272 0.68400002 -0.040775519 1.3467774e-38 344 274
0.029982001 0.68400002 -0.040775519 1.337522e-38 345 274
0.03118128 0.68400002 -0.040775519 1.3466691e-38 346 274
0.032380559 0.68400002 -0.040775519 1.3558888e-38 347 274
0.033579841 0.68400002 -0.040775519 1.4110636e-38 348 274
0.03477912 0.68400002 -0.040775519 1.1621714e-38 349 274
0.035978399 0.68400002 -0.040775519 4.6231597e-39 350 274
0.037286382 0.68599999 -0.040894743 4.6231597e-39 351 274
0.03848917 0.68599999 -0.040894743 7.1059803e-39 352 274
