# .PCD v.7 - Point Cloud Data file format
FIELDS x y z rgb imX imY
SIZE 4 4 4 4 4 4
TYPE F F F F F F
COUNT 1 1 1 1 1 1
WIDTH 837
HEIGHT 1
VIEWPOINT 0 0 0 1 0 0 0
POINTS 837
DATA ascii
0.027744746 0.68800002 -0.0361888 1.1897938e-38 343 270
0.029035198 0.69 -0.036293998 1.0055474e-38 344 270
0.030244999 0.69 -0.036293998 1.0148028e-38 345 270
0.031500384 0.69099998 -0.036346599 1.0882722e-38 346 270
0.032711938 0.69099998 -0.036346599 1.1066753e-38 347 270
0.034021679 0.69300002 -0.036451802 1.1434095e-38 348 270
0.035236739 0.69300002 -0.036451802 1.1341898e-38 349 270
0.036504399 0.69400001 -0.036504399 1.1066387e-38 350 270
0.037721213 0.69400001 -0.036504399 1.1527007e-38 351 270
0.038938027 0.69400001 -0.036504399 1.253972e-38 352 270
0.040270556 0.69599998 -0.036609598 1.0511416e-38 353 270
0.041550495 0.69700003 -0.036662199 9.0402486e-39 354 270
0.042833932 0.69800001 -0.0367148 9.3171943e-39 355 270
0.044247117 0.70099998 -0.036872596 9.9600413e-39 356 270
0.045670826 0.704 -0.037030395 1.0421018e-38 357 270
0.047105055 0.70700002 -0.037188202 1.2447509e-38 358 270
0.048413038 0.708 -0.0372408 1.3092878e-38 359 270
0.049794663 0.70999998 -0.037345998 1.2631524e-38 360 270
0.051111419 0.71100003 -0.037398599 1.3830066e-38 361 270
0.052358042 0.71100003 -0.037398599 1.8437308e-38 362 270
0.053604662 0.71100003 -0.037398599 1.8806091e-38 363 270
-0.01371282 0.71100003 -0.038645219 1.7791606e-38 309 271
-0.012448666 0.70999998 -0.038590867 1.4663462e-38 310 271
-0.011156459 0.70700002 -0.038427804 1.4018092e-38 311 271
-0.0099168532 0.70700002 -0.038427804 1.2731684e-38 312 271
-0.0086649731 0.70599997 -0.038373452 1.0795575e-38 313 271
-0.0074271196 0.70599997 -0.038373452 9.2289755e-39 314 271
-0.0061717331 0.704 -0.038264744 8.6758017e-39 315 271
-0.0049303733 0.70300001 -0.038210396 8.9581522e-39 316 271
-0.0036872597 0.70099998 -0.038101684 1.0986456e-38 317 271
-0.0024546667 0.69999999 -0.038047329 1.3653643e-38 318 271
-0.0012238267 0.69800001 -0.037938625 1.4299012e-38 319 271
0 0.69700003 -0.037884273 1.448159e-38 320 271
0.0012203199 0.69599998 -0.037829921 1.466598e-38 321 271
0.0024406398 0.69599998 -0.037829921 1.4667422e-38 322 271
0.0036504399 0.69400001 -0.037721213 1.3469239e-38 323 271
0.0048672534 0.69400001 -0.037721213 1.1807932e-38 324 271
0.0060753003 0.69300002 -0.037666857 1.0609748e-38 325 271
0.0072903596 0.69300002 -0.037666857 1.1067496e-38 326 271
0.008480873 0.69099998 -0.03755815 1.0883105e-38 327 271
0.0096924258 0.69099998 -0.03755815 1.0425001e-38 328 271
0.010888199 0.69 -0.037503798 1.0517196e-38 329 271
0.012097999 0.69 -0.037503798 1.0794492e-38 330 271
0.0133078 0.69 -0.037503798 1.1162916e-38 331 271
0.014475521 0.68800002 -0.037395094 1.1345865e-38 332 271
0.015681813 0.68800002 -0.037395094 1.1253668e-38 333 271
0.016888106 0.68800002 -0.037395094 1.1070717e-38 334 271
0.0180944 0.68800002 -0.037395094 1.162389e-38 335 271
0.019300694 0.68800002 -0.037395094 1.3096491e-38 336 271
0.020506985 0.68800002 -0.037395094 1.3280522e-38 337 271
0.021713281 0.68800002 -0.037395094 1.3373426e-38 338 271
0.022919573 0.68800002 -0.037395094 1.3373426e-38 339 271
0.024125867 0.68800002 -0.037395094 1.3189755e-38 340 271
0.02533216 0.68800002 -0.037395094 1.328231e-38 341 271
0.026615599 0.69 -0.037503798 1.3095763e-38 342 271
0.027825398 0.69 -0.037503798 1.2081613e-38 343 271
0.029077278 0.69099998 -0.03755815 1.0148028e-38 344 271
0.030288832 0.69099998 -0.03755815 1.0240224e-38 345 271
0.031591557 0.69300002 -0.037666857 1.0883438e-38 346 271
0.03280662 0.69300002 -0.037666857 1.0883438e-38 347 271
0.034021679 0.69300002 -0.037666857 1.125078e-38 348 271
0.035236739 0.69300002 -0.037666857 1.1158583e-38 349 271
0.036504399 0.69400001 -0.037721213 1.0881993e-38 350 271
0.037721213 0.69400001 -0.037721213 1.1435167e-38 351 271
0.039106347 0.69700003 -0.037884273 1.2357126e-38 352 271
0.040386278 0.69800001 -0.037938625 1.0236627e-38 353 271
0.041610107 0.69800001 -0.037938625 8.7640205e-39 354 271
0.042956665 0.69999999 -0.038047329 9.3171943e-39 355 271
0.04437336 0.70300001 -0.038210396 1.0144072e-38 356 271
0.04580057 0.70599997 -0.038373452 1.0605411e-38 357 271
0.047105055 0.70700002 -0.038427804 1.2447872e-38 358 271
0.048413038 0.708 -0.038482159 1.3093241e-38 359 271
0.049794663 0.70999998 -0.038590867 1.2263817e-38 360 271
0.051111419 0.71100003 -0.038645219 1.346236e-38 361 271
0.052358042 0.71100003 -0.038645219 1.8620611e-38 362 271
-0.014959441 0.71100003 -0.039891839 1.8806834e-38 308 272
-0.01371282 0.71100003 -0.039891839 1.7331702e-38 309 272
-0.0124662 0.71100003 -0.039891839 1.3650383e-38 310 272
-0.01117224 0.708 -0.039723519 1.3465991e-38 311 272
-0.0099168532 0.70700002 -0.039667413 1.300791e-38 312 272
-0.008677247 0.70700002 -0.039667413 1.1163638e-38 313 272
-0.0074271196 0.70599997 -0.039611302 8.95276e-39 314 272
-0.0061717331 0.704 -0.039499093 7.1088488e-39 315 272
-0.0049303733 0.70300001 -0.039442986 6.8405421e-39 316 272
-0.0036977797 0.70300001 -0.039442986 9.2376285e-39 317 272
-0.0024581731 0.70099998 -0.039330769 1.2364709e-38 318 272
-0.0012273333 0.69999999 -0.039274666 1.3378501e-38 319 272
0 0.69800001 -0.039162453 1.4299002e-38 320 272
0.0012220733 0.69700003 -0.039106347 1.4114252e-38 321 272
0.0024406398 0.69599998 -0.039050236 1.4298999e-38 322 272
0.0036504399 0.69400001 -0.038938027 1.3376683e-38 323 272
0.0048672534 0.69400001 -0.038938027 1.2267824e-38 324 272
0.0060840664 0.69400001 -0.038938027 1.070014e-38 325 272
0.0072903596 0.69300002 -0.03888192 1.0699071e-38 326 272
0.0085054198 0.69300002 -0.03888192 1.0883102e-38 327 272
0.0096924258 0.69099998 -0.038769703 1.0517915e-38 328 272
0.01090398 0.69099998 -0.038769703 1.0610111e-38 329 272
0.012115533 0.69099998 -0.038769703 1.107e-38 330 272
0.0133078 0.69 -0.038713597 1.1346228e-38 331 272
0.014517599 0.69 -0.038713597 1.1345865e-38 332 272
0.015727401 0.69 -0.038713597 1.1161114e-38 333 272
0.0169372 0.69 -0.038713597 1.0703015e-38 334 272
0.018146999 0.69 -0.038713597 1.125583e-38 335 272
0.019356798 0.69 -0.038713597 1.3004658e-38 336 272
0.020566599 0.69 -0.038713597 1.3281604e-38 337 272
0.021776399 0.69 -0.038713597 1.3189758e-38 338 272
0.022986198 0.69 -0.038713597 1.3189758e-38 339 272
0.024195999 0.69 -0.038713597 1.3464547e-38 340 272
0.025405798 0.69 -0.038713597 1.3464547e-38 341 272
0.026615599 0.69 -0.038713597 1.3096488e-38 342 272
0.027865725 0.69099998 -0.038769703 1.1990139e-38 343 272
0.029161438 0.69300002 -0.03888192 1.0055477e-38 344 272
0.0303765 0.69300002 -0.03888192 1.0147672e-38 345 272
0.031591557 0.69300002 -0.03888192 1.0883075e-38 346 272
0.03280662 0.69300002 -0.03888192 1.1251499e-38 347 272
0.034070771 0.69400001 -0.038938027 1.1251852e-38 348 272
0.035287585 0.69400001 -0.038938027 1.1067459e-38 349 272
0.036609598 0.69599998 -0.039050236 1.0973467e-38 350 272
0.037829921 0.69599998 -0.039050236 1.1434446e-38 351 272
0.039106347 0.69700003 -0.039106347 1.2080537e-38 352 272
0.040386278 0.69800001 -0.039162453 1.032882e-38 353 272
0.041729331 0.69999999 -0.039274666 9.0406018e-39 354 272
0.043018032 0.70099998 -0.039330769 9.6859712e-39 355 272
0.044436477 0.704 -0.039499093 1.0421371e-38 356 272
0.04580057 0.70599997 -0.039611302 1.0789795e-38 357 272
0.047105055 0.70700002 -0.039667413 1.2079448e-38 358 272
0.048413038 0.708 -0.039723519 1.2447872e-38 359 272
0.049794663 0.70999998 -0.039835732 1.1526252e-38 360 272
0.051111419 0.71100003 -0.039891839 1.3554555e-38 361 272
0.052358042 0.71100003 -0.039891839 1.8896839e-38 362 272
-0.014959441 0.71100003 -0.041138459 1.8714274e-38 308 273
-0.01371282 0.71100003 -0.041138459 1.7607566e-38 309 273
-0.0124662 0.71100003 -0.041138459 1.3464903e-38 310 273
-0.011203799 0.70999998 -0.041080594 1.3280153e-38 311 273
-0.0099168532 0.70700002 -0.040907022 1.2731684e-38 312 273
-0.008677247 0.70700002 -0.040907022 1.0980325e-38 313 273
-0.0074271196 0.70599997 -0.040849157 9.1371582e-39 314 273
-0.0061717331 0.704 -0.040733438 7.0166587e-39 315 273
-0.0049373866 0.704 -0.040733438 6.1948238e-39 316 273
-0.0036977797 0.70300001 -0.040675577 8.130932e-39 317 273
-0.0024581731 0.70099998 -0.040559858 1.0891386e-38 318 273
-0.0012290865 0.70099998 -0.040559858 1.2274321e-38 319 273
0 0.69999999 -0.040502001 1.3746194e-38 320 273
0.0012238267 0.69800001 -0.040386278 1.4022422e-38 321 273
0.0024441467 0.69700003 -0.040328421 1.3929857e-38 322 273
0.0036609597 0.69599998 -0.040270556 1.3284487e-38 323 273
0.0048672534 0.69400001 -0.040154841 1.2636237e-38 324 273
0.0060840664 0.69400001 -0.040154841 1.1621726e-38 325 273
0.0073008798 0.69400001 -0.040154841 1.0148038e-38 326 273
0.0085054198 0.69300002 -0.04009698 1.0793408e-38 327 273
0.0097204801 0.69300002 -0.04009698 1.1161117e-38 328 273
0.010935539 0.69300002 -0.04009698 1.1253312e-38 329 273
0.012115533 0.69099998 -0.039981257 1.097852e-38 330 273
0.013327086 0.69099998 -0.039981257 1.0794489e-38 331 273
0.014538639 0.69099998 -0.039981257 1.1161119e-38 332 273
0.015727401 0.69 -0.0399234 1.1161119e-38 333 273
0.0169372 0.69 -0.0399234 1.0979604e-38 334 273
0.0181733 0.69099998 -0.039981257 1.125583e-38 335 273
0.019384852 0.69099998 -0.039981257 1.1715723e-38 336 273
0.020596405 0.69099998 -0.039981257 1.263732e-38 337 273
0.021807959 0.69099998 -0.039981257 1.3557467e-38 338 273
0.023019511 0.69099998 -0.039981257 1.3372717e-38 339 273
0.024231065 0.69099998 -0.039981257 1.3373424e-38 340 273
0.025442619 0.69099998 -0.039981257 1.3281228e-38 341 273
0.026654173 0.69099998 -0.039981257 1.3187237e-38 342 273
0.027946379 0.69300002 -0.04009698 1.2265281e-38 343 273
0.029161438 0.69300002 -0.04009698 1.0331338e-38 344 273
0.0303765 0.69300002 -0.04009698 1.0515729e-38 345 273
0.031591557 0.69300002 -0.04009698 1.0977063e-38 346 273
0.032853961 0.69400001 -0.040154841 1.0977063e-38 347 273
0.034070771 0.69400001 -0.040154841 1.1251852e-38 348 273
0.035287585 0.69400001 -0.040154841 1.1159657e-38 349 273
0.036609598 0.69599998 -0.040270556 1.0607202e-38 350 273
0.037884273 0.69700003 -0.040328421 1.0883788e-38 351 273
0.039162453 0.69800001 -0.040386278 1.1896503e-38 352 273
0.040502001 0.69999999 -0.040502001 1.0513567e-38 353 273
0.041729331 0.69999999 -0.040502001 1.014371e-38 354 273
0.043018032 0.70099998 -0.040559858 1.0235905e-38 355 273
0.044436477 0.704 -0.040733438 1.0328817e-38 356 273
0.04580057 0.70599997 -0.040849157 1.0789795e-38 357 273
0.047171678 0.708 -0.040964879 1.198582e-38 358 273
0.048549797 0.70999998 -0.041080594 1.198582e-38 359 273
0.049864799 0.71100003 -0.041138459 1.1893602e-38 360 273
0.051255193 0.713 -0.041254178 1.4198853e-38 361 273
0.052505318 0.713 -0.041254178 1.908087e-38 362 273
-0.014959441 0.71100003 -0.042385083 1.8714993e-38 308 274
-0.01371282 0.71100003 -0.042385083 1.7792678e-38 309 274
-0.0124662 0.71100003 -0.042385083 1.5121548e-38 310 274
-0.01121958 0.71100003 -0.042385083 1.40152e-38 311 274
-0.0099589331 0.70999998 -0.042325463 1.1812607e-38 312 274
-0.008689519 0.708 -0.042206239 1.0429314e-38 313 274
-0.0074271196 0.70599997 -0.042087011 9.2300727e-39 314 274
-0.0061892662 0.70599997 -0.042087011 7.2017689e-39 315 274
-0.0049373866 0.704 -0.041967787 6.3759739e-39 316 274
-0.0036977797 0.70300001 -0.041908171 6.9287889e-39 317 274
-0.0024651866 0.70300001 -0.041908171 8.6826541e-39 318 274
-0.0012290865 0.70099998 -0.041788943 1.0065589e-38 319 274
0 0.69999999 -0.041729331 1.3008998e-38 320 274
0.0012238267 0.69800001 -0.041610107 1.3285586e-38 321 274
0.0024476533 0.69800001 -0.041610107 1.3928788e-38 322 274
0.00366622 0.69700003 -0.041550495 1.3191223e-38 323 274
0.0048812795 0.69599998 -0.041490879 1.3095784e-38 324 274
0.0061015999 0.69599998 -0.041490879 1.2819196e-38 325 274
0.0073008798 0.69400001 -0.041371655 1.1896518e-38 326 274
0.0085176928 0.69400001 -0.041371655 1.1343344e-38 327 274
0.0097345067 0.69400001 -0.041371655 1.107e-38 328 274
0.010935539 0.69300002 -0.041312039 1.1162197e-38 329 274
0.012150601 0.69300002 -0.041312039 1.0887052e-38 330 274
0.01336566 0.69300002 -0.041312039 1.0794855e-38 331 274
0.014538639 0.69099998 -0.041192811 1.079341e-38 332 274
0.015750192 0.69099998 -0.041192811 1.1162553e-38 333 274
0.016961746 0.69099998 -0.041192811 1.1623527e-38 334 274
0.0181733 0.69099998 -0.041192811 1.1346581e-38 335 274
0.019384852 0.69099998 -0.041192811 1.033495e-38 336 274
0.020596405 0.69099998 -0.041192811 1.1441298e-38 337 274
0.021807959 0.69099998 -0.041192811 1.3097212e-38 338 274
0.02308614 0.69300002 -0.041312039 1.3097212e-38 339 274
0.024301201 0.69300002 -0.041312039 1.3280872e-38 340 274
0.02551626 0.69300002 -0.041312039 1.3280872e-38 341 274
0.02673132 0.69300002 -0.041312039 1.2636584e-38 342 274
0.027946379 0.69300002 -0.041312039 1.1622433e-38 343 274
0.029203519 0.69400001 -0.041371655 1.0238422e-38 344 274
0.030420333 0.69400001 -0.041371655 1.0330619e-38 345 274
0.031637147 0.69400001 -0.041371655 1.1067106e-38 346 274
0.032853961 0.69400001 -0.041371655 1.1067106e-38 347 274
0.034070771 0.69400001 -0.041371655 1.1158583e-38 348 274
0.035389278 0.69599998 -0.041490879 1.1066387e-38 349 274
0.036662199 0.69700003 -0.041550495 1.0790521e-38 350 274
0.037884273 0.69700003 -0.041550495 1.1067106e-38 351 274
0.039162453 0.69800001 -0.041610107 1.1251855e-38 352 274
0.040502001 0.69999999 -0.041729331 1.0513931e-38 353 274
0.041729331 0.69999999 -0.041729331 1.032882e-38 354 274
0.043140765 0.70300001 -0.041908171 1.0236624e-38 355 274
0.044436477 0.704 -0.041967787 1.0694725e-38 356 274
0.045865446 0.70700002 -0.042146627 1.1063868e-38 357 274
0.047171678 0.708 -0.042206239 1.1985452e-38 358 274
0.048549797 0.70999998 -0.042325463 1.1893254e-38 359 274
0.050005067 0.713 -0.042504307 1.2999218e-38 360 274
0.051255193 0.713 -0.042504307 1.5303749e-38 361 274
-0.01371282 0.71100003 -0.043631699 1.7884873e-38 309 275
-0.0124662 0.71100003 -0.043631699 1.5859469e-38 310 275
-0.01121958 0.71100003 -0.043631699 1.4660925e-38 311 275
-0.0099729598 0.71100003 -0.043631699 1.2455458e-38 312 275
-0.008689519 0.708 -0.043447599 1.051935e-38 313 275
-0.0074376399 0.70700002 -0.043386232 9.5052177e-39 314 275
-0.0061892662 0.70599997 -0.043324865 7.7531406e-39 315 275
-0.0049373866 0.704 -0.043202132 6.9266211e-39 316 275
-0.0037030398 0.704 -0.043202132 6.5581987e-39 317 275
-0.0024651866 0.70300001 -0.043140765 7.8514543e-39 318 275
-0.0012290865 0.70099998 -0.043018032 9.5106169e-39 319 275
0 0.69999999 -0.042956665 1.2180679e-38 320 275
0.0012273333 0.69999999 -0.042956665 1.2826048e-38 321 275
0.0024476533 0.69800001 -0.042833932 1.2826402e-38 322 275
0.0036714801 0.69800001 -0.042833932 1.2181032e-38 323 275
0.0048882933 0.69700003 -0.042772565 1.2821361e-38 324 275
0.0061103669 0.69700003 -0.042772565 1.263697e-38 325 275
0.0073219193 0.69599998 -0.042711195 1.1989435e-38 326 275
0.0085422397 0.69599998 -0.042711195 1.1528457e-38 327 275
0.0097625591 0.69599998 -0.042711195 1.1346584e-38 328 275
0.01095132 0.69400001 -0.042588469 1.1346584e-38 329 275
0.012168133 0.69400001 -0.042588469 1.107072e-38 330 275
0.013384946 0.69400001 -0.042588469 1.1162916e-38 331 275
0.014580719 0.69300002 -0.042527102 1.0885606e-38 332 275
0.015795778 0.69300002 -0.042527102 1.1069997e-38 333 275
0.01701084 0.69300002 -0.042527102 1.097852e-38 334 275
0.018225901 0.69300002 -0.042527102 1.1070717e-38 335 275
0.01944096 0.69300002 -0.042527102 1.1346584e-38 336 275
0.020656019 0.69300002 -0.042527102 1.0885606e-38 337 275
0.021871079 0.69300002 -0.042527102 1.0612969e-38 338 275
0.02308614 0.69300002 -0.042527102 1.1995904e-38 339 275
0.024301201 0.69300002 -0.042527102 1.3741133e-38 340 275
0.025553079 0.69400001 -0.042588469 1.3372352e-38 341 275
0.026769891 0.69400001 -0.042588469 1.2913169e-38 342 275
0.027986705 0.69400001 -0.042588469 1.1899017e-38 343 275
0.029203519 0.69400001 -0.042588469 1.1895419e-38 344 275
0.030420333 0.69400001 -0.042588469 1.1526997e-38 345 275
0.031637147 0.69400001 -0.042588469 1.1251136e-38 346 275
0.032853961 0.69400001 -0.042588469 1.0789798e-38 347 275
0.034168959 0.69599998 -0.042711195 1.0606495e-38 348 275
0.035389278 0.69599998 -0.042711195 1.0422464e-38 349 275
0.036662199 0.69700003 -0.042772565 1.0330985e-38 350 275
0.037938625 0.69800001 -0.042833932 1.0515735e-38 351 275
0.039162453 0.69800001 -0.042833932 1.079124e-38 352 275
0.040559858 0.70099998 -0.043018032 1.0238425e-38 353 275
0.041788943 0.70099998 -0.043018032 1.051106e-38 354 275
0.043140765 0.70300001 -0.043140765 1.0142636e-38 355 275
0.044562716 0.70599997 -0.043324865 9.9589637e-39 356 275
0.045865446 0.70700002 -0.043386232 1.0511779e-38 357 275
0.047171678 0.708 -0.043447599 1.1802139e-38 358 275
0.048549797 0.70999998 -0.043570329 1.2078366e-38 359 275
0.050005067 0.713 -0.043754432 1.4105561e-38 360 275
0.051470853 0.71600002 -0.043938532 1.604167e-38 361 275
-0.012518799 0.71399999 -0.045067675 1.6411918e-38 310 276
-0.011251139 0.713 -0.045004558 1.548996e-38 311 276
-0.0099729598 0.71100003 -0.044878319 1.3557837e-38 312 276
-0.0087140659 0.70999998 -0.044815198 1.0699773e-38 313 276
-0.0074376399 0.70700002 -0.044625837 9.1360624e-39 314 276
-0.0061892662 0.70599997 -0.044562716 8.490693e-39 315 276
-0.0049514128 0.70599997 -0.044562716 8.030082e-39 316 276
-0.0037030398 0.704 -0.044436477 7.3847126e-39 317 276
-0.0024651866 0.70300001 -0.04437336 8.2177131e-39 318 276
-0.0012325933 0.70300001 -0.04437336 9.5084519e-39 319 276
0 0.70099998 -0.044247117 1.1811898e-38 320 276
0.0012273333 0.69999999 -0.044183996 1.2272876e-38 321 276
0.0024546667 0.69999999 -0.044183996 1.2090636e-38 322 276
0.0036714801 0.69800001 -0.04405776 1.1629658e-38 323 276
0.0048953067 0.69800001 -0.04405776 1.2178513e-38 324 276
0.006119133 0.69800001 -0.04405776 1.1902284e-38 325 276
0.00733244 0.69700003 -0.043994639 1.1897966e-38 326 276
0.0085545136 0.69700003 -0.043994639 1.162102e-38 327 276
0.0097765867 0.69700003 -0.043994639 1.1162919e-38 328 276
0.010982879 0.69599998 -0.043931518 1.1162919e-38 329 276
0.0122032 0.69599998 -0.043931518 1.1163638e-38 330 276
0.013384946 0.69400001 -0.043805279 1.1440224e-38 331 276
0.01460176 0.69400001 -0.043805279 1.0794136e-38 332 276
0.015818574 0.69400001 -0.043805279 1.0794136e-38 333 276
0.017035386 0.69400001 -0.043805279 1.0518621e-38 334 276
0.0182522 0.69400001 -0.043805279 1.1163991e-38 335 276
0.019469013 0.69400001 -0.043805279 1.2727348e-38 336 276
0.020656019 0.69300002 -0.043742158 1.1252218e-38 337 276
0.021871079 0.69300002 -0.043742158 8.9563165e-39 338 276
0.023119451 0.69400001 -0.043805279 1.1261206e-38 339 276
0.024336265 0.69400001 -0.043805279 1.3741133e-38 340 276
0.025553079 0.69400001 -0.043805279 1.3372352e-38 341 276
0.026769891 0.69400001 -0.043805279 1.3280509e-38 342 276
0.027986705 0.69400001 -0.043805279 1.3003562e-38 343 276
0.029203519 0.69400001 -0.043805279 1.3370187e-38 344 276
0.030507999 0.69599998 -0.043931518 1.3370187e-38 345 276
0.031728316 0.69599998 -0.043931518 1.1527363e-38 346 276
0.032948639 0.69599998 -0.043931518 1.032882e-38 347 276
0.034168959 0.69599998 -0.043931518 1.0238792e-38 348 276
0.035440128 0.69700003 -0.043994639 1.0238792e-38 349 276
0.0367148 0.69800001 -0.04405776 1.0238789e-38 350 276
0.038047329 0.69999999 -0.044183996 1.0330985e-38 351 276
0.039274666 0.69999999 -0.044183996 1.0698328e-38 352 276
0.040675577 0.70300001 -0.04437336 1.0145154e-38 353 276
0.041908171 0.70300001 -0.04437336 1.0325951e-38 354 276
0.043202132 0.704 -0.044436477 1.0233756e-38 355 276
0.044562716 0.70599997 -0.044562716 9.7738508e-39 356 276
0.045930319 0.708 -0.044688959 1.0142633e-38 357 276
0.047304932 0.70999998 -0.044815198 1.2355306e-38 358 276
0.048618179 0.71100003 -0.044878319 1.3185427e-38 359 276
0.050215468 0.71600002 -0.045193922 1.5118992e-38 360 276
0.051470853 0.71600002 -0.045193922 1.6501926e-38 361 276
-0.012518799 0.71399999 -0.046319555 1.6319718e-38 310 277
-0.011266919 0.71399999 -0.046319555 1.6412274e-38 311 277
-0.01001504 0.71399999 -0.046319555 1.5306307e-38 312 277
-0.0087140659 0.70999998 -0.046060063 1.0973473e-38 313 277
-0.0074481601 0.708 -0.045930319 7.4822836e-39 314 277
-0.0061980332 0.70700002 -0.045865446 8.7730224e-39 315 277
-0.0049514128 0.70599997 -0.04580057 1.0146616e-38 316 277
-0.0037030398 0.704 -0.045670826 9.7778319e-39 317 277
-0.0024686933 0.704 -0.045670826 9.3218956e-39 318 277
-0.0012325933 0.70300001 -0.04560595 1.0151656e-38 319 277
0 0.70099998 -0.045476202 1.2087765e-38 320 277
0.0012290865 0.70099998 -0.045476202 1.2087765e-38 321 277
0.0024546667 0.69999999 -0.04541133 1.1996645e-38 322 277
0.0036819996 0.69999999 -0.04541133 1.1627863e-38 323 277
0.0048953067 0.69800001 -0.045281585 1.1717537e-38 324 277
0.006119133 0.69800001 -0.045281585 1.1256559e-38 325 277
0.0073429602 0.69800001 -0.045281585 1.1346957e-38 326 277
0.0085667865 0.69800001 -0.045281585 1.0701587e-38 327 277
0.0097906133 0.69800001 -0.045281585 1.1252962e-38 328 277
0.01099866 0.69700003 -0.045216713 1.1345159e-38 329 277
0.0122032 0.69599998 -0.045151837 1.1440224e-38 330 277
0.013423519 0.69599998 -0.045151837 1.1901203e-38 331 277
0.014643839 0.69599998 -0.045151837 1.0794492e-38 332 277
0.015864158 0.69599998 -0.045151837 1.0702297e-38 333 277
0.017035386 0.69400001 -0.045022093 1.1991232e-38 334 277
0.0182522 0.69400001 -0.045022093 1.2728797e-38 335 277
0.019469013 0.69400001 -0.045022093 1.3741133e-38 336 277
0.020685827 0.69400001 -0.045022093 1.318796e-38 337 277
0.021902639 0.69400001 -0.045022093 1.1808975e-38 338 277
0.023119451 0.69400001 -0.045022093 1.2730572e-38 339 277
0.024336265 0.69400001 -0.045022093 1.3648934e-38 340 277
0.025553079 0.69400001 -0.045022093 1.3464903e-38 341 277
0.026769891 0.69400001 -0.045022093 1.3556017e-38 342 277
0.028067358 0.69599998 -0.045151837 1.3463821e-38 343 277
0.029287677 0.69599998 -0.045151837 1.3648934e-38 344 277
0.030507999 0.69599998 -0.045151837 1.3925523e-38 345 277
0.03177391 0.69700003 -0.045216713 1.1068908e-38 346 277
0.03299598 0.69700003 -0.045216713 9.8703652e-39 347 277
0.034218054 0.69700003 -0.045216713 9.8718114e-39 348 277
0.035490975 0.69800001 -0.045281585 9.7796143e-39 349 277
0.036819998 0.69999999 -0.04541133 9.9622049e-39 350 277
0.038047329 0.69999999 -0.04541133 1.0238792e-38 351 277
0.039330769 0.70099998 -0.045476202 1.0238072e-38 352 277
0.040675577 0.70300001 -0.04560595 9.7770948e-39 353 277
0.041967787 0.704 -0.045670826 1.0141204e-38 354 277
0.043324865 0.70599997 -0.04580057 1.0049008e-38 355 277
0.044688959 0.708 -0.045930319 9.9589581e-39 356 277
0.046060063 0.70999998 -0.046060063 1.0696882e-38 357 277
0.047371563 0.71100003 -0.046124939 1.3184341e-38 358 277
0.048754938 0.713 -0.046254687 1.4014462e-38 359 277
0.050075196 0.71399999 -0.046319555 1.5304099e-38 360 277
0.051470853 0.71600002 -0.046449307 1.6502642e-38 361 277
-0.012553867 0.71600002 -0.047704693 1.5492476e-38 310 278
-0.01129848 0.71600002 -0.047704693 1.6230041e-38 311 278
-0.010043093 0.71600002 -0.047704693 1.6413005e-38 312 278
-0.0087263398 0.71100003 -0.047371563 1.2632985e-38 313 278
-0.0074481601 0.708 -0.047171678 8.7672547e-39 314 278
-0.0062067998 0.708 -0.047171678 1.0057993e-38 315 278
-0.0049514128 0.70599997 -0.047038425 1.116185e-38 316 278
-0.0037135598 0.70599997 -0.047038425 1.0700511e-38 317 278
-0.0024686933 0.704 -0.046905171 9.507733e-39 318 278
-0.0012325933 0.70300001 -0.046838548 1.0153102e-38 319 278
0 0.70300001 -0.046838548 1.153604e-38 320 278
0.0012290865 0.70099998 -0.046705291 1.1351648e-38 321 278
0.0024546667 0.69999999 -0.046638668 1.1536393e-38 322 278
0.0036819996 0.69999999 -0.046638668 1.116725e-38 323 278
0.0049093333 0.69999999 -0.046638668 1.0981767e-38 324 278
0.006119133 0.69800001 -0.046505414 1.070518e-38 325 278
0.0073429602 0.69800001 -0.046505414 1.0978897e-38 326 278
0.0085667865 0.69800001 -0.046505414 1.0149137e-38 327 278
0.0097906133 0.69800001 -0.046505414 1.0333528e-38 328 278
0.01101444 0.69800001 -0.046505414 1.0610113e-38 329 278
0.012220734 0.69700003 -0.046438783 1.1716093e-38 330 278
0.013442807 0.69700003 -0.046438783 1.2084875e-38 331 278
0.01466488 0.69700003 -0.046438783 1.1160754e-38 332 278
0.015886955 0.69700003 -0.046438783 1.0883808e-38 333 278
0.017084479 0.69599998 -0.046372157 1.3096493e-38 334 278
0.018304799 0.69599998 -0.046372157 1.3741863e-38 335 278
0.019469013 0.69400001 -0.046238903 1.3926241e-38 336 278
0.020685827 0.69400001 -0.046238903 1.3926241e-38 337 278
0.021902639 0.69400001 -0.046238903 1.3925523e-38 338 278
0.023186078 0.69599998 -0.046372157 1.374113e-38 339 278
0.0244064 0.69599998 -0.046372157 1.3557815e-38 340 278
0.025626717 0.69599998 -0.046372157 1.3465619e-38 341 278
0.026847038 0.69599998 -0.046372157 1.3373424e-38 342 278
0.028107686 0.69700003 -0.046438783 1.3373424e-38 343 278
0.02932976 0.69700003 -0.046438783 1.3924807e-38 344 278
0.030551834 0.69700003 -0.046438783 1.3924807e-38 345 278
0.031819493 0.69800001 -0.046505414 1.0332785e-38 346 278
0.033043321 0.69800001 -0.046505414 9.7796115e-39 347 278
0.034267146 0.69800001 -0.046505414 9.6877816e-39 348 278
0.035592664 0.69999999 -0.046638668 9.5037505e-39 349 278
0.036872596 0.70099998 -0.046705291 9.4115549e-39 350 278
0.038210396 0.70300001 -0.046838548 9.5037505e-39 351 278
0.039442986 0.70300001 -0.046838548 9.7785353e-39 352 278
0.040733438 0.704 -0.046905171 9.5019499e-39 353 278
0.042087011 0.70599997 -0.047038425 9.7752927e-39 354 278
0.043324865 0.70599997 -0.047038425 9.9600441e-39 355 278
0.044815198 0.70999998 -0.047304932 1.0421368e-38 356 278
0.046124939 0.71100003 -0.047371563 1.1158933e-38 357 278
0.047504812 0.713 -0.047504812 1.3276897e-38 358 278
0.048823316 0.71399999 -0.047571439 1.4382884e-38 359 278
0.050075196 0.71399999 -0.047571439 1.5028588e-38 360 278
0.051470853 0.71600002 -0.047704693 1.6227132e-38 361 278
-0.0125714 0.71700001 -0.04902846 1.38369e-38 310 279
-0.01131426 0.71700001 -0.04902846 1.4574465e-38 311 279
-0.010043093 0.71600002 -0.048960082 1.6230765e-38 312 279
-0.0087877065 0.71600002 -0.048960082 1.5032222e-38 313 279
-0.0074691991 0.70999998 -0.048549797 1.2078742e-38 314 279
-0.0062243328 0.70999998 -0.048549797 1.0142633e-38 315 279
-0.0049584266 0.70700002 -0.048344657 1.0244924e-38 316 279
-0.0037135598 0.70599997 -0.048276275 1.1074686e-38 317 279
-0.0024757064 0.70599997 -0.048276275 9.6953641e-39 318 279
-0.0012343467 0.704 -0.048139516 9.6953641e-39 319 279
0 0.70300001 -0.048071139 1.0432929e-38 320 279
0.0012325933 0.70300001 -0.048071139 1.0432929e-38 321 279
0.0024581731 0.70099998 -0.047934376 1.116725e-38 322 279
0.0036819996 0.69999999 -0.047865998 1.0798828e-38 323 279
0.0049093333 0.69999999 -0.047865998 1.0245651e-38 324 279
0.0061366665 0.69999999 -0.047865998 9.4158905e-39 325 279
0.0073639993 0.69999999 -0.047865998 9.5044862e-39 326 279
0.0085913334 0.69999999 -0.047865998 9.1360624e-39 327 279
0.0097906133 0.69800001 -0.047729239 1.0054423e-38 328 279
0.01101444 0.69800001 -0.047729239 1.0238814e-38 329 279
0.012238266 0.69800001 -0.047729239 1.162354e-38 330 279
0.013462093 0.69800001 -0.047729239 1.2453302e-38 331 279
0.01468592 0.69800001 -0.047729239 1.171177e-38 332 279
0.015886955 0.69700003 -0.047660861 1.171177e-38 333 279
0.017109027 0.69700003 -0.047660861 1.4385793e-38 334 279
0.018331099 0.69700003 -0.047660861 1.4478349e-38 335 279
0.019525118 0.69599998 -0.047592476 1.4110991e-38 336 279
0.020745439 0.69599998 -0.047592476 1.4203187e-38 337 279
0.021965759 0.69599998 -0.047592476 1.447905e-38 338 279
0.023219392 0.69700003 -0.047660861 1.4294657e-38 339 279
0.024441468 0.69700003 -0.047660861 1.4018424e-38 340 279
0.025663542 0.69700003 -0.047660861 1.3926229e-38 341 279
0.026885614 0.69700003 -0.047660861 1.3648566e-38 342 279
0.028107686 0.69700003 -0.047660861 1.3095392e-38 343 279
0.029371841 0.69800001 -0.047729239 1.2815934e-38 344 279
0.030595668 0.69800001 -0.047729239 1.2078369e-38 345 279
0.031819493 0.69800001 -0.047729239 1.060146e-38 346 279
0.033137999 0.69999999 -0.047865998 1.0325232e-38 347 279
0.034365334 0.69999999 -0.047865998 9.3190033e-39 348 279
0.035643511 0.70099998 -0.047934376 9.1346121e-39 349 279
0.036977798 0.70300001 -0.048071139 9.2242896e-39 350 279
0.038210396 0.70300001 -0.048071139 9.3164852e-39 351 279
0.039499093 0.704 -0.048139516 9.3190033e-39 352 279
0.040849157 0.70599997 -0.048276275 9.3190033e-39 353 279
0.042087011 0.70599997 -0.048276275 1.0052956e-38 354 279
0.043447599 0.708 -0.048413038 1.0421737e-38 355 279
0.044878319 0.71100003 -0.048618179 1.1617388e-38 356 279
0.046124939 0.71100003 -0.048618179 1.2262757e-38 357 279
0.047504812 0.713 -0.048754938 1.3002102e-38 358 279
0.048823316 0.71399999 -0.048823316 1.3739667e-38 359 279
0.050215468 0.71600002 -0.048960082 1.4753078e-38 360 279
0.051542737 0.71700001 -0.04902846 1.6320402e-38 361 279
-0.012624 0.72000003 -0.050496001 1.374397e-38 310 280
-0.01131426 0.71700001 -0.0502856 1.3928001e-38 311 280
-0.01005712 0.71700001 -0.0502856 1.5218763e-38 312 280
-0.0087877065 0.71600002 -0.050215468 1.5587545e-38 313 280
-0.00753232 0.71600002 -0.050215468 1.3830812e-38 314 280
-0.0062330998 0.71100003 -0.049864799 1.0511769e-38 315 280
-0.0049654399 0.708 -0.049654398 9.599902e-39 316 280
-0.0037188199 0.70700002 -0.049584266 1.1905153e-38 317 280
-0.0024757064 0.70599997 -0.04951413 1.1995213e-38 318 280
-0.0012343467 0.704 -0.049373865 1.1442039e-38 319 280
0 0.704 -0.049373865 1.0891389e-38 320 280
0.0012325933 0.70300001 -0.049303733 1.0891389e-38 321 280
0.0024651866 0.70300001 -0.049303733 1.0983938e-38 322 280
0.0036872597 0.70099998 -0.049163464 1.0522961e-38 323 280
0.0049163462 0.70099998 -0.049163464 1.0244572e-38 324 280
0.0061366665 0.69999999 -0.049093332 9.230779e-39 325 280
0.0073639993 0.69999999 -0.049093332 8.3977883e-39 326 280
0.0085913334 0.69999999 -0.049093332 8.8587665e-39 327 280
0.0098186666 0.69999999 -0.049093332 9.1335555e-39 328 280
0.011045999 0.69999999 -0.049093332 8.7651317e-39 329 280
0.012238266 0.69800001 -0.048953064 9.6881642e-39 330 280
0.013462093 0.69800001 -0.048953064 1.1162934e-38 331 280
0.01468592 0.69800001 -0.048953064 1.106713e-38 332 280
0.015909746 0.69800001 -0.048953064 1.106713e-38 333 280
0.017109027 0.69700003 -0.048882935 1.318761e-38 334 280
0.018331099 0.69700003 -0.048882935 1.4017371e-38 335 280
0.019553173 0.69700003 -0.048882935 1.3832963e-38 336 280
0.020775247 0.69700003 -0.048882935 1.3740408e-38 337 280
0.02199732 0.69700003 -0.048882935 1.3556367e-38 338 280
0.023219392 0.69700003 -0.048882935 1.3187944e-38 339 280
0.024441468 0.69700003 -0.048882935 1.2727688e-38 340 280
0.025663542 0.69700003 -0.048882935 1.2450741e-38 341 280
0.026924185 0.69800001 -0.048953064 1.1805378e-38 342 280
0.028148014 0.69800001 -0.048953064 1.1344401e-38 343 280
0.029371841 0.69800001 -0.048953064 1.0789792e-38 344 280
0.030595668 0.69800001 -0.048953064 1.0144782e-38 345 280
0.031910665 0.69999999 -0.049093332 9.6830999e-39 346 280
0.033137999 0.69999999 -0.049093332 9.2221218e-39 347 280
0.034414422 0.70099998 -0.049163464 9.4065326e-39 348 280
0.035745207 0.70300001 -0.049303733 9.1299457e-39 349 280
0.036977798 0.70300001 -0.049303733 8.1190308e-39 350 280
0.038264744 0.704 -0.049373865 8.9491502e-39 351 280
0.039611302 0.70599997 -0.04951413 9.6877718e-39 352 280
0.040907022 0.70700002 -0.049584266 9.8721645e-39 353 280
0.042146627 0.70700002 -0.049584266 1.0330972e-38 354 280
0.043570329 0.70999998 -0.049794663 1.0607199e-38 355 280
0.045004558 0.713 -0.050005067 1.2078722e-38 356 280
0.046319555 0.71399999 -0.050075196 1.2816287e-38 357 280
0.047571439 0.71399999 -0.050075196 1.2726943e-38 358 280
0.048823316 0.71399999 -0.050075196 1.2726943e-38 359 280
0.050215468 0.71600002 -0.050215468 1.5581392e-38 360 280
0.051542737 0.71700001 -0.0502856 1.7148718e-38 361 280
0.053241719 0.72299999 -0.050706398 1.9448571e-38 362 280
-0.012659066 0.722 -0.051902171 1.4756303e-38 310 281
-0.01134582 0.71899998 -0.05168651 1.3557762e-38 311 281
-0.01005712 0.71700001 -0.051542737 1.2918524e-38 312 281
-0.0087877065 0.71600002 -0.051470853 1.4762437e-38 313 281
-0.00753232 0.71600002 -0.051470853 1.4756358e-38 314 281
-0.0062593995 0.71399999 -0.05132708 1.2451827e-38 315 281
-0.0049794666 0.70999998 -0.051039528 1.1533481e-38 316 281
-0.0037188199 0.70700002 -0.050823875 1.2271046e-38 317 281
-0.0024792133 0.70700002 -0.050823875 1.2918229e-38 318 281
-0.0012378532 0.70599997 -0.050751984 1.2641642e-38 319 281
0 0.704 -0.050608214 1.0798825e-38 320 281
0.0012343467 0.704 -0.050608214 9.8765085e-39 321 281
0.0024651866 0.70300001 -0.050536323 8.2220291e-39 322 281
0.0036977797 0.70300001 -0.050536323 8.406779e-39 323 281
0.0049163462 0.70099998 -0.050392549 9.7828808e-39 324 281
0.0061454331 0.70099998 -0.050392549 9.4137381e-39 325 281
0.0073745195 0.70099998 -0.050392549 9.8696772e-39 326 281
0.0085913334 0.69999999 -0.050320663 1.005407e-38 327 281
0.0098186666 0.69999999 -0.050320663 9.6870824e-39 328 281
0.011045999 0.69999999 -0.050320663 9.3182999e-39 329 281
0.012273333 0.69999999 -0.050320663 9.4094193e-39 330 281
0.013500666 0.69999999 -0.050320663 9.1331926e-39 331 281
0.01468592 0.69800001 -0.050176892 8.7640499e-39 332 281
0.015909746 0.69800001 -0.050176892 8.5800188e-39 333 281
0.017133573 0.69800001 -0.050176892 8.6707683e-39 334 281
0.0183574 0.69800001 -0.050176892 8.7629653e-39 335 281
0.019581227 0.69800001 -0.050176892 9.0377459e-39 336 281
0.020805053 0.69800001 -0.050176892 8.7615192e-39 337 281
0.02202888 0.69800001 -0.050176892 8.6700368e-39 338 281
0.023252707 0.69800001 -0.050176892 8.4860057e-39 339 281
0.024476532 0.69800001 -0.050176892 7.93535e-39 340 281
0.025700359 0.69800001 -0.050176892 8.1193811e-39 341 281
0.026924185 0.69800001 -0.050176892 8.1190182e-39 342 281
0.028148014 0.69800001 -0.050176892 8.2112138e-39 343 281
0.029371841 0.69800001 -0.050176892 8.7625855e-39 344 281
0.030683333 0.69999999 -0.050320663 9.7770976e-39 345 281
0.031910665 0.69999999 -0.050320663 1.0327397e-38 346 281
0.03318534 0.70099998 -0.050392549 9.866059e-39 347 281
0.034512613 0.70300001 -0.050536323 9.1310219e-39 348 281
0.035796054 0.704 -0.050608214 8.6696837e-39 349 281
0.037030395 0.704 -0.050608214 8.1179462e-39 350 281
0.038264744 0.704 -0.050608214 9.316488e-39 351 281
0.039611302 0.70599997 -0.050751984 1.0606132e-38 352 281
0.040907022 0.70700002 -0.050823875 1.0698328e-38 353 281
0.042206239 0.708 -0.050895758 1.1067454e-38 354 281
0.043631699 0.71100003 -0.051111419 1.198977e-38 355 281
0.045004558 0.713 -0.051255193 1.346236e-38 356 281
0.046319555 0.71399999 -0.05132708 1.346236e-38 357 281
0.047571439 0.71399999 -0.05132708 1.2542902e-38 358 281
0.048960082 0.71600002 -0.051470853 1.2358512e-38 359 281
0.0502856 0.71700001 -0.051542737 1.6134569e-38 360 281
0.051542737 0.71700001 -0.051542737 1.7885927e-38 361 281
0.053241719 0.72299999 -0.051974058 1.9356747e-38 362 281
-0.012659066 0.722 -0.053168077 1.540022e-38 310 282
-0.011361601 0.72000003 -0.053020801 1.3648861e-38 311 282
-0.010099201 0.72000003 -0.053020801 1.1629558e-38 312 282
-0.0087999795 0.71700001 -0.052799881 1.3196885e-38 313 282
-0.00753232 0.71600002 -0.052726239 1.4575914e-38 314 282
-0.0062593995 0.71399999 -0.052578956 1.4206772e-38 315 282
-0.0049794666 0.70999998 -0.052284397 1.3561057e-38 316 282
-0.00372408 0.708 -0.052137118 1.3561057e-38 317 282
-0.00248272 0.708 -0.052137118 1.4205718e-38 318 282
-0.0012378532 0.70599997 -0.051989835 1.457486e-38 319 282
0 0.70599997 -0.051989835 1.3098661e-38 320 282
0.0012378532 0.70599997 -0.051989835 1.1162553e-38 321 282
0.0024686933 0.704 -0.051842559 7.6677637e-39 322 282
0.0036977797 0.70300001 -0.051768921 8.2209374e-39 323 282
0.0049303733 0.70300001 -0.051768921 1.0242051e-38 324 282
0.0061454331 0.70099998 -0.051621638 9.9658245e-39 325 282
0.0073745195 0.70099998 -0.051621638 1.0515394e-38 326 282
0.0086036054 0.70099998 -0.051621638 1.0515394e-38 327 282
0.0098186666 0.69999999 -0.051547997 1.014877e-38 328 282
0.011045999 0.69999999 -0.051547997 9.871824e-39 329 282
0.012273333 0.69999999 -0.051547997 1.0147335e-38 330 282
0.013500666 0.69999999 -0.051547997 9.8711079e-39 331 282
0.014727999 0.69999999 -0.051547997 9.779264e-39 332 282
0.015955333 0.69999999 -0.051547997 9.5023184e-39 333 282
0.017133573 0.69800001 -0.051400717 9.4094011e-39 334 282
0.0183574 0.69800001 -0.051400717 1.0054771e-38 335 282
0.019581227 0.69800001 -0.051400717 1.1063533e-38 336 282
0.020805053 0.69800001 -0.051400717 9.4965675e-39 337 282
0.02202888 0.69800001 -0.051400717 9.1292255e-39 338 282
0.023252707 0.69800001 -0.051400717 9.4976493e-39 339 282
0.024546666 0.69999999 -0.051547997 8.9484314e-39 340 282
0.025773998 0.69999999 -0.051547997 8.9484314e-39 341 282
0.027001332 0.69999999 -0.051547997 9.2260888e-39 342 282
0.028228667 0.69999999 -0.051547997 9.7792612e-39 343 282
0.029455997 0.69999999 -0.051547997 1.1158586e-38 344 282
0.030683333 0.69999999 -0.051547997 1.1619205e-38 345 282
0.031956252 0.70099998 -0.051621638 1.0603261e-38 346 282
0.03318534 0.70099998 -0.051621638 9.6809461e-39 347 282
0.034512613 0.70300001 -0.051768921 8.8537148e-39 348 282
0.035796054 0.704 -0.051842559 9.0377459e-39 349 282
0.037135597 0.70599997 -0.051989835 9.5905483e-39 350 282
0.038373452 0.70599997 -0.051989835 1.060506e-38 351 282
0.039667413 0.70700002 -0.05206348 1.1344045e-38 352 282
0.040907022 0.70700002 -0.05206348 1.1897219e-38 353 282
0.042206239 0.708 -0.052137118 1.2265266e-38 354 282
0.043570329 0.70999998 -0.052284397 1.3002831e-38 355 282
0.045004558 0.713 -0.052505318 1.3003887e-38 356 282
0.046319555 0.71399999 -0.052578956 1.2542549e-38 357 282
0.047571439 0.71399999 -0.052578956 1.1531972e-38 358 282
0.048960082 0.71600002 -0.052726239 1.2361732e-38 359 282
0.0502856 0.71700001 -0.052799881 1.5489197e-38 360 282
0.05168651 0.71899998 -0.05294716 1.604237e-38 361 282
0.053241719 0.72299999 -0.053241719 1.61299e-38 362 282
-0.01139316 0.722 -0.054433983 1.4383922e-38 311 283
-0.010099201 0.72000003 -0.054283202 1.1812842e-38 312 283
-0.0087999795 0.71700001 -0.054057021 1.2089069e-38 313 283
-0.00753232 0.71600002 -0.053981625 1.2644453e-38 314 283
-0.0062330998 0.71100003 -0.053604662 1.4027387e-38 315 283
-0.0049794666 0.70999998 -0.053529263 1.476068e-38 316 283
-0.00372408 0.708 -0.053378478 1.457593e-38 317 283
-0.00248272 0.708 -0.053378478 1.4668131e-38 318 283
-0.0012396066 0.70700002 -0.053303085 1.4944719e-38 319 283
0 0.70700002 -0.053303085 1.4204633e-38 320 283
0.0012378532 0.70599997 -0.053227689 1.254511e-38 321 283
0.0024757064 0.70599997 -0.053227689 8.5868291e-39 322 283
0.0037030398 0.704 -0.053076904 8.7712203e-39 323 283
0.0049373866 0.704 -0.053076904 1.1163282e-38 324 283
0.0061629666 0.70300001 -0.053001512 1.0610467e-38 325 283
0.0073955595 0.70300001 -0.053001512 1.0056571e-38 326 283
0.0086036054 0.70099998 -0.052850723 1.0517549e-38 327 283
0.0098326923 0.70099998 -0.052850723 1.0333881e-38 328 283
0.011061779 0.70099998 -0.052850723 1.0149488e-38 329 283
0.012290866 0.70099998 -0.052850723 1.0334234e-38 330 283
0.013500666 0.69999999 -0.052775331 1.0518265e-38 331 283
0.014727999 0.69999999 -0.052775331 1.0425704e-38 332 283
0.015955333 0.69999999 -0.052775331 1.05179e-38 333 283
0.017182667 0.69999999 -0.052775331 1.1252944e-38 334 283
0.018409999 0.69999999 -0.052775331 1.1990868e-38 335 283
0.019637333 0.69999999 -0.052775331 1.2999273e-38 336 283
0.020864666 0.69999999 -0.052775331 1.1616337e-38 337 283
0.022091998 0.69999999 -0.052775331 1.0420315e-38 338 283
0.023319334 0.69999999 -0.052775331 1.0420315e-38 339 283
0.024546666 0.69999999 -0.052775331 9.8703778e-39 340 283
0.025773998 0.69999999 -0.052775331 9.5941511e-39 341 283
0.027001332 0.69999999 -0.052775331 1.05161e-38 342 283
0.028228667 0.69999999 -0.052775331 1.1899035e-38 343 283
0.029455997 0.69999999 -0.052775331 1.3645341e-38 344 283
0.030727165 0.70099998 -0.052850723 1.3645341e-38 345 283
0.031956252 0.70099998 -0.052850723 1.0235555e-38 346 283
0.033280019 0.70300001 -0.053001512 8.1146952e-39 347 283
0.034561705 0.704 -0.053076904 9.0395424e-39 348 283
0.035796054 0.704 -0.053076904 9.6849118e-39 349 283
0.037135597 0.70599997 -0.053227689 1.0420665e-38 350 283
0.038373452 0.70599997 -0.053227689 1.1434817e-38 351 283
0.039667413 0.70700002 -0.053303085 1.2175234e-38 352 283
0.040964879 0.708 -0.053378478 1.2728407e-38 353 283
0.042206239 0.708 -0.053378478 1.3096446e-38 354 283
0.043570329 0.70999998 -0.053529263 1.3096446e-38 355 283
0.045004558 0.713 -0.053755447 1.2084429e-38 356 283
0.046449307 0.71600002 -0.053981625 1.1254309e-38 357 283
0.047704693 0.71600002 -0.053981625 1.1717791e-38 358 283
0.048960082 0.71600002 -0.053981625 1.3100727e-38 359 283
0.0502856 0.71700001 -0.054057021 1.5210086e-38 360 283
0.051902171 0.722 -0.054433983 1.3273978e-38 361 283
-0.0087877065 0.71600002 -0.055237014 1.2452441e-38 313 284
-0.00753232 0.71600002 -0.055237014 1.0712618e-38 314 284
-0.0062330998 0.71100003 -0.054851279 1.1819326e-38 315 284
-0.0049794666 0.70999998 -0.054774132 1.3105097e-38 316 284
-0.00372408 0.708 -0.054619838 1.365827e-38 317 284
-0.00248272 0.708 -0.054619838 1.4668481e-38 318 284
-0.0012396066 0.70700002 -0.054542694 1.4852874e-38 319 284
0 0.70700002 -0.054542694 1.5034387e-38 320 284
0.0012378532 0.70599997 -0.054465543 1.4204986e-38 321 284
0.0024757064 0.70599997 -0.054465543 1.2544755e-38 322 284
0.0037030398 0.704 -0.054311249 1.1991582e-38 323 284
0.0049373866 0.704 -0.054311249 1.2358938e-38 324 284
0.0061717331 0.704 -0.054311249 1.1529178e-38 325 284
0.0073955595 0.70300001 -0.054234106 1.005729e-38 326 284
0.0086281532 0.70300001 -0.054234106 1.0610464e-38 327 284
0.0098326923 0.70099998 -0.054079808 1.0333881e-38 328 284
0.011061779 0.70099998 -0.054079808 1.0149488e-38 329 284
0.012290866 0.70099998 -0.054079808 1.0700862e-38 330 284
0.013519952 0.70099998 -0.054079808 1.0793057e-38 331 284
0.014749039 0.70099998 -0.054079808 1.0885606e-38 332 284
0.015978126 0.70099998 -0.054079808 1.079341e-38 333 284
0.017207211 0.70099998 -0.054079808 1.1345862e-38 334 284
0.018436298 0.70099998 -0.054079808 1.1899035e-38 335 284
0.019665385 0.70099998 -0.054079808 1.2173824e-38 336 284
0.020894472 0.70099998 -0.054079808 1.1067836e-38 337 284
0.022123558 0.70099998 -0.054079808 1.0422111e-38 338 284
0.023352645 0.70099998 -0.054079808 1.0422111e-38 339 284
0.024581732 0.70099998 -0.054079808 1.0147325e-38 340 284
0.025810819 0.70099998 -0.054079808 9.8703778e-39 341 284
0.027039904 0.70099998 -0.054079808 1.1252221e-38 342 284
0.028268991 0.70099998 -0.054079808 1.2911743e-38 343 284
0.029498078 0.70099998 -0.054079808 1.3923007e-38 344 284
0.030727165 0.70099998 -0.054079808 1.3923007e-38 345 284
0.032047424 0.70300001 -0.054234106 9.3171943e-39 346 284
0.033280019 0.70300001 -0.054234106 7.9339011e-39 347 284
0.034561705 0.704 -0.054311249 9.870731e-39 348 284
0.035897743 0.70599997 -0.054465543 9.9629266e-39 349 284
0.037135597 0.70599997 -0.054465543 9.1356686e-39 350 284
0.038427804 0.70700002 -0.054542694 1.0057625e-38 351 284
0.039667413 0.70700002 -0.054542694 1.2358896e-38 352 284
0.040964879 0.708 -0.054619838 1.2820234e-38 353 284
0.042206239 0.708 -0.054619838 1.2361735e-38 354 284
0.043631699 0.71100003 -0.054851279 1.1716366e-38 355 284
0.045004558 0.713 -0.055005573 1.0154044e-38 356 284
0.046319555 0.71399999 -0.05508272 9.8770971e-39 357 284
0.047704693 0.71600002 -0.055237014 1.3281868e-38 358 284
0.04902846 0.71700001 -0.055314157 1.5125781e-38 359 284
0.050425861 0.71899998 -0.055468451 1.5672499e-38 360 284
0.051902171 0.722 -0.055699892 1.3183217e-38 361 284
-0.0087631596 0.71399999 -0.0563346 1.3555552e-38 313 285
-0.0075112795 0.71399999 -0.0563346 1.1169946e-38 314 285
-0.0062330998 0.71100003 -0.056097899 1.1262142e-38 315 285
-0.0049794666 0.70999998 -0.056018997 1.1173253e-38 316 285
-0.0037345996 0.70999998 -0.056018997 1.2279601e-38 317 285
-0.00248272 0.708 -0.055861197 1.3748668e-38 318 285
-0.00124136 0.708 -0.055861197 1.4394037e-38 319 285
0 0.70700002 -0.055782299 1.5128385e-38 320 285
0.0012396066 0.70700002 -0.055782299 1.522058e-38 321 285
0.0024757064 0.70599997 -0.055703394 1.5125513e-38 322 285
0.0037135598 0.70599997 -0.055703394 1.411136e-38 323 285
0.0049514128 0.70599997 -0.055703394 1.2911746e-38 324 285
0.0061717331 0.704 -0.055545598 1.2266377e-38 325 285
0.0074060797 0.704 -0.055545598 1.1346584e-38 326 285
0.0086404262 0.704 -0.055545598 1.1346584e-38 327 285
0.0098607466 0.70300001 -0.0554667 1.097852e-38 328 285
0.01109334 0.70300001 -0.0554667 1.0702294e-38 329 285
0.012325933 0.70300001 -0.0554667 1.1160754e-38 330 285
0.013558527 0.70300001 -0.0554667 1.1252949e-38 331 285
0.014791119 0.70300001 -0.0554667 1.1253665e-38 332 285
0.016023712 0.70300001 -0.0554667 1.116147e-38 333 285
0.017207211 0.70099998 -0.055308893 1.1621726e-38 334 285
0.018436298 0.70099998 -0.055308893 1.1806118e-38 335 285
0.019665385 0.70099998 -0.055308893 1.1806473e-38 336 285
0.020894472 0.70099998 -0.055308893 1.1068908e-38 337 285
0.022123558 0.70099998 -0.055308893 1.0147319e-38 338 285
0.023352645 0.70099998 -0.055308893 1.0423905e-38 339 285
0.024581732 0.70099998 -0.055308893 1.10664e-38 340 285
0.025810819 0.70099998 -0.055308893 1.0790173e-38 341 285
0.027039904 0.70099998 -0.055308893 1.1528445e-38 342 285
0.028349647 0.70300001 -0.0554667 1.2634433e-38 343 285
0.029582238 0.70300001 -0.0554667 1.3462749e-38 344 285
0.030814834 0.70300001 -0.0554667 1.3647499e-38 345 285
0.032093015 0.704 -0.055545598 1.0606848e-38 346 285
0.03332736 0.704 -0.055545598 8.8551315e-39 347 285
0.034659892 0.70599997 -0.055703394 1.0513217e-38 348 285
0.035897743 0.70599997 -0.055703394 1.0420662e-38 349 285
0.037188202 0.70700002 -0.055782299 8.8605097e-39 350 285
0.038482159 0.708 -0.055861197 9.6902718e-39 351 285
0.039723519 0.708 -0.055861197 1.1623835e-38 352 285
0.040964879 0.708 -0.055861197 1.1992619e-38 353 285
0.042325463 0.70999998 -0.056018997 1.1442981e-38 354 285
0.043631699 0.71100003 -0.056097899 1.0060046e-38 355 285
0.045067675 0.71399999 -0.0563346 9.4182349e-39 356 285
0.046319555 0.71399999 -0.0563346 1.0155801e-38 357 285
0.04777132 0.71700001 -0.056571297 1.493778e-38 358 285
0.04902846 0.71700001 -0.056571297 1.6781693e-38 359 285
0.050706398 0.72299999 -0.057044696 1.7053636e-38 360 285
-0.0087263398 0.71100003 -0.057344519 1.5580301e-38 313 286
-0.0074797203 0.71100003 -0.057344519 1.337618e-38 314 286
-0.0062330998 0.71100003 -0.057344519 1.1716659e-38 315 286
-0.0049794666 0.70999998 -0.057263866 9.8842717e-39 316 286
-0.0037345996 0.70999998 -0.057263866 1.0437445e-38 317 286
-0.0024897333 0.70999998 -0.057263866 1.0989603e-38 318 286
-0.00124136 0.708 -0.057102561 1.1911201e-38 319 286
0 0.708 -0.057102561 1.3472441e-38 320 286
0.00124136 0.708 -0.057102561 1.4301841e-38 321 286
0.0024792133 0.70700002 -0.057021905 1.5127663e-38 322 286
0.0037188199 0.70700002 -0.057021905 1.4390096e-38 323 286
0.0049514128 0.70599997 -0.056941248 1.3557113e-38 324 286
0.0061892662 0.70599997 -0.056941248 1.3003939e-38 325 286
0.0074060797 0.704 -0.056779943 1.2359294e-38 326 286
0.0086404262 0.704 -0.056779943 1.2267098e-38 327 286
0.0098747732 0.704 -0.056779943 1.1624243e-38 328 286
0.011109119 0.704 -0.056779943 1.1348016e-38 329 286
0.012343466 0.704 -0.056779943 1.1346937e-38 330 286
0.013558527 0.70300001 -0.056699295 1.1346937e-38 331 286
0.014791119 0.70300001 -0.056699295 1.1346216e-38 332 286
0.016023712 0.70300001 -0.056699295 1.1622802e-38 333 286
0.017256306 0.70300001 -0.056699295 1.1531326e-38 334 286
0.018488899 0.70300001 -0.056699295 1.143913e-38 335 286
0.019721493 0.70300001 -0.056699295 1.1714278e-38 336 286
0.020954086 0.70300001 -0.056699295 1.1345495e-38 337 286
0.02218668 0.70300001 -0.056699295 1.1345495e-38 338 286
0.023419274 0.70300001 -0.056699295 1.12533e-38 339 286
0.024651866 0.70300001 -0.056699295 1.1345495e-38 340 286
0.025884461 0.70300001 -0.056699295 1.1345495e-38 341 286
0.027117053 0.70300001 -0.056699295 1.1621361e-38 342 286
