# .PCD v.7 - Point Cloud Data file format
FIELDS x y z rgb imX imY
SIZE 4 4 4 4 4 4
TYPE F F F F F F
COUNT 1 1 1 1 1 1
WIDTH 846
HEIGHT 1
VIEWPOINT 0 0 0 1 0 0 0
POINTS 846
DATA ascii
-0.00753232 0.71600002 0.013809253 1.1809303e-38 314 229
-0.0062769335 0.71600002 0.013809253 1.1809303e-38 315 229
-0.0050215465 0.71600002 0.013809253 1.2175231e-38 316 229
-0.00376616 0.71600002 0.013809253 1.2267426e-38 317 229
-0.0025107733 0.71600002 0.013809253 1.2267432e-38 318 229
-0.0012553866 0.71600002 0.013809253 1.2359629e-38 319 229
0 0.71700001 0.013828539 1.2727333e-38 320 229
0.00125714 0.71700001 0.013828539 1.2450744e-38 321 229
0.0025107733 0.71600002 0.013809253 1.2357464e-38 322 229
0.00376616 0.71600002 0.013809253 1.226491e-38 323 229
0.0050215465 0.71600002 0.013809253 1.2447862e-38 324 229
0.022944121 0.727 0.014021406 9.6973357e-39 338 229
0.024218792 0.727 0.014021406 9.0519663e-39 339 229
0.025493465 0.727 0.014021406 9.4189383e-39 340 229
0.026768139 0.727 0.014021406 9.3267427e-39 341 229
0.028081384 0.72799999 0.014040692 9.233122e-39 342 229
0.029357811 0.72799999 0.014040692 9.4171531e-39 343 229
0.030718399 0.73000002 0.014079267 9.782721e-39 344 229
0.031998333 0.73000002 0.014079267 1.042809e-38 345 229
0.033278264 0.73000002 0.014079267 1.4292433e-38 346 229
-0.028775707 0.74599999 0.013079867 1.5861594e-38 298 230
-0.027467718 0.74599999 0.013079867 1.3832932e-38 299 230
-0.026159734 0.74599999 0.013079867 1.2273445e-38 300 230
-0.024418673 0.73299998 0.012851933 1.2273445e-38 301 230
-0.022975679 0.72799999 0.012764266 1.2549959e-38 302 230
-0.021699252 0.72799999 0.012764266 1.2180816e-38 303 230
-0.020422826 0.72799999 0.012764266 1.0622088e-38 304 230
-0.0191464 0.72799999 0.012764266 1.0437696e-38 305 230
-0.017845426 0.727 0.012746733 9.7951954e-39 306 230
-0.016525166 0.72500002 0.012711667 9.7029983e-39 307 230
-0.015211919 0.72299999 0.012676599 9.6104468e-39 308 230
-0.013924973 0.722 0.012659066 9.33422e-39 309 230
-0.012659066 0.722 0.012659066 9.4257332e-39 310 230
-0.011361601 0.72000003 0.012624 9.794157e-39 311 230
-0.010085173 0.71899998 0.012606465 1.0251975e-38 312 230
-0.0087999795 0.71700001 0.0125714 1.0528561e-38 313 230
-0.0075428397 0.71700001 0.0125714 1.0893086e-38 314 230
-0.0062857 0.71700001 0.0125714 1.0893086e-38 315 230
-0.0050285598 0.71700001 0.0125714 1.1626356e-38 316 230
-0.0037714199 0.71700001 0.0125714 1.1718552e-38 317 230
-0.0025142799 0.71700001 0.0125714 1.2360332e-38 318 230
-0.00125714 0.71700001 0.0125714 1.2452528e-38 319 230
0 0.71600002 0.012553867 1.2819509e-38 320 230
0.0012553866 0.71600002 0.012553867 1.2819509e-38 321 230
0.0025107733 0.71600002 0.012553867 1.2451798e-38 322 230
0.00376616 0.71600002 0.012553867 1.2543994e-38 323 230
0.0050215465 0.71600002 0.012553867 1.2727306e-38 324 230
0.0062769335 0.71600002 0.012553867 1.2543275e-38 325 230
0.00753232 0.71600002 0.012553867 1.2726943e-38 326 230
0.0087999795 0.71700001 0.0125714 1.2726943e-38 327 230
0.01005712 0.71700001 0.0125714 1.3002807e-38 328 230
0.01131426 0.71700001 0.0125714 1.3002807e-38 329 230
0.021669446 0.727 0.012746733 9.9721121e-39 337 230
0.022944121 0.727 0.012746733 9.9710121e-39 338 230
0.024218792 0.727 0.012746733 9.3256427e-39 339 230
0.025493465 0.727 0.012746733 9.1416242e-39 340 230
0.026768139 0.727 0.012746733 9.0494271e-39 341 230
0.028081384 0.72799999 0.012764266 9.233122e-39 342 230
0.029357811 0.72799999 0.012764266 9.6015443e-39 343 230
0.030718399 0.73000002 0.012799333 1.0058951e-38 344 230
0.031998333 0.73000002 0.012799333 1.0612124e-38 345 230
0.033278264 0.73000002 0.012799333 1.4661218e-38 346 230
-0.028775707 0.74599999 0.011771879 1.613603e-38 298 231
-0.027467718 0.74599999 0.011771879 1.4753096e-38 299 231
-0.025914267 0.73900002 0.01166142 1.2918118e-38 300 231
-0.024451986 0.73400003 0.011582521 1.2548975e-38 301 231
-0.023038799 0.73000002 0.011519399 1.2366675e-38 302 231
-0.021758866 0.73000002 0.011519399 1.1905697e-38 303 231
-0.020478934 0.73000002 0.011519399 1.07143e-38 304 231
-0.0191464 0.72799999 0.01148784 1.0345516e-38 305 231
-0.017869972 0.72799999 0.01148784 1.0162889e-38 306 231
-0.016570752 0.727 0.01147206 9.9785006e-39 307 231
-0.015254001 0.72500002 0.0114405 9.8863064e-39 308 231
-0.01394426 0.72299999 0.01140894 9.8863064e-39 309 231
-0.012659066 0.722 0.01139316 1.006964e-38 310 231
-0.011361601 0.72000003 0.011361601 1.0438062e-38 311 231
-0.010085173 0.71899998 0.01134582 1.0895508e-38 312 231
-0.0088245263 0.71899998 0.01134582 1.1079899e-38 313 231
-0.0075428397 0.71700001 0.01131426 1.0895196e-38 314 231
-0.0062857 0.71700001 0.01131426 1.0802999e-38 315 231
-0.0050285598 0.71700001 0.01131426 1.1168581e-38 316 231
-0.0037714199 0.71700001 0.01131426 1.1445167e-38 317 231
-0.0025142799 0.71700001 0.01131426 1.1626706e-38 318 231
-0.00125714 0.71700001 0.01131426 1.1811098e-38 319 231
0 0.71600002 0.01129848 1.1994413e-38 320 231
0.0012553866 0.71600002 0.01129848 1.1994413e-38 321 231
0.0025107733 0.71600002 0.01129848 1.1718902e-38 322 231
0.00376616 0.71600002 0.01129848 1.1903295e-38 323 231
0.0050215465 0.71600002 0.01129848 1.1811095e-38 324 231
0.0062769335 0.71600002 0.01129848 1.1626704e-38 325 231
0.00753232 0.71600002 0.01129848 1.1902202e-38 326 231
0.0087999795 0.71700001 0.01131426 1.1625616e-38 327 231
0.01005712 0.71700001 0.01131426 1.1993303e-38 328 231
0.01131426 0.71700001 0.01131426 1.1716716e-38 329 231
0.012624 0.72000003 0.011361601 1.1533732e-38 330 231
0.013924973 0.722 0.01139316 1.1441536e-38 331 231
0.015190879 0.722 0.01139316 1.0891192e-38 332 231
0.01647958 0.72299999 0.01140894 1.0522409e-38 333 231
0.017845426 0.727 0.01147206 9.4207082e-39 334 231
0.019120099 0.727 0.01147206 9.5129038e-39 335 231
0.020394772 0.727 0.01147206 9.5129038e-39 336 231
0.021669446 0.727 0.01147206 9.5129038e-39 337 231
0.022944121 0.727 0.01147206 9.878099e-39 338 231
0.024218792 0.727 0.01147206 9.3249252e-39 339 231
0.025528532 0.72799999 0.01148784 8.864317e-39 340 231
0.026804959 0.72799999 0.01148784 9.2327394e-39 341 231
0.028081384 0.72799999 0.01148784 9.4171531e-39 342 231
0.029438468 0.73000002 0.011519399 9.6937414e-39 343 231
0.03076048 0.73100001 0.01153518 1.0611052e-38 344 231
0.032042164 0.73100001 0.01153518 1.0887641e-38 345 231
-0.028775707 0.74599999 0.010463892 1.6227876e-38 298 232
-0.027467718 0.74599999 0.010463892 1.5305919e-38 299 232
-0.025914267 0.73900002 0.010365707 1.3287262e-38 300 232
-0.024585238 0.73799998 0.010351679 1.1719938e-38 301 232
-0.02307036 0.73100001 0.010253493 1.0804738e-38 302 232
-0.021788673 0.73100001 0.010253493 1.0620347e-38 303 232
-0.020506985 0.73100001 0.010253493 1.0345894e-38 304 232
-0.019199001 0.73000002 0.010239467 1.0161144e-38 305 232
-0.017869972 0.72799999 0.010211413 9.7937885e-39 306 232
-0.016593546 0.72799999 0.010211413 9.8859841e-39 307 232
-0.015296079 0.727 0.010197386 9.9778098e-39 308 232
-0.013982833 0.72500002 0.010169334 1.0070005e-38 309 232
-0.012676599 0.72299999 0.01014128 1.0804716e-38 310 232
-0.01139316 0.722 0.010127253 1.1266053e-38 311 232
-0.010099201 0.72000003 0.010099201 1.2365971e-38 312 232
-0.0088245263 0.71899998 0.010085173 1.2458167e-38 313 232
-0.0075638802 0.71899998 0.010085173 1.0988101e-38 314 232
-0.0063032326 0.71899998 0.010085173 1.0895547e-38 315 232
-0.0050285598 0.71700001 0.01005712 1.1078161e-38 316 232
-0.0037714199 0.71700001 0.01005712 1.1078161e-38 317 232
-0.0025142799 0.71700001 0.01005712 1.1168581e-38 318 232
-0.00125714 0.71700001 0.01005712 1.1168581e-38 319 232
0 0.71700001 0.01005712 1.1077105e-38 320 232
0.00125714 0.71700001 0.01005712 1.0616126e-38 321 232
0.0025142799 0.71700001 0.01005712 9.6066437e-39 322 232
0.00376616 0.71600002 0.010043093 9.7910349e-39 323 232
0.0050215465 0.71600002 0.010043093 9.9736283e-39 324 232
0.0062769335 0.71600002 0.010043093 9.9736283e-39 325 232
0.0075428397 0.71700001 0.01005712 1.0892346e-38 326 232
0.0087999795 0.71700001 0.01005712 1.0984542e-38 327 232
0.01005712 0.71700001 0.01005712 1.0525338e-38 328 232
0.01134582 0.71899998 0.010085173 9.972164e-39 329 232
0.012624 0.72000003 0.010099201 9.697686e-39 330 232
0.013924973 0.722 0.010127253 9.5136549e-39 331 232
0.015190879 0.722 0.010127253 1.0340128e-38 332 232
0.01647958 0.72299999 0.01014128 9.9713456e-39 333 232
0.017845426 0.727 0.010197386 9.3292034e-39 334 232
0.019120099 0.727 0.010197386 9.3292034e-39 335 232
0.020394772 0.727 0.010197386 9.6958503e-39 336 232
0.021669446 0.727 0.010197386 9.6958503e-39 337 232
0.022944121 0.727 0.010197386 9.9681436e-39 338 232
0.024252106 0.72799999 0.010211413 9.5071655e-39 339 232
0.025528532 0.72799999 0.010211413 9.32314e-39 340 232
0.026878599 0.73000002 0.010239467 9.5075312e-39 341 232
0.028197108 0.73100001 0.010253493 9.5089858e-39 342 232
0.029478792 0.73100001 0.010253493 9.5089858e-39 343 232
0.030844638 0.73299998 0.010281546 1.0703615e-38 344 232
-0.028775707 0.74599999 0.0091559067 1.6320441e-38 298 233
-0.027467718 0.74599999 0.0091559067 1.5859463e-38 299 233
-0.026159734 0.74599999 0.0091559067 1.393226e-38 300 233
-0.024585238 0.73799998 0.0090577193 1.1442978e-38 301 233
-0.023228159 0.736 0.0090331733 1.0528138e-38 302 233
-0.021937706 0.736 0.0090331733 1.0804366e-38 303 233
-0.020591147 0.73400003 0.0090086265 1.0070047e-38 304 233
-0.019199001 0.73000002 0.0089595336 9.7931004e-39 305 233
-0.017919067 0.73000002 0.0089595336 1.0437032e-38 306 233
-0.016593546 0.72799999 0.0089349858 1.0621422e-38 307 233
-0.01531712 0.72799999 0.0089349858 1.0986955e-38 308 233
-0.014021406 0.727 0.0089227129 1.1079511e-38 309 233
-0.012711667 0.72500002 0.0088981669 1.245707e-38 310 233
-0.01140894 0.72299999 0.0088736191 1.3010243e-38 311 233
-0.010127253 0.722 0.0088613462 1.3010988e-38 312 233
-0.0088613462 0.722 0.0088613462 1.2550009e-38 313 233
-0.0075638802 0.71899998 0.0088245263 1.2089404e-38 314 233
-0.0063032326 0.71899998 0.0088245263 1.1905013e-38 315 233
-0.0050496003 0.72000003 0.0088367993 1.1262187e-38 316 233
-0.0037819401 0.71899998 0.0088245263 1.1262187e-38 317 233
-0.0025212932 0.71899998 0.0088245263 1.1170004e-38 318 233
-0.0012606466 0.71899998 0.0088245263 1.1262199e-38 319 233
0 0.71700001 0.0087999795 1.1355101e-38 320 233
0.00125714 0.71700001 0.0087999795 1.0894124e-38 321 233
0.0025142799 0.71700001 0.0087999795 1.0066485e-38 322 233
0.0037714199 0.71700001 0.0087999795 9.9742897e-39 323 233
0.0050285598 0.71700001 0.0087999795 9.6984315e-39 324 233
0.0062857 0.71700001 0.0087999795 1.0067215e-38 325 233
0.0075428397 0.71700001 0.0087999795 1.0159432e-38 326 233
0.0088245263 0.71899998 0.0088245263 1.0067236e-38 327 233
0.010085173 0.71899998 0.0088245263 1.0158687e-38 328 233
0.011361601 0.72000003 0.0088367993 9.6055142e-39 329 233
0.012659066 0.722 0.0088613462 9.6969517e-39 330 233
0.01394426 0.72299999 0.0088736191 9.6047561e-39 331 233
0.015211919 0.72299999 0.0088736191 9.6036547e-39 332 233
0.016525166 0.72500002 0.0088981669 9.6036547e-39 333 233
0.017845426 0.727 0.0089227129 9.7869543e-39 334 233
0.019120099 0.727 0.0089227129 9.87915e-39 335 233
0.020394772 0.727 0.0089227129 1.1072674e-38 336 233
0.021669446 0.727 0.0089227129 1.0796087e-38 337 233
0.022975679 0.72799999 0.0089349858 9.5075312e-39 338 233
0.024318734 0.73000002 0.0089595336 9.32314e-39 339 233
0.025598666 0.73000002 0.0089595336 9.2320261e-39 340 233
0.026915418 0.73100001 0.0089718066 9.6004499e-39 341 233
0.028197108 0.73100001 0.0089718066 9.692298e-39 342 233
0.029680425 0.736 0.0090331733 9.6001024e-39 343 233
0.030970879 0.736 0.0090331733 1.1622709e-38 344 233
-0.027173158 0.73799998 0.0077637597 1.6411568e-38 299 234
-0.025879199 0.73799998 0.0077637597 1.4299661e-38 300 234
-0.024585238 0.73799998 0.0077637597 1.3008922e-38 301 234
-0.023133477 0.73299998 0.0077111595 1.3013216e-38 302 234
-0.021848286 0.73299998 0.0077111595 1.3381998e-38 303 234
-0.020563092 0.73299998 0.0077111595 1.2645532e-38 304 234
-0.019225299 0.73100001 0.00769012 1.2829563e-38 305 234
-0.017943613 0.73100001 0.00769012 1.3383816e-38 306 234
-0.016639132 0.73000002 0.0076795998 1.3199424e-38 307 234
-0.0153592 0.73000002 0.0076795998 1.3563868e-38 308 234
-0.014040692 0.72799999 0.0076585598 1.3010695e-38 309 234
-0.012746733 0.727 0.0076480396 1.3468391e-38 310 234
-0.0114405 0.72500002 0.0076270006 1.3192164e-38 311 234
-0.010169334 0.72500002 0.0076270006 1.3009176e-38 312 234
-0.0088736191 0.72299999 0.0076059597 1.273223e-38 313 234
-0.0075743999 0.72000003 0.0075743999 1.236486e-38 314 234
-0.0063120001 0.72000003 0.0075743999 1.1719491e-38 315 234
-0.0050636264 0.722 0.0075954394 1.1078437e-38 316 234
-0.0037872 0.72000003 0.0075743999 1.1354665e-38 317 234
-0.0025248001 0.72000003 0.0075743999 1.1537993e-38 318 234
-0.0012624001 0.72000003 0.0075743999 1.1537993e-38 319 234
0 0.71899998 0.0075638802 1.1813851e-38 320 234
0.0012606466 0.71899998 0.0075638802 1.162946e-38 321 234
0.0025212932 0.71899998 0.0075638802 1.0892621e-38 322 234
0.0037819401 0.71899998 0.0075638802 1.1168848e-38 323 234
0.0050425865 0.71899998 0.0075638802 1.0434552e-38 324 234
0.0063032326 0.71899998 0.0075638802 1.0526747e-38 325 234
0.0075743999 0.72000003 0.0075743999 1.0894103e-38 326 234
0.0088367993 0.72000003 0.0075743999 1.0433125e-38 327 234
0.010127253 0.722 0.0075954394 1.0064655e-38 328 234
0.01139316 0.722 0.0075954394 9.6958727e-39 329 234
0.012676599 0.72299999 0.0076059597 9.8805751e-39 330 234
0.013982833 0.72500002 0.0076270006 9.7880207e-39 331 234
0.015254001 0.72500002 0.0076270006 9.6951118e-39 332 234
0.016570752 0.727 0.0076480396 9.8795031e-39 333 234
0.017845426 0.727 0.0076480396 1.0522018e-38 334 234
0.019120099 0.727 0.0076480396 1.0798964e-38 335 234
0.020394772 0.727 0.0076480396 1.134891e-38 336 234
0.021699252 0.72799999 0.0076585598 1.03344e-38 337 234
0.022975679 0.72799999 0.0076585598 8.7703193e-39 338 234
0.024318734 0.73000002 0.0076795998 9.139462e-39 339 234
0.025598666 0.73000002 0.0076795998 9.4171405e-39 340 234
0.026915418 0.73100001 0.00769012 9.6015317e-39 341 234
0.028505694 0.73900002 0.0077742799 1.0150425e-38 342 234
0.029680425 0.736 0.0077427197 1.0427011e-38 343 234
0.030970879 0.736 0.0077427197 1.2267376e-38 344 234
-0.025914267 0.73900002 0.0064785667 1.4759227e-38 300 235
-0.024618553 0.73900002 0.0064785667 1.4298607e-38 301 235
-0.023133477 0.73299998 0.0064259665 1.3563555e-38 302 235
-0.021848286 0.73299998 0.0064259665 1.3748305e-38 303 235
-0.020563092 0.73299998 0.0064259665 1.3749403e-38 304 235
-0.019277899 0.73299998 0.0064259665 1.402563e-38 305 235
-0.017943613 0.73100001 0.006408433 1.4578082e-38 306 235
-0.016661927 0.73100001 0.006408433 1.4578082e-38 307 235
-0.0153592 0.73000002 0.0063996664 1.4669535e-38 308 235
-0.014079267 0.73000002 0.0063996664 1.4116361e-38 309 235
-0.012764266 0.72799999 0.0063821329 1.411415e-38 310 235
-0.01147206 0.727 0.0063733663 1.3100357e-38 311 235
-0.010197386 0.727 0.0063733663 1.3101367e-38 312 235
-0.0088981669 0.72500002 0.0063558333 1.2548552e-38 313 235
-0.0076059597 0.72299999 0.0063382997 1.2181164e-38 314 235
-0.0063382997 0.72299999 0.0063382997 1.181274e-38 315 235
-0.0050636264 0.722 0.0063295332 1.1170605e-38 316 235
-0.0037977197 0.722 0.0063295332 1.1447552e-38 317 235
-0.0025248001 0.72000003 0.0063120001 1.2090047e-38 318 235
-0.0012624001 0.72000003 0.0063120001 1.2090047e-38 319 235
0 0.72000003 0.0063120001 1.245559e-38 320 235
0.0012624001 0.72000003 0.0063120001 1.2547786e-38 321 235
0.0025212932 0.71899998 0.0063032326 1.2362343e-38 322 235
0.0037819401 0.71899998 0.0063032326 1.2454539e-38 323 235
0.0050425865 0.71899998 0.0063032326 1.1627334e-38 324 235
0.0063120001 0.72000003 0.0063120001 1.171953e-38 325 235
0.0075954394 0.722 0.0063295332 1.2086858e-38 326 235
0.0088613462 0.722 0.0063295332 1.1257457e-38 327 235
0.01014128 0.72299999 0.0063382997 1.0615283e-38 328 235
0.01140894 0.72299999 0.0063382997 1.0431252e-38 329 235
0.012711667 0.72500002 0.0063558333 1.0154642e-38 330 235
0.013982833 0.72500002 0.0063558333 1.0062447e-38 331 235
0.015254001 0.72500002 0.0063558333 9.9702666e-39 332 235
0.016570752 0.727 0.0063733663 1.0062462e-38 333 235
0.017845426 0.727 0.0063733663 1.0889374e-38 334 235
0.019120099 0.727 0.0063733663 1.0797178e-38 335 235
0.020394772 0.727 0.0063733663 9.875948e-39 336 235
0.021699252 0.72799999 0.0063821329 9.5071655e-39 337 235
0.023038799 0.73000002 0.0063996664 1.0057468e-38 338 235
0.024352046 0.73100001 0.006408433 1.0702837e-38 339 235
0.025633732 0.73100001 0.006408433 1.0059648e-38 340 235
0.027209979 0.73900002 0.0064785667 9.9674528e-39 341 235
0.028505694 0.73900002 0.0064785667 1.005933e-38 342 235
0.029882059 0.741 0.0064960998 1.1073122e-38 343 235
0.03118128 0.741 0.0064960998 1.3094634e-38 344 235
-0.025738932 0.73400003 0.0051477868 1.5127669e-38 300 236
-0.024451986 0.73400003 0.0051477868 1.5035113e-38 301 236
-0.023165042 0.73400003 0.0051477868 1.3747617e-38 302 236
-0.021878093 0.73400003 0.0051477868 1.264127e-38 303 236
-0.020591147 0.73400003 0.0051477868 1.3287006e-38 304 236
-0.019304199 0.73400003 0.0051477868 1.4117125e-38 305 236
-0.017992707 0.73299998 0.005140773 1.4761041e-38 306 236
-0.016707512 0.73299998 0.005140773 1.4484813e-38 307 236
-0.01538024 0.73100001 0.0051267464 1.4577712e-38 308 236
-0.014098554 0.73100001 0.0051267464 1.4577712e-38 309 236
-0.012799333 0.73000002 0.0051197335 1.4852113e-38 310 236
-0.01148784 0.72799999 0.0051057064 1.3837601e-38 311 236
-0.010197386 0.727 0.0050986931 1.2828433e-38 312 236
-0.0089227129 0.727 0.0050986931 1.227526e-38 313 236
-0.0076270006 0.72500002 0.0050846669 1.2644028e-38 314 236
-0.0063558333 0.72500002 0.0050846669 1.2736225e-38 315 236
-0.0050706398 0.72299999 0.0050706398 1.2552575e-38 316 236
-0.0037977197 0.722 0.0050636264 1.2828802e-38 317 236
-0.0025318132 0.722 0.0050636264 1.3287259e-38 318 236
-0.0012659066 0.722 0.0050636264 1.2826282e-38 319 236
0 0.72000003 0.0050496003 1.2454947e-38 320 236
0.0012624001 0.72000003 0.0050496003 1.2547142e-38 321 236
0.0025248001 0.72000003 0.0050496003 1.3007009e-38 322 236
0.0037872 0.72000003 0.0050496003 1.2730062e-38 323 236
0.0050496003 0.72000003 0.0050496003 1.2362709e-38 324 236
0.0063295332 0.722 0.0050636264 1.2270513e-38 325 236
0.0075954394 0.722 0.0050636264 1.2085731e-38 326 236
0.0088736191 0.72299999 0.0050706398 1.1440362e-38 327 236
0.01014128 0.72299999 0.0050706398 1.1257382e-38 328 236
0.0114405 0.72500002 0.0050846669 1.1257382e-38 329 236
0.012711667 0.72500002 0.0050846669 1.070602e-38 330 236
0.014021406 0.727 0.0050986931 1.0613824e-38 331 236
0.015296079 0.727 0.0050986931 1.0060692e-38 332 236
0.016570752 0.727 0.0050986931 1.0060692e-38 333 236
0.017869972 0.72799999 0.0051057064 1.1071267e-38 334 236
0.0191464 0.72799999 0.0051057064 1.0702484e-38 335 236
0.020422826 0.72799999 0.0051057064 9.2295038e-39 336 236
0.021758866 0.73000002 0.0051197335 9.5060893e-39 337 236
0.023038799 0.73000002 0.0051197335 1.0793253e-38 338 236
0.024418673 0.73299998 0.005140773 1.153082e-38 339 236
0.025984399 0.741 0.0051968796 1.0335539e-38 340 236
0.027283618 0.741 0.0051968796 9.9667549e-39 341 236
0.028582839 0.741 0.0051968796 1.0886953e-38 342 236
0.029882059 0.741 0.0051968796 1.2177691e-38 343 236
0.031223357 0.74199998 0.0052038929 1.3830419e-38 344 236
0.032524332 0.74199998 0.0052038929 1.4014812e-38 345 236
-0.024951685 0.74900001 0.0039397399 1.5127681e-38 301 237
-0.02087168 0.74400002 0.0039134403 8.961022e-39 304 237
-0.019356798 0.736 0.0038713599 1.0343956e-38 305 237
-0.018017253 0.73400003 0.0038608401 1.2922895e-38 306 237
-0.016730307 0.73400003 0.0038608401 1.2461917e-38 307 237
-0.015422319 0.73299998 0.0038555798 1.2182774e-38 308 237
-0.014137126 0.73299998 0.0038555798 1.1998024e-38 309 237
-0.012816866 0.73100001 0.00384506 1.1633528e-38 310 237
-0.011519399 0.73000002 0.0038397999 1.1356581e-38 311 237
-0.010211413 0.72799999 0.0038292799 1.1356916e-38 312 237
-0.0089349858 0.72799999 0.0038292799 1.1449112e-38 313 237
-0.0076480396 0.727 0.0038240198 1.2184881e-38 314 237
-0.0063733663 0.727 0.0038240198 1.2553663e-38 315 237
-0.0050846669 0.72500002 0.0038135003 1.2827395e-38 316 237
-0.0038135003 0.72500002 0.0038135003 1.2919592e-38 317 237
-0.0025353199 0.72299999 0.0038029798 1.2919948e-38 318 237
-0.0012676599 0.72299999 0.0038029798 1.2366774e-38 319 237
0 0.72299999 0.0038029798 1.061648e-38 320 237
0.0012676599 0.72299999 0.0038029798 1.1446599e-38 321 237
0.0025318132 0.722 0.0037977197 1.3101782e-38 322 237
0.0037977197 0.722 0.0037977197 1.2917032e-38 323 237
0.0050706398 0.72299999 0.0038029798 1.319143e-38 324 237
0.0063382997 0.72299999 0.0038029798 1.2823006e-38 325 237
0.0076059597 0.72299999 0.0038029798 1.2361634e-38 326 237
0.0088736191 0.72299999 0.0038029798 1.1808819e-38 327 237
0.010169334 0.72500002 0.0038135003 1.2085396e-38 328 237
0.0114405 0.72500002 0.0038135003 1.2177592e-38 329 237
0.012746733 0.727 0.0038240198 1.1901396e-38 330 237
0.014021406 0.727 0.0038240198 1.1901396e-38 331 237
0.015296079 0.727 0.0038240198 1.1717031e-38 332 237
0.016570752 0.727 0.0038240198 1.1163858e-38 333 237
0.017869972 0.72799999 0.0038292799 1.1254607e-38 334 237
0.0191464 0.72799999 0.0038292799 1.0701435e-38 335 237
0.020422826 0.72799999 0.0038292799 1.0517405e-38 336 237
0.021758866 0.73000002 0.0038397999 1.1531917e-38 337 237
0.02307036 0.73100001 0.00384506 1.2542138e-38 338 237
0.024618553 0.73900002 0.00388714 1.208116e-38 339 237
0.025984399 0.741 0.0038976599 1.0887309e-38 340 237
0.027320439 0.74199998 0.0039029196 1.1255731e-38 341 237
0.028621411 0.74199998 0.0039029196 1.2358515e-38 342 237
0.029922385 0.74199998 0.0039029196 1.3187916e-38 343 237
0.031223357 0.74199998 0.0039029196 1.3554921e-38 344 237
0.032524332 0.74199998 0.0039029196 1.3739314e-38 345 237
0.033825304 0.74199998 0.0039029196 1.7329902e-38 346 237
-0.022325192 0.74900001 0.0026264933 1.2362904e-38 303 238
-0.020955838 0.74699998 0.0026194798 7.3015049e-39 304 238
-0.019567199 0.74400002 0.00260896 8.223101e-39 305 238
-0.018115439 0.73799998 0.0025879198 1.2920731e-38 306 238
-0.016775893 0.736 0.0025809065 1.2459393e-38 307 238
-0.015485439 0.736 0.0025809065 1.0801574e-38 308 238
-0.014194986 0.736 0.0025809065 9.6952267e-39 309 238
-0.012869466 0.73400003 0.0025738934 8.9633524e-39 310 238
-0.011566739 0.73299998 0.0025703865 9.3317748e-39 311 238
-0.010253493 0.73100001 0.0025633732 9.4254348e-39 312 238
-0.0089718066 0.73100001 0.0025633732 1.0163001e-38 313 238
-0.0076795998 0.73000002 0.0025598668 1.0621149e-38 314 238
-0.0063821329 0.72799999 0.0025528532 1.08059e-38 315 238
-0.0051057064 0.72799999 0.0025528532 1.1355496e-38 316 238
-0.0038240198 0.727 0.0025493465 1.1539528e-38 317 238
-0.0025493465 0.727 0.0025493465 1.1540253e-38 318 238
-0.0012746733 0.727 0.0025493465 1.1171471e-38 319 238
0 0.727 0.0025493465 1.0433197e-38 320 238
0.0012711667 0.72500002 0.0025423334 1.1263316e-38 321 238
0.0025423334 0.72500002 0.0025423334 1.2826692e-38 322 238
0.0038135003 0.72500002 0.0025423334 1.3103639e-38 323 238
0.0050986931 0.727 0.0025493465 1.3469526e-38 324 238
0.0063733663 0.727 0.0025493465 1.3192938e-38 325 238
0.0076270006 0.72500002 0.0025423334 1.3100004e-38 326 238
0.0088981669 0.72500002 0.0025423334 1.2270243e-38 327 238
0.010197386 0.727 0.0025493465 1.2455723e-38 328 238
0.01147206 0.727 0.0025493465 1.2640114e-38 329 238
0.012764266 0.72799999 0.0025528532 1.236355e-38 330 238
0.014040692 0.72799999 0.0025528532 1.2271354e-38 331 238
0.01531712 0.72799999 0.0025528532 1.2638695e-38 332 238
0.016593546 0.72799999 0.0025528532 1.2269552e-38 333 238
0.017869972 0.72799999 0.0025528532 1.1439408e-38 334 238
0.019199001 0.73000002 0.0025598668 1.134721e-38 335 238
0.020478934 0.73000002 0.0025598668 1.1899315e-38 336 238
0.021788673 0.73100001 0.0025633732 1.3005304e-38 337 238
0.023322839 0.73900002 0.0025914267 1.3371947e-38 338 238
0.024685178 0.741 0.0025984398 1.2449632e-38 339 238
0.026019465 0.74199998 0.0026019465 1.1623469e-38 340 238
0.027320439 0.74199998 0.0026019465 1.2268839e-38 341 238
0.028621411 0.74199998 0.0026019465 1.3369808e-38 342 238
0.030003037 0.74400002 0.00260896 1.35542e-38 343 238
0.031307522 0.74400002 0.00260896 1.35542e-38 344 238
0.032612 0.74400002 0.00260896 1.3646754e-38 345 238
0.033916477 0.74400002 0.00260896 1.7053671e-38 346 238
-0.02637013 0.75199997 0.0013185065 1.3103711e-38 300 239
-0.025051624 0.75199997 0.0013185065 1.4117865e-38 301 239
-0.023733119 0.75199997 0.0013185065 1.4483409e-38 302 239
-0.022325192 0.74900001 0.0013132467 1.2455105e-38 303 239
-0.021011947 0.74900001 0.0013132467 9.322969e-39 304 239
-0.019619798 0.74599999 0.0013079866 1.0337121e-38 305 239
-0.018189078 0.741 0.0012992199 1.4389749e-38 306 239
-0.016821479 0.73799998 0.0012939599 1.4389749e-38 307 239
-0.015527519 0.73799998 0.0012939599 1.3469895e-38 308 239
-0.014194986 0.736 0.0012904532 1.2179156e-38 309 239
-0.012904533 0.736 0.0012904532 1.0985596e-38 310 239
-0.011582521 0.73400003 0.0012869467 1.0524619e-38 311 239
-0.010281546 0.73299998 0.0012851933 9.7002294e-39 312 239
-0.0089963535 0.73299998 0.0012851933 9.6080337e-39 313 239
-0.00769012 0.73100001 0.0012816866 8.5056533e-39 314 239
-0.0063996664 0.73000002 0.0012799334 8.5056533e-39 315 239
-0.0051197335 0.73000002 0.0012799334 7.8617608e-39 316 239
-0.0038292799 0.72799999 0.0012764266 8.1387064e-39 317 239
-0.0025528532 0.72799999 0.0012764266 9.8861424e-39 318 239
-0.0012764266 0.72799999 0.0012764266 1.0439316e-38 319 239
0 0.72799999 0.0012764266 1.2182052e-38 320 239
0.0012764266 0.72799999 0.0012764266 1.1720714e-38 321 239
0.0025493465 0.727 0.0012746733 1.0157685e-38 322 239
0.0038240198 0.727 0.0012746733 9.7892623e-39 323 239
0.0050986931 0.727 0.0012746733 1.0248773e-38 324 239
0.0063733663 0.727 0.0012746733 1.0433165e-38 325 239
0.0076480396 0.727 0.0012746733 1.0709735e-38 326 239
0.0089227129 0.727 0.0012746733 1.0617539e-38 327 239
0.010211413 0.72799999 0.0012764266 1.0434239e-38 328 239
0.01148784 0.72799999 0.0012764266 1.0434239e-38 329 239
0.012764266 0.72799999 0.0012764266 1.098384e-38 330 239
0.014040692 0.72799999 0.0012764266 1.1076035e-38 331 239
0.01531712 0.72799999 0.0012764266 1.1443745e-38 332 239
0.016639132 0.73000002 0.0012799334 1.1351549e-38 333 239
0.017919067 0.73000002 0.0012799334 1.1533068e-38 334 239
0.019225299 0.73100001 0.0012816866 1.208624e-38 335 239
0.020506985 0.73100001 0.0012816866 1.3187565e-38 336 239
0.022027127 0.73900002 0.0012957134 1.3279761e-38 337 239
0.023385961 0.741 0.0012992199 1.318578e-38 338 239
0.024718491 0.74199998 0.0013009732 1.2816637e-38 339 239
0.026019465 0.74199998 0.0013009732 1.2541492e-38 340 239
0.027320439 0.74199998 0.0013009732 1.2910635e-38 341 239
0.02869856 0.74400002 0.00130448 1.3093947e-38 342 239
0.03008369 0.74599999 0.0013079866 1.3278339e-38 343 239
0.031391677 0.74599999 0.0013079866 1.3736077e-38 344 239
0.032699663 0.74599999 0.0013079866 1.4197055e-38 345 239
0.034007654 0.74599999 0.0013079866 1.6961475e-38 346 239
-0.02637013 0.75199997 -0 1.2366519e-38 300 240
-0.025051624 0.75199997 -0 1.3565062e-38 301 240
-0.023669999 0.75 -0 1.384056e-38 302 240
-0.022355 0.75 -0 1.2272876e-38 303 240
-0.02104 0.75 -0 1.0335322e-38 304 240
-0.0196987 0.74900001 -0 1.0704106e-38 305 240
-0.018336359 0.74699998 -0 1.3281253e-38 306 240
-0.016889861 0.741 -0 1.4295046e-38 307 240
-0.01559064 0.741 -0 1.3375945e-38 308 240
-0.014252847 0.73900002 -0 1.2453988e-38 309 240
-0.012939599 0.73799998 -0 1.1629953e-38 310 240
-0.01161408 0.736 -0 1.1260811e-38 311 240
-0.010323626 0.736 -0 1.0252331e-38 312 240
-0.0090331733 0.736 -0 9.4225705e-39 313 240
-0.0077216802 0.73400003 -0 8.9644188e-39 314 240
-0.006434733 0.73400003 -0 8.9644188e-39 315 240
-0.005140773 0.73299998 -0 8.9644762e-39 316 240
-0.00384506 0.73100001 -0 9.6098456e-39 317 240
-0.0025633732 0.73100001 -0 1.1265128e-38 318 240
-0.0012799334 0.73000002 -0 1.2187443e-38 319 240
0 0.73000002 -0 1.3380242e-38 320 240
0.0012799334 0.73000002 -0 1.2458285e-38 321 240
0.0025598668 0.73000002 -0 1.1168908e-38 322 240
0.0038397999 0.73000002 -0 9.6941379e-39 323 240
0.0051197335 0.73000002 -0 9.0522984e-39 324 240
0.0063996664 0.73000002 -0 9.3292454e-39 325 240
0.0076585598 0.72799999 -0 9.1470122e-39 326 240
0.0089349858 0.72799999 -0 9.2395665e-39 327 240
0.010239467 0.73000002 -0 9.2395819e-39 328 240
0.011519399 0.73000002 -0 9.2395819e-39 329 240
0.012799333 0.73000002 -0 9.7888265e-39 330 240
0.014079267 0.73000002 -0 1.0065772e-38 331 240
0.0153592 0.73000002 -0 1.070688e-38 332 240
0.016639132 0.73000002 -0 1.0983467e-38 333 240
0.017943613 0.73100001 -0 1.1533089e-38 334 240
0.019304199 0.73400003 -0 1.1993708e-38 335 240
0.020731414 0.73900002 -0 1.3461654e-38 336 240
0.02208674 0.741 -0 1.3093231e-38 337 240
0.023417519 0.74199998 -0 1.1347988e-38 338 240
0.024718491 0.74199998 -0 1.1532379e-38 339 240
0.026019465 0.74199998 -0 1.3001396e-38 340 240
0.027320439 0.74199998 -0 1.2909199e-38 341 240
0.028775707 0.74599999 -0 1.2818086e-38 342 240
0.03008369 0.74599999 -0 1.2818086e-38 343 240
0.031433757 0.74699998 -0 1.3001398e-38 344 240
0.032743499 0.74699998 -0 1.3831159e-38 345 240
-0.032569919 0.77399999 -0.0013570799 1.7518617e-38 296 241
-0.031212838 0.77399999 -0.0013570799 1.6781052e-38 297 241
-0.029855758 0.77399999 -0.0013570799 1.558362e-38 298 241
-0.02637013 0.75199997 -0.0013185065 1.1446358e-38 300 241
-0.025051624 0.75199997 -0.0013185065 1.2644901e-38 301 241
-0.023669999 0.75 -0.001315 1.3287752e-38 302 241
-0.022355 0.75 -0.001315 1.2550187e-38 303 241
-0.02104 0.75 -0.001315 1.0059458e-38 304 241
-0.0196987 0.74900001 -0.0013132467 8.6765234e-39 305 241
-0.018336359 0.74699998 -0.0013097399 9.4079816e-39 306 241
-0.017026618 0.74699998 -0.0013097399 9.2235889e-39 307 241
-0.015653761 0.74400002 -0.00130448 7.5716276e-39 308 241
-0.01429142 0.741 -0.0012992199 6.8340625e-39 309 241
-0.012957133 0.73900002 -0.0012957134 6.6564858e-39 310 241
-0.011645639 0.73799998 -0.0012939599 9.3301591e-39 311 241
-0.010351679 0.73799998 -0.0012939599 1.2825639e-38 312 241
-0.0090577193 0.73799998 -0.0012939599 1.2733442e-38 313 241
-0.0077427197 0.736 -0.0012904532 1.098745e-38 314 241
-0.0064522666 0.736 -0.0012904532 1.0434634e-38 315 241
-0.0051477868 0.73400003 -0.0012869467 1.1631025e-38 316 241
-0.0038555798 0.73299998 -0.0012851933 1.2460787e-38 317 241
-0.0025703865 0.73299998 -0.0012851933 1.3103301e-38 318 241
-0.0012816866 0.73100001 -0.0012816866 1.2827074e-38 319 241
0 0.73100001 -0.0012816866 1.2644128e-38 320 241
0.0012816866 0.73100001 -0.0012816866 1.2644128e-38 321 241
0.0025633732 0.73100001 -0.0012816866 1.3285149e-38 322 241
0.0038397999 0.73000002 -0.0012799334 1.2363553e-38 323 241
0.0051197335 0.73000002 -0.0012799334 1.0802278e-38 324 241
0.0063996664 0.73000002 -0.0012799334 9.6959302e-39 325 241
0.0076795998 0.73000002 -0.0012799334 9.7898817e-39 326 241
0.0089595336 0.73000002 -0.0012799334 9.7898817e-39 327 241
0.010253493 0.73100001 -0.0012816866 9.6062205e-39 328 241
0.011519399 0.73000002 -0.0012799334 9.6984161e-39 329 241
0.012799333 0.73000002 -0.0012799334 1.0156911e-38 330 241
0.014098554 0.73100001 -0.0012816866 1.0433139e-38 331 241
0.01538024 0.73100001 -0.0012816866 1.0707977e-38 332 241
0.016661927 0.73100001 -0.0012816866 1.0707977e-38 333 241
0.017992707 0.73299998 -0.0012851933 1.1071407e-38 334 241
0.019356798 0.736 -0.0012904532 1.0702266e-38 335 241
0.020731414 0.73900002 -0.0012957134 1.2078016e-38 336 241
0.02208674 0.741 -0.0012992199 1.1340451e-38 337 241
0.023417519 0.74199998 -0.0013009732 8.2165864e-39 338 241
0.024718491 0.74199998 -0.0013009732 9.8757476e-39 339 241
0.026089599 0.74400002 -0.00130448 1.281773e-38 340 241
0.027467718 0.74599999 -0.0013079866 1.281773e-38 341 241
0.028814279 0.74699998 -0.0013097399 1.3091792e-38 342 241
0.030124018 0.74699998 -0.0013097399 1.2446423e-38 343 241
-0.033927001 0.77399999 -0.0027141599 1.7977072e-38 295 242
-0.032569919 0.77399999 -0.0027141599 1.7426422e-38 296 242
-0.031212838 0.77399999 -0.0027141599 1.6873248e-38 297 242
-0.029855758 0.77399999 -0.0027141599 1.5767286e-38 298 242
-0.028498679 0.77399999 -0.0027141599 1.3831177e-38 299 242
-0.027141599 0.77399999 -0.0027141599 1.0802065e-38 300 242
-0.024984999 0.75 -0.00263 1.1908412e-38 301 242
-0.023669999 0.75 -0.00263 1.2827497e-38 302 242
-0.022355 0.75 -0.00263 1.2458716e-38 303 242
-0.02104 0.75 -0.00263 1.1809733e-38 304 242
-0.0196987 0.74900001 -0.0026264933 1.0334603e-38 305 242
-0.018385453 0.74900001 -0.0026264933 9.2261099e-39 306 242
-0.017026618 0.74699998 -0.0026194798 7.3821973e-39 307 242
-0.015695838 0.74599999 -0.0026159731 6.0958039e-39 308 242
-0.01434928 0.74400002 -0.00260896 5.9117727e-39 309 242
-0.0129922 0.741 -0.0025984398 4.995203e-39 310 242
-0.01169298 0.741 -0.0025984398 8.3142471e-39 311 242
-0.010365707 0.73900002 -0.0025914267 1.337598e-38 312 242
-0.0090699932 0.73900002 -0.0025914267 1.3929153e-38 313 242
-0.0077637597 0.73799998 -0.0025879198 1.1447396e-38 314 242
-0.0064697997 0.73799998 -0.0025879198 1.0433243e-38 315 242
-0.005161813 0.736 -0.0025809065 1.2366111e-38 316 242
-0.0038713599 0.736 -0.0025809065 1.3103678e-38 317 242
-0.0025738934 0.73400003 -0.0025738934 1.2827808e-38 318 242
-0.0012869467 0.73400003 -0.0025738934 1.2551223e-38 319 242
0 0.73400003 -0.0025738934 1.2733819e-38 320 242
0.0012869467 0.73400003 -0.0025738934 1.2733819e-38 321 242
0.0025738934 0.73400003 -0.0025738934 1.2826718e-38 322 242
0.0038555798 0.73299998 -0.0025703865 1.236538e-38 323 242
0.005140773 0.73299998 -0.0025703865 1.2089817e-38 324 242
0.0064259665 0.73299998 -0.0025703865 1.0706524e-38 325 242
0.0077111595 0.73299998 -0.0025703865 1.0064716e-38 326 242
0.0089963535 0.73299998 -0.0025703865 9.9725199e-39 327 242
0.010295574 0.73400003 -0.0025738934 1.0155482e-38 328 242
0.011582521 0.73400003 -0.0025738934 1.043207e-38 329 242
0.012869466 0.73400003 -0.0025738934 1.0890918e-38 330 242
0.014156413 0.73400003 -0.0025738934 1.1351896e-38 331 242
0.01544336 0.73400003 -0.0025738934 1.1534881e-38 332 242
0.016821479 0.73799998 -0.0025879198 1.1442685e-38 333 242
0.018139986 0.73900002 -0.0025914267 1.0791596e-38 334 242
0.019488299 0.741 -0.0025984398 9.961835e-39 335 242
0.020815572 0.74199998 -0.0026019465 9.5001562e-39 336 242
0.022116546 0.74199998 -0.0026019465 9.0391794e-39 337 242
0.023417519 0.74199998 -0.0026019465 8.0246548e-39 338 242
0.024718491 0.74199998 -0.0026019465 1.0698328e-38 339 242
0.026159734 0.74599999 -0.0026159731 1.3001048e-38 340 242
0.027578179 0.74900001 -0.0026264933 1.2355679e-38 341 242
0.028891427 0.74900001 -0.0026264933 1.1251482e-38 342 242
0.030204674 0.74900001 -0.0026264933 1.0513917e-38 343 242
-0.034014668 0.77600002 -0.0040817601 1.8068548e-38 295 243
-0.032569919 0.77399999 -0.0040712398 1.7701927e-38 296 243
-0.031212838 0.77399999 -0.0040712398 1.6872526e-38 297 243
-0.029855758 0.77399999 -0.0040712398 1.5584324e-38 298 243
-0.028498679 0.77399999 -0.0040712398 1.3740411e-38 299 243
-0.027141599 0.77399999 -0.0040712398 1.080062e-38 300 243
-0.024984999 0.75 -0.003945 1.1814772e-38 301 243
-0.023669999 0.75 -0.003945 1.2182131e-38 302 243
-0.022355 0.75 -0.003945 1.2182131e-38 303 243
-0.02104 0.75 -0.003945 1.2547301e-38 304 243
-0.0196987 0.74900001 -0.0039397399 1.2362909e-38 305 243
-0.018385453 0.74900001 -0.0039397399 1.0977098e-38 306 243
-0.017026618 0.74699998 -0.0039292197 8.3956205e-39 307 243
-0.015695838 0.74599999 -0.0039239596 6.2791035e-39 308 243
-0.014387853 0.74599999 -0.0039239596 6.2791035e-39 309 243
-0.0130448 0.74400002 -0.0039134403 5.1774433e-39 310 243
-0.01170876 0.74199998 -0.0039029196 7.3904985e-39 311 243
-0.010407786 0.74199998 -0.0039029196 1.1166184e-38 312 243
-0.009106813 0.74199998 -0.0039029196 1.2456564e-38 313 243
-0.0077953199 0.741 -0.0038976599 1.208667e-38 314 243
-0.0064785667 0.73900002 -0.00388714 1.1441301e-38 315 243
-0.0051758396 0.73799998 -0.0038818798 1.2916781e-38 316 243
-0.0038818798 0.73799998 -0.0038818798 1.4023127e-38 317 243
-0.0025809065 0.736 -0.0038713599 1.3747263e-38 318 243
-0.0012904532 0.736 -0.0038713599 1.3378841e-38 319 243
0 0.736 -0.0038713599 1.319444e-38 320 243
0.0012869467 0.73400003 -0.0038608401 1.2826018e-38 321 243
0.0025738934 0.73400003 -0.0038608401 1.2366109e-38 322 243
0.0038608401 0.73400003 -0.0038608401 1.2734891e-38 323 243
0.0051477868 0.73400003 -0.0038608401 1.2827071e-38 324 243
0.006434733 0.73400003 -0.0038608401 1.1074994e-38 325 243
0.0077216802 0.73400003 -0.0038608401 9.6016648e-39 326 243
0.0090331733 0.736 -0.0038713599 9.417275e-39 327 243
0.010323626 0.736 -0.0038713599 9.8753819e-39 328 243
0.011645639 0.73799998 -0.0038818798 1.0520751e-38 329 243
0.012957133 0.73900002 -0.00388714 1.1532382e-38 330 243
0.014252847 0.73900002 -0.00388714 1.2177752e-38 331 243
0.01554856 0.73900002 -0.00388714 1.1992287e-38 332 243
0.016844273 0.73900002 -0.00388714 1.1254722e-38 333 243
0.018189078 0.741 -0.0038976599 9.7767445e-39 334 243
0.0195146 0.74199998 -0.0039029196 8.2094174e-39 335 243
0.020815572 0.74199998 -0.0039029196 6.4609612e-39 336 243
0.022176161 0.74400002 -0.0039134403 7.3829161e-39 337 243
0.023480639 0.74400002 -0.0039134403 8.3019773e-39 338 243
0.02478512 0.74400002 -0.0039134403 1.0607227e-38 339 243
0.0263 0.75 -0.003945 1.2540436e-38 340 243
0.027688639 0.75199997 -0.0039555198 1.0696882e-38 341 243
0.029084291 0.75400001 -0.00396604 9.3182578e-39 342 243
0.030446632 0.755 -0.0039712996 9.5952049e-39 343 243
0.031770397 0.755 -0.0039712996 1.2634044e-38 344 243
-0.034014668 0.77600002 -0.0054423464 1.7977072e-38 295 244
-0.032569919 0.77399999 -0.0054283198 1.7702283e-38 296 244
-0.031212838 0.77399999 -0.0054283198 1.6595936e-38 297 244
-0.029855758 0.77399999 -0.0054283198 1.5033302e-38 298 244
-0.028461859 0.773 -0.0054213065 1.3465616e-38 299 244
-0.027106533 0.773 -0.0054213065 1.2086317e-38 300 244
-0.025751207 0.773 -0.0054213065 1.2270708e-38 301 244
-0.023733119 0.75199997 -0.0052740262 1.1904468e-38 302 244
-0.022414612 0.75199997 -0.0052740262 1.1904468e-38 303 244
-0.021152213 0.75400001 -0.0052880533 1.1811903e-38 304 244
-0.0198565 0.755 -0.0052950666 1.1904099e-38 305 244
-0.018409999 0.75 -0.00526 1.3005402e-38 306 244
-0.017072206 0.74900001 -0.0052529867 1.1438076e-38 307 244
-0.015716879 0.74699998 -0.0052389596 9.4105011e-39 308 244
-0.014407139 0.74699998 -0.0052389596 8.1197623e-39 309 244
-0.013079867 0.74599999 -0.0052319462 5.5444336e-39 310 244
-0.011771879 0.74599999 -0.0052319462 4.8990655e-39 311 244
-0.01043584 0.74400002 -0.0052179201 4.6347064e-39 312 244
-0.0091313599 0.74400002 -0.0052179201 7.4924122e-39 313 244
-0.0077953199 0.741 -0.0051968796 1.1251896e-38 314 244
-0.0064960998 0.741 -0.0051968796 1.0513972e-38 315 244
-0.0051828534 0.73900002 -0.0051828534 1.0336405e-38 316 244
-0.00388714 0.73900002 -0.0051828534 1.1534588e-38 317 244
-0.0025879198 0.73799998 -0.0051758396 1.2269636e-38 318 244
-0.0012939599 0.73799998 -0.0051758396 1.2546222e-38 319 244
0 0.736 -0.005161813 1.3283771e-38 320 244
0.0012904532 0.736 -0.005161813 1.3006826e-38 321 244
0.0025809065 0.736 -0.005161813 1.2636952e-38 322 244
0.0038713599 0.736 -0.005161813 1.2729506e-38 323 244
0.005161813 0.736 -0.005161813 1.2085231e-38 324 244
0.0064522666 0.736 -0.005161813 7.4754495e-39 325 244
0.0077427197 0.736 -0.005161813 3.0695008e-39 326 244
0.0090577193 0.73799998 -0.0051758396 5.559143e-39 327 244
0.010365707 0.73900002 -0.0051828534 7.7552902e-39 328 244
0.01169298 0.741 -0.0051968796 7.3868664e-39 329 244
0.0129922 0.741 -0.0051968796 9.138212e-39 330 244
0.01429142 0.741 -0.0051968796 1.0244558e-38 331 244
0.01559064 0.741 -0.0051968796 8.028989e-39 332 244
0.016912652 0.74199998 -0.0052038929 6.7382502e-39 333 244
0.018213626 0.74199998 -0.0052038929 6.6439232e-39 334 244
0.0195146 0.74199998 -0.0052038929 6.3673363e-39 335 244
0.02087168 0.74400002 -0.0052179201 7.4704426e-39 336 244
0.022176161 0.74400002 -0.0052179201 9.5909435e-39 337 244
0.023543758 0.74599999 -0.0052319462 1.1431943e-38 338 244
0.024851745 0.74599999 -0.0052319462 1.1985117e-38 339 244
0.026440267 0.75400001 -0.0052880533 1.0700479e-38 340 244
0.027762281 0.75400001 -0.0052880533 9.040599e-39 341 244
0.029084291 0.75400001 -0.0052880533 9.1331505e-39 342 244
0.030446632 0.755 -0.0052950666 1.0516085e-38 343 244
0.032359518 0.76899999 -0.0053932532 1.3737871e-38 344 244
0.033795502 0.77100003 -0.0054072798 1.5305198e-38 345 244
-0.034014668 0.77600002 -0.0068029333 1.8252217e-38 295 245
-0.032569919 0.77399999 -0.0067853997 1.7792678e-38 296 245
-0.031212838 0.77399999 -0.0067853997 1.6871081e-38 297 245
-0.029855758 0.77399999 -0.0067853997 1.5215166e-38 298 245
-0.028461859 0.773 -0.0067766332 1.4016622e-38 299 245
-0.027036399 0.77100003 -0.0067590997 1.3373816e-38 300 245
-0.02568458 0.77100003 -0.0067590997 1.2820642e-38 301 245
-0.023827799 0.755 -0.0066188332 1.126126e-38 302 245
-0.022474226 0.75400001 -0.0066100666 1.126126e-38 303 245
-0.021152213 0.75400001 -0.0066100666 1.0708443e-38 304 245
-0.019909101 0.75700003 -0.0066363667 1.0247466e-38 305 245
-0.018459093 0.75199997 -0.0065925326 1.2639863e-38 306 245
-0.017095 0.75 -0.006575 1.3193037e-38 307 245
-0.01575896 0.74900001 -0.0065662335 1.2360033e-38 308 245
-0.014445714 0.74900001 -0.0065662335 1.0700511e-38 309 245
-0.013097399 0.74699998 -0.0065486995 7.2039367e-39 310 245
-0.011787659 0.74699998 -0.0065486995 5.1756328e-39 311 245
-0.010463892 0.74599999 -0.0065399334 3.2496041e-39 312 245
-0.0091559067 0.74599999 -0.0065399334 6.844875e-39 313 245
-0.0078268806 0.74400002 -0.0065223998 1.0055164e-38 314 245
-0.0065048663 0.74199998 -0.0065048663 7.6580779e-39 315 245
-0.0051968796 0.741 -0.0064960998 7.7499176e-39 316 245
-0.0038976599 0.741 -0.0064960998 9.132852e-39 317 245
-0.0025914267 0.73900002 -0.0064785667 9.0442563e-39 318 245
-0.0012939599 0.73799998 -0.0064697997 9.3204831e-39 319 245
0 0.73799998 -0.0064697997 1.0336417e-38 320 245
0.0012939599 0.73799998 -0.0064697997 1.0613004e-38 321 245
0.0025879198 0.73799998 -0.0064697997 1.0702306e-38 322 245
0.0038818798 0.73799998 -0.0064697997 1.0610111e-38 323 245
0.0051758396 0.73799998 -0.0064697997 1.1066795e-38 324 245
0.0064697997 0.73799998 -0.0064697997 5.9960356e-39 325 245
0.0077637597 0.73799998 -0.0064697997 3.9550248e-40 326 245
0.0090699932 0.73900002 -0.0064785667 4.3599146e-39 327 245
0.010393759 0.741 -0.0064960998 7.1117354e-39 328 245
0.01170876 0.74199998 -0.0065048663 7.2042898e-39 329 245
0.013009733 0.74199998 -0.0065048663 9.3186558e-39 330 245
0.014310705 0.74199998 -0.0065048663 9.6870796e-39 331 245
0.015611678 0.74199998 -0.0065048663 6.1858219e-39 332 245
0.016912652 0.74199998 -0.0065048663 4.3419093e-39 333 245
0.01826272 0.74400002 -0.0065223998 4.7121491e-39 334 245
0.019619798 0.74599999 -0.0065399334 5.3575186e-39 335 245
0.020927785 0.74599999 -0.0065399334 8.3030746e-39 336 245
0.022265578 0.74699998 -0.0065486995 1.0423575e-38 337 245
0.02363844 0.74900001 -0.0065662335 1.2724117e-38 338 245
0.025351444 0.76099998 -0.0066714329 1.1433378e-38 339 245
0.026685731 0.76099998 -0.0066714329 9.1345981e-39 340 245
0.028020019 0.76099998 -0.0066714329 8.3044787e-39 341 245
0.029392879 0.76200002 -0.0066801999 9.5941259e-39 342 245
0.030809574 0.764 -0.006697733 1.1253647e-38 343 245
0.032359518 0.76899999 -0.0067415666 1.4289967e-38 344 245
0.033795502 0.77100003 -0.0067590997 1.5765456e-38 345 245
-0.033927001 0.77399999 -0.0081424797 1.7885958e-38 295 246
-0.032569919 0.77399999 -0.0081424797 1.7793403e-38 296 246
-0.031212838 0.77399999 -0.0081424797 1.7148034e-38 297 246
-0.029817186 0.773 -0.0081319595 1.5675778e-38 298 246
-0.028388219 0.77100003 -0.0081109209 1.4477235e-38 299 246
-0.026896132 0.76700002 -0.00806884 1.3925891e-38 300 246
-0.025551327 0.76700002 -0.00806884 1.3372717e-38 301 246
-0.023954039 0.759 -0.0079846792 1.0617679e-38 302 246
-0.02262326 0.759 -0.0079846792 1.0986103e-38 303 246
-0.021348584 0.76099998 -0.0080057196 1.1168702e-38 304 246
-0.020014299 0.76099998 -0.0080057196 1.1076148e-38 305 246
-0.018508185 0.75400001 -0.00793208 1.1261251e-38 306 246
-0.017140586 0.75199997 -0.0079110395 1.1629673e-38 307 246
-0.015822079 0.75199997 -0.0079110395 1.3008642e-38 308 246
-0.014465 0.75 -0.00789 1.2640219e-38 309 246
-0.013132467 0.74900001 -0.0078794798 1.2178162e-38 310 246
-0.011787659 0.74699998 -0.0078584393 1.1624988e-38 311 246
-0.010477919 0.74699998 -0.0078584393 1.0976029e-38 312 246
-0.0091559067 0.74599999 -0.0078479191 9.8693213e-39 313 246
-0.0078479191 0.74599999 -0.0078479191 8.0304533e-39 314 246
-0.0065223998 0.74400002 -0.0078268806 6.0943451e-39 315 246
-0.0052038929 0.74199998 -0.0078058392 8.2948181e-39 316 246
-0.0039029196 0.74199998 -0.0078058392 9.3086113e-39 317 246
-0.0025984398 0.741 -0.0077953199 7.1085195e-39 318 246
-0.0012992199 0.741 -0.0077953199 5.7252263e-39 319 246
0 0.73900002 -0.0077742799 3.0688254e-39 320 246
0.0012957134 0.73900002 -0.0077742799 3.0688254e-39 321 246
0.0025914267 0.73900002 -0.0077742799 5.9175111e-39 322 246
0.00388714 0.73900002 -0.0077742799 7.3008042e-39 323 246
0.0051828534 0.73900002 -0.0077742799 9.8725681e-39 324 246
0.0064785667 0.73900002 -0.0077742799 6.3691341e-39 325 246
0.0077742799 0.73900002 -0.0077742799 2.7803639e-39 326 246
0.0090945391 0.741 -0.0077953199 4.8086678e-39 327 246
0.010407786 0.74199998 -0.0078058392 5.1810208e-39 328 246
0.01170876 0.74199998 -0.0078058392 7.5781086e-39 329 246
0.0130448 0.74400002 -0.0078268806 1.0419961e-38 330 246
0.01434928 0.74400002 -0.0078268806 9.3136153e-39 331 246
0.015653761 0.74400002 -0.0078268806 7.1077684e-39 332 246
0.016958239 0.74400002 -0.0078268806 7.3847154e-39 333 246
0.018311813 0.74599999 -0.0078479191 8.8605615e-39 334 246
0.019646099 0.74699998 -0.0078584393 1.0059105e-38 335 246
0.021011947 0.74900001 -0.0078794798 1.1713206e-38 336 246
0.022414612 0.75199997 -0.0079110395 1.1897237e-38 337 246
0.023827799 0.755 -0.0079425992 1.1804676e-38 338 246
0.025351444 0.76099998 -0.0080057196 9.7760116e-39 339 246
0.026685731 0.76099998 -0.0080057196 8.7636645e-39 340 246
0.028020019 0.76099998 -0.0080057196 8.7636645e-39 341 246
0.029392879 0.76200002 -0.0080162399 1.0695078e-38 342 246
0.030930554 0.76700002 -0.00806884 1.2447156e-38 343 246
0.032359518 0.76899999 -0.0080898795 1.4566186e-38 344 246
-0.032569919 0.77399999 -0.0094995592 1.7793759e-38 296 247
-0.031212838 0.77399999 -0.0094995592 1.7424618e-38 297 247
-0.029817186 0.773 -0.0094872871 1.6318626e-38 298 247
-0.028388219 0.77100003 -0.0094627403 1.4474714e-38 299 247
-0.026896132 0.76700002 -0.0094136465 1.3835478e-38 300 247
-0.025551327 0.76700002 -0.0094136465 1.3651087e-38 301 247
-0.024174958 0.76599997 -0.0094013726 1.2270711e-38 302 247
-0.02271268 0.76200002 -0.0093522798 1.1901929e-38 303 247
-0.02137664 0.76200002 -0.0093522798 1.1260898e-38 304 247
-0.0200406 0.76200002 -0.0093522798 1.162932e-38 305 247
-0.018680012 0.76099998 -0.0093400059 1.0986106e-38 306 247
-0.017300138 0.759 -0.00931546 1.0986106e-38 307 247
-0.015885198 0.755 -0.0092663663 1.1353799e-38 308 247
-0.014542146 0.75400001 -0.0092540924 1.1630026e-38 309 247
-0.013185065 0.75199997 -0.0092295464 1.2455471e-38 310 247
-0.01181922 0.74900001 -0.0091927266 1.2547668e-38 311 247
-0.010505973 0.74900001 -0.0091927266 1.3280547e-38 312 247
-0.0091681797 0.74699998 -0.0091681797 1.1713221e-38 313 247
-0.0078584393 0.74699998 -0.0091681797 8.9513152e-39 314 247
-0.0065486995 0.74699998 -0.0091681797 7.5683808e-39 315 247
-0.0052319462 0.74599999 -0.0091559067 7.7506238e-39 316 247
-0.0039239596 0.74599999 -0.0091559067 9.6867321e-39 317 247
-0.00260896 0.74400002 -0.0091313599 8.8580658e-39 318 247
-0.0013009732 0.74199998 -0.009106813 4.9858494e-39 319 247
0 0.741 -0.0090945391 2.4220113e-39 320 247
0.0012992199 0.741 -0.0090945391 2.6985982e-39 321 247
