# .PCD v.7 - Point Cloud Data file format
FIELDS x y z rgb imX imY
SIZE 4 4 4 4 4 4
TYPE F F F F F F
COUNT 1 1 1 1 1 1
WIDTH 845
HEIGHT 1
VIEWPOINT 0 0 0 1 0 0 0
POINTS 845
DATA ascii
0.021776399 0.62099999 0.076217398 1.5585746e-38 340 170
0.022865219 0.62099999 0.076217398 1.530916e-38 341 170
0.023954039 0.62099999 0.076217398 1.5124049e-38 342 170
0.025083186 0.62199998 0.076340124 1.4939658e-38 343 170
0.026173757 0.62199998 0.076340124 1.5954898e-38 344 170
0.027308168 0.62300003 0.076462865 1.7430387e-38 345 170
0 0.62199998 0.075249553 1.6606051e-38 320 171
0.0010905733 0.62199998 0.075249553 1.6698247e-38 321 171
0.0021811465 0.62199998 0.075249553 1.6515656e-38 322 171
0.0032664598 0.62099999 0.075128578 1.6700049e-38 323 171
0.0043552797 0.62099999 0.075128578 1.6698249e-38 324 171
0.0054353331 0.62 0.075007595 1.6513499e-38 325 171
0.0065118801 0.61900002 0.07488662 1.6329824e-38 326 171
0.0075971936 0.61900002 0.07488662 1.6329824e-38 327 171
0.0086825071 0.61900002 0.07488662 1.6237624e-38 328 171
0.0097678201 0.61900002 0.07488662 1.6053233e-38 329 171
0.010835599 0.61799997 0.074765638 1.605143e-38 330 171
0.011919159 0.61799997 0.074765638 1.5867397e-38 331 171
0.013002719 0.61799997 0.074765638 1.6051063e-38 332 171
0.014086278 0.61799997 0.074765638 1.5958867e-38 333 171
0.015169838 0.61799997 0.074765638 1.5867024e-38 334 171
0.016279699 0.61900002 0.07488662 1.5498243e-38 335 171
0.017365014 0.61900002 0.07488662 1.5680109e-38 336 171
0.018480133 0.62 0.075007595 1.5403883e-38 337 171
0.019567199 0.62 0.075007595 1.5862337e-38 338 171
0.020654265 0.62 0.075007595 1.5677944e-38 339 171
0.021811465 0.62199998 0.075249553 1.5401715e-38 340 171
0.022902038 0.62199998 0.075249553 1.5216965e-38 341 171
0.023992613 0.62199998 0.075249553 1.5215168e-38 342 171
0.025083186 0.62199998 0.075249553 1.4938583e-38 343 171
0.026173757 0.62199998 0.075249553 1.558612e-38 344 171
0 0.62300003 0.074278213 1.6422739e-38 320 172
0.0010923267 0.62300003 0.074278213 1.6791161e-38 321 172
0.0021846534 0.62300003 0.074278213 1.6976275e-38 322 172
0.0032717197 0.62199998 0.074158981 1.7068471e-38 323 172
0.0043552797 0.62099999 0.074039757 1.7160307e-38 324 172
0.0054353331 0.62 0.073920533 1.6791164e-38 325 172
0.0065118801 0.61900002 0.073801309 1.6515288e-38 326 172
0.0075971936 0.61900002 0.073801309 1.6423092e-38 327 172
0.0086825071 0.61900002 0.073801309 1.6605682e-38 328 172
0.0097678201 0.61900002 0.073801309 1.6513487e-38 329 172
0.010853133 0.61900002 0.073801309 1.6328728e-38 330 172
0.011938446 0.61900002 0.073801309 1.6236174e-38 331 172
0.013002719 0.61799997 0.073682077 1.6326925e-38 332 172
0.014086278 0.61799997 0.073682077 1.6234728e-38 333 172
0.015169838 0.61799997 0.073682077 1.5867019e-38 334 172
0.016279699 0.61900002 0.073801309 1.5498596e-38 335 172
0.017393066 0.62 0.073920533 1.5864854e-38 336 172
0.018509939 0.62099999 0.074039757 1.5680463e-38 337 172
0.019598758 0.62099999 0.074039757 1.5679022e-38 338 172
0.020687578 0.62099999 0.074039757 1.5402434e-38 339 172
0.021811465 0.62199998 0.074158981 1.5860172e-38 340 172
0.022902038 0.62199998 0.074158981 1.5675422e-38 341 172
0.023992613 0.62199998 0.074158981 1.5307364e-38 342 172
0.025083186 0.62199998 0.074158981 1.4938583e-38 343 172
0.026173757 0.62199998 0.074158981 1.5033305e-38 344 172
0 0.62400001 0.073303364 1.7160307e-38 320 173
0.00109408 0.62400001 0.073303364 1.6607133e-38 321 173
0.0021846534 0.62300003 0.073185883 1.6607852e-38 322 173
0.0032717197 0.62199998 0.07306841 1.6607852e-38 323 173
0.0043622931 0.62199998 0.07306841 1.6607852e-38 324 173
0.0054440997 0.62099999 0.072950937 1.6515656e-38 325 173
0.0065223998 0.62 0.072833464 1.6515656e-38 326 173
0.0075971936 0.61900002 0.07271599 1.6423102e-38 327 173
0.0086825071 0.61900002 0.07271599 1.6422736e-38 328 173
0.0097678201 0.61900002 0.07271599 1.6422736e-38 329 173
0.010853133 0.61900002 0.07271599 1.6237978e-38 330 173
0.011938446 0.61900002 0.07271599 1.6053228e-38 331 173
0.01302376 0.61900002 0.07271599 1.6419842e-38 332 173
0.014109073 0.61900002 0.07271599 1.605106e-38 333 173
0.015194387 0.61900002 0.07271599 1.5683709e-38 334 173
0.016306 0.62 0.072833464 1.5498959e-38 335 173
0.017421119 0.62099999 0.072950937 1.5681191e-38 336 173
0.018509939 0.62099999 0.072950937 1.5404246e-38 337 173
0.019598758 0.62099999 0.072950937 1.5769788e-38 338 173
0.020720892 0.62199998 0.07306841 1.5677591e-38 339 173
0.021811465 0.62199998 0.07306841 1.5401359e-38 340 173
0.022902038 0.62199998 0.07306841 1.5401359e-38 341 173
0.023992613 0.62199998 0.07306841 1.5584308e-38 342 173
0.025083186 0.62199998 0.07306841 1.5307361e-38 343 173
0.00109408 0.62400001 0.072209284 1.6791894e-38 321 174
0.0021881601 0.62400001 0.072209284 1.6424186e-38 322 174
0.00327698 0.62300003 0.072093561 1.6424186e-38 323 174
0.0043622931 0.62199998 0.071977831 1.6791164e-38 324 174
0.0054528662 0.62199998 0.071977831 1.6607133e-38 325 174
0.0065329196 0.62099999 0.071862116 1.6607486e-38 326 174
0.0076094666 0.62 0.071746401 1.6607486e-38 327 174
0.0086965328 0.62 0.071746401 1.66986e-38 328 174
0.0097993789 0.62099999 0.071862116 1.6606404e-38 329 174
0.010870666 0.62 0.071746401 1.6696432e-38 330 174
0.011957733 0.62 0.071746401 1.6604236e-38 331 174
0.0130448 0.62 0.071746401 1.6602789e-38 332 174
0.014131867 0.62 0.071746401 1.6418758e-38 333 174
0.015218933 0.62 0.071746401 1.6142167e-38 334 174
0.016332299 0.62099999 0.071862116 1.6049971e-38 335 174
0.017421119 0.62099999 0.071862116 1.5956333e-38 336 174
0.018539745 0.62199998 0.071977831 1.5771583e-38 337 174
0.019630319 0.62199998 0.071977831 1.5863056e-38 338 174
0.020720892 0.62199998 0.071977831 1.5863056e-38 339 174
0.021811465 0.62199998 0.071977831 1.6045649e-38 340 174
0.022902038 0.62199998 0.071977831 1.5677226e-38 341 174
0.023992613 0.62199998 0.071977831 1.4021308e-38 342 174
0.025083186 0.62199998 0.071977831 1.3007515e-38 343 174
0.0021881601 0.62400001 0.071115203 1.7436531e-38 322 175
0.00327698 0.62300003 0.071001239 1.7436531e-38 323 175
0.0043622931 0.62199998 0.070887268 1.7160301e-38 324 175
0.0054528662 0.62199998 0.070887268 1.697591e-38 325 175
0.0065434393 0.62199998 0.070887268 1.6975913e-38 326 175
0.00762174 0.62099999 0.070773296 1.6975913e-38 327 175
0.0087105595 0.62099999 0.070773296 1.6791517e-38 328 175
0.0097993789 0.62099999 0.070773296 1.6607486e-38 329 175
0.010905732 0.62199998 0.070887268 1.6788995e-38 330 175
0.011996306 0.62199998 0.070887268 1.6512767e-38 331 175
0.013065839 0.62099999 0.070773296 1.6419839e-38 332 175
0.01415466 0.62099999 0.070773296 1.6143613e-38 333 175
0.015268027 0.62199998 0.070887268 1.6326558e-38 334 175
0.016358599 0.62199998 0.070887268 1.6326558e-38 335 175
0.017449172 0.62199998 0.070887268 1.6417672e-38 336 175
0.018539745 0.62199998 0.070887268 1.6325476e-38 337 175
0.019630319 0.62199998 0.070887268 1.6600255e-38 338 175
0.020720892 0.62199998 0.070887268 1.6600255e-38 339 175
0.021811465 0.62199998 0.070887268 1.6137476e-38 340 175
0.022902038 0.62199998 0.070887268 1.4754541e-38 341 175
0.024031186 0.62300003 0.071001239 1.1532017e-38 342 175
0.0054528662 0.62199998 0.069796689 1.6791161e-38 325 176
0.0065434393 0.62199998 0.069796689 1.6975913e-38 326 176
0.00762174 0.62099999 0.069684476 1.7068108e-38 327 176
0.0087105595 0.62099999 0.069684476 1.7251418e-38 328 176
0.0097993789 0.62099999 0.069684476 1.7159222e-38 329 176
0.010905732 0.62199998 0.069796689 1.7065938e-38 330 176
0.011996306 0.62199998 0.069796689 1.6789351e-38 331 176
0.013086879 0.62199998 0.069796689 1.6879378e-38 332 176
0.014177452 0.62199998 0.069796689 1.6879378e-38 333 176
0.015268027 0.62199998 0.069796689 1.6418753e-38 334 176
0.016358599 0.62199998 0.069796689 1.6326558e-38 335 176
0.017449172 0.62199998 0.069796689 1.6600621e-38 336 176
0.018539745 0.62199998 0.069796689 1.6139643e-38 337 176
0.019630319 0.62199998 0.069796689 1.576869e-38 338 176
0.020720892 0.62199998 0.069796689 1.429392e-38 339 176
0.021846535 0.62300003 0.069908909 1.2451801e-38 340 176
0.022938859 0.62300003 0.069908909 1.0792281e-38 341 176
0.0065434393 0.62199998 0.06870611 1.5960313e-38 326 177
0.00762174 0.62099999 0.068595663 1.6513487e-38 327 177
0.0087105595 0.62099999 0.068595663 1.7158133e-38 328 177
0.0098151593 0.62199998 0.06870611 1.7065938e-38 329 177
0.010905732 0.62199998 0.06870611 1.7247808e-38 330 177
0.011996306 0.62199998 0.06870611 1.6971221e-38 331 177
0.013086879 0.62199998 0.06870611 1.724564e-38 332 177
0.014177452 0.62199998 0.06870611 1.6876859e-38 333 177
0.015268027 0.62199998 0.06870611 1.6508425e-38 334 177
0.0163849 0.62300003 0.06881658 1.6047447e-38 335 177
0.017477227 0.62300003 0.06881658 1.5401712e-38 336 177
0.018569553 0.62300003 0.06881658 1.4479754e-38 337 177
0.019661881 0.62300003 0.06881658 1.3004253e-38 338 177
0.020754207 0.62300003 0.06881658 1.0422775e-38 339 177
0.021846535 0.62300003 0.06881658 7.2006156e-39 340 177
0.0076462864 0.62300003 0.067724258 9.6013383e-39 327 178
0.0087386137 0.62300003 0.067724258 1.0982824e-38 328 178
0.0098309405 0.62300003 0.067724258 1.1443802e-38 329 178
0.010923267 0.62300003 0.067724258 1.1809342e-38 330 178
0.012015593 0.62300003 0.067724258 1.1624949e-38 331 178
0.01310792 0.62300003 0.067724258 1.162206e-38 332 178
0.014200246 0.62300003 0.067724258 1.0884495e-38 333 178
0.015292573 0.62300003 0.067724258 1.0329523e-38 334 178
0.0163849 0.62300003 0.067724258 9.5919581e-39 335 178
0.017477227 0.62300003 0.067724258 8.5788823e-39 336 178
0.018569553 0.62300003 0.067724258 8.2100998e-39 337 178
0.019661881 0.62300003 0.067724258 7.6605161e-39 338 178
0.020754207 0.62300003 0.067724258 7.4761249e-39 339 178
0.021846535 0.62300003 0.067724258 9.2260468e-39 340 178
0.0099414 0.63 0.0673806 7.0180755e-39 329 179
0.011046 0.63 0.0673806 7.6609113e-39 330 179
0.012015593 0.62300003 0.066631928 7.6609113e-39 331 179
0.01310792 0.62300003 0.066631928 7.1062914e-39 332 179
0.014200246 0.62300003 0.066631928 5.9077482e-39 333 179
0.015292573 0.62300003 0.066631928 5.6300865e-39 334 179
0.0163849 0.62300003 0.066631928 5.7222822e-39 335 179
0.017477227 0.62300003 0.066631928 5.9059531e-39 336 179
0.018569553 0.62300003 0.066631928 6.5513226e-39 337 179
0.019661881 0.62300003 0.066631928 6.8314968e-39 338 179
0.020754207 0.62300003 0.066631928 8.6754094e-39 339 179
0.011046 0.63 0.066275999 1.1805003e-38 330 180
0.012131313 0.62900001 0.066170804 1.1805003e-38 331 180
0.013192079 0.62699997 0.065960392 1.1897558e-38 332 180
0.01429142 0.62699997 0.065960392 1.208159e-38 333 180
0.015390759 0.62699997 0.065960392 1.2726604e-38 334 180
0.016437499 0.625 0.065749995 1.3095745e-38 335 180
0.017533332 0.625 0.065749995 1.3371973e-38 336 180
0.018629165 0.625 0.065749995 1.3556723e-38 337 180
0.012131313 0.62900001 0.065067954 1.3742914e-38 331 181
0.01323416 0.62900001 0.065067954 1.4018424e-38 332 181
-0.014265119 0.67799997 -0.013076359 9.7869515e-39 308 251
-0.013076359 0.67799997 -0.013076359 8.4962183e-39 309 251
0.0058824331 0.671 -0.012941353 1.2452531e-38 325 251
0.0070589199 0.671 -0.012941353 1.2545445e-38 326 251
0.0082231332 0.67000002 -0.012922067 1.2821672e-38 327 251
0.0093978662 0.67000002 -0.012922067 1.3098982e-38 328 251
0.041606598 0.67799997 -0.013076359 8.7706696e-39 355 251
0.042795356 0.67799997 -0.013076359 1.0517758e-38 356 251
-0.015453878 0.67799997 -0.014265119 1.107516e-38 307 252
-0.014265119 0.67799997 -0.014265119 9.8805667e-39 308 252
-0.013037786 0.676 -0.014223038 9.32776e-39 309 252
-0.011852534 0.676 -0.014223038 8.1310287e-39 310 252
0.0058824331 0.671 -0.01411784 9.7820778e-39 325 252
0.0070273597 0.66799998 -0.014054719 1.0152302e-38 326 252
0.0081985854 0.66799998 -0.014054719 1.0705476e-38 327 252
0.0093557863 0.667 -0.014033679 1.1257572e-38 328 252
0.010525259 0.667 -0.014033679 1.1442322e-38 329 252
0.032696161 0.66600001 -0.014012639 8.7681935e-39 348 252
0.03386388 0.66600001 -0.014012639 8.2150198e-39 349 252
0.040417835 0.67799997 -0.014265119 9.6908183e-39 354 252
0.041606598 0.67799997 -0.014265119 9.4138726e-39 355 252
0.042795356 0.67799997 -0.014265119 1.1161687e-38 356 252
-0.015453878 0.67799997 -0.015453878 1.079968e-38 307 253
-0.014223038 0.676 -0.015408293 9.6075797e-39 308 253
-0.013037786 0.676 -0.015408293 9.1469603e-39 309 253
-0.011835 0.67500001 -0.0153855 8.7781918e-39 310 253
-0.010604159 0.67199999 -0.01531712 8.6859962e-39 311 253
-0.0094259195 0.67199999 -0.01531712 7.949178e-39 312 253
0.0035031599 0.66600001 -0.01518036 4.1681777e-39 323 253
0.0046708798 0.66600001 -0.01518036 4.0749059e-39 324 253
0.0058473665 0.667 -0.015203152 3.798319e-39 325 253
0.0070168395 0.667 -0.015203152 3.2512605e-39 326 253
0.0081740404 0.66600001 -0.01518036 4.9107804e-39 327 253
0.0093417596 0.66600001 -0.01518036 6.2904807e-39 328 253
0.010477919 0.66399997 -0.015134773 6.7511001e-39 329 253
0.011642133 0.66399997 -0.015134773 7.0269639e-39 330 253
0.029192999 0.66600001 -0.01518036 9.0487811e-39 345 253
0.030360719 0.66600001 -0.01518036 9.0487685e-39 346 253
0.03157578 0.667 -0.015203152 8.8643773e-39 347 253
0.032696161 0.66600001 -0.01518036 9.0469258e-39 348 253
0.03386388 0.66600001 -0.01518036 8.6785034e-39 349 253
0.035136797 0.66799998 -0.015225946 8.8639246e-39 350 253
0.036416732 0.67000002 -0.015271533 8.9561203e-39 351 253
0.037647571 0.671 -0.015294326 9.5996792e-39 352 253
0.039113361 0.676 -0.015408293 9.5996792e-39 353 253
0.040298611 0.676 -0.015408293 1.0517698e-38 354 253
0.041606598 0.67799997 -0.015453878 1.0333667e-38 355 253
0.042795356 0.67799997 -0.015453878 1.2174763e-38 356 253
0.043984115 0.67799997 -0.015453878 1.4664045e-38 357 253
-0.015453878 0.67799997 -0.016642639 1.0981926e-38 307 254
-0.014223038 0.676 -0.016593546 9.6068595e-39 308 254
-0.013037786 0.676 -0.016593546 9.3302726e-39 309 254
-0.011835 0.67500001 -0.016569 8.8718112e-39 310 254
-0.010604159 0.67199999 -0.01649536 8.7796169e-39 311 254
-0.0094259195 0.67199999 -0.01649536 8.687064e-39 312 254
-0.00824768 0.67199999 -0.01649536 8.1338986e-39 313 254
-0.0046778931 0.667 -0.016372627 7.8498049e-39 316 254
-0.0035084197 0.667 -0.016372627 7.9420006e-39 317 254
0.0035031599 0.66600001 -0.016348081 4.8120856e-39 323 254
0.0046708798 0.66600001 -0.016348081 4.5362189e-39 324 254
0.0058385995 0.66600001 -0.016348081 4.167435e-39 325 254
0.0070063197 0.66600001 -0.016348081 3.249422e-39 326 254
0.0081740404 0.66600001 -0.016348081 4.7245534e-39 327 254
0.0093137063 0.66399997 -0.016298985 6.1978716e-39 328 254
0.010477919 0.66399997 -0.016298985 6.6588498e-39 329 254
0.011642133 0.66399997 -0.016298985 6.8418117e-39 330 254
0.012787059 0.66299999 -0.016274439 6.8418117e-39 331 254
0.013949519 0.66299999 -0.016274439 6.9333039e-39 332 254
0.025574118 0.66299999 -0.016274439 9.6919869e-39 342 254
0.026736578 0.66299999 -0.016274439 9.6919869e-39 343 254
0.027899038 0.66299999 -0.016274439 9.2317277e-39 344 254
0.02910533 0.66399997 -0.016298985 9.0473364e-39 345 254
0.030360719 0.66600001 -0.016348081 9.8734845e-39 346 254
0.03157578 0.667 -0.016372627 9.5972578e-39 347 254
0.032745253 0.667 -0.016372627 1.0149288e-38 348 254
0.033965573 0.66799998 -0.016397171 1.0057092e-38 349 254
0.035136797 0.66799998 -0.016397171 1.0334004e-38 350 254
0.036416732 0.67000002 -0.016446266 1.0334004e-38 351 254
0.037647571 0.671 -0.016470812 1.0424765e-38 352 254
0.039055496 0.67500001 -0.016569 1.0793546e-38 353 254
0.040298611 0.676 -0.016593546 1.0334405e-38 354 254
0.041606598 0.67799997 -0.016642639 1.0518796e-38 355 254
0.042795356 0.67799997 -0.016642639 1.2083663e-38 356 254
0.044048995 0.67900002 -0.016667187 1.4572945e-38 357 254
0.045239504 0.67900002 -0.016667187 1.8622403e-38 358 254
-0.017936599 0.68199998 -0.017936599 1.3187511e-38 305 255
-0.016691733 0.68000001 -0.017883999 1.1165968e-38 306 255
-0.015453878 0.67799997 -0.0178314 1.1165968e-38 307 255
-0.014223038 0.676 -0.017778801 9.699425e-39 308 255
-0.013037786 0.676 -0.017778801 9.3310012e-39 309 255
-0.011835 0.67500001 -0.0177525 8.8721699e-39 310 255
-0.010604159 0.67199999 -0.017673599 8.6877814e-39 311 255
-0.0094259195 0.67199999 -0.017673599 8.503393e-39 312 255
-0.00824768 0.67199999 -0.017673599 8.503393e-39 313 255
-0.0070483997 0.67000002 -0.017620999 8.9611593e-39 314 255
-0.0058561331 0.66799998 -0.017568398 8.9611593e-39 315 255
-0.0046778931 0.667 -0.0175421 9.5993611e-39 316 255
-0.0035084197 0.667 -0.0175421 9.2305786e-39 317 255
-0.0023389466 0.667 -0.0175421 8.4951744e-39 318 255
0.0035031599 0.66600001 -0.017515799 4.6301872e-39 323 255
0.0046708798 0.66600001 -0.017515799 4.6291236e-39 324 255
0.0058385995 0.66600001 -0.017515799 4.6291236e-39 325 255
0.0070063197 0.66600001 -0.017515799 5.548552e-39 326 255
0.0081740404 0.66600001 -0.017515799 6.2861184e-39 327 255
0.0093137063 0.66399997 -0.0174632 6.9325598e-39 328 255
0.010477919 0.66399997 -0.0174632 7.1169511e-39 329 255
0.011642133 0.66399997 -0.0174632 7.4846602e-39 330 255
0.012787059 0.66299999 -0.017436899 7.8538029e-39 331 255
0.01392848 0.662 -0.017410601 8.3137216e-39 332 255
0.015089186 0.662 -0.017410601 8.7746984e-39 333 255
0.016249891 0.662 -0.017410601 9.5104852e-39 334 255
0.017410601 0.662 -0.017410601 9.9714633e-39 335 255
0.020892721 0.662 -0.017410601 1.0522472e-38 338 255
0.022053426 0.662 -0.017410601 1.0429918e-38 339 255
0.023284266 0.66399997 -0.0174632 1.0612501e-38 340 255
0.024448479 0.66399997 -0.0174632 9.9671319e-39 341 255
0.025574118 0.66299999 -0.017436899 9.6908911e-39 342 255
0.026736578 0.66299999 -0.017436899 9.7830868e-39 343 255
0.027899038 0.66299999 -0.017436899 9.7816392e-39 344 255
0.02910533 0.66399997 -0.0174632 9.5054111e-39 345 255
0.030360719 0.66600001 -0.017515799 1.0057838e-38 346 255
0.03157578 0.667 -0.0175421 1.0150034e-38 347 255
0.032794341 0.66799998 -0.017568398 1.0151426e-38 348 255
0.033965573 0.66799998 -0.017568398 1.0058872e-38 349 255
0.035241999 0.67000002 -0.017620999 1.0518038e-38 350 255
0.036471087 0.671 -0.0176473 1.0518038e-38 351 255
0.037703678 0.67199999 -0.017673599 1.0701e-38 352 255
0.039055496 0.67500001 -0.0177525 1.0793196e-38 353 255
0.040298611 0.676 -0.017778801 1.0425526e-38 354 255
0.041606598 0.67799997 -0.0178314 1.0886503e-38 355 255
0.042858478 0.67900002 -0.017857701 1.2359895e-38 356 255
0.044048995 0.67900002 -0.017857701 1.4665146e-38 357 255
0.045306131 0.68000001 -0.017883999 1.8438015e-38 358 255
0.046498399 0.68000001 -0.017883999 1.9820951e-38 359 255
-0.017936599 0.68199998 -0.019132372 1.3739256e-38 305 256
-0.016691733 0.68000001 -0.019076265 1.1165262e-38 306 256
-0.015476674 0.67900002 -0.019048214 1.1073065e-38 307 256
-0.014265119 0.67799997 -0.019020159 9.8827429e-39 308 256
-0.013037786 0.676 -0.018964052 9.5139604e-39 309 256
-0.011835 0.67500001 -0.018935999 9.3302726e-39 310 256
-0.01063572 0.67400002 -0.018907947 9.2380769e-39 311 256
-0.0094259195 0.67199999 -0.018851839 8.9625705e-39 312 256
-0.00824768 0.67199999 -0.018851839 8.9625705e-39 313 256
-0.0070483997 0.67000002 -0.018795732 9.3292006e-39 314 256
-0.0058561331 0.66799998 -0.018739626 9.3292006e-39 315 256
-0.0046778931 0.667 -0.018711573 1.0153594e-38 316 256
-0.0035084197 0.667 -0.018711573 1.006104e-38 317 256
-0.0023389466 0.667 -0.018711573 9.4171194e-39 318 256
-0.0011694733 0.667 -0.018711573 9.1405312e-39 319 256
0 0.667 -0.018711573 8.2225377e-39 320 256
0.00116772 0.66600001 -0.018683519 7.7615596e-39 321 256
0.0023354399 0.66600001 -0.018683519 6.5648339e-39 322 256
0.0035031599 0.66600001 -0.018683519 6.1038557e-39 323 256
0.0046708798 0.66600001 -0.018683519 5.5517708e-39 324 256
0.0058385995 0.66600001 -0.018683519 5.8287164e-39 325 256
0.0070063197 0.66600001 -0.018683519 6.8385467e-39 326 256
0.0081740404 0.66600001 -0.018683519 7.022938e-39 327 256
0.0093137063 0.66399997 -0.018627413 7.2094844e-39 328 256
0.010477919 0.66399997 -0.018627413 7.3935155e-39 329 256
0.011642133 0.66399997 -0.018627413 7.4850077e-39 330 256
0.012787059 0.66299999 -0.018599359 8.0381815e-39 331 256
0.01392848 0.662 -0.018571306 8.6824971e-39 332 256
0.015089186 0.662 -0.018571306 8.8668898e-39 333 256
0.016249891 0.662 -0.018571306 9.5101124e-39 334 256
0.017410601 0.662 -0.018571306 9.6945037e-39 335 256
0.019732011 0.662 -0.018571306 1.0430271e-38 337 256
0.020892721 0.662 -0.018571306 1.1164221e-38 338 256
0.022053426 0.662 -0.018571306 1.1164221e-38 339 256
0.023284266 0.66399997 -0.018627413 1.1806684e-38 340 256
0.024448479 0.66399997 -0.018627413 1.1345706e-38 341 256
0.025612691 0.66399997 -0.018627413 1.0978347e-38 342 256
0.026776904 0.66399997 -0.018627413 1.088615e-38 343 256
0.027941117 0.66399997 -0.018627413 1.0516645e-38 344 256
0.029192999 0.66600001 -0.018683519 1.0332613e-38 345 256
0.030406304 0.667 -0.018711573 1.0701374e-38 346 256
0.031623118 0.66799998 -0.018739626 1.0885406e-38 347 256
0.032794341 0.66799998 -0.018739626 1.0978292e-38 348 256
0.034067266 0.67000002 -0.018795732 1.0886096e-38 349 256
0.035241999 0.67000002 -0.018795732 1.1069058e-38 350 256
0.036471087 0.671 -0.018823786 1.1069058e-38 351 256
0.037703678 0.67199999 -0.018851839 1.0792494e-38 352 256
0.039055496 0.67500001 -0.018935999 1.0792494e-38 353 256
0.040298611 0.676 -0.018964052 1.0701405e-38 354 256
0.041606598 0.67799997 -0.019020159 1.1346775e-38 355 256
0.042858478 0.67900002 -0.019048214 1.2544291e-38 356 256
0.044048995 0.67900002 -0.019048214 1.466479e-38 357 256
0.045306131 0.68000001 -0.019076265 1.8622047e-38 358 256
0.046498399 0.68000001 -0.019076265 1.9820951e-38 359 256
-0.017936599 0.68199998 -0.020328145 1.4568672e-38 305 257
-0.016691733 0.68000001 -0.020268533 1.1625532e-38 306 257
-0.015476674 0.67900002 -0.020238725 1.0887967e-38 307 257
-0.01428616 0.67900002 -0.020238725 1.0708185e-38 308 257
-0.013037786 0.676 -0.020149305 1.0247207e-38 309 257
-0.011835 0.67500001 -0.020119499 9.4217479e-39 310 257
-0.01063572 0.67400002 -0.020089693 9.3295537e-39 311 257
-0.0094259195 0.67199999 -0.020030079 9.0547647e-39 312 257
-0.00824768 0.67199999 -0.020030079 9.0547647e-39 313 257
-0.0070589199 0.671 -0.020000271 9.3295663e-39 314 257
-0.0058736666 0.67000002 -0.019970467 9.3295663e-39 315 257
-0.0046849065 0.66799998 -0.019910853 9.8798716e-39 316 257
-0.0035084197 0.667 -0.019881045 9.9720673e-39 317 257
-0.0023389466 0.667 -0.019881045 9.7880207e-39 318 257
-0.0011694733 0.667 -0.019881045 9.6039896e-39 319 257
0 0.667 -0.019881045 9.1462513e-39 320 257
0.00116772 0.66600001 -0.019851239 8.8696644e-39 321 257
0.0023354399 0.66600001 -0.019851239 8.9597076e-39 322 257
0.0035031599 0.66600001 -0.019851239 8.6834808e-39 323 257
0.0046708798 0.66600001 -0.019851239 8.2232244e-39 324 257
0.0058210664 0.66399997 -0.019791625 8.1310287e-39 325 257
0.0069852793 0.66399997 -0.019791625 8.1303113e-39 326 257
0.0081494926 0.66399997 -0.019791625 8.0377583e-39 327 257
0.0093137063 0.66399997 -0.019791625 8.4061835e-39 328 257
0.010477919 0.66399997 -0.019791625 8.3139879e-39 329 257
0.0116246 0.66299999 -0.019761819 8.3140145e-39 330 257
0.012787059 0.66299999 -0.019761819 8.8671883e-39 331 257
0.013949519 0.66299999 -0.019761819 9.5089984e-39 332 257
0.015089186 0.662 -0.019732011 9.7855867e-39 333 257
0.016249891 0.662 -0.019732011 9.8759886e-39 334 257
0.017410601 0.662 -0.019732011 9.6912386e-39 335 257
0.018571306 0.662 -0.019732011 1.0795403e-38 336 257
0.019732011 0.662 -0.019732011 1.0979794e-38 337 257
0.020892721 0.662 -0.019732011 1.1899919e-38 338 257
0.022053426 0.662 -0.019732011 1.1807365e-38 339 257
0.023284266 0.66399997 -0.019791625 1.2173964e-38 340 257
0.024448479 0.66399997 -0.019791625 1.2173964e-38 341 257
0.025612691 0.66399997 -0.019791625 1.2357629e-38 342 257
0.026776904 0.66399997 -0.019791625 1.2081403e-38 343 257
0.027941117 0.66399997 -0.019791625 1.1344554e-38 344 257
0.029192999 0.66600001 -0.019851239 1.1252359e-38 345 257
0.030406304 0.667 -0.019881045 1.1070123e-38 346 257
0.0317178 0.67000002 -0.019970467 1.1162318e-38 347 257
0.032892533 0.67000002 -0.019970467 1.1253794e-38 348 257
0.034067266 0.67000002 -0.019970467 1.11616e-38 349 257
0.0352946 0.671 -0.020000271 1.1344203e-38 350 257
0.036525436 0.67199999 -0.020030079 1.1344203e-38 351 257
0.037815895 0.67400002 -0.020089693 1.079249e-38 352 257
0.039113361 0.676 -0.020149305 1.0700294e-38 353 257
0.040298611 0.676 -0.020149305 1.0793235e-38 354 257
0.041606598 0.67799997 -0.020208918 1.15308e-38 355 257
0.042795356 0.67799997 -0.020208918 1.254501e-38 356 257
0.044048995 0.67900002 -0.020238725 1.4757705e-38 357 257
0.045239504 0.67900002 -0.020238725 1.8622047e-38 358 257
0.046430022 0.67900002 -0.020238725 1.9544362e-38 359 257
-0.017936599 0.68199998 -0.021523919 1.5306254e-38 305 258
-0.016691733 0.68000001 -0.0214608 1.300345e-38 306 258
-0.015476674 0.67900002 -0.021429239 1.2173331e-38 307 258
-0.01428616 0.67900002 -0.021429239 1.1992089e-38 308 258
-0.013037786 0.676 -0.021334561 1.1438916e-38 309 258
-0.011835 0.67500001 -0.021303 9.6047015e-39 310 258
-0.01063572 0.67400002 -0.021271439 9.6047015e-39 311 258
-0.0094259195 0.67199999 -0.021208318 9.0547647e-39 312 258
-0.00824768 0.67199999 -0.021208318 9.0547647e-39 313 258
-0.0070589199 0.671 -0.021176759 9.1466072e-39 314 258
-0.0058736666 0.67000002 -0.0211452 9.1466072e-39 315 258
-0.0046849065 0.66799998 -0.021082079 9.69726e-39 316 258
-0.0035136798 0.66799998 -0.021082079 9.5128688e-39 317 258
-0.0023389466 0.667 -0.021050518 9.4213892e-39 318 258
-0.0011694733 0.667 -0.021050518 9.4213892e-39 319 258
0 0.667 -0.021050518 8.7796169e-39 320 258
0.00116772 0.66600001 -0.02101896 8.7796169e-39 321 258
0.0023354399 0.66600001 -0.02101896 9.0547647e-39 322 258
0.0035031599 0.66600001 -0.02101896 9.2391531e-39 323 258
0.0046708798 0.66600001 -0.02101896 9.4213934e-39 324 258
0.0058210664 0.66399997 -0.020955838 9.5139478e-39 325 258
0.0069852793 0.66399997 -0.020955838 1.006425e-38 326 258
0.0081494926 0.66399997 -0.020955838 1.0248283e-38 327 258
0.0093137063 0.66399997 -0.020955838 1.0431608e-38 328 258
0.010477919 0.66399997 -0.020955838 1.0431608e-38 329 258
0.0116246 0.66299999 -0.020924279 1.0982276e-38 330 258
0.012787059 0.66299999 -0.020924279 1.089008e-38 331 258
0.013949519 0.66299999 -0.020924279 9.9695884e-39 332 258
0.015089186 0.662 -0.020892721 9.9695884e-39 333 258
0.016249891 0.662 -0.020892721 1.0793601e-38 334 258
0.017410601 0.662 -0.020892721 1.0978352e-38 335 258
0.018571306 0.662 -0.020892721 1.2173273e-38 336 258
0.019761819 0.66299999 -0.020924279 1.245022e-38 337 258
0.020924279 0.66299999 -0.020924279 1.3094841e-38 338 258
0.02208674 0.66299999 -0.020924279 1.291045e-38 339 258
0.023284266 0.66399997 -0.020955838 1.2817534e-38 340 258
0.024448479 0.66399997 -0.020955838 1.2909731e-38 341 258
0.025612691 0.66399997 -0.020955838 1.2633886e-38 342 258
0.026857559 0.66600001 -0.02101896 1.2541689e-38 343 258
0.028025279 0.66600001 -0.02101896 1.2265459e-38 344 258
0.029236831 0.667 -0.021050518 1.2080709e-38 345 258
0.030451892 0.66799998 -0.021082079 1.1528963e-38 346 258
0.0317178 0.67000002 -0.0211452 1.1713354e-38 347 258
0.032892533 0.67000002 -0.0211452 1.1622626e-38 348 258
0.034118112 0.671 -0.021176759 1.1807017e-38 349 258
0.0352946 0.671 -0.021176759 1.2173321e-38 350 258
0.036525436 0.67199999 -0.021208318 1.2357712e-38 351 258
0.037871998 0.67500001 -0.021303 1.1530102e-38 352 258
0.039113361 0.676 -0.021334561 1.0792179e-38 353 258
0.040298611 0.676 -0.021334561 1.0886895e-38 354 258
0.041606598 0.67799997 -0.021397678 1.1532265e-38 355 258
0.042795356 0.67799997 -0.021397678 1.2543584e-38 356 258
0.044048995 0.67900002 -0.021429239 1.4848474e-38 357 258
0.045239504 0.67900002 -0.021429239 1.8530933e-38 358 258
0.046430022 0.67900002 -0.021429239 1.9360694e-38 359 258
-0.017936599 0.68199998 -0.022719691 1.6134586e-38 305 259
-0.016740825 0.68199998 -0.022719691 1.3832155e-38 306 259
-0.015499466 0.68000001 -0.022653066 1.2357025e-38 307 259
-0.01428616 0.67900002 -0.022619752 1.1624052e-38 308 259
-0.013037786 0.676 -0.022519812 1.1347466e-38 309 259
-0.011835 0.67500001 -0.022486499 9.5135918e-39 310 259
-0.01063572 0.67400002 -0.022453187 9.4213962e-39 311 259
-0.0094259195 0.67199999 -0.022386558 8.8710965e-39 312 259
-0.00824768 0.67199999 -0.022386558 8.8710965e-39 313 259
-0.0070589199 0.671 -0.022353247 8.6885003e-39 314 259
-0.0058824331 0.671 -0.022353247 8.6885003e-39 315 259
-0.0046989331 0.67000002 -0.022319933 9.1469589e-39 316 259
-0.0035136798 0.66799998 -0.022253305 8.9625705e-39 317 259
-0.0023424532 0.66799998 -0.022253305 8.9629292e-39 318 259
-0.0011694733 0.667 -0.022219993 8.9629292e-39 319 259
0 0.667 -0.022219993 8.8718112e-39 320 259
0.0011694733 0.667 -0.022219993 8.7796169e-39 321 259
0.0023389466 0.667 -0.022219993 9.5135834e-39 322 259
0.0035031599 0.66600001 -0.02218668 9.6057777e-39 323 259
0.0046708798 0.66600001 -0.02218668 9.7894487e-39 324 259
0.0058210664 0.66399997 -0.022120051 9.8816429e-39 325 259
0.0069852793 0.66399997 -0.022120051 1.0065314e-38 326 259
0.0081494926 0.66399997 -0.022120051 1.0249344e-38 327 259
0.0093137063 0.66399997 -0.022120051 1.0799998e-38 328 259
0.010477919 0.66399997 -0.022120051 1.0892192e-38 329 259
0.0116246 0.66299999 -0.02208674 1.1349586e-38 330 259
0.012787059 0.66299999 -0.02208674 1.1165555e-38 331 259
0.013949519 0.66299999 -0.02208674 1.0796087e-38 332 259
0.015089186 0.662 -0.022053426 1.05195e-38 333 259
0.016249891 0.662 -0.022053426 1.1437157e-38 334 259
0.017436899 0.66299999 -0.02208674 1.1714103e-38 335 259
0.018599359 0.66299999 -0.02208674 1.2358355e-38 336 259
0.019761819 0.66299999 -0.02208674 1.2634942e-38 337 259
0.020924279 0.66299999 -0.02208674 1.3186298e-38 338 259
0.02208674 0.66299999 -0.02208674 1.3094101e-38 339 259
0.023284266 0.66399997 -0.022120051 1.1716974e-38 340 259
0.024448479 0.66399997 -0.022120051 1.2269788e-38 341 259
0.02568984 0.66600001 -0.02218668 1.2819056e-38 342 259
0.026857559 0.66600001 -0.02218668 1.2635025e-38 343 259
0.028025279 0.66600001 -0.02218668 1.2726492e-38 344 259
0.029236831 0.667 -0.022219993 1.2357709e-38 345 259
0.030543067 0.67000002 -0.022319933 1.1895642e-38 346 259
0.031765141 0.671 -0.022353247 1.2264066e-38 347 259
0.032941625 0.671 -0.022353247 1.2173713e-38 348 259
0.034118112 0.671 -0.022353247 1.2819083e-38 349 259
0.035347197 0.67199999 -0.022386558 1.3093908e-38 350 259
0.036634147 0.67400002 -0.022453187 1.2909518e-38 351 259
0.037871998 0.67500001 -0.022486499 1.2542141e-38 352 259
0.039113361 0.676 -0.022519812 1.1804217e-38 353 259
0.040417835 0.67799997 -0.022586439 1.1806721e-38 354 259
0.041667968 0.67900002 -0.022619752 1.2359895e-38 355 259
0.042858478 0.67900002 -0.022619752 1.3461596e-38 356 259
0.044048995 0.67900002 -0.022619752 1.54899e-38 357 259
0.045306131 0.68000001 -0.022653066 1.8805722e-38 358 259
0.046498399 0.68000001 -0.022653066 2.0004266e-38 359 259
-0.017962901 0.68300003 -0.023950534 1.6411175e-38 305 260
-0.016740825 0.68199998 -0.023915464 1.4569373e-38 306 260
-0.015499466 0.68000001 -0.023845334 1.3001689e-38 307 260
-0.01428616 0.67900002 -0.023810266 1.0797178e-38 308 260
-0.013037786 0.676 -0.023705067 1.0613147e-38 309 260
-0.011852534 0.676 -0.023705067 9.2388e-39 310 260
-0.0106515 0.67500001 -0.023669999 9.1466044e-39 311 260
-0.0094539737 0.67400002 -0.023634933 8.8710937e-39 312 260
-0.0082722269 0.67400002 -0.023634933 8.8710937e-39 313 260
-0.0070694401 0.67199999 -0.023564799 8.7796169e-39 314 260
-0.0058824331 0.671 -0.023529733 8.7796169e-39 315 260
-0.0046989331 0.67000002 -0.023494666 8.8714524e-39 316 260
-0.0035241998 0.67000002 -0.023494666 8.8714524e-39 317 260
-0.0023424532 0.66799998 -0.023424532 8.9629292e-39 318 260
-0.0011712266 0.66799998 -0.023424532 8.9629292e-39 319 260
0 0.667 -0.023389466 8.7789009e-39 320 260
0.0011694733 0.667 -0.023389466 9.0551276e-39 321 260
0.0023389466 0.667 -0.023389466 9.6047085e-39 322 260
0.0035031599 0.66600001 -0.023354398 9.6047085e-39 323 260
0.0046708798 0.66600001 -0.023354398 9.8805667e-39 324 260
0.0058385995 0.66600001 -0.023354398 9.8805667e-39 325 260
0.0069852793 0.66399997 -0.023284266 1.0248267e-38 326 260
0.0081494926 0.66399997 -0.023284266 1.0248267e-38 327 260
0.0093137063 0.66399997 -0.023284266 1.0524491e-38 328 260
0.010477919 0.66399997 -0.023284266 1.0524491e-38 329 260
0.0116246 0.66299999 -0.0232492 1.1073374e-38 330 260
0.012787059 0.66299999 -0.0232492 1.0981179e-38 331 260
0.013949519 0.66299999 -0.0232492 1.0886137e-38 332 260
0.015111978 0.66299999 -0.0232492 1.0701746e-38 333 260
0.016274439 0.66299999 -0.0232492 1.1621201e-38 334 260
0.017436899 0.66299999 -0.0232492 1.2358766e-38 335 260
0.018599359 0.66299999 -0.0232492 1.2911249e-38 336 260
0.019791625 0.66399997 -0.023284266 1.3556618e-38 337 260
0.020955838 0.66399997 -0.023284266 1.3923625e-38 338 260
0.022120051 0.66399997 -0.023284266 1.2632886e-38 339 260
0.023284266 0.66399997 -0.023284266 9.3282491e-39 340 260
0.02452212 0.66600001 -0.023354398 1.0711184e-38 341 260
0.02568984 0.66600001 -0.023354398 1.3188256e-38 342 260
0.026857559 0.66600001 -0.023354398 1.3372647e-38 343 260
0.028025279 0.66600001 -0.023354398 1.3831823e-38 344 260
0.029236831 0.667 -0.023389466 1.3831823e-38 345 260
0.030543067 0.67000002 -0.023494666 1.3554511e-38 346 260
0.031765141 0.671 -0.023529733 1.3646708e-38 347 260
0.032941625 0.671 -0.023529733 1.3462692e-38 348 260
0.034168959 0.67199999 -0.023564799 1.3738919e-38 349 260
0.035347197 0.67199999 -0.023564799 1.3647457e-38 350 260
0.036688499 0.67500001 -0.023669999 1.3462707e-38 351 260
0.037928104 0.676 -0.023705067 1.3554537e-38 352 260
0.039229076 0.67799997 -0.023775198 1.3185753e-38 353 260
0.040417835 0.67799997 -0.023775198 1.3738203e-38 354 260
0.041667968 0.67900002 -0.023810266 1.4015148e-38 355 260
0.042858478 0.67900002 -0.023810266 1.4751278e-38 356 260
0.044113863 0.68000001 -0.023845334 1.6134213e-38 357 260
0.045439381 0.68199998 -0.023915464 1.898904e-38 358 260
0.046635158 0.68199998 -0.023915464 2.0095028e-38 359 260
-0.017962901 0.68300003 -0.02514806 1.5675055e-38 305 261
-0.016740825 0.68199998 -0.025111238 1.4479708e-38 306 261
-0.015545053 0.68199998 -0.025111238 1.2820546e-38 307 261
-0.014307199 0.68000001 -0.025037598 9.7848258e-39 308 261
-0.013095647 0.67900002 -0.025000781 1.0061411e-38 309 261
-0.011852534 0.676 -0.024890319 9.1473204e-39 310 261
-0.0106515 0.67500001 -0.0248535 8.8710937e-39 311 261
-0.0094679995 0.67500001 -0.0248535 8.7796169e-39 312 261
-0.0082722269 0.67400002 -0.024816679 8.7796169e-39 313 261
-0.0070694401 0.67199999 -0.024743039 8.7796169e-39 314 261
-0.0058911997 0.67199999 -0.024743039 8.7796169e-39 315 261
-0.0047059464 0.671 -0.024706218 8.8714524e-39 316 261
-0.0035241998 0.67000002 -0.024669399 8.8714524e-39 317 261
-0.0023494666 0.67000002 -0.024669399 9.2380769e-39 318 261
-0.0011712266 0.66799998 -0.02459576 9.2380769e-39 319 261
0 0.66799998 -0.02459576 9.2373707e-39 320 261
0.0011694733 0.667 -0.024558939 9.2373707e-39 321 261
0.0023389466 0.667 -0.024558939 9.7880235e-39 322 261
0.0035084197 0.667 -0.024558939 9.7880235e-39 323 261
0.0046708798 0.66600001 -0.02452212 9.8805667e-39 324 261
0.0058385995 0.66600001 -0.02452212 9.8805667e-39 325 261
0.0069852793 0.66399997 -0.024448479 9.8809254e-39 326 261
0.0081494926 0.66399997 -0.024448479 1.0249344e-38 327 261
0.0093137063 0.66399997 -0.024448479 1.0799283e-38 328 261
0.010477919 0.66399997 -0.024448479 1.0615251e-38 329 261
0.011642133 0.66399997 -0.024448479 1.0980108e-38 330 261
0.012806346 0.66399997 -0.024448479 1.0887913e-38 331 261
0.013970559 0.66399997 -0.024448479 1.1161292e-38 332 261
0.015134773 0.66399997 -0.024448479 1.1161292e-38 333 261
0.016298985 0.66399997 -0.024448479 1.2082917e-38 334 261
0.0174632 0.66399997 -0.024448479 1.2820841e-38 335 261
0.018627413 0.66399997 -0.024448479 1.3189676e-38 336 261
0.019791625 0.66399997 -0.024448479 1.3835045e-38 337 261
0.020955838 0.66399997 -0.024448479 1.4017664e-38 338 261
0.022120051 0.66399997 -0.024448479 1.2450338e-38 339 261
0.023354398 0.66600001 -0.02452212 9.0516972e-39 340 261
0.02452212 0.66600001 -0.02452212 1.025024e-38 341 261
0.025728412 0.667 -0.024558939 1.3004603e-38 342 261
0.026897885 0.667 -0.024558939 1.3096799e-38 343 261
0.028067358 0.667 -0.024558939 1.272909e-38 344 261
0.029236831 0.667 -0.024558939 1.2452501e-38 345 261
0.030543067 0.67000002 -0.024669399 1.1900404e-38 346 261
0.031765141 0.671 -0.024706218 1.1531621e-38 347 261
0.03299072 0.67199999 -0.024743039 1.162382e-38 348 261
0.034168959 0.67199999 -0.024743039 1.1716015e-38 349 261
0.035452399 0.67400002 -0.024816679 1.1716029e-38 350 261
0.036742851 0.676 -0.024890319 1.2177006e-38 351 261
0.037928104 0.676 -0.024890319 1.2911701e-38 352 261
0.039229076 0.67799997 -0.024963958 1.3003897e-38 353 261
0.040477451 0.67900002 -0.025000781 1.37393e-38 354 261
0.041667968 0.67900002 -0.025000781 1.3831497e-38 355 261
0.042921599 0.68000001 -0.025037598 1.521155e-38 356 261
0.044113863 0.68000001 -0.025037598 1.6687039e-38 357 261
0.045439381 0.68199998 -0.025111238 1.9080883e-38 358 261
0.046635158 0.68199998 -0.025111238 2.0094675e-38 359 261
-0.016765373 0.68300003 -0.026345588 1.4665551e-38 306 262
-0.015545053 0.68199998 -0.026307013 1.319042e-38 307 262
-0.01434928 0.68199998 -0.026307013 9.7869964e-39 308 262
-0.013114933 0.68000001 -0.026229866 9.6026037e-39 309 262
-0.011852534 0.676 -0.026075572 8.8714594e-39 310 262
-0.0106515 0.67500001 -0.026037 8.8714594e-39 311 262
-0.0094679995 0.67500001 -0.026037 8.8714594e-39 312 262
-0.0082722269 0.67400002 -0.025998428 8.7792638e-39 313 262
-0.0070694401 0.67199999 -0.025921278 8.7796169e-39 314 262
-0.0058911997 0.67199999 -0.025921278 8.7796169e-39 315 262
-0.0047129598 0.67199999 -0.025921278 9.3299166e-39 316 262
-0.0035294599 0.671 -0.025882706 9.4221123e-39 317 262
-0.0023494666 0.67000002 -0.025844134 9.4210459e-39 318 262
-0.0011747333 0.67000002 -0.025844134 9.3288503e-39 319 262
0 0.66799998 -0.025766984 9.5118122e-39 320 262
0.0011712266 0.66799998 -0.025766984 9.6040078e-39 321 262
0.0023424532 0.66799998 -0.025766984 9.8795031e-39 322 262
0.0035084197 0.667 -0.025728412 9.8795031e-39 323 262
0.0046778931 0.667 -0.025728412 9.8809254e-39 324 262
0.0058385995 0.66600001 -0.02568984 9.8809254e-39 325 262
0.0070063197 0.66600001 -0.02568984 9.7887522e-39 326 262
0.0081740404 0.66600001 -0.02568984 1.0341926e-38 327 262
0.0093417596 0.66600001 -0.02568984 1.1258514e-38 328 262
0.01050948 0.66600001 -0.02568984 1.1074121e-38 329 262
0.011677199 0.66600001 -0.02568984 1.0795756e-38 330 262
0.012806346 0.66399997 -0.025612691 1.0518809e-38 331 262
0.013970559 0.66399997 -0.025612691 1.1161337e-38 332 262
0.015134773 0.66399997 -0.025612691 1.2267684e-38 333 262
0.016298985 0.66399997 -0.025612691 1.3098925e-38 334 262
0.017515799 0.66600001 -0.02568984 1.3468067e-38 335 262
0.018683519 0.66600001 -0.02568984 1.3651042e-38 336 262
0.019851239 0.66600001 -0.02568984 1.3651042e-38 337 262
0.02101896 0.66600001 -0.02568984 1.2914912e-38 338 262
0.02218668 0.66600001 -0.02568984 1.1624173e-38 339 262
0.023354398 0.66600001 -0.02568984 9.6030563e-39 340 262
0.024558939 0.667 -0.025728412 9.510502e-39 341 262
0.025728412 0.667 -0.025728412 1.0334856e-38 342 262
0.026897885 0.667 -0.025728412 9.8738797e-39 343 262
0.028067358 0.667 -0.025728412 8.7711096e-39 344 262
0.029236831 0.667 -0.025728412 8.1257402e-39 345 262
0.030588651 0.671 -0.025882706 7.483591e-39 346 262
0.031765141 0.671 -0.025882706 7.298841e-39 347 262
0.03299072 0.67199999 -0.025921278 7.6669005e-39 348 262
0.034321502 0.67500001 -0.026037 7.6669005e-39 349 262
0.035505001 0.67500001 -0.026037 7.9417105e-39 350 262
0.036742851 0.676 -0.026075572 9.3246464e-39 351 262
0.038040318 0.67799997 -0.026152719 1.1072811e-38 352 262
0.039229076 0.67799997 -0.026152719 1.2271354e-38 353 262
0.040477451 0.67900002 -0.026191294 1.3738951e-38 354 262
0.041667968 0.67900002 -0.026191294 1.4015178e-38 355 262
0.042921599 0.68000001 -0.026229866 1.5395228e-38 356 262
0.044113863 0.68000001 -0.026229866 1.7054391e-38 357 262
0.045306131 0.68000001 -0.026229866 1.8898289e-38 358 262
0.046498399 0.68000001 -0.026229866 1.9635854e-38 359 262
-0.016789921 0.68400002 -0.027583439 1.4941077e-38 306 263
-0.015567848 0.68300003 -0.027543113 1.4295708e-38 307 263
-0.014370319 0.68300003 -0.027543113 1.1535855e-38 308 263
-0.013153506 0.68199998 -0.027502786 1.0245116e-38 309 263
-0.011922667 0.68000001 -0.027422134 9.0533396e-39 310 263
-0.01066728 0.676 -0.027260827 9.3295663e-39 311 263
-0.0094679995 0.67500001 -0.027220501 8.7796197e-39 312 263
-0.0082722269 0.67400002 -0.027180174 8.7796197e-39 313 263
-0.0070694401 0.67199999 -0.027099518 9.0551304e-39 314 263
-0.0058911997 0.67199999 -0.027099518 9.1473261e-39 315 263
-0.0047129598 0.67199999 -0.027099518 1.0064617e-38 316 263
-0.0035294599 0.671 -0.027059194 1.0249009e-38 317 263
-0.0023494666 0.67000002 -0.027018867 1.079716e-38 318 263
-0.0011747333 0.67000002 -0.027018867 1.0612768e-38 319 263
0 0.66799998 -0.026938211 9.8787996e-39 320 263
0.0011712266 0.66799998 -0.026938211 9.9709953e-39 321 263
0.0023424532 0.66799998 -0.026938211 9.6040078e-39 322 263
0.0035084197 0.667 -0.026897885 1.0064986e-38 323 263
0.0046778931 0.667 -0.026897885 1.0892621e-38 324 263
0.0058385995 0.66600001 -0.026857559 1.153799e-38 325 263
0.0070063197 0.66600001 -0.026857559 1.190466e-38 326 263
0.0081740404 0.66600001 -0.026857559 1.2181605e-38 327 263
0.0093417596 0.66600001 -0.026857559 1.3007067e-38 328 263
0.01050948 0.66600001 -0.026857559 1.3007067e-38 329 263
0.011677199 0.66600001 -0.026857559 1.2730123e-38 330 263
0.01284492 0.66600001 -0.026857559 1.2176949e-38 331 263
0.014012639 0.66600001 -0.026857559 1.2268075e-38 332 263
0.01518036 0.66600001 -0.026857559 1.2636499e-38 333 263
0.016348081 0.66600001 -0.026857559 1.2639395e-38 334 263
0.017515799 0.66600001 -0.026857559 1.2362807e-38 335 263
0.018683519 0.66600001 -0.026857559 1.1809282e-38 336 263
0.019851239 0.66600001 -0.026857559 1.1256108e-38 337 263
0.02101896 0.66600001 -0.026857559 9.1445935e-39 338 263
0.02218668 0.66600001 -0.026857559 9.5133746e-39 339 263
0.023389466 0.667 -0.026897885 1.098095e-38 340 263
0.024558939 0.667 -0.026897885 1.0519612e-38 341 263
0.025728412 0.667 -0.026897885 8.4966653e-39 342 263
0.026897885 0.667 -0.026897885 7.2981222e-39 343 263
0.028067358 0.667 -0.026897885 7.1162084e-39 344 263
0.029368332 0.67000002 -0.027018867 7.300601e-39 345 263
0.030588651 0.671 -0.027059194 7.4842692e-39 346 263
0.031812478 0.67199999 -0.027099518 7.4842692e-39 347 263
0.033088908 0.67400002 -0.027180174 7.8516042e-39 348 263
0.034321502 0.67500001 -0.027220501 7.7594086e-39 349 263
0.035557602 0.676 -0.027260827 7.7558367e-39 350 263
0.036851559 0.67799997 -0.027341479 8.9543799e-39 351 263
0.038040318 0.67799997 -0.027341479 1.0704728e-38 352 263
0.039286941 0.67900002 -0.027381808 1.2087664e-38 353 263
0.040477451 0.67900002 -0.027381808 1.3647118e-38 354 263
0.041667968 0.67900002 -0.027381808 1.3831509e-38 355 263
0.042921599 0.68000001 -0.027422134 1.5302677e-38 356 263
0.044113863 0.68000001 -0.027422134 1.6962197e-38 357 263
0.045306131 0.68000001 -0.027422134 1.8622426e-38 358 263
0.046498399 0.68000001 -0.027422134 1.9267795e-38 359 263
-0.020506985 0.68800002 -0.028951041 1.9543309e-38 303 264
-0.019300694 0.68800002 -0.028951041 1.5397411e-38 304 264
-0.0180944 0.68800002 -0.028951041 1.3645695e-38 305 264
-0.016888106 0.68800002 -0.028951041 1.4755992e-38 306 264
-0.01559064 0.68400002 -0.02878272 1.5124416e-38 307 264
-0.01439136 0.68400002 -0.02878272 1.3377642e-38 308 264
-0.013172794 0.68300003 -0.028740639 1.1257141e-38 309 264
-0.011957732 0.68199998 -0.02869856 8.9604349e-39 310 264
-0.010714619 0.67900002 -0.028572321 9.2370204e-39 311 264
-0.0095100794 0.67799997 -0.028530238 8.8710965e-39 312 264
-0.0082844999 0.67500001 -0.028404001 9.0551276e-39 313 264
-0.0070904801 0.67400002 -0.02836192 9.1466226e-39 314 264
-0.0059087332 0.67400002 -0.02836192 9.6997964e-39 315 264
-0.0047129598 0.67199999 -0.02827776 1.1259217e-38 316 264
-0.00353472 0.67199999 -0.02827776 1.1074825e-38 317 264
-0.0023529732 0.671 -0.028235679 1.1440365e-38 318 264
-0.0011764866 0.671 -0.028235679 1.1163418e-38 319 264
0 0.671 -0.028235679 9.880222e-39 320 264
0.0011747333 0.67000002 -0.028193599 9.7880263e-39 321 264
0.0023494666 0.67000002 -0.028193599 9.6951497e-39 322 264
0.0035136798 0.66799998 -0.028109439 1.0985888e-38 323 264
0.0046778931 0.667 -0.028067358 1.2364957e-38 324 264
0.0058473665 0.667 -0.028067358 1.3379107e-38 325 264
0.0070168395 0.667 -0.028067358 1.356139e-38 326 264
0.0081863133 0.667 -0.028067358 1.3745781e-38 327 264
0.0093417596 0.66600001 -0.028025279 1.4388634e-38 328 264
0.01050948 0.66600001 -0.028025279 1.4388634e-38 329 264
0.011677199 0.66600001 -0.028025279 1.4204591e-38 330 264
0.01284492 0.66600001 -0.028025279 1.3559222e-38 331 264
0.014012639 0.66600001 -0.028025279 1.3098221e-38 332 264
0.01518036 0.66600001 -0.028025279 1.2452852e-38 333 264
0.016348081 0.66600001 -0.028025279 1.1625943e-38 334 264
0.017515799 0.66600001 -0.028025279 1.0519597e-38 335 264
0.018683519 0.66600001 -0.028025279 8.7718061e-39 336 264
0.019881045 0.667 -0.028067358 7.9420454e-39 337 264
0.021050518 0.667 -0.028067358 6.1993332e-39 338 264
0.022219993 0.667 -0.028067358 8.8730065e-39 339 264
0.023389466 0.667 -0.028067358 1.2727997e-38 340 264
0.024558939 0.667 -0.028067358 1.226702e-38 341 264
0.025766984 0.66799998 -0.028109439 9.876339e-39 342 264
0.027018867 0.67000002 -0.028193599 7.9402307e-39 343 264
0.028193599 0.67000002 -0.028193599 7.6671877e-39 344 264
0.029368332 0.67000002 -0.028193599 8.1278029e-39 345 264
0.030634239 0.67199999 -0.02827776 8.1289002e-39 346 264
0.03190716 0.67400002 -0.02836192 8.1289002e-39 347 264
0.033137999 0.67500001 -0.028404001 8.3129313e-39 348 264
0.034372345 0.676 -0.028446076 7.9445089e-39 349 264
0.0356628 0.67799997 -0.028530238 8.765653e-39 350 264
0.036851559 0.67799997 -0.028530238 1.033298e-38 351 264
0.038096428 0.67900002 -0.028572321 1.1072421e-38 352 264
0.039286941 0.67900002 -0.028572321 1.1902184e-38 353 264
0.040477451 0.67900002 -0.028572321 1.3369811e-38 354 264
0.041667968 0.67900002 -0.028572321 1.3554202e-38 355 264
0.042921599 0.68000001 -0.028614398 1.4659825e-38 356 264
0.044113863 0.68000001 -0.028614398 1.6595934e-38 357 264
0.045306131 0.68000001 -0.028614398 1.8714621e-38 358 264
0.046498399 0.68000001 -0.028614398 1.9175599e-38 359 264
-0.020506985 0.68800002 -0.030157333 1.9268161e-38 303 265
-0.019300694 0.68800002 -0.030157333 1.4936789e-38 304 265
-0.0180944 0.68800002 -0.030157333 1.2078366e-38 305 265
-0.016888106 0.68800002 -0.030157333 1.2268878e-38 306 265
-0.015659019 0.68699998 -0.030113498 1.3835844e-38 307 265
-0.01443344 0.68599999 -0.030069664 1.475845e-38 308 265
-0.01319208 0.68400002 -0.029982001 1.2453558e-38 309 265
-0.011975267 0.68300003 -0.029938167 8.8693337e-39 310 265
-0.0107304 0.68000001 -0.029806666 8.5927468e-39 311 265
-0.009524107 0.67900002 -0.029762832 8.6870654e-39 312 265
-0.0082967728 0.676 -0.029631332 8.8718154e-39 313 265
-0.0071115191 0.676 -0.029631332 9.1462723e-39 314 265
-0.0059174998 0.67500001 -0.0295875 9.7916417e-39 315 265
-0.0047269869 0.67400002 -0.029543666 1.2085043e-38 316 265
-0.00353472 0.67199999 -0.029455997 1.1992848e-38 317 265
-0.0023564799 0.67199999 -0.029455997 1.1349982e-38 318 265
-0.0011782399 0.67199999 -0.029455997 1.0889006e-38 319 265
0 0.671 -0.029412165 9.6040106e-39 320 265
0.0011764866 0.671 -0.029412165 9.6962063e-39 321 265
0.0023529732 0.671 -0.029412165 1.0431675e-38 322 265
0.0035241998 0.67000002 -0.029368332 1.2367783e-38 323 265
0.0046849065 0.66799998 -0.029280664 1.3837607e-38 324 265
0.0058561331 0.66799998 -0.029280664 1.4021998e-38 325 265
0.0070168395 0.667 -0.029236831 1.3470288e-38 326 265
0.0081863133 0.667 -0.029236831 1.3839071e-38 327 265
0.0093557863 0.667 -0.029236831 1.4112411e-38 328 265
