# .PCD v.7 - Point Cloud Data file format
FIELDS x y z rgb imX imY
SIZE 4 4 4 4 4 4
TYPE F F F F F F
COUNT 1 1 1 1 1 1
WIDTH 857
HEIGHT 1
VIEWPOINT 0 0 0 1 0 0 0
POINTS 857
DATA ascii
-0.0090191467 0.64300001 0.11048454 1.346236e-38 312 142
-0.0078917528 0.64300001 0.11048454 1.3185774e-38 313 142
-0.0067643598 0.64300001 0.11048454 1.3184331e-38 314 142
-0.0056369668 0.64300001 0.11048454 1.2907385e-38 315 142
-0.0045095733 0.64300001 0.11048454 1.2630075e-38 316 142
-0.0033821799 0.64300001 0.11048454 1.2169097e-38 317 142
-0.00225128 0.64200002 0.11031272 1.1892145e-38 318 142
-0.00112564 0.64200002 0.11031272 1.1338971e-38 319 142
0 0.64300001 0.11048454 1.1060213e-38 320 142
0.0011291467 0.64399999 0.11065637 9.6772775e-39 321 142
0.0022582933 0.64399999 0.11065637 8.3876163e-39 322 142
-0.022863466 0.65200001 0.11088781 1.2531025e-38 300 143
-0.021653665 0.64999998 0.11054766 1.1977851e-38 301 143
-0.02048244 0.64899999 0.11037759 9.4990436e-39 302 143
-0.019314719 0.648 0.11020751 1.0328804e-38 303 143
-0.01817856 0.648 0.11020751 1.0513917e-38 304 143
-0.0170161 0.64700001 0.11003745 1.0974895e-38 305 143
-0.015857147 0.64600003 0.10986737 1.161954e-38 306 143
-0.014724494 0.64600003 0.10986737 1.1712095e-38 307 143
-0.013549759 0.64399999 0.10952722 1.1986155e-38 308 143
-0.012401327 0.64300001 0.10935716 1.1801762e-38 309 143
-0.0112564 0.64200002 0.10918708 1.1893592e-38 310 143
-0.01013076 0.64200002 0.10918708 1.1893592e-38 311 143
-0.0090191467 0.64300001 0.10935716 1.1984706e-38 312 143
-0.0078917528 0.64300001 0.10935716 1.1708479e-38 313 143
-0.0067643598 0.64300001 0.10935716 1.1248939e-38 314 143
-0.0056369668 0.64300001 0.10935716 1.0880158e-38 315 143
-0.0045095733 0.64300001 0.10935716 1.1246422e-38 316 143
-0.0033874398 0.64399999 0.10952722 1.1154226e-38 317 143
-0.0022582933 0.64399999 0.10952722 1.0693248e-38 318 143
-0.0011326533 0.64600003 0.10986737 1.041666e-38 319 143
0 0.64600003 0.10986737 1.0690355e-38 320 143
0.0011291467 0.64399999 0.10952722 1.0137181e-38 321 143
0.0022582933 0.64399999 0.10952722 9.4014137e-39 322 143
-0.022863466 0.65200001 0.10974464 1.6405784e-38 300 144
-0.021720294 0.65200001 0.10974464 1.3639916e-38 301 144
-0.020513998 0.64999998 0.10940799 1.1340062e-38 302 144
-0.019374331 0.64999998 0.10940799 1.1155671e-38 303 144
-0.01817856 0.648 0.10907136 1.0787612e-38 304 144
-0.0170161 0.64700001 0.10890304 1.0787612e-38 305 144
-0.015881693 0.64700001 0.10890304 1.078941e-38 306 144
-0.014724494 0.64600003 0.10873472 1.078941e-38 307 144
-0.013549759 0.64399999 0.10839807 1.0787965e-38 308 144
-0.012362752 0.64099997 0.10789311 1.0695769e-38 309 144
-0.011238866 0.64099997 0.10789311 1.0786163e-38 310 144
-0.01016232 0.64399999 0.10839807 1.0786163e-38 311 144
-0.0090191467 0.64300001 0.10822976 1.1061311e-38 312 144
-0.0078917528 0.64300001 0.10822976 1.0876561e-38 313 144
-0.0067643598 0.64300001 0.10822976 1.0325908e-38 314 144
-0.0056369668 0.64300001 0.10822976 1.0233712e-38 315 144
-0.0045095733 0.64300001 0.10822976 1.0601416e-38 316 144
-0.0033821799 0.64300001 0.10822976 1.0786166e-38 317 144
-0.0022582933 0.64399999 0.10839807 1.0878361e-38 318 144
-0.0011326533 0.64600003 0.10873472 1.1062754e-38 319 144
0 0.64600003 0.10873472 1.1613763e-38 320 144
0.0011326533 0.64600003 0.10873472 1.1613763e-38 321 144
-0.021720294 0.65200001 0.10860147 1.3919389e-38 301 145
-0.020513998 0.64999998 0.10826832 1.2815193e-38 302 145
-0.019374331 0.64999998 0.10826832 1.3183975e-38 303 145
-0.012362752 0.64099997 0.10676923 1.2816272e-38 309 145
-0.011238866 0.64099997 0.10676923 1.3091058e-38 310 145
-0.01016232 0.64399999 0.10726893 1.2998862e-38 311 145
-0.0090191467 0.64300001 0.10710236 1.3090333e-38 312 145
-0.0078917528 0.64300001 0.10710236 1.2629357e-38 313 145
-0.0045095733 0.64300001 0.10710236 1.2907385e-38 316 145
-0.0033821799 0.64300001 0.10710236 1.2999581e-38 317 145
-0.02057712 0.65200001 0.10745829 1.2538971e-38 302 146
0.017673599 0.67199999 0.02827776 8.667052e-39 335 216
0.018851839 0.67199999 0.02827776 7.8394227e-39 336 216
0.01649536 0.67199999 0.027099518 6.9174664e-39 334 217
0.017673599 0.67199999 0.027099518 5.8111189e-39 335 217
0.018851839 0.67199999 0.027099518 5.7221574e-39 336 217
0.01649536 0.67199999 0.025921278 5.8143405e-39 334 218
0.017673599 0.67199999 0.025921278 5.6299492e-39 335 218
0.018851839 0.67199999 0.025921278 5.7235896e-39 336 218
-0.034372345 0.676 0.024890319 7.0122236e-39 291 219
-0.033187091 0.676 0.024890319 6.27789e-39 292 219
-0.023424532 0.66799998 0.02459576 8.2997367e-39 300 219
-0.022253305 0.66799998 0.02459576 8.4837678e-39 301 219
-0.021082079 0.66799998 0.02459576 9.0355024e-39 302 219
-0.019910853 0.66799998 0.02459576 9.5886762e-39 303 219
-0.0058035329 0.662 0.024374841 1.0786501e-38 315 219
-0.0046428265 0.662 0.024374841 1.1062008e-38 316 219
0.01413888 0.67199999 0.024743039 5.7239427e-39 332 219
0.01531712 0.67199999 0.024743039 5.6317471e-39 333 219
0.01649536 0.67199999 0.024743039 5.9990848e-39 334 219
0.017673599 0.67199999 0.024743039 6.183116e-39 335 219
0.018851839 0.67199999 0.024743039 6.184202e-39 336 219
-0.038264744 0.68199998 0.023915464 8.3014939e-39 288 220
-0.036960267 0.68000001 0.023845334 8.0249056e-39 289 220
-0.035767999 0.68000001 0.023845334 8.3022128e-39 290 220
-0.034372345 0.676 0.023705067 8.2100171e-39 291 220
-0.033137999 0.67500001 0.023669999 7.2030735e-39 292 220
-0.031954501 0.67500001 0.023669999 6.7420967e-39 293 220
-0.023424532 0.66799998 0.023424532 3.4209073e-39 300 220
-0.022253305 0.66799998 0.023424532 3.9737223e-39 301 220
-0.021050518 0.667 0.023389466 4.5240094e-39 302 220
-0.019881045 0.667 0.023389466 4.6165638e-39 303 220
-0.018711573 0.667 0.023389466 5.2640954e-39 304 220
-0.0081249457 0.662 0.023214132 8.0213351e-39 313 220
-0.0069642398 0.662 0.023214132 7.5603597e-39 314 220
-0.0058035329 0.662 0.023214132 7.1912171e-39 315 220
-0.0046428265 0.662 0.023214132 7.1922947e-39 316 220
-0.0034821199 0.662 0.023214132 7.3766845e-39 317 220
-0.0023214133 0.662 0.023214132 7.2837658e-39 318 220
-0.00116246 0.66299999 0.0232492 6.9149847e-39 319 220
0.012941353 0.671 0.023529733 6.3646458e-39 331 220
0.01411784 0.671 0.023529733 6.1820468e-39 332 220
0.01531712 0.67199999 0.023564799 6.6430249e-39 333 220
0.01649536 0.67199999 0.023564799 6.002675e-39 334 220
0.0177262 0.67400002 0.023634933 6.1870662e-39 335 220
0.018907947 0.67400002 0.023634933 6.7384646e-39 336 220
0.020089693 0.67400002 0.023634933 7.2916383e-39 337 220
0.0214608 0.68000001 0.023845334 8.6670548e-39 338 220
0.022653066 0.68000001 0.023845334 8.4823034e-39 339 220
-0.039460517 0.68199998 0.022719691 1.0144e-38 287 221
-0.038152531 0.68000001 0.022653066 1.0139975e-38 288 221
-0.036960267 0.68000001 0.022653066 9.8633882e-39 289 221
-0.035715401 0.67900002 0.022619752 8.9457521e-39 290 221
-0.034372345 0.676 0.022519812 8.8535564e-39 291 221
-0.033137999 0.67500001 0.022486499 8.2111017e-39 292 221
-0.031954501 0.67500001 0.022486499 8.1185474e-39 293 221
-0.030725412 0.67400002 0.022453187 6.2750061e-39 294 221
-0.029543666 0.67400002 0.022453187 4.799876e-39 295 221
-0.023424532 0.66799998 0.022253305 3.6963997e-39 300 221
-0.022253305 0.66799998 0.022253305 4.0648221e-39 301 221
-0.021050518 0.667 0.022219993 4.43252e-39 302 221
-0.019881045 0.667 0.022219993 3.7871506e-39 303 221
-0.018683519 0.66600001 0.02218668 4.2481246e-39 304 221
-0.017515799 0.66600001 0.02218668 5.2622779e-39 305 221
-0.016348081 0.66600001 0.02218668 6.0909652e-39 306 221
-0.0116246 0.66299999 0.02208674 6.1813629e-39 310 221
-0.01046214 0.66299999 0.02208674 5.9051348e-39 311 221
-0.009285653 0.662 0.022053426 5.1679327e-39 312 221
-0.0081249457 0.662 0.022053426 5.0757371e-39 313 221
-0.0069642398 0.662 0.022053426 4.89135e-39 314 221
-0.0058035329 0.662 0.022053426 5.1679355e-39 315 221
-0.0046428265 0.662 0.022053426 5.7185883e-39 316 221
-0.0034821199 0.662 0.022053426 5.902981e-39 317 221
-0.0023214133 0.662 0.022053426 5.6256682e-39 318 221
-0.0011607066 0.662 0.022053426 5.2572458e-39 319 221
0 0.662 0.022053426 5.3515799e-39 320 221
0.0011607066 0.662 0.022053426 5.9047536e-39 321 221
0.0105726 0.67000002 0.022319933 5.9072578e-39 329 221
0.011747333 0.67000002 0.022319933 5.7214414e-39 330 221
0.012941353 0.671 0.022353247 5.6292457e-39 331 221
0.01411784 0.671 0.022353247 6.3693149e-39 332 221
0.01531712 0.67199999 0.022386558 6.7377387e-39 333 221
0.01649536 0.67199999 0.022386558 6.9231893e-39 334 221
0.017673599 0.67199999 0.022386558 6.9231893e-39 335 221
0.018907947 0.67400002 0.022453187 8.0245343e-39 336 221
0.020208918 0.67799997 0.022586439 8.1170886e-39 337 221
0.0214608 0.68000001 0.022653066 8.8496608e-39 338 221
0.022653066 0.68000001 0.022653066 8.2968458e-39 339 221
0.023915464 0.68199998 0.022719691 9.8663575e-39 340 221
-0.039460517 0.68199998 0.021523919 1.0513128e-38 287 222
-0.038152531 0.68000001 0.0214608 1.1244502e-38 288 222
-0.036960267 0.68000001 0.0214608 1.1337057e-38 289 222
-0.035715401 0.67900002 0.021429239 1.0232499e-38 290 222
-0.034372345 0.676 0.021334561 8.7577342e-39 291 222
-0.033137999 0.67500001 0.021303 8.0238112e-39 292 222
-0.03190716 0.67400002 0.021271439 7.8397787e-39 293 222
-0.030725412 0.67400002 0.021271439 6.4590246e-39 294 222
-0.029455997 0.67199999 0.021208318 4.7073091e-39 295 222
-0.028235679 0.671 0.021176759 3.6034824e-39 296 222
-0.027059194 0.671 0.021176759 3.6034824e-39 297 222
-0.023389466 0.667 0.021050518 4.3399671e-39 300 222
-0.022219993 0.667 0.021050518 4.4321641e-39 301 222
-0.02101896 0.66600001 0.02101896 4.5247185e-39 302 222
-0.019851239 0.66600001 0.02101896 4.6169141e-39 303 222
-0.018683519 0.66600001 0.02101896 5.1679299e-39 304 222
-0.017515799 0.66600001 0.02101896 5.5370725e-39 305 222
-0.016298985 0.66399997 0.020955838 5.9058509e-39 306 222
-0.015134773 0.66399997 0.020955838 5.9980479e-39 307 222
-0.013949519 0.66299999 0.020924279 5.7221827e-39 308 222
-0.012787059 0.66299999 0.020924279 5.5377914e-39 309 222
-0.0116246 0.66299999 0.020924279 5.7211037e-39 310 222
-0.01046214 0.66299999 0.020924279 5.0757343e-39 311 222
-0.009285653 0.662 0.020892721 3.6963997e-39 312 222
-0.0081249457 0.662 0.020892721 3.0510303e-39 313 222
-0.0069642398 0.662 0.020892721 3.4183835e-39 314 222
-0.0058035329 0.662 0.020892721 3.9715573e-39 315 222
-0.0046428265 0.662 0.020892721 5.34981e-39 316 222
-0.0034821199 0.662 0.020892721 5.6260368e-39 317 222
-0.0023249199 0.66299999 0.020924279 5.6256682e-39 318 222
-0.0011607066 0.662 0.020892721 5.6256682e-39 319 222
0 0.662 0.020892721 6.0873526e-39 320 222
0.0011607066 0.662 0.020892721 6.3639395e-39 321 222
0.0023284266 0.66399997 0.020955838 6.2745955e-39 322 222
0.0035031599 0.66600001 0.02101896 6.3667926e-39 323 222
0.0046708798 0.66600001 0.02101896 6.1838292e-39 324 222
0.0058385995 0.66600001 0.02101896 5.9997995e-39 325 222
0.0070168395 0.667 0.021050518 6.1831118e-39 326 222
0.0094118929 0.671 0.021176759 6.1831188e-39 328 222
0.0105726 0.67000002 0.0211452 5.906892e-39 329 222
0.011747333 0.67000002 0.0211452 5.905104e-39 330 222
0.012941353 0.671 0.021176759 6.1820496e-39 331 222
0.01411784 0.671 0.021176759 7.2898419e-39 332 222
0.01531712 0.67199999 0.021208318 7.4742345e-39 333 222
0.01649536 0.67199999 0.021208318 7.3820515e-39 334 222
0.017673599 0.67199999 0.021208318 7.2898559e-39 335 222
0.018907947 0.67400002 0.021271439 8.1135279e-39 336 222
0.020208918 0.67799997 0.021397678 7.9291353e-39 337 222
0.0214608 0.68000001 0.0214608 8.6634829e-39 338 222
0.022653066 0.68000001 0.0214608 8.1103091e-39 339 222
0.023845334 0.68000001 0.0214608 9.5883287e-39 340 222
-0.039460517 0.68199998 0.020328145 1.0974832e-38 287 223
-0.038152531 0.68000001 0.020268533 1.1061909e-38 288 223
-0.036960267 0.68000001 0.020268533 1.124666e-38 289 223
-0.035715401 0.67900002 0.020238725 1.0509425e-38 290 223
-0.034321502 0.67500001 0.020119499 8.6651813e-39 291 223
-0.033137999 0.67500001 0.020119499 7.9315777e-39 292 223
-0.03190716 0.67400002 0.020089693 8.3003588e-39 293 223
-0.030634239 0.67199999 0.020030079 7.9315959e-39 294 223
-0.029455997 0.67199999 0.020030079 6.6408571e-39 295 223
-0.028235679 0.671 0.020000271 5.3526462e-39 296 223
-0.026938211 0.66799998 0.019910853 4.8916751e-39 297 223
-0.025728412 0.667 0.019881045 4.4325004e-39 298 223
-0.024558939 0.667 0.019881045 4.5246961e-39 299 223
-0.023389466 0.667 0.019881045 4.0655312e-39 300 223
-0.022219993 0.667 0.019881045 4.0655312e-39 301 223
-0.02101896 0.66600001 0.019851239 4.156652e-39 302 223
-0.019851239 0.66600001 0.019851239 4.2492078e-39 303 223
-0.018683519 0.66600001 0.019851239 4.3421223e-39 304 223
-0.017515799 0.66600001 0.019851239 4.7105447e-39 305 223
-0.016298985 0.66399997 0.019791625 4.8041738e-39 306 223
-0.015134773 0.66399997 0.019791625 4.9882049e-39 307 223
-0.013949519 0.66299999 0.019761819 4.7126971e-39 308 223
-0.012787059 0.66299999 0.019761819 4.6205014e-39 309 223
-0.0116246 0.66299999 0.019761819 4.8952905e-39 310 223
-0.01046214 0.66299999 0.019761819 4.5268667e-39 311 223
-0.0092996797 0.66299999 0.019761819 4.4321641e-39 312 223
-0.0081249457 0.662 0.019732011 3.8793491e-39 313 223
-0.0069642398 0.662 0.019732011 3.9690364e-39 314 223
-0.0058035329 0.662 0.019732011 4.2459834e-39 315 223
-0.0046428265 0.662 0.019732011 4.4314438e-39 316 223
-0.0034821199 0.662 0.019732011 4.7080307e-39 317 223
-0.0023249199 0.66299999 0.019761819 4.8005767e-39 318 223
-0.00116246 0.66299999 0.019761819 4.8927723e-39 319 223
0 0.66299999 0.019761819 5.5370487e-39 320 223
0.00116246 0.66299999 0.019761819 5.813637e-39 321 223
0.0023284266 0.66399997 0.019791625 5.9998065e-39 322 223
0.0035031599 0.66600001 0.019851239 5.9998065e-39 323 223
0.0046708798 0.66600001 0.019851239 6.1834705e-39 324 223
0.0058385995 0.66600001 0.019851239 6.1834705e-39 325 223
0.0070168395 0.667 0.019881045 6.3667926e-39 326 223
0.0081863133 0.667 0.019881045 6.5508237e-39 327 223
0.0093978662 0.67000002 0.019970467 6.1838488e-39 328 223
0.0105726 0.67000002 0.019970467 6.0916532e-39 329 223
0.011747333 0.67000002 0.019970467 7.0093089e-39 330 223
0.012941353 0.671 0.020000271 7.1937002e-39 331 223
0.01413888 0.67199999 0.020030079 6.8278114e-39 332 223
0.015362706 0.67400002 0.020089693 7.1965925e-39 333 223
0.016544454 0.67400002 0.020089693 8.0213351e-39 334 223
0.0177262 0.67400002 0.020089693 7.9287793e-39 335 223
0.018964052 0.676 0.020149305 8.2936242e-39 336 223
0.020208918 0.67799997 0.020208918 8.3858198e-39 337 223
0.021429239 0.67900002 0.020238725 8.847877e-39 338 223
0.022653066 0.68000001 0.020268533 8.663127e-39 339 223
0.023845334 0.68000001 0.020268533 1.0139699e-38 340 223
-0.039460517 0.68199998 0.019132372 1.1804248e-38 287 224
-0.038264744 0.68199998 0.019132372 1.1432166e-38 288 224
-0.036960267 0.68000001 0.019076265 1.1063023e-38 289 224
-0.035715401 0.67900002 0.019048214 1.0694909e-38 290 224
-0.034321502 0.67500001 0.018935999 9.2194229e-39 291 224
-0.033137999 0.67500001 0.018935999 8.8535158e-39 292 224
-0.03190716 0.67400002 0.018907947 9.221934e-39 293 224
-0.030634239 0.67199999 0.018851839 9.4063224e-39 294 224
-0.029455997 0.67199999 0.018851839 8.7609628e-39 295 224
-0.028235679 0.671 0.018823786 7.564949e-39 296 224
-0.026938211 0.66799998 0.018739626 6.8270364e-39 297 224
-0.025728412 0.667 0.018711573 5.7228581e-39 298 224
-0.024558939 0.667 0.018711573 5.5384696e-39 299 224
-0.023389466 0.667 0.018711573 4.4353689e-39 300 224
-0.022219993 0.667 0.018711573 4.250979e-39 301 224
-0.02101896 0.66600001 0.018683519 4.5257694e-39 302 224
-0.019851239 0.66600001 0.018683519 4.7101607e-39 303 224
-0.018683519 0.66600001 0.018683519 4.8938317e-39 304 224
-0.017515799 0.66600001 0.018683519 5.078223e-39 305 224
-0.016348081 0.66600001 0.018683519 4.8959939e-39 306 224
-0.015134773 0.66399997 0.018627413 4.9881895e-39 307 224
-0.013970559 0.66399997 0.018627413 4.8959939e-39 308 224
-0.012806346 0.66399997 0.018627413 4.8037969e-39 309 224
-0.0116246 0.66299999 0.018599359 4.8034311e-39 310 224
-0.01046214 0.66299999 0.018599359 4.7112355e-39 311 224
-0.0092996797 0.66299999 0.018599359 4.7083642e-39 312 224
-0.0081372196 0.66299999 0.018599359 4.2473917e-39 313 224
-0.0069747595 0.66299999 0.018599359 4.2459582e-39 314 224
-0.0058122999 0.66299999 0.018599359 4.5225451e-39 315 224
-0.0046498398 0.66299999 0.018599359 4.4328564e-39 316 224
-0.0034873798 0.66299999 0.018599359 4.7090845e-39 317 224
-0.0023284266 0.66399997 0.018627413 5.077144e-39 318 224
-0.0011642133 0.66399997 0.018627413 5.077144e-39 319 224
0 0.66399997 0.018627413 5.5373962e-39 320 224
0.0011642133 0.66399997 0.018627413 5.9065389e-39 321 224
0.0023284266 0.66399997 0.018627413 5.9998065e-39 322 224
0.0035031599 0.66600001 0.018683519 6.0920035e-39 323 224
0.0046708798 0.66600001 0.018683519 6.2749627e-39 324 224
0.0058385995 0.66600001 0.018683519 6.367517e-39 325 224
0.0070168395 0.667 0.018711573 6.4597281e-39 326 224
0.0081863133 0.667 0.018711573 6.4597281e-39 327 224
0.0093978662 0.67000002 0.018795732 6.5501483e-39 328 224
0.01058838 0.671 0.018823786 6.4579526e-39 329 224
0.011764866 0.671 0.018823786 6.8249555e-39 330 224
0.012941353 0.671 0.018823786 6.8249555e-39 331 224
0.01413888 0.67199999 0.018851839 7.0090034e-39 332 224
0.015362706 0.67400002 0.018907947 7.0090034e-39 333 224
0.016569 0.67500001 0.018935999 8.2032404e-39 334 224
0.0177525 0.67500001 0.018935999 7.9270123e-39 335 224
0.019020159 0.67799997 0.019020159 8.3854695e-39 336 224
0.020238725 0.67900002 0.019048214 9.0308389e-39 337 224
0.021429239 0.67900002 0.019048214 9.4006976e-39 338 224
0.022653066 0.68000001 0.019076265 9.2159476e-39 339 224
0.023845334 0.68000001 0.019076265 1.0234062e-38 340 224
0.02514806 0.68300003 0.019160427 1.4659811e-38 341 224
-0.038264744 0.68199998 0.017936599 1.2077213e-38 288 225
-0.036960267 0.68000001 0.017883999 1.1063062e-38 289 225
-0.0356628 0.67799997 0.0178314 1.0605266e-38 290 225
-0.034372345 0.676 0.017778801 1.0052451e-38 291 225
-0.033137999 0.67500001 0.0177525 1.0326834e-38 292 225
-0.03190716 0.67400002 0.0177262 1.0234637e-38 293 225
-0.030725412 0.67400002 0.0177262 9.8687285e-39 294 225
-0.029455997 0.67199999 0.017673599 9.5003103e-39 295 225
-0.028235679 0.671 0.0176473 9.2248038e-39 296 225
-0.026938211 0.66799998 0.017568398 9.1322509e-39 297 225
-0.025766984 0.66799998 0.017568398 8.7624104e-39 298 225
-0.024558939 0.667 0.0175421 8.0248453e-39 299 225
-0.023389466 0.667 0.0175421 6.4629329e-39 300 225
-0.022219993 0.667 0.0175421 6.3707372e-39 301 225
-0.021050518 0.667 0.0175421 6.2774668e-39 302 225
-0.019851239 0.66600001 0.017515799 6.1852712e-39 303 225
-0.018683519 0.66600001 0.017515799 5.7246616e-39 304 225
-0.017515799 0.66600001 0.017515799 5.5402703e-39 305 225
-0.016348081 0.66600001 0.017515799 4.8977918e-39 306 225
-0.015134773 0.66399997 0.0174632 4.7134005e-39 307 225
-0.013970559 0.66399997 0.0174632 4.7126788e-39 308 225
-0.012806346 0.66399997 0.0174632 4.6204818e-39 309 225
-0.011642133 0.66399997 0.0174632 4.8967002e-39 310 225
-0.010477919 0.66399997 0.0174632 4.8045031e-39 311 225
-0.0093137063 0.66399997 0.0174632 4.6190385e-39 312 225
-0.0081494926 0.66399997 0.0174632 4.3428145e-39 313 225
-0.0069852793 0.66399997 0.0174632 4.1580673e-39 314 225
-0.0058210664 0.66399997 0.0174632 4.3424558e-39 315 225
-0.0046568532 0.66399997 0.0174632 4.6193972e-39 316 225
-0.0034926396 0.66399997 0.0174632 4.8037857e-39 317 225
-0.0023284266 0.66399997 0.0174632 4.8052206e-39 318 225
-0.0011642133 0.66399997 0.0174632 4.8974148e-39 319 225
0 0.66399997 0.0174632 5.1729213e-39 320 225
0.00116772 0.66600001 0.017515799 5.4498627e-39 321 225
0.0023354399 0.66600001 0.017515799 6.0001708e-39 322 225
0.0035031599 0.66600001 0.017515799 6.0927252e-39 323 225
0.0046708798 0.66600001 0.017515799 6.4583058e-39 324 225
0.0058473665 0.667 0.0175421 6.642697e-39 325 225
0.0070168395 0.667 0.0175421 6.4594044e-39 326 225
0.0081985854 0.66799998 0.017568398 6.274653e-39 327 225
0.0093978662 0.67000002 0.017620999 6.7302586e-39 328 225
0.01058838 0.671 0.0176473 6.4540318e-39 329 225
0.011764866 0.671 0.0176473 6.2693028e-39 330 225
0.012960639 0.67199999 0.017673599 6.0849116e-39 331 225
0.01418096 0.67400002 0.0177262 6.7266866e-39 332 225
0.015362706 0.67400002 0.0177262 7.5564487e-39 333 225
0.016593546 0.676 0.017778801 8.5716726e-39 334 225
0.017778801 0.676 0.017778801 8.3872814e-39 335 225
0.019048214 0.67900002 0.017857701 8.5702279e-39 336 225
0.020238725 0.67900002 0.017857701 9.3077929e-39 337 225
0.0214608 0.68000001 0.017883999 9.5858092e-39 338 225
0.022719691 0.68199998 0.017936599 9.4014165e-39 339 225
0.023915464 0.68199998 0.017936599 1.0509207e-38 340 225
0.02514806 0.68300003 0.017962901 1.4934596e-38 341 225
0.026345588 0.68300003 0.017962901 1.5028241e-38 342 225
-0.038264744 0.68199998 0.016740825 1.1526602e-38 288 226
-0.037068974 0.68199998 0.016740825 1.0420254e-38 289 226
-0.0356628 0.67799997 0.016642639 1.0330517e-38 290 226
-0.034372345 0.676 0.016593546 1.0423071e-38 291 226
-0.033137999 0.67500001 0.016569 1.0605226e-38 292 226
-0.031954501 0.67500001 0.016569 1.0421193e-38 293 226
-0.030725412 0.67400002 0.016544454 9.7783279e-39 294 226
-0.029455997 0.67199999 0.01649536 9.6861337e-39 295 226
-0.028235679 0.671 0.016470812 9.318433e-39 296 226
-0.027018867 0.67000002 0.016446266 9.0418503e-39 297 226
-0.025766984 0.66799998 0.016397171 8.7638327e-39 298 226
-0.02459576 0.66799998 0.016397171 8.2106673e-39 299 226
-0.023424532 0.66799998 0.016397171 7.6600131e-39 300 226
-0.022219993 0.667 0.016372627 7.936237e-39 301 226
-0.021050518 0.667 0.016372627 7.3848653e-39 302 226
-0.019851239 0.66600001 0.016348081 7.2926711e-39 303 226
-0.018683519 0.66600001 0.016348081 6.8299063e-39 304 226
-0.017515799 0.66600001 0.016348081 6.3692939e-39 305 226
-0.016348081 0.66600001 0.016348081 5.8175634e-39 306 226
-0.015134773 0.66399997 0.016298985 5.7253692e-39 307 226
-0.013970559 0.66399997 0.016298985 5.9994408e-39 308 226
-0.012806346 0.66399997 0.016298985 5.9994408e-39 309 226
-0.011642133 0.66399997 0.016298985 5.8175634e-39 310 226
-0.010477919 0.66399997 0.016298985 6.0015932e-39 311 226
-0.0093137063 0.66399997 0.016298985 5.6338924e-39 312 226
-0.0081494926 0.66399997 0.016298985 5.3576685e-39 313 226
-0.0069852793 0.66399997 0.016298985 5.6328163e-39 314 226
-0.0058210664 0.66399997 0.016298985 5.540622e-39 315 226
-0.0046568532 0.66399997 0.016298985 5.3580272e-39 316 226
-0.0034926396 0.66399997 0.016298985 5.4502215e-39 317 226
-0.0023284266 0.66399997 0.016298985 5.7260867e-39 318 226
-0.00116772 0.66600001 0.016348081 5.8182809e-39 319 226
0 0.66600001 0.016348081 6.0015932e-39 320 226
0.00116772 0.66600001 0.016348081 6.0015932e-39 321 226
0.0023354399 0.66600001 0.016348081 6.1845705e-39 322 226
0.0035031599 0.66600001 0.016348081 6.0920162e-39 323 226
0.0046708798 0.66600001 0.016348081 6.0891925e-39 324 226
0.0058473665 0.667 0.016372627 5.9969969e-39 325 226
0.0070168395 0.667 0.016372627 6.088136e-39 326 226
0.0081985854 0.66799998 0.016397171 6.088136e-39 327 226
0.0093978662 0.67000002 0.016446266 6.6362875e-39 328 226
0.01058838 0.671 0.016470812 6.5440919e-39 329 226
0.011764866 0.671 0.016470812 6.6352211e-39 330 226
0.012960639 0.67199999 0.01649536 6.7274167e-39 331 226
0.01418096 0.67400002 0.016544454 6.8206843e-39 332 226
0.0153855 0.67500001 0.016569 7.7422805e-39 333 226
0.016593546 0.676 0.016593546 8.7553408e-39 334 226
0.0178314 0.67799997 0.016642639 8.7553408e-39 335 226
0.019048214 0.67900002 0.016667187 9.3081489e-39 336 226
0.020238725 0.67900002 0.016667187 9.4925401e-39 337 226
0.0214608 0.68000001 0.016691733 8.9426034e-39 338 226
0.022719691 0.68199998 0.016740825 8.2972339e-39 339 226
0.023915464 0.68199998 0.016740825 1.0230825e-38 340 226
0.02514806 0.68300003 0.016765373 1.5209388e-38 341 226
0.026345588 0.68300003 0.016765373 1.4935689e-38 342 226
-0.038264744 0.68199998 0.015545053 7.9367177e-39 288 227
-0.037068974 0.68199998 0.015545053 8.7664784e-39 289 227
-0.035715401 0.67900002 0.015476674 1.0330182e-38 290 227
-0.034372345 0.676 0.015408293 1.0607129e-38 291 227
-0.033187091 0.676 0.015408293 1.051487e-38 292 227
-0.031954501 0.67500001 0.0153855 9.8695006e-39 293 227
-0.030725412 0.67400002 0.015362706 9.5017453e-39 294 227
-0.029543666 0.67400002 0.015362706 9.409551e-39 295 227
-0.02827776 0.67199999 0.01531712 8.9496561e-39 296 227
-0.027059194 0.671 0.015294326 8.6727147e-39 297 227
-0.025844134 0.67000002 0.015271533 8.3939796e-39 298 227
-0.024669399 0.67000002 0.015271533 8.0255614e-39 299 227
-0.023494666 0.67000002 0.015271533 7.5678189e-39 300 227
-0.022253305 0.66799998 0.015225946 7.6600131e-39 301 227
-0.021082079 0.66799998 0.015225946 7.3870177e-39 302 227
-0.019881045 0.667 0.015203152 7.1100763e-39 303 227
-0.018683519 0.66600001 0.01518036 6.464358e-39 304 227
-0.017515799 0.66600001 0.01518036 6.0033868e-39 305 227
-0.016348081 0.66600001 0.01518036 6.2774696e-39 306 227
-0.01518036 0.66600001 0.01518036 6.3696652e-39 307 227
-0.014012639 0.66600001 0.01518036 6.2788933e-39 308 227
-0.01284492 0.66600001 0.01518036 6.4636405e-39 309 227
-0.011677199 0.66600001 0.01518036 6.2817632e-39 310 227
-0.01050948 0.66600001 0.01518036 6.2817632e-39 311 227
-0.0093417596 0.66600001 0.01518036 6.2814044e-39 312 227
-0.0081740404 0.66600001 0.01518036 5.9129863e-39 313 227
-0.0070063197 0.66600001 0.01518036 6.1874166e-39 314 227
-0.0058385995 0.66600001 0.01518036 6.0033868e-39 315 227
-0.0046708798 0.66600001 0.01518036 5.7282391e-39 316 227
-0.0035031599 0.66600001 0.01518036 5.8204333e-39 317 227
-0.0023354399 0.66600001 0.01518036 5.6367623e-39 318 227
-0.00116772 0.66600001 0.01518036 5.6367623e-39 319 227
0 0.66600001 0.01518036 5.7278803e-39 320 227
0.00116772 0.66600001 0.01518036 5.7278803e-39 321 227
0.0023354399 0.66600001 0.01518036 6.3675296e-39 322 227
0.0035084197 0.667 0.015203152 6.1834985e-39 323 227
0.0046778931 0.667 0.015203152 5.9934222e-39 324 227
0.0058473665 0.667 0.015203152 5.9012266e-39 325 227
0.0070273597 0.66799998 0.015225946 5.9945334e-39 326 227
0.0081985854 0.66799998 0.015225946 6.0867291e-39 327 227
0.0093978662 0.67000002 0.015271533 6.4547857e-39 328 227
0.01058838 0.671 0.015294326 6.5473415e-39 329 227
0.011764866 0.671 0.015294326 6.9153981e-39 330 227
0.012960639 0.67199999 0.01531712 7.1916249e-39 331 227
0.01418096 0.67400002 0.015362706 8.2018181e-39 332 227
0.0153855 0.67500001 0.0153855 8.5705992e-39 333 227
0.016593546 0.676 0.015408293 8.9404552e-39 334 227
0.0178314 0.67799997 0.015453878 9.5858246e-39 335 227
0.019048214 0.67900002 0.015476674 1.0413419e-38 336 227
0.020238725 0.67900002 0.015476674 9.7680494e-39 337 227
0.0214608 0.68000001 0.015499466 7.4685551e-39 338 227
0.022719691 0.68199998 0.015545053 6.3618488e-39 339 227
0.023915464 0.68199998 0.015545053 9.7712906e-39 340 227
0.02514806 0.68300003 0.015567848 1.5026442e-38 341 227
0.026345588 0.68300003 0.015567848 1.5027522e-38 342 227
-0.037068974 0.68199998 0.01434928 8.0296294e-39 289 228
-0.035715401 0.67900002 0.01428616 9.592995e-39 290 228
-0.034474038 0.67799997 0.014265119 1.0330561e-38 291 228
-0.033187091 0.676 0.014223038 1.0883322e-38 292 228
-0.032001842 0.676 0.014223038 1.0237952e-38 293 228
-0.030771 0.67500001 0.014202001 9.8687453e-39 294 228
-0.029543666 0.67400002 0.01418096 9.4996027e-39 295 228
-0.02836192 0.67400002 0.01418096 8.4868913e-39 296 228
-0.027059194 0.671 0.01411784 8.1181144e-39 297 228
-0.025844134 0.67000002 0.014096799 7.7500549e-39 298 228
-0.024669399 0.67000002 0.014096799 7.7500549e-39 299 228
-0.023494666 0.67000002 0.014096799 7.6600131e-39 300 228
-0.022319933 0.67000002 0.014096799 7.936237e-39 301 228
-0.0211452 0.67000002 0.014096799 8.1202668e-39 302 228
-0.019881045 0.667 0.014033679 8.0280725e-39 303 228
-0.018711573 0.667 0.014033679 7.5653077e-39 304 228
-0.0175421 0.667 0.014033679 7.1043366e-39 305 228
-0.016372627 0.667 0.014033679 6.7384295e-39 306 228
-0.01518036 0.66600001 0.014012639 6.8306252e-39 307 228
-0.014012639 0.66600001 0.014012639 7.1068477e-39 308 228
-0.01284492 0.66600001 0.014012639 7.1990419e-39 309 228
-0.011677199 0.66600001 0.014012639 7.0171646e-39 310 228
-0.01050948 0.66600001 0.014012639 6.9246116e-39 311 228
-0.0093417596 0.66600001 0.014012639 6.9246116e-39 312 228
-0.0081740404 0.66600001 0.014012639 6.7402232e-39 313 228
-0.0070063197 0.66600001 0.014012639 6.8317e-39 314 228
-0.0058385995 0.66600001 0.014012639 6.6469528e-39 315 228
-0.0046708798 0.66600001 0.014012639 6.4636405e-39 316 228
-0.0035031599 0.66600001 0.014012639 6.4636405e-39 317 228
-0.0023354399 0.66600001 0.014012639 6.3721637e-39 318 228
-0.00116772 0.66600001 0.014012639 6.2799695e-39 319 228
0 0.66600001 0.014012639 6.2785346e-39 320 228
0.0011694733 0.667 0.014033679 6.3707288e-39 321 228
0.0023389466 0.667 0.014033679 7.1025794e-39 322 228
0.0035084197 0.667 0.014033679 7.010025e-39 323 228
0.0046778931 0.667 0.014033679 7.2816429e-39 324 228
0.0058473665 0.667 0.014033679 7.1890885e-39 325 228
0.0070273597 0.66799998 0.014054719 6.7306509e-39 326 228
0.0081985854 0.66799998 0.014054719 6.8228466e-39 327 228
0.0093978662 0.67000002 0.014096799 7.1912619e-39 328 228
0.01058838 0.671 0.01411784 7.3756532e-39 329 228
0.011782399 0.67199999 0.01413888 7.8348265e-39 330 228
0.012960639 0.67199999 0.01413888 7.8348265e-39 331 228
0.01418096 0.67400002 0.01418096 7.9270263e-39 332 228
0.0153855 0.67500001 0.014202001 8.2039719e-39 333 228
0.016593546 0.676 0.014223038 8.756787e-39 334 228
0.0178314 0.67799997 0.014265119 8.756787e-39 335 228
0.019048214 0.67900002 0.01428616 9.5815086e-39 336 228
0.020238725 0.67900002 0.01428616 8.475161e-39 337 228
0.0214608 0.68000001 0.014307199 6.9096332e-39 338 228
0.022719691 0.68199998 0.01434928 7.6471982e-39 339 228
0.023915464 0.68199998 0.01434928 1.0138279e-38 340 228
0.025111238 0.68199998 0.01434928 1.5208679e-38 341 228
0.026307013 0.68199998 0.01434928 1.5211553e-38 342 228
-0.035715401 0.67900002 0.013095647 9.1305721e-39 290 229
-0.034474038 0.67799997 0.013076359 9.5915503e-39 291 229
-0.033187091 0.676 0.013037786 1.0607129e-38 292 229
-0.032001842 0.676 0.013037786 1.079152e-38 293 229
-0.030771 0.67500001 0.0130185 1.0236494e-38 294 229
-0.029543666 0.67400002 0.012999214 9.4063729e-39 295 229
-0.02836192 0.67400002 0.012999214 7.381278e-39 296 229
-0.027099518 0.67199999 0.012960639 7.0125011e-39 297 229
-0.025882706 0.671 0.012941353 7.1050541e-39 298 229
-0.024669399 0.67000002 0.012922067 7.7504137e-39 299 229
-0.023494666 0.67000002 0.012922067 8.0277138e-39 300 229
-0.022319933 0.67000002 0.012922067 8.1202668e-39 301 229
-0.0211452 0.67000002 0.012922067 8.3042965e-39 302 229
-0.019910853 0.66799998 0.012883492 8.0280725e-39 303 229
-0.018711573 0.667 0.012864206 7.3827129e-39 304 229
-0.0175421 0.667 0.012864206 7.2905187e-39 305 229
-0.016372627 0.667 0.012864206 6.8317e-39 306 229
-0.015203152 0.667 0.012864206 6.9242529e-39 307 229
-0.014033679 0.667 0.012864206 7.2001181e-39 308 229
-0.01284492 0.66600001 0.01284492 7.2001181e-39 309 229
-0.011677199 0.66600001 0.01284492 6.9246116e-39 310 229
-0.01050948 0.66600001 0.01284492 6.9246116e-39 311 229
-0.0093417596 0.66600001 0.01284492 6.6491052e-39 312 229
-0.0081740404 0.66600001 0.01284492 6.5569109e-39 313 229
-0.0070063197 0.66600001 0.01284492 6.739147e-39 314 229
-0.0058385995 0.66600001 0.01284492 6.5547585e-39 315 229
-0.0046708798 0.66600001 0.01284492 6.5547585e-39 316 229
-0.0035031599 0.66600001 0.01284492 6.5547585e-39 317 229
-0.0023354399 0.66600001 0.01284492 6.2796108e-39 318 229
-0.00116772 0.66600001 0.01284492 6.2796108e-39 319 229
0 0.667 0.012864206 6.6455178e-39 320 229
0.0011694733 0.667 0.012864206 6.8295476e-39 321 229
0.0023389466 0.667 0.012864206 7.4699312e-39 322 229
0.0035084197 0.667 0.012864206 7.5621268e-39 323 229
0.0046778931 0.667 0.012864206 7.7433371e-39 324 229
0.0058561331 0.66799998 0.012883492 7.7433371e-39 325 229
0.0070273597 0.66799998 0.012883492 7.3742183e-39 326 229
0.0081985854 0.66799998 0.012883492 7.3742183e-39 327 229
0.0093978662 0.67000002 0.012922067 7.5578935e-39 328 229
0.01058838 0.671 0.012941353 7.7422833e-39 329 229
0.011782399 0.67199999 0.012960639 7.5586123e-39 330 229
0.012999214 0.67400002 0.012999214 7.3742211e-39 331 229
0.014202001 0.67500001 0.0130185 7.3742239e-39 332 229
0.015408293 0.676 0.013037786 7.4664195e-39 333 229
0.016642639 0.67799997 0.013076359 8.108196e-39 334 229
0.017857701 0.67900002 0.013095647 7.4628266e-39 335 229
0.019048214 0.67900002 0.013095647 7.5510593e-39 336 229
0.020238725 0.67900002 0.013095647 7.8272875e-39 337 229
0.0214608 0.68000001 0.013114933 7.3720533e-39 338 229
0.022719691 0.68199998 0.013153506 8.0174227e-39 339 229
0.023915464 0.68199998 0.013153506 9.9549672e-39 340 229
0.025111238 0.68199998 0.013153506 1.5025367e-38 341 229
0.026307013 0.68199998 0.013153506 1.5027522e-38 342 229
-0.034474038 0.67799997 0.011887599 5.8133287e-39 291 230
-0.033285279 0.67799997 0.011887599 6.8346763e-39 292 230
-0.032001842 0.676 0.011852534 8.678949e-39 293 230
-0.030771 0.67500001 0.011835 1.1433645e-38 294 230
-0.0295875 0.67500001 0.011835 1.0972667e-38 295 230
-0.02836192 0.67400002 0.011817466 9.7740834e-39 296 230
-0.027099518 0.67199999 0.011782399 8.5755402e-39 297 230
-0.025882706 0.671 0.011764866 7.8426079e-39 298 230
-0.024706218 0.671 0.011764866 8.3032245e-39 299 230
-0.023494666 0.67000002 0.011747333 8.396132e-39 300 230
-0.022319933 0.67000002 0.011747333 8.4883262e-39 301 230
-0.021176759 0.671 0.011764866 8.3046552e-39 302 230
-0.020000271 0.671 0.011764866 8.1206255e-39 303 230
-0.018739626 0.66799998 0.011712266 7.5685363e-39 304 230
-0.017568398 0.66799998 0.011712266 7.4763421e-39 305 230
-0.016372627 0.667 0.011694733 6.8342111e-39 306 230
-0.015203152 0.667 0.011694733 6.8342111e-39 307 230
-0.014033679 0.667 0.011694733 7.2926711e-39 308 230
-0.012864206 0.667 0.011694733 7.2004769e-39 309 230
-0.011694733 0.667 0.011694733 6.9249704e-39 310 230
-0.010525259 0.667 0.011694733 6.9249704e-39 311 230
-0.0093557863 0.667 0.011694733 6.6491052e-39 312 230
-0.0081863133 0.667 0.011694733 6.6491052e-39 313 230
-0.0070168395 0.667 0.011694733 6.6462353e-39 314 230
-0.0058473665 0.667 0.011694733 6.5540411e-39 315 230
-0.0046778931 0.667 0.011694733 6.5540411e-39 316 230
-0.0035084197 0.667 0.011694733 6.5540411e-39 317 230
-0.0023389466 0.667 0.011694733 6.2788933e-39 318 230
-0.0011694733 0.667 0.011694733 6.3710875e-39 319 230
0 0.667 0.011694733 6.9203153e-39 320 230
0.0011694733 0.667 0.011694733 7.1969022e-39 321 230
0.0023389466 0.667 0.011694733 7.9287639e-39 322 230
0.0035136798 0.66799998 0.011712266 8.2975464e-39 323 230
0.0046849065 0.66799998 0.011712266 8.0192065e-39 324 230
0.0058561331 0.66799998 0.011712266 7.9270095e-39 325 230
0.0070273597 0.66799998 0.011712266 7.649366e-39 326 230
0.0082231332 0.67000002 0.011747333 7.3727805e-39 327 230
0.0094118929 0.671 0.011764866 7.4639e-39 328 230
0.01058838 0.671 0.011764866 7.5560956e-39 329 230
0.011782399 0.67199999 0.011782399 7.2791542e-39 330 230
0.012999214 0.67400002 0.011817466 6.8181774e-39 331 230
0.014202001 0.67500001 0.011835 6.4501194e-39 332 230
0.015408293 0.676 0.011852534 6.542315e-39 333 230
0.016642639 0.67799997 0.011887599 7.1851677e-39 334 230
0.017857701 0.67900002 0.011905133 8.1067638e-39 335 230
0.019048214 0.67900002 0.011905133 9.2130988e-39 336 230
0.020268533 0.68000001 0.011922667 9.4896857e-39 337 230
0.021523919 0.68199998 0.011957732 9.4911108e-39 338 230
0.022719691 0.68199998 0.011957732 8.937937e-39 339 230
0.023915464 0.68199998 0.011957732 1.0138996e-38 340 230
0.025111238 0.68199998 0.011957732 1.5025723e-38 341 230
0.026307013 0.68199998 0.011957732 1.5027885e-38 342 230
-0.033285279 0.67799997 0.010698839 2.7809497e-39 292 231
-0.032001842 0.676 0.01066728 6.0999923e-39 293 231
-0.030771 0.67500001 0.0106515 1.0790482e-38 294 231
-0.0295875 0.67500001 0.0106515 1.1528048e-38 295 231
-0.02836192 0.67400002 0.01063572 1.1617684e-38 296 231
-0.027180174 0.67400002 0.01063572 1.0419142e-38 297 231
-0.025921278 0.67199999 0.010604159 9.9591585e-39 298 231
-0.024706218 0.671 0.01058838 9.4059847e-39 299 231
-0.023529733 0.671 0.01058838 8.7649089e-39 300 231
-0.022353247 0.671 0.01058838 8.4886849e-39 301 231
-0.021176759 0.671 0.01058838 8.3046552e-39 302 231
-0.020000271 0.671 0.01058838 8.1206255e-39 303 231
-0.018795732 0.67000002 0.0105726 7.4774183e-39 304 231
-0.017620999 0.67000002 0.0105726 7.3852241e-39 305 231
-0.016397171 0.66799998 0.01054104 7.0178821e-39 306 231
-0.015225946 0.66799998 0.01054104 7.0178821e-39 307 231
-0.014033679 0.667 0.010525259 7.2004769e-39 308 231
-0.012864206 0.667 0.010525259 7.2004769e-39 309 231
-0.011694733 0.667 0.010525259 6.9256878e-39 310 231
-0.010525259 0.667 0.010525259 6.7416581e-39 311 231
-0.0093557863 0.667 0.010525259 6.8324174e-39 312 231
-0.0081863133 0.667 0.010525259 6.4639992e-39 313 231
-0.0070168395 0.667 0.010525259 6.9206656e-39 314 231
-0.0058473665 0.667 0.010525259 6.7366359e-39 315 231
-0.0046778931 0.667 0.010525259 6.4614881e-39 316 231
-0.0035084197 0.667 0.010525259 6.5536823e-39 317 231
-0.0023389466 0.667 0.010525259 6.2796108e-39 318 231
-0.0011694733 0.667 0.010525259 6.2796108e-39 319 231
0 0.667 0.010525259 7.5635365e-39 320 231
0.0011694733 0.667 0.010525259 7.8404821e-39 321 231
0.0023424532 0.66799998 0.01054104 8.7570953e-39 322 231
0.0035136798 0.66799998 0.01054104 8.6648996e-39 323 231
0.0046849065 0.66799998 0.01054104 7.742628e-39 324 231
0.0058561331 0.66799998 0.01054104 7.3742057e-39 325 231
0.0070483997 0.67000002 0.0105726 7.0965608e-39 326 231
0.0082231332 0.67000002 0.0105726 6.635584e-39 327 231
0.0094118929 0.671 0.01058838 6.7256273e-39 328 231
0.010604159 0.67199999 0.010604159 6.6334316e-39 329 231
0.011782399 0.67199999 0.010604159 6.8160278e-39 330 231
0.012999214 0.67400002 0.01063572 6.4476054e-39 331 231
0.014202001 0.67500001 0.0106515 6.4483215e-39 332 231
0.015408293 0.676 0.01066728 6.5405171e-39 333 231
0.016642639 0.67799997 0.010698839 7.0032777e-39 334 231
0.017857701 0.67900002 0.010714619 8.6624389e-39 335 231
0.019076265 0.68000001 0.0107304 1.0505614e-38 336 231
0.020328145 0.68199998 0.010761959 1.0505614e-38 337 231
0.02155548 0.68300003 0.01077774 9.9535155e-39 338 231
0.022753006 0.68300003 0.01077774 9.0315592e-39 339 231
0.023950534 0.68300003 0.01077774 9.9549616e-39 340 231
0.02514806 0.68300003 0.01077774 1.5117915e-38 341 231
0.026345588 0.68300003 0.01077774 1.5027885e-38 342 231
-0.032001842 0.676 0.0094820261 2.2266997e-39 293 232
-0.030816587 0.676 0.0094820261 6.0038717e-39 294 232
-0.0295875 0.67500001 0.0094679995 8.5853493e-39 295 232
-0.02836192 0.67400002 0.0094539737 1.1894661e-38 296 232
-0.027180174 0.67400002 0.0094539737 1.152588e-38 297 232
-0.025921278 0.67199999 0.0094259195 1.1708395e-38 298 232
-0.024706218 0.671 0.0094118929 1.0048875e-38 299 232
-0.023529733 0.671 0.0094118929 8.7641914e-39 300 232
-0.022353247 0.671 0.0094118929 8.3957733e-39 301 232
-0.021208318 0.67199999 0.0094259195 8.3046552e-39 302 232
-0.020000271 0.671 0.0094118929 8.1202668e-39 303 232
-0.018823786 0.671 0.0094118929 7.4781358e-39 304 232
-0.017620999 0.67000002 0.0093978662 7.2937473e-39 305 232
-0.016397171 0.66799998 0.0093698129 7.1100763e-39 306 232
-0.015225946 0.66799998 0.0093698129 6.9256878e-39 307 232
-0.014054719 0.66799998 0.0093698129 7.2004769e-39 308 232
-0.012864206 0.667 0.0093557863 7.2004769e-39 309 232
-0.011694733 0.667 0.0093557863 6.9246116e-39 310 232
-0.010525259 0.667 0.0093557863 6.9246116e-39 311 232
-0.0093557863 0.667 0.0093557863 6.8317e-39 312 232
-0.0081863133 0.667 0.0093557863 6.6469528e-39 313 232
-0.0070168395 0.667 0.0093557863 6.9199481e-39 314 232
-0.0058473665 0.667 0.0093557863 6.9199481e-39 315 232
-0.0046778931 0.667 0.0093557863 6.4625643e-39 316 232
-0.0035084197 0.667 0.0093557863 6.5547585e-39 317 232
-0.0023389466 0.667 0.0093557863 6.279252e-39 318 232
-0.0011694733 0.667 0.0093557863 6.3714463e-39 319 232
0 0.667 0.0093557863 8.0234553e-39 320 232
0.0011712266 0.66799998 0.0093698129 8.7610203e-39 321 232
0.0023424532 0.66799998 0.0093698129 1.0139699e-38 322 232
0.0035136798 0.66799998 0.0093698129 8.387982e-39 323 232
0.0046989331 0.67000002 0.0093978662 5.9005329e-39 324 232
0.0058736666 0.67000002 0.0093978662 5.9930873e-39 325 232
0.0070483997 0.67000002 0.0093978662 6.3575678e-39 326 232
0.0082231332 0.67000002 0.0093978662 5.9891454e-39 327 232
0.0094118929 0.671 0.0094118929 6.0802649e-39 328 232
0.010604159 0.67199999 0.0094259195 6.1724605e-39 329 232
0.011782399 0.67199999 0.0094259195 6.6330687e-39 330 232
0.012999214 0.67400002 0.0094539737 7.0014925e-39 331 232
0.014202001 0.67500001 0.0094679995 6.178196e-39 332 232
0.015408293 0.676 0.0094820261 6.8235654e-39 333 232
0.016642639 0.67799997 0.0095100794 8.0195779e-39 334 232
0.017857701 0.67900002 0.009524107 9.1255653e-39 335 232
0.019076265 0.68000001 0.0095381327 1.0230823e-38 336 232
0.020328145 0.68199998 0.009566186 1.004643e-38 337 232
0.02155548 0.68300003 0.0095802136 9.9509973e-39 338 232
0.022753006 0.68300003 0.0095802136 8.3833129e-39 339 232
0.023950534 0.68300003 0.0095802136 9.9549616e-39 340 232
0.02514806 0.68300003 0.0095802136 1.5117915e-38 341 232
0.026345588 0.68300003 0.0095802136 1.4936045e-38 342 232
-0.033187091 0.676 0.0082967728 3.1407246e-39 292 233
-0.032001842 0.676 0.0082967728 1.1124292e-39 293 233
-0.030816587 0.676 0.0082967728 2.4107378e-39 294 233
-0.0295875 0.67500001 0.0082844999 5.4531936e-39 295 233
-0.02836192 0.67400002 0.0082722269 9.594109e-39 296 233
-0.027180174 0.67400002 0.0082722269 1.0884848e-38 297 233
-0.025921278 0.67199999 0.00824768 1.1985747e-38 298 233
-0.024706218 0.671 0.0082354061 1.0695008e-38 299 233
-0.023529733 0.671 0.0082354061 9.5910949e-39 300 233
-0.022353247 0.671 0.0082354061 8.6694987e-39 301 233
-0.021208318 0.67199999 0.00824768 8.9475037e-39 302 233
-0.020000271 0.671 0.0082354061 8.6712797e-39 303 233
-0.018823786 0.671 0.0082354061 7.754001e-39 304 233
-0.017620999 0.67000002 0.0082231332 7.477777e-39 305 233
-0.016446266 0.67000002 0.0082231332 7.3852241e-39 306 233
-0.015225946 0.66799998 0.0081985854 7.2930298e-39 307 233
-0.014054719 0.66799998 0.0081985854 7.2004769e-39 308 233
-0.012864206 0.667 0.0081863133 7.1082826e-39 309 233
-0.011694733 0.667 0.0081863133 6.8324174e-39 310 233
-0.010525259 0.667 0.0081863133 6.8324174e-39 311 233
-0.0093557863 0.667 0.0081863133 6.9224593e-39 312 233
-0.0081863133 0.667 0.0081863133 6.6462353e-39 313 233
-0.0070168395 0.667 0.0081863133 6.9217418e-39 314 233
-0.0058473665 0.667 0.0081863133 6.7373533e-39 315 233
-0.0046778931 0.667 0.0081863133 6.2788933e-39 316 233
-0.0035084197 0.667 0.0081863133 6.3710875e-39 317 233
-0.0023424532 0.66799998 0.0081985854 6.0033868e-39 318 233
-0.0011712266 0.66799998 0.0081985854 6.188134e-39 319 233
0 0.66799998 0.0081985854 8.6688247e-39 320 233
0.0011712266 0.66799998 0.0081985854 9.4989441e-39 321 233
0.0023424532 0.66799998 0.0081985854 1.0138613e-38 322 233
0.0035241998 0.67000002 0.0082231332 8.4787329e-39 323 233
0.0046989331 0.67000002 0.0082231332 5.256597e-39 324 233
0.0058736666 0.67000002 0.0082231332 5.4409869e-39 325 233
0.0070483997 0.67000002 0.0082231332 6.0831319e-39 326 233
0.0082354061 0.671 0.0082354061 6.1753276e-39 327 233
0.0094118929 0.671 0.0082354061 6.7263335e-39 328 233
0.010604159 0.67199999 0.00824768 6.9107262e-39 329 233
0.011817466 0.67400002 0.0082722269 7.1883879e-39 330 233
0.0130185 0.67500001 0.0082844999 7.7415616e-39 331 233
0.014202001 0.67500001 0.0082844999 8.1117735e-39 332 233
0.015408293 0.676 0.0082967728 8.2039691e-39 333 233
0.016642639 0.67799997 0.0083213197 9.0330011e-39 334 233
0.017857701 0.67900002 0.0083335936 9.4939793e-39 335 233
0.019076265 0.68000001 0.0083458666 9.4939821e-39 336 233
0.020328145 0.68199998 0.0083704125 9.1251995e-39 337 233
0.02155548 0.68300003 0.0083826864 8.7542688e-39 338 233
0.022753006 0.68300003 0.0083826864 7.5557271e-39 339 233
0.023950534 0.68300003 0.0083826864 9.9549672e-39 340 233
0.02514806 0.68300003 0.0083826864 1.5117562e-38 341 233
-0.032569919 0.68800002 0.0072377604 3.5977567e-39 293 234
-0.030771 0.67500001 0.0071010003 1.4876927e-39 294 234
-0.0295875 0.67500001 0.0071010003 2.6862359e-39 295 234
-0.02836192 0.67400002 0.0070904801 4.7163699e-39 296 234
-0.027180174 0.67400002 0.0070904801 7.6669901e-39 297 234
-0.025882706 0.671 0.0070589199 1.1435485e-38 298 234
-0.024706218 0.671 0.0070589199 1.134329e-38 299 234
-0.023529733 0.671 0.0070589199 1.0787509e-38 300 234
-0.022353247 0.671 0.0070589199 9.0361512e-39 301 234
-0.021208318 0.67199999 0.0070694401 8.4883262e-39 302 234
-0.020000271 0.671 0.0070589199 8.4883262e-39 303 234
-0.018823786 0.671 0.0070589199 7.754001e-39 304 234
-0.0176473 0.671 0.0070589199 7.477777e-39 305 234
-0.016470812 0.671 0.0070589199 7.2937473e-39 306 234
-0.015271533 0.67000002 0.0070483997 7.1097176e-39 307 234
-0.014096799 0.67000002 0.0070483997 6.9246116e-39 308 234
-0.012883492 0.66799998 0.0070273597 6.7402232e-39 309 234
-0.011712266 0.66799998 0.0070273597 6.9221005e-39 310 234
-0.01054104 0.66799998 0.0070273597 6.9221005e-39 311 234
-0.0093698129 0.66799998 0.0070273597 7.0132186e-39 312 234
-0.0081985854 0.66799998 0.0070273597 7.0132186e-39 313 234
-0.0070273597 0.66799998 0.0070273597 6.6458766e-39 314 234
-0.0058561331 0.66799998 0.0070273597 6.6458766e-39 315 234
-0.0046849065 0.66799998 0.0070273597 6.371805e-39 316 234
-0.0035136798 0.66799998 0.0070273597 6.2796108e-39 317 234
-0.0023424532 0.66799998 0.0070273597 6.0033868e-39 318 234
-0.0011712266 0.66799998 0.0070273597 6.0955811e-39 319 234
0 0.66799998 0.0070273597 9.2209307e-39 320 234
0.0011712266 0.66799998 0.0070273597 1.0050693e-38 321 234
0.0023494666 0.67000002 0.0070483997 1.0139346e-38 322 234
0.0035241998 0.67000002 0.0070483997 8.4801833e-39 323 234
0.0046989331 0.67000002 0.0070483997 6.1774771e-39 324 234
0.0058824331 0.671 0.0070589199 6.1774771e-39 325 234
0.0070589199 0.671 0.0070589199 6.452269e-39 326 234
0.0082354061 0.671 0.0070589199 6.5444646e-39 327 234
0.0094259195 0.67199999 0.0070694401 6.9135988e-39 328 234
0.010604159 0.67199999 0.0070694401 7.4667726e-39 329 234
0.011817466 0.67400002 0.0070904801 8.2950858e-39 330 234
0.0130185 0.67500001 0.0071010003 8.6642284e-39 331 234
0.014223038 0.676 0.0071115191 8.6670955e-39 332 234
0.015453878 0.67799997 0.0071325595 9.1280736e-39 333 234
0.016667187 0.67900002 0.0071430802 9.2202692e-39 334 234
0.017883999 0.68000001 0.0071535995 8.5748998e-39 335 234
0.019132372 0.68199998 0.00717464 9.2138008e-39 336 234
0.020357953 0.68300003 0.0071851597 8.9372154e-39 337 234
0.02155548 0.68300003 0.0071851597 8.9357832e-39 338 234
0.022753006 0.68300003 0.0071851597 8.1063827e-39 339 234
0.0239856 0.68400002 0.0071956799 9.9549644e-39 340 234
0.025184879 0.68400002 0.0071956799 1.5117918e-38 341 234
-0.041133199 0.69 0.0060489997 1.52148e-38 286 235
-0.0399234 0.69 0.0060489997 1.2541127e-38 287 235
-0.038713597 0.69 0.0060489997 1.1434406e-38 288 235
-0.037503798 0.69 0.0060489997 1.0143667e-38 289 235
-0.0361888 0.68800002 0.0060314666 1.0053264e-38 290 235
-0.03498251 0.68800002 0.0060314666 1.0238014e-38 291 235
-0.033776212 0.68800002 0.0060314666 6.5516126e-39 292 235
-0.032569919 0.68800002 0.0060314666 3.7857437e-39 293 235
-0.030771 0.67500001 0.0059174998 2.9574096e-39 294 235
-0.0295875 0.67500001 0.0059174998 2.6808213e-39 295 235
-0.02836192 0.67400002 0.0059087332 2.0444818e-39 296 235
-0.027180174 0.67400002 0.0059087332 5.1787745e-39 297 235
-0.025882706 0.671 0.0058824331 9.5037127e-39 298 235
-0.024706218 0.671 0.0058824331 1.0702254e-38 299 235
-0.023529733 0.671 0.0058824331 1.1525823e-38 300 235
-0.022353247 0.671 0.0058824331 9.3131263e-39 301 235
-0.021208318 0.67199999 0.0058911997 8.8556682e-39 302 235
-0.020030079 0.67199999 0.0058911997 8.6712797e-39 303 235
