# .PCD v.7 - Point Cloud Data file format
FIELDS x y z rgb imX imY
SIZE 4 4 4 4 4 4
TYPE F F F F F F
COUNT 1 1 1 1 1 1
WIDTH 833
HEIGHT 1
VIEWPOINT 0 0 0 1 0 0 0
POINTS 833
DATA ascii
-0.0024125867 0.68800002 -0.041013971 1.005368e-38 318 274
-0.0012062934 0.68800002 -0.041013971 1.0606495e-38 319 274
0 0.68800002 -0.041013971 8.8562511e-39 320 274
0.0012045399 0.68699998 -0.040954359 6.3669691e-39 321 274
0.0024090798 0.68699998 -0.040954359 5.7280961e-39 322 274
0.0036136196 0.68699998 -0.040954359 6.0050432e-39 323 274
0.0048111463 0.68599999 -0.040894743 9.3114826e-39 324 274
0.0060139326 0.68599999 -0.040894743 8.2976894e-39 325 274
0.0072167199 0.68599999 -0.040894743 4.5252412e-39 326 274
0.0084195063 0.68599999 -0.040894743 5.1706092e-39 327 274
0.0095942402 0.68400002 -0.040775519 4.6192501e-39 328 274
0.01079352 0.68400002 -0.040775519 4.3430233e-39 329 274
0.012027865 0.68599999 -0.040894743 7.1048985e-39 330 274
0.01319208 0.68400002 -0.040775519 1.0055517e-38 331 274
0.01439136 0.68400002 -0.040775519 7.8428041e-39 332 274
0.01559064 0.68400002 -0.040775519 3.6939993e-39 333 274
0.016789921 0.68400002 -0.040775519 1.1530622e-38 334 274
0.0179892 0.68400002 -0.040775519 1.3006111e-38 335 274
0.019244585 0.68599999 -0.040894743 1.3558538e-38 336 274
0.020447372 0.68599999 -0.040894743 1.3466341e-38 337 274
0.021681719 0.68699998 -0.040954359 1.3832963e-38 338 274
0.022886258 0.68699998 -0.040954359 1.3832963e-38 339 274
0.024090799 0.68699998 -0.040954359 1.3924076e-38 340 274
0.025295338 0.68699998 -0.040954359 1.3924076e-38 341 274
0.026538454 0.68800002 -0.041013971 1.3647847e-38 342 274
0.027744746 0.68800002 -0.041013971 1.3647847e-38 343 274
0.029035198 0.69 -0.041133199 1.3831515e-38 344 274
0.030244999 0.69 -0.041133199 1.3739319e-38 345 274
0.031500384 0.69099998 -0.041192811 1.3371256e-38 346 274
0.03280662 0.69300002 -0.041312039 1.3002833e-38 347 274
0.034021679 0.69300002 -0.041312039 1.2355312e-38 348 274
0.035287585 0.69400001 -0.041371655 1.1802139e-38 349 274
0.036609598 0.69599998 -0.041490879 1.1525195e-38 350 274
0.037884273 0.69700003 -0.041550495 1.1525195e-38 351 274
0.039162453 0.69800001 -0.041610107 1.170959e-38 352 274
0.040559858 0.70099998 -0.041788943 1.1340448e-38 353 274
0.041788943 0.70099998 -0.041788943 1.2078716e-38 354 274
0.043018032 0.70099998 -0.041788943 1.5121532e-38 355 274
-0.015978126 0.70099998 -0.043018032 1.3099024e-38 307 275
-0.014727999 0.69999999 -0.042956665 1.2178863e-38 308 275
-0.013500666 0.69999999 -0.042956665 1.1533494e-38 309 275
-0.012238266 0.69800001 -0.042833932 1.1625679e-38 310 275
-0.01101444 0.69800001 -0.042833932 1.2271049e-38 311 275
-0.0097765867 0.69700003 -0.042772565 1.3374475e-38 312 275
-0.0085422397 0.69599998 -0.042711195 1.282166e-38 313 275
-0.0073008798 0.69400001 -0.042588469 1.3557421e-38 314 275
-0.0060753003 0.69300002 -0.042527102 1.3649975e-38 315 275
-0.0048462129 0.69099998 -0.042404365 1.2175236e-38 316 275
-0.0036293997 0.69 -0.042342998 1.0884498e-38 317 275
-0.0024195998 0.69 -0.042342998 1.0890257e-38 318 275
-0.0012062934 0.68800002 -0.042220265 1.1996604e-38 319 275
0 0.68800002 -0.042220265 1.0887777e-38 320 275
0.0012062934 0.68800002 -0.042220265 8.6750829e-39 321 275
0.0024090798 0.68699998 -0.042158898 7.8467851e-39 322 275
0.0036136196 0.68699998 -0.042158898 7.385807e-39 323 275
0.0048181596 0.68699998 -0.042158898 9.7746089e-39 324 275
0.0060226996 0.68699998 -0.042158898 9.0370425e-39 325 275
0.0072272392 0.68699998 -0.042158898 5.0816421e-39 326 275
0.0084317802 0.68699998 -0.042158898 5.2656733e-39 327 275
0.0096222926 0.68599999 -0.042097531 4.8990655e-39 328 275
0.010825079 0.68599999 -0.042097531 4.7146729e-39 329 275
0.012045399 0.68699998 -0.042158898 7.6605736e-39 330 275
0.013230653 0.68599999 -0.042097531 1.0149856e-38 331 275
0.01443344 0.68599999 -0.042097531 9.8685646e-39 332 275
0.015636226 0.68599999 -0.042097531 6.5495205e-39 333 275
0.016839013 0.68599999 -0.042097531 1.0795559e-38 334 275
0.018041799 0.68599999 -0.042097531 1.2178494e-38 335 275
0.019272638 0.68699998 -0.042158898 1.3833327e-38 336 275
0.020477179 0.68699998 -0.042158898 1.3925523e-38 337 275
0.021681719 0.68699998 -0.042158898 1.383296e-38 338 275
0.022886258 0.68699998 -0.042158898 1.3463819e-38 339 275
0.024125867 0.68800002 -0.042220265 1.3556017e-38 340 275
0.02533216 0.68800002 -0.042220265 1.3463821e-38 341 275
0.026538454 0.68800002 -0.042220265 1.3188311e-38 342 275
0.027825398 0.69 -0.042342998 1.3280506e-38 343 275
0.029035198 0.69 -0.042342998 1.3463456e-38 344 275
0.030288832 0.69099998 -0.042404365 1.3278704e-38 345 275
0.031591557 0.69300002 -0.042527102 1.2635493e-38 346 275
0.03280662 0.69300002 -0.042527102 1.2450741e-38 347 275
0.034070771 0.69400001 -0.042588469 1.2356032e-38 348 275
0.035389278 0.69599998 -0.042711195 1.1802858e-38 349 275
0.036662199 0.69700003 -0.042772565 1.1615593e-38 350 275
0.037938625 0.69800001 -0.042833932 1.1523397e-38 351 275
0.039274666 0.69999999 -0.042956665 1.0699031e-38 352 275
0.040559858 0.70099998 -0.043018032 1.051464e-38 353 275
0.041908171 0.70300001 -0.043140765 1.2627931e-38 354 275
0.043140765 0.70300001 -0.043140765 1.6131364e-38 355 275
-0.01994592 0.71100003 -0.044878319 1.5122992e-38 304 276
-0.0186993 0.71100003 -0.044878319 1.3647862e-38 305 276
-0.016023712 0.70300001 -0.04437336 1.3191939e-38 307 276
-0.014749039 0.70099998 -0.044247117 1.2916784e-38 308 276
-0.013500666 0.69999999 -0.044183996 1.2086664e-38 309 276
-0.012273333 0.69999999 -0.044183996 1.1626398e-38 310 276
-0.01101444 0.69800001 -0.04405776 1.2179213e-38 311 276
-0.0097906133 0.69800001 -0.04405776 1.3098982e-38 312 276
-0.0085545136 0.69700003 -0.043994639 1.3098982e-38 313 276
-0.0073219193 0.69599998 -0.043931518 1.4202796e-38 314 276
-0.0060840664 0.69400001 -0.043805279 1.4479383e-38 315 276
-0.00486024 0.69300002 -0.043742158 1.3649991e-38 316 276
-0.0036346598 0.69099998 -0.043615919 1.2820232e-38 317 276
-0.0024231065 0.69099998 -0.043615919 1.2549411e-38 318 276
-0.0012097999 0.69 -0.043552797 1.319478e-38 319 276
0 0.68800002 -0.043426562 1.3561788e-38 320 276
0.0012062934 0.68800002 -0.043426562 1.3469232e-38 321 276
0.0024125867 0.68800002 -0.043426562 1.3558913e-38 322 276
0.0036188802 0.68800002 -0.043426562 1.2636957e-38 323 276
0.0048251734 0.68800002 -0.043426562 1.2449689e-38 324 276
0.0060226996 0.68699998 -0.043363437 1.2173461e-38 325 276
0.0072272392 0.68699998 -0.043363437 1.11622e-38 326 276
0.0084317802 0.68699998 -0.043363437 1.0793057e-38 327 276
0.0096363192 0.68699998 -0.043363437 1.0333881e-38 328 276
0.010840859 0.68699998 -0.043363437 1.0241686e-38 329 276
0.012045399 0.68699998 -0.043363437 1.0702291e-38 330 276
0.013249939 0.68699998 -0.043363437 1.1439856e-38 331 276
0.014454478 0.68699998 -0.043363437 1.1988711e-38 332 276
0.015659019 0.68699998 -0.043363437 1.1251146e-38 333 276
0.01686356 0.68699998 -0.043363437 1.1348735e-38 334 276
0.018068098 0.68699998 -0.043363437 1.2270693e-38 335 276
0.019272638 0.68699998 -0.043363437 1.3925523e-38 336 276
0.020506985 0.68800002 -0.043426562 1.3925523e-38 337 276
0.021713281 0.68800002 -0.043426562 1.3555648e-38 338 276
0.022919573 0.68800002 -0.043426562 1.3002833e-38 339 276
0.024125867 0.68800002 -0.043426562 1.2726609e-38 340 276
0.02533216 0.68800002 -0.043426562 1.2726609e-38 341 276
0.026615599 0.69 -0.043552797 1.2727335e-38 342 276
0.027825398 0.69 -0.043552797 1.3095758e-38 343 276
0.029077278 0.69099998 -0.043615919 1.327871e-38 344 276
0.030288832 0.69099998 -0.043615919 1.3186514e-38 345 276
0.031591557 0.69300002 -0.043742158 1.2267432e-38 346 276
0.032853961 0.69400001 -0.043805279 1.1990486e-38 347 276
0.034070771 0.69400001 -0.043805279 1.1987971e-38 348 276
0.035389278 0.69599998 -0.043931518 1.1434797e-38 349 276
0.0367148 0.69800001 -0.04405776 1.0878754e-38 350 276
0.038047329 0.69999999 -0.044183996 1.0694362e-38 351 276
0.039330769 0.70099998 -0.044247117 9.6856054e-39 352 276
0.040675577 0.70300001 -0.04437336 1.0699397e-38 353 276
0.041967787 0.704 -0.044436477 1.3090707e-38 354 276
0.043202132 0.704 -0.044436477 1.6040966e-38 355 276
-0.021371379 0.71700001 -0.046514176 1.8529527e-38 303 277
-0.01994592 0.71100003 -0.046124939 1.4569096e-38 304 277
-0.0186993 0.71100003 -0.046124939 1.1987618e-38 305 277
-0.017428132 0.70999998 -0.046060063 1.1709979e-38 306 277
-0.016023712 0.70300001 -0.04560595 1.3277303e-38 307 277
-0.014749039 0.70099998 -0.045476202 1.2365059e-38 308 277
-0.013519952 0.70099998 -0.045476202 1.1995916e-38 309 277
-0.012273333 0.69999999 -0.04541133 1.1903352e-38 310 277
-0.011045999 0.69999999 -0.04541133 1.2456525e-38 311 277
-0.0097906133 0.69800001 -0.045281585 1.2824566e-38 312 277
-0.0085667865 0.69800001 -0.045281585 1.2824566e-38 313 277
-0.00733244 0.69700003 -0.045216713 1.3374127e-38 314 277
-0.0061015999 0.69599998 -0.045151837 1.2820953e-38 315 277
-0.0048672534 0.69400001 -0.045022093 1.1904745e-38 316 277
-0.0036451798 0.69300002 -0.044957221 1.2088776e-38 317 277
-0.00243012 0.69300002 -0.044957221 1.2823474e-38 318 277
-0.0012115532 0.69099998 -0.044827472 1.3100061e-38 319 277
0 0.69 -0.0447626 1.2179569e-38 320 277
0.0012097999 0.69 -0.0447626 1.236396e-38 321 277
0.0024125867 0.68800002 -0.044632856 1.2732034e-38 322 277
0.0036188802 0.68800002 -0.044632856 1.300898e-38 323 277
0.0048251734 0.68800002 -0.044632856 1.4202485e-38 324 277
0.0060314666 0.68800002 -0.044632856 1.4110288e-38 325 277
0.0072377604 0.68800002 -0.044632856 1.4109566e-38 326 277
0.0084440531 0.68800002 -0.044632856 1.3832979e-38 327 277
0.0096503468 0.68800002 -0.044632856 1.3557834e-38 328 277
0.010856641 0.68800002 -0.044632856 1.3557834e-38 329 277
0.012062933 0.68800002 -0.044632856 1.3465636e-38 330 277
0.013249939 0.68699998 -0.044567976 1.3650027e-38 331 277
0.014454478 0.68699998 -0.044567976 1.3557467e-38 332 277
0.015681813 0.68800002 -0.044632856 1.3280522e-38 333 277
0.016888106 0.68800002 -0.044632856 1.3281601e-38 334 277
0.0180944 0.68800002 -0.044632856 1.3005014e-38 335 277
0.019300694 0.68800002 -0.044632856 1.3003568e-38 336 277
0.020506985 0.68800002 -0.044632856 1.2081613e-38 337 277
0.021713281 0.68800002 -0.044632856 1.1526994e-38 338 277
0.022919573 0.68800002 -0.044632856 1.0973821e-38 339 277
0.024125867 0.68800002 -0.044632856 1.0791946e-38 340 277
0.025405798 0.69 -0.0447626 1.1252924e-38 341 277
0.026654173 0.69099998 -0.044827472 1.180395e-38 342 277
0.027865725 0.69099998 -0.044827472 1.2080537e-38 343 277
0.029161438 0.69300002 -0.044957221 1.1990862e-38 344 277
0.0303765 0.69300002 -0.044957221 1.2359644e-38 345 277
0.031637147 0.69400001 -0.045022093 1.1623156e-38 346 277
0.032853961 0.69400001 -0.045022093 1.1254372e-38 347 277
0.034168959 0.69599998 -0.045151837 1.0790874e-38 348 277
0.035490975 0.69800001 -0.045281585 1.042209e-38 349 277
0.036819998 0.69999999 -0.04541133 1.0051512e-38 350 277
0.038101684 0.70099998 -0.045476202 1.0051512e-38 351 277
0.039442986 0.70300001 -0.04560595 1.0787277e-38 352 277
0.040733438 0.704 -0.045670826 1.198582e-38 353 277
0.041967787 0.704 -0.045670826 1.3276174e-38 354 277
-0.021371379 0.71700001 -0.04777132 1.8253663e-38 303 278
-0.020002026 0.713 -0.047504812 1.466057e-38 304 278
-0.0186993 0.71100003 -0.047371563 1.106494e-38 305 278
-0.017428132 0.70999998 -0.047304932 9.2250112e-39 306 278
-0.016114887 0.70700002 -0.047105055 1.1253315e-38 307 278
-0.014812159 0.704 -0.046905171 1.2272509e-38 308 278
-0.013558527 0.70300001 -0.046838548 1.2364706e-38 309 278
-0.012290866 0.70099998 -0.046705291 1.2455455e-38 310 278
-0.011045999 0.69999999 -0.046638668 1.2547651e-38 311 278
-0.0098186666 0.69999999 -0.046638668 1.2456156e-38 312 278
-0.0085667865 0.69800001 -0.046505414 1.2732742e-38 313 278
-0.0073429602 0.69800001 -0.046505414 1.2729853e-38 314 278
-0.0061103669 0.69700003 -0.046438783 1.0978137e-38 315 278
-0.0048672534 0.69400001 -0.046238903 1.0431413e-38 316 278
-0.0036451798 0.69300002 -0.04617228 1.1629597e-38 317 278
-0.00243012 0.69300002 -0.04617228 1.2639432e-38 318 278
-0.0012115532 0.69099998 -0.046039023 1.291602e-38 319 278
0 0.69 -0.045972396 1.0430373e-38 320 278
0.0012097999 0.69 -0.045972396 1.024598e-38 321 278
0.0024195998 0.69 -0.045972396 1.0246723e-38 322 278
0.0036293997 0.69 -0.045972396 1.1076484e-38 323 278
0.0048251734 0.68800002 -0.045839146 1.3742591e-38 324 278
0.0060314666 0.68800002 -0.045839146 1.3927343e-38 325 278
0.0072377604 0.68800002 -0.045839146 1.4386502e-38 326 278
0.0084440531 0.68800002 -0.045839146 1.4109917e-38 327 278
0.0096503468 0.68800002 -0.045839146 1.4202834e-38 328 278
0.010856641 0.68800002 -0.045839146 1.4571616e-38 329 278
0.012062933 0.68800002 -0.045839146 1.4387229e-38 330 278
0.013269227 0.68800002 -0.045839146 1.4295034e-38 331 278
0.014475521 0.68800002 -0.045839146 1.3927323e-38 332 278
0.015681813 0.68800002 -0.045839146 1.4111354e-38 333 278
0.016888106 0.68800002 -0.045839146 1.3742213e-38 334 278
0.0180944 0.68800002 -0.045839146 1.3004648e-38 335 278
0.019300694 0.68800002 -0.045839146 1.1621005e-38 336 278
0.020506985 0.68800002 -0.045839146 1.042282e-38 337 278
0.021713281 0.68800002 -0.045839146 9.5005065e-39 338 278
0.022986198 0.69 -0.045972396 8.9473327e-39 339 278
0.024195999 0.69 -0.045972396 8.2140865e-39 340 278
0.025442619 0.69099998 -0.046039023 9.5048253e-39 341 278
0.026654173 0.69099998 -0.046039023 1.0883085e-38 342 278
0.027946379 0.69300002 -0.04617228 1.1067836e-38 343 278
0.029161438 0.69300002 -0.04617228 1.0978874e-38 344 278
0.030420333 0.69400001 -0.046238903 1.1440212e-38 345 278
0.031728316 0.69599998 -0.046372157 1.1530607e-38 346 278
0.032948639 0.69599998 -0.046372157 1.0977433e-38 347 278
0.034218054 0.69700003 -0.046438783 9.502303e-39 348 278
0.035592664 0.69999999 -0.046638668 9.3179103e-39 349 278
0.036977798 0.70300001 -0.046838548 9.9589609e-39 350 278
0.038210396 0.70300001 -0.046838548 1.0328104e-38 351 278
0.039442986 0.70300001 -0.046838548 1.1431925e-38 352 278
0.040733438 0.704 -0.046905171 1.2169848e-38 353 278
0.041967787 0.704 -0.046905171 1.3184697e-38 354 278
-0.021371379 0.71700001 -0.04902846 1.8161464e-38 303 279
-0.020002026 0.713 -0.048754938 1.5674353e-38 304 279
-0.0186993 0.71100003 -0.048618179 1.2724091e-38 305 279
-0.01745268 0.71100003 -0.048618179 9.4101073e-39 306 279
-0.016183265 0.70999998 -0.048549797 1.1346216e-38 307 279
-0.01487528 0.70700002 -0.048344657 1.2455458e-38 308 279
-0.013577812 0.704 -0.048139516 1.1440948e-38 309 279
-0.012325933 0.70300001 -0.048071139 9.322969e-39 310 279
-0.011061779 0.70099998 -0.047934376 8.0322302e-39 311 279
-0.0098186666 0.69999999 -0.047865998 8.6786716e-39 312 279
-0.0085913334 0.69999999 -0.047865998 1.0522584e-38 313 279
-0.0073429602 0.69800001 -0.047729239 1.0981026e-38 314 279
-0.0061103669 0.69700003 -0.047660861 1.0520048e-38 315 279
-0.0048812795 0.69599998 -0.047592476 1.1624934e-38 316 279
-0.0036504399 0.69400001 -0.047455717 1.2362499e-38 317 279
-0.00243012 0.69300002 -0.047387339 1.2272465e-38 318 279
-0.00121506 0.69300002 -0.047387339 1.2733442e-38 319 279
0 0.69099998 -0.047250576 9.4183918e-39 320 279
0.0012115532 0.69099998 -0.047250576 8.6808268e-39 321 279
0.0024231065 0.69099998 -0.047250576 8.3124268e-39 322 279
0.0036293997 0.69 -0.047182199 8.5893724e-39 323 279
0.0048391996 0.69 -0.047182199 9.9665433e-39 324 279
0.0060489997 0.69 -0.047182199 1.0334966e-38 325 279
0.0072587994 0.69 -0.047182199 1.1070717e-38 326 279
0.0084686 0.69 -0.047182199 1.0794489e-38 327 279
0.0096783992 0.69 -0.047182199 1.0978876e-38 328 279
0.010888199 0.69 -0.047182199 1.1255465e-38 329 279
0.012097999 0.69 -0.047182199 1.180612e-38 330 279
0.0133078 0.69 -0.047182199 1.1898316e-38 331 279
0.014517599 0.69 -0.047182199 1.1536361e-38 332 279
0.015727401 0.69 -0.047182199 1.1628916e-38 333 279
0.0169372 0.69 -0.047182199 1.1990862e-38 334 279
0.018146999 0.69 -0.047182199 1.1253297e-38 335 279
0.019356798 0.69 -0.047182199 9.7781822e-39 336 279
0.020566599 0.69 -0.047182199 8.0264666e-39 337 279
0.021776399 0.69 -0.047182199 6.8282976e-39 338 279
0.023019511 0.69099998 -0.047250576 6.2751238e-39 339 279
0.024231065 0.69099998 -0.047250576 5.9142516e-39 340 279
0.02551626 0.69300002 -0.047387339 6.8362079e-39 341 279
0.02673132 0.69300002 -0.047387339 8.2151795e-39 342 279
0.027946379 0.69300002 -0.047387339 9.04458e-39 343 279
0.029203519 0.69400001 -0.047455717 1.0517902e-38 344 279
0.030420333 0.69400001 -0.047455717 1.1070717e-38 345 279
0.03177391 0.69700003 -0.047660861 1.107035e-38 346 279
0.03299598 0.69700003 -0.047660861 1.0424981e-38 347 279
0.034267146 0.69800001 -0.047729239 8.9498509e-39 348 279
0.035643511 0.70099998 -0.047934376 8.8576552e-39 349 279
0.036977798 0.70300001 -0.048071139 9.9600413e-39 350 279
0.038264744 0.704 -0.048139516 1.0421018e-38 351 279
0.039499093 0.704 -0.048139516 1.1249687e-38 352 279
0.040733438 0.704 -0.048139516 1.1987252e-38 353 279
0.041967787 0.704 -0.048139516 1.281699e-38 354 279
-0.021371379 0.71700001 -0.0502856 1.8069623e-38 303 280
-0.020030079 0.71399999 -0.050075196 1.6135683e-38 304 280
-0.0186993 0.71100003 -0.049864799 1.4014825e-38 305 280
-0.01745268 0.71100003 -0.049864799 1.02377e-38 306 280
-0.016183265 0.70999998 -0.049794663 1.1528439e-38 307 280
-0.01489632 0.708 -0.049654398 1.3557118e-38 308 280
-0.013616386 0.70599997 -0.04951413 1.1989433e-38 309 280
-0.012343466 0.704 -0.049373865 8.6740053e-39 310 280
-0.01109334 0.70300001 -0.049303733 6.8300927e-39 311 280
-0.0098326923 0.70099998 -0.049163464 5.6384032e-39 312 280
-0.0085913334 0.69999999 -0.049093332 6.8369464e-39 313 280
-0.0073639993 0.69999999 -0.049093332 7.8482047e-39 314 280
-0.006119133 0.69800001 -0.048953064 8.4935741e-39 315 280
-0.0048882933 0.69700003 -0.048882935 1.1258336e-38 316 280
-0.0036609597 0.69599998 -0.048812799 1.1903705e-38 317 280
-0.0024336267 0.69400001 -0.048672531 1.2181011e-38 318 280
-0.00121506 0.69300002 -0.048602402 1.2549794e-38 319 280
0 0.69300002 -0.048602402 1.0431833e-38 320 280
0.0012115532 0.69099998 -0.04846213 9.4180415e-39 321 280
0.0024231065 0.69099998 -0.04846213 9.4173352e-39 322 280
0.0036346598 0.69099998 -0.04846213 9.232944e-39 323 280
0.0048462129 0.69099998 -0.04846213 8.9559998e-39 324 280
0.0060577663 0.69099998 -0.04846213 9.0481954e-39 325 280
0.0072693196 0.69099998 -0.04846213 9.1389491e-39 326 280
0.008480873 0.69099998 -0.04846213 9.4155374e-39 327 280
0.0096924258 0.69099998 -0.04846213 9.3229746e-39 328 280
0.01090398 0.69099998 -0.04846213 9.6913984e-39 329 280
0.012115533 0.69099998 -0.04846213 9.9654714e-39 330 280
0.013327086 0.69099998 -0.04846213 9.7810787e-39 331 280
0.014538639 0.69099998 -0.04846213 1.0889937e-38 332 280
0.015750192 0.69099998 -0.04846213 1.125908e-38 333 280
0.016961746 0.69099998 -0.04846213 1.0794492e-38 334 280
0.0181733 0.69099998 -0.04846213 9.7799815e-39 335 280
0.019384852 0.69099998 -0.04846213 7.845318e-39 336 280
0.020596405 0.69099998 -0.04846213 6.8311661e-39 337 280
0.021807959 0.69099998 -0.04846213 5.9092294e-39 338 280
0.023019511 0.69099998 -0.04846213 6.0936206e-39 339 280
0.024301201 0.69300002 -0.048602402 6.0032257e-39 340 280
0.02551626 0.69300002 -0.048602402 6.2794538e-39 341 280
0.026769891 0.69400001 -0.048672531 7.2024723e-39 342 280
0.027986705 0.69400001 -0.048672531 8.4932111e-39 343 280
0.029203519 0.69400001 -0.048672531 9.7824982e-39 344 280
0.030507999 0.69599998 -0.048812799 1.0151641e-38 345 280
0.03177391 0.69700003 -0.048882935 1.05179e-38 346 280
0.033043321 0.69800001 -0.048953064 1.0149476e-38 347 280
0.034365334 0.69999999 -0.049093332 9.3179103e-39 348 280
0.035643511 0.70099998 -0.049163464 9.2257147e-39 349 280
0.036977798 0.70300001 -0.049303733 1.0052956e-38 350 280
0.038264744 0.704 -0.049373865 1.0513934e-38 351 280
0.039499093 0.704 -0.049373865 1.1250406e-38 352 280
0.040849157 0.70599997 -0.04951413 1.2172364e-38 353 280
-0.020030079 0.71399999 -0.05132708 1.6411188e-38 304 281
-0.018751899 0.713 -0.051255193 1.5028253e-38 305 281
-0.01745268 0.71100003 -0.051111419 1.1067459e-38 306 281
-0.016183265 0.70999998 -0.051039528 1.1251852e-38 307 281
-0.01489632 0.708 -0.050895758 1.4476194e-38 308 281
-0.013616386 0.70599997 -0.050751984 1.3370206e-38 309 281
-0.012343466 0.704 -0.050608214 1.0146969e-38 310 281
-0.01109334 0.70300001 -0.050536323 8.0264694e-39 311 281
-0.0098326923 0.70099998 -0.050392549 5.7280835e-39 312 281
-0.0086036054 0.70099998 -0.050392549 3.976368e-39 313 281
-0.0073639993 0.69999999 -0.050320663 3.1509247e-39 314 281
-0.006119133 0.69800001 -0.050176892 3.8884911e-39 315 281
-0.0048953067 0.69800001 -0.050176892 9.4169597e-39 316 281
-0.0036609597 0.69599998 -0.050033119 1.1722209e-38 317 281
-0.0024336267 0.69400001 -0.049889345 1.190515e-38 318 281
-0.0012168133 0.69400001 -0.049889345 1.190515e-38 319 281
0 0.69300002 -0.049817458 1.1353065e-38 320 281
0.00121506 0.69300002 -0.049817458 1.1445261e-38 321 281
0.00243012 0.69300002 -0.049817458 1.190337e-38 322 281
0.0036451798 0.69300002 -0.049817458 1.1627142e-38 323 281
0.0048462129 0.69099998 -0.049673684 1.125908e-38 324 281
0.0060577663 0.69099998 -0.049673684 1.1166884e-38 325 281
0.0072903596 0.69300002 -0.049817458 1.1074686e-38 326 281
0.0085054198 0.69300002 -0.049817458 1.0890293e-38 327 281
0.0097204801 0.69300002 -0.049817458 1.1074323e-38 328 281
0.010935539 0.69300002 -0.049817458 1.1074323e-38 329 281
0.012150601 0.69300002 -0.049817458 1.107324e-38 330 281
0.01336566 0.69300002 -0.049817458 1.0889209e-38 331 281
0.014580719 0.69300002 -0.049817458 1.0706257e-38 332 281
0.015795778 0.69300002 -0.049817458 1.0614061e-38 333 281
0.01701084 0.69300002 -0.049817458 9.9668937e-39 334 281
0.018225901 0.69300002 -0.049817458 9.3215243e-39 335 281
0.01944096 0.69300002 -0.049817458 6.6493013e-39 336 281
0.020656019 0.69300002 -0.049817458 6.2801587e-39 337 281
0.021871079 0.69300002 -0.049817458 6.5538813e-39 338 281
0.02308614 0.69300002 -0.049817458 6.4616857e-39 339 281
0.024301201 0.69300002 -0.049817458 6.0918242e-39 340 281
0.025553079 0.69400001 -0.049889345 5.8155974e-39 341 281
0.026769891 0.69400001 -0.049889345 6.9248092e-39 342 281
0.027986705 0.69400001 -0.049889345 8.7687218e-39 343 281
0.029287677 0.69599998 -0.050033119 1.0150562e-38 344 281
0.030551834 0.69700003 -0.050105009 1.0427149e-38 345 281
0.031819493 0.69800001 -0.050176892 1.0425701e-38 346 281
0.033137999 0.69999999 -0.050320663 9.8725274e-39 347 281
0.034414422 0.70099998 -0.050392549 1.0054031e-38 348 281
0.035745207 0.70300001 -0.050536323 1.0054031e-38 349 281
0.037030395 0.704 -0.050608214 1.0422087e-38 350 281
0.038373452 0.70599997 -0.050751984 1.0698676e-38 351 281
0.039611302 0.70599997 -0.050751984 1.1067088e-38 352 281
0.040849157 0.70599997 -0.050751984 1.1896849e-38 353 281
-0.0186993 0.71100003 -0.052358042 1.4844938e-38 305 282
-0.01745268 0.71100003 -0.052358042 1.2176682e-38 306 282
-0.016183265 0.70999998 -0.052284397 1.134692e-38 307 282
-0.01489632 0.708 -0.052137118 1.3740064e-38 308 282
-0.013616386 0.70599997 -0.051989835 1.3832261e-38 309 282
-0.012343466 0.704 -0.051842559 1.1896521e-38 310 282
-0.01109334 0.70300001 -0.051768921 9.5916301e-39 311 282
-0.0098607466 0.70300001 -0.051768921 7.6587771e-39 312 282
-0.0086281532 0.70300001 -0.051768921 5.9992572e-39 313 282
-0.0073745195 0.70099998 -0.051621638 3.3360362e-39 314 282
-0.0061366665 0.69999999 -0.051547997 2.4140785e-39 315 282
-0.0048953067 0.69800001 -0.051400717 8.95276e-39 316 282
-0.00366622 0.69700003 -0.051327083 1.3101923e-38 317 282
-0.0024406398 0.69599998 -0.051253434 1.3101175e-38 318 282
-0.0012203199 0.69599998 -0.051253434 1.2455806e-38 319 282
0 0.69400001 -0.051106159 1.1169756e-38 320 282
0.0012168133 0.69400001 -0.051106159 1.1077559e-38 321 282
0.00243012 0.69300002 -0.051032521 1.1352718e-38 322 282
0.0036451798 0.69300002 -0.051032521 1.1352718e-38 323 282
0.00486024 0.69300002 -0.051032521 1.1077206e-38 324 282
0.0060753003 0.69300002 -0.051032521 1.098501e-38 325 282
0.0072903596 0.69300002 -0.051032521 1.1444547e-38 326 282
0.0085054198 0.69300002 -0.051032521 1.1444547e-38 327 282
0.0097204801 0.69300002 -0.051032521 1.1352348e-38 328 282
0.010935539 0.69300002 -0.051032521 1.1075402e-38 329 282
0.012150601 0.69300002 -0.051032521 1.1075039e-38 330 282
0.01336566 0.69300002 -0.051032521 1.0890646e-38 331 282
0.014580719 0.69300002 -0.051032521 1.0522584e-38 332 282
0.015795778 0.69300002 -0.051032521 1.0430389e-38 333 282
0.01701084 0.69300002 -0.051032521 1.0427152e-38 334 282
0.018225901 0.69300002 -0.051032521 1.0150206e-38 335 282
0.019469013 0.69400001 -0.051106159 7.6605764e-39 336 282
0.020656019 0.69300002 -0.051032521 6.277642e-39 337 282
0.021871079 0.69300002 -0.051032521 6.3673391e-39 338 282
0.023119451 0.69400001 -0.051106159 6.3673391e-39 339 282
0.024336265 0.69400001 -0.051106159 6.4606109e-39 340 282
0.025626717 0.69599998 -0.051253434 6.8293934e-39 341 282
0.026847038 0.69599998 -0.051253434 8.3034249e-39 342 282
0.028067358 0.69599998 -0.051253434 9.7789151e-39 343 282
0.02932976 0.69700003 -0.051327083 9.5066344e-39 344 282
0.030595668 0.69800001 -0.051400717 9.4144388e-39 345 282
0.031819493 0.69800001 -0.051400717 9.1374847e-39 346 282
0.033137999 0.69999999 -0.051547997 9.2296804e-39 347 282
0.034414422 0.70099998 -0.051621638 1.0238422e-38 348 282
0.035796054 0.704 -0.051842559 1.0146226e-38 349 282
0.037030395 0.704 -0.051842559 1.0789792e-38 350 282
0.038373452 0.70599997 -0.051989835 1.0974542e-38 351 282
0.039611302 0.70599997 -0.051989835 1.1893605e-38 352 282
0.040907022 0.70700002 -0.05206348 1.2723367e-38 353 282
-0.01745268 0.71100003 -0.053604662 1.3006068e-38 306 283
-0.016183265 0.70999998 -0.053529263 1.2360698e-38 307 283
-0.01489632 0.708 -0.053378478 1.2912818e-38 308 283
-0.013635674 0.70700002 -0.053303085 1.3465991e-38 309 283
-0.012378532 0.70599997 -0.053227689 1.3370569e-38 310 283
-0.011109119 0.704 -0.053076904 1.125043e-38 311 283
-0.0098607466 0.70300001 -0.053001512 9.4998031e-39 312 283
-0.0086281532 0.70300001 -0.053001512 7.3789448e-39 313 283
-0.0073745195 0.70099998 -0.052850723 3.9796036e-39 314 283
-0.0061366665 0.69999999 -0.052775331 3.3342342e-39 315 283
-0.0048953067 0.69800001 -0.052624546 8.216997e-39 316 283
-0.0036714801 0.69800001 -0.052624546 1.2826778e-38 317 283
-0.0024406398 0.69599998 -0.052473757 1.3928785e-38 318 283
-0.0012203199 0.69599998 -0.052473757 1.319122e-38 319 283
0 0.69400001 -0.052322973 1.1537462e-38 320 283
0.0012168133 0.69400001 -0.052322973 1.0984288e-38 321 283
0.0024336267 0.69400001 -0.052322973 1.0983938e-38 322 283
0.0036504399 0.69400001 -0.052322973 1.0983938e-38 323 283
0.00486024 0.69300002 -0.05224758 1.0157774e-38 324 283
0.0060753003 0.69300002 -0.05224758 1.0157774e-38 325 283
0.0072903596 0.69300002 -0.05224758 1.0433282e-38 326 283
0.0085054198 0.69300002 -0.05224758 1.0433282e-38 327 283
0.0097204801 0.69300002 -0.05224758 1.0524755e-38 328 283
0.010935539 0.69300002 -0.05224758 1.0340365e-38 329 283
0.012150601 0.69300002 -0.05224758 1.0431836e-38 330 283
0.013384946 0.69400001 -0.052322973 1.033964e-38 331 283
0.01460176 0.69400001 -0.052322973 1.0063055e-38 332 283
0.015818574 0.69400001 -0.052322973 9.8786637e-39 333 283
0.017035386 0.69400001 -0.052322973 1.0151291e-38 334 283
0.0182522 0.69400001 -0.052322973 9.7821479e-39 335 283
0.019469013 0.69400001 -0.052322973 8.3977785e-39 336 283
0.020685827 0.69400001 -0.052322973 6.737897e-39 337 283
0.021902639 0.69400001 -0.052322973 5.2627866e-39 338 283
0.023119451 0.69400001 -0.052322973 5.908156e-39 339 283
0.0244064 0.69599998 -0.052473757 7.4740398e-39 340 283
0.025626717 0.69599998 -0.052473757 8.3956373e-39 341 283
0.026885614 0.69700003 -0.052549154 9.2257385e-39 342 283
0.028107686 0.69700003 -0.052549154 1.0147335e-38 343 283
0.029371841 0.69800001 -0.052624546 9.5059155e-39 344 283
0.030595668 0.69800001 -0.052624546 9.1371316e-39 345 283
0.031910665 0.69999999 -0.052775331 8.584311e-39 346 283
0.033137999 0.69999999 -0.052775331 8.8608992e-39 347 283
0.034512613 0.70300001 -0.053001512 1.0421381e-38 348 283
0.035796054 0.704 -0.053076904 1.0606132e-38 349 283
0.037135597 0.70599997 -0.053227689 1.1250406e-38 350 283
0.038373452 0.70599997 -0.053227689 1.1342602e-38 351 283
0.039667413 0.70700002 -0.053303085 1.1803912e-38 352 283
0.040907022 0.70700002 -0.053303085 1.2449281e-38 353 283
0.042146627 0.70700002 -0.053303085 1.3003507e-38 354 283
-0.01745268 0.71100003 -0.054851279 1.2914571e-38 306 284
-0.01620606 0.71100003 -0.054851279 1.2546149e-38 307 284
-0.01489632 0.708 -0.054619838 1.2086285e-38 308 284
-0.013635674 0.70700002 -0.054542694 1.2086285e-38 309 284
-0.012378532 0.70599997 -0.054465543 1.2729153e-38 310 284
-0.011140679 0.70599997 -0.054465543 1.1806836e-38 311 284
-0.0098747732 0.704 -0.054311249 1.0697978e-38 312 284
-0.0086404262 0.704 -0.054311249 8.7618695e-39 313 284
-0.0073955595 0.70300001 -0.054234106 6.9273246e-39 314 284
-0.0061366665 0.69999999 -0.054002665 7.3883027e-39 315 284
-0.0048953067 0.69800001 -0.053848371 8.7687218e-39 316 284
-0.0036714801 0.69800001 -0.053848371 1.1442395e-38 317 284
-0.0024406398 0.69599998 -0.053694077 1.3746194e-38 318 284
-0.0012203199 0.69599998 -0.053694077 1.4022422e-38 319 284
0 0.69599998 -0.053694077 1.3191939e-38 320 284
0.0012168133 0.69400001 -0.053539783 1.2178147e-38 321 284
0.0024336267 0.69400001 -0.053539783 1.0340365e-38 322 284
0.0036504399 0.69400001 -0.053539783 1.0340365e-38 323 284
0.0048672534 0.69400001 -0.053539783 9.97303e-39 324 284
0.0060840664 0.69400001 -0.053539783 1.0065226e-38 325 284
0.0073008798 0.69400001 -0.053539783 1.0340371e-38 326 284
0.0085176928 0.69400001 -0.053539783 1.0340371e-38 327 284
0.0097345067 0.69400001 -0.053539783 1.0891742e-38 328 284
0.01095132 0.69400001 -0.053539783 1.0706992e-38 329 284
0.012168133 0.69400001 -0.053539783 1.0339285e-38 330 284
0.013384946 0.69400001 -0.053539783 1.0063058e-38 331 284
0.01460176 0.69400001 -0.053539783 9.6949955e-39 332 284
0.015818574 0.69400001 -0.053539783 9.5106029e-39 333 284
0.017035386 0.69400001 -0.053539783 9.6917543e-39 334 284
0.0182522 0.69400001 -0.053539783 9.0463849e-39 335 284
0.019469013 0.69400001 -0.053539783 8.7654792e-39 336 284
0.020745439 0.69599998 -0.053694077 8.581088e-39 337 284
0.021965759 0.69599998 -0.053694077 7.7524091e-39 338 284
0.023186078 0.69599998 -0.053694077 8.3052241e-39 339 284
0.024441468 0.69700003 -0.053771228 8.6740053e-39 340 284
0.025663542 0.69700003 -0.053771228 8.7662009e-39 341 284
0.026924185 0.69800001 -0.053848371 9.046015e-39 342 284
0.028148014 0.69800001 -0.053848371 9.6913844e-39 343 284
0.029371841 0.69800001 -0.053848371 9.7821353e-39 344 284
0.030683333 0.69999999 -0.054002665 9.1367659e-39 345 284
0.031910665 0.69999999 -0.054002665 8.3062807e-39 346 284
0.03318534 0.70099998 -0.054079808 9.5048225e-39 347 284
0.034512613 0.70300001 -0.054234106 1.1251136e-38 348 284
0.035796054 0.704 -0.054311249 1.1435167e-38 349 284
0.037135597 0.70599997 -0.054465543 1.1527345e-38 350 284
0.038427804 0.70700002 -0.054542694 1.161954e-38 351 284
0.039667413 0.70700002 -0.054542694 1.1714218e-38 352 284
0.040907022 0.70700002 -0.054542694 1.2267391e-38 353 284
0.042146627 0.70700002 -0.054542694 1.3648508e-38 354 284
-0.017428132 0.70999998 -0.056018997 1.2729799e-38 306 285
-0.016183265 0.70999998 -0.056018997 1.2729799e-38 307 285
-0.014938398 0.70999998 -0.056018997 1.1351938e-38 308 285
-0.013635674 0.70700002 -0.055782299 1.1167546e-38 309 285
-0.012396066 0.70700002 -0.055782299 1.2361442e-38 310 285
-0.011140679 0.70599997 -0.055703394 1.1992301e-38 311 285
-0.0099028256 0.70599997 -0.055703394 1.1712123e-38 312 285
-0.0086404262 0.704 -0.055545598 1.0513581e-38 313 285
-0.0074060797 0.704 -0.055545598 9.0424192e-39 314 285
-0.0061454331 0.70099998 -0.055308893 9.0424192e-39 315 285
-0.0049093333 0.69999999 -0.055229999 8.3084639e-39 316 285
-0.0036714801 0.69800001 -0.0550722 1.006054e-38 317 285
-0.0024441467 0.69700003 -0.054993302 1.3837308e-38 318 285
-0.0012220733 0.69700003 -0.054993302 1.485182e-38 319 285
0 0.69599998 -0.054914396 1.438867e-38 320 285
0.0012203199 0.69599998 -0.054914396 1.3743301e-38 321 285
0.0024406398 0.69599998 -0.054914396 1.1719687e-38 322 285
0.0036609597 0.69599998 -0.054914396 1.1258349e-38 323 285
0.0048672534 0.69400001 -0.054756597 1.0706992e-38 324 285
0.0060840664 0.69400001 -0.054756597 1.0522961e-38 325 285
0.0073008798 0.69400001 -0.054756597 1.0430764e-38 326 285
0.0085176928 0.69400001 -0.054756597 1.0799547e-38 327 285
0.0097345067 0.69400001 -0.054756597 1.1533872e-38 328 285
0.01095132 0.69400001 -0.054756597 1.1164731e-38 329 285
0.0122032 0.69599998 -0.054914396 9.6957144e-39 330 285
0.013384946 0.69400001 -0.054756597 9.5113231e-39 331 285
0.01460176 0.69400001 -0.054756597 9.1432623e-39 332 285
0.015818574 0.69400001 -0.054756597 9.0510667e-39 333 285
0.017084479 0.69599998 -0.054914396 8.9574333e-39 334 285
0.018304799 0.69599998 -0.054914396 8.0351169e-39 335 285
0.019525118 0.69599998 -0.054914396 8.2112292e-39 336 285
0.020745439 0.69599998 -0.054914396 8.9487943e-39 337 285
0.021965759 0.69599998 -0.054914396 9.4112046e-39 338 285
0.023219392 0.69700003 -0.054993302 1.014877e-38 339 285
0.024441468 0.69700003 -0.054993302 1.1342991e-38 340 285
0.025700359 0.69800001 -0.0550722 1.11586e-38 341 285
0.026924185 0.69800001 -0.0550722 1.0518619e-38 342 285
0.028148014 0.69800001 -0.0550722 1.0887761e-38 343 285
0.029455997 0.69999999 -0.055229999 1.116182e-38 344 285
0.030727165 0.70099998 -0.055308893 1.0608646e-38 345 285
0.031956252 0.70099998 -0.055308893 1.0238772e-38 346 285
0.033280019 0.70300001 -0.0554667 1.0884142e-38 347 285
0.034561705 0.704 -0.055545598 1.1895407e-38 348 285
0.035897743 0.70599997 -0.055703394 1.1987602e-38 349 285
0.037135597 0.70599997 -0.055703394 1.1620963e-38 350 285
0.038427804 0.70700002 -0.055782299 1.1528767e-38 351 285
0.039723519 0.708 -0.055861197 1.1164984e-38 352 285
0.040964879 0.708 -0.055861197 1.1810354e-38 353 285
0.042206239 0.708 -0.055861197 1.4567938e-38 354 285
-0.017428132 0.70999998 -0.057263866 1.3003855e-38 306 286
-0.016183265 0.70999998 -0.057263866 1.245104e-38 307 286
-0.014938398 0.70999998 -0.057263866 1.1996562e-38 308 286
-0.013654959 0.708 -0.057102561 1.2088758e-38 309 286
-0.012396066 0.70700002 -0.057021905 1.2362865e-38 310 286
-0.011140679 0.70599997 -0.056941248 1.1901888e-38 311 286
-0.0099028256 0.70599997 -0.056941248 1.2358926e-38 312 286
-0.0086649731 0.70599997 -0.056941248 1.2358926e-38 313 286
-0.0074060797 0.704 -0.056779943 1.088129e-38 314 286
-0.0061629666 0.70300001 -0.056699295 9.2217686e-39 315 286
-0.0049093333 0.69999999 -0.056457333 6.7443682e-39 316 286
-0.0036819996 0.69999999 -0.056457333 8.4957265e-39 317 286
-0.0024476533 0.69800001 -0.056296028 1.3926987e-38 318 286
-0.0012238267 0.69800001 -0.056296028 1.5309921e-38 319 286
0 0.69700003 -0.056215372 1.4940047e-38 320 286
0.0012220733 0.69700003 -0.056215372 1.4940047e-38 321 286
0.0024441467 0.69700003 -0.056215372 1.4388314e-38 322 286
0.00366622 0.69700003 -0.056215372 1.3558913e-38 323 286
0.0048882933 0.69700003 -0.056215372 1.2546572e-38 324 286
0.0061103669 0.69700003 -0.056215372 1.1163638e-38 325 286
0.0073219193 0.69599998 -0.056134716 8.8663069e-39 326 286
0.0085422397 0.69599998 -0.056134716 7.1145899e-39 327 286
0.0097625591 0.69599998 -0.056134716 6.8387317e-39 328 286
0.010982879 0.69599998 -0.056134716 6.9309273e-39 329 286
0.0122032 0.69599998 -0.056134716 6.8441323e-39 330 286
0.013423519 0.69599998 -0.056134716 7.6738943e-39 331 286
0.014643839 0.69599998 -0.056134716 8.2241871e-39 332 286
0.015864158 0.69599998 -0.056134716 7.8550444e-39 333 286
0.017109027 0.69700003 -0.056215372 6.5643028e-39 334 286
0.018331099 0.69700003 -0.056215372 4.5359989e-39 335 286
0.019553173 0.69700003 -0.056215372 6.4498111e-39 336 286
0.020775247 0.69700003 -0.056215372 6.8182349e-39 337 286
0.02199732 0.69700003 -0.056215372 5.7266192e-39 338 286
0.023252707 0.69800001 -0.056296028 9.1378589e-39 339 286
0.024476532 0.69800001 -0.056296028 1.2814509e-38 340 286
0.025700359 0.69800001 -0.056296028 1.4013052e-38 341 286
0.026924185 0.69800001 -0.056296028 1.3740411e-38 342 286
0.028228667 0.69999999 -0.056457333 1.3924804e-38 343 286
0.029455997 0.69999999 -0.056457333 1.364785e-38 344 286
0.030727165 0.70099998 -0.056537982 1.3370903e-38 345 286
0.032047424 0.70300001 -0.056699295 1.3187941e-38 346 286
0.033280019 0.70300001 -0.056699295 1.2726604e-38 347 286
0.034561705 0.704 -0.056779943 1.2356012e-38 348 286
0.035897743 0.70599997 -0.056941248 1.2263817e-38 349 286
0.037135597 0.70599997 -0.056941248 1.1439423e-38 350 286
0.038482159 0.708 -0.057102561 1.1070999e-38 351 286
0.039723519 0.708 -0.057102561 1.0061858e-38 352 286
0.041080594 0.70999998 -0.057263866 1.1537347e-38 353 286
0.042325463 0.70999998 -0.057263866 1.5489181e-38 354 286
-0.017428132 0.70999998 -0.058508728 1.4936351e-38 306 287
-0.016183265 0.70999998 -0.058508728 1.3737807e-38 307 287
-0.014938398 0.70999998 -0.058508728 1.1812858e-38 308 287
-0.013654959 0.708 -0.058343921 1.2366032e-38 309 287
-0.0124136 0.708 -0.058343921 1.2089854e-38 310 287
-0.011156459 0.70700002 -0.05826151 1.1997657e-38 311 287
-0.0099028256 0.70599997 -0.058179103 1.2637303e-38 312 287
-0.0086649731 0.70599997 -0.058179103 1.2268881e-38 313 287
-0.0074060797 0.704 -0.058014292 1.189759e-38 314 287
-0.0061717331 0.704 -0.058014292 1.1344416e-38 315 287
-0.0049163462 0.70099998 -0.057767071 9.9629238e-39 316 287
-0.0036819996 0.69999999 -0.05768466 9.2253588e-39 317 287
-0.0024476533 0.69800001 -0.057519849 1.1440578e-38 318 287
-0.0012238267 0.69800001 -0.057519849 1.4022055e-38 319 287
0 0.69800001 -0.057519849 1.4757101e-38 320 287
0.0012220733 0.69700003 -0.05743745 1.4757101e-38 321 287
0.0024441467 0.69700003 -0.05743745 1.4940769e-38 322 287
0.00366622 0.69700003 -0.05743745 1.4940769e-38 323 287
0.0048953067 0.69800001 -0.057519849 1.4112087e-38 324 287
0.006119133 0.69800001 -0.057519849 1.2544401e-38 325 287
0.00733244 0.69700003 -0.05743745 9.6910088e-39 326 287
0.0085545136 0.69700003 -0.05743745 7.7549006e-39 327 287
0.0097765867 0.69700003 -0.05743745 6.5581693e-39 328 287
0.01099866 0.69700003 -0.05743745 6.6507237e-39 329 287
0.012220734 0.69700003 -0.05743745 8.9541837e-39 330 287
0.013442807 0.69700003 -0.05743745 1.0706259e-38 331 287
0.01466488 0.69700003 -0.05743745 1.0430023e-38 332 287
0.015886955 0.69700003 -0.05743745 9.599902e-39 333 287
0.017109027 0.69700003 -0.05743745 9.0449304e-39 334 287
0.018331099 0.69700003 -0.05743745 6.187226e-39 335 287
0.019581227 0.69800001 -0.057519849 5.7201494e-39 336 287
0.020805053 0.69800001 -0.057519849 4.7985532e-39 337 287
0.02202888 0.69800001 -0.057519849 5.805864e-39 338 287
0.023252707 0.69800001 -0.057519849 9.5858848e-39 339 287
0.024476532 0.69800001 -0.057519849 1.1159657e-38 340 287
0.025773998 0.69999999 -0.05768466 1.3095763e-38 341 287
0.027001332 0.69999999 -0.05768466 1.3558171e-38 342 287
0.028228667 0.69999999 -0.05768466 1.3650368e-38 343 287
0.029455997 0.69999999 -0.05768466 1.4015904e-38 344 287
0.030727165 0.70099998 -0.057767071 1.4015904e-38 345 287
0.032047424 0.70300001 -0.057931885 1.4200288e-38 346 287
0.03332736 0.704 -0.058014292 1.373967e-38 347 287
0.034561705 0.704 -0.058014292 1.1623464e-38 348 287
0.035897743 0.70599997 -0.058179103 1.1346877e-38 349 287
0.037188202 0.70700002 -0.05826151 1.0982723e-38 350 287
0.038482159 0.708 -0.058343921 1.0706135e-38 351 287
0.039723519 0.708 -0.058343921 1.098128e-38 352 287
0.041080594 0.70999998 -0.058508728 1.3470203e-38 353 287
0.042325463 0.70999998 -0.058508728 1.6960731e-38 354 287
-0.01745268 0.71100003 -0.059837762 1.6225301e-38 306 288
-0.01620606 0.71100003 -0.059837762 1.5118594e-38 307 288
-0.014938398 0.70999998 -0.059753593 1.1718845e-38 308 288
-0.013693533 0.70999998 -0.059753593 1.1718845e-38 309 288
-0.0124136 0.708 -0.059585281 1.1446243e-38 310 288
-0.01117224 0.708 -0.059585281 1.1815026e-38 311 288
-0.0099168532 0.70700002 -0.059501119 1.1905111e-38 312 288
-0.008677247 0.70700002 -0.059501119 1.1444134e-38 313 288
-0.0074271196 0.70599997 -0.059416957 1.2085206e-38 314 288
-0.0061717331 0.704 -0.059248637 1.2269597e-38 315 288
-0.0049373866 0.704 -0.059248637 1.1896868e-38 316 288
-0.0036977797 0.70300001 -0.059164476 1.0145151e-38 317 288
-0.0024581731 0.70099998 -0.058996156 8.7730252e-39 318 288
-0.0012273333 0.69999999 -0.058911994 1.098536e-38 319 288
0 0.69999999 -0.058911994 1.3837308e-38 320 288
0.0012238267 0.69800001 -0.058743682 1.3929504e-38 321 288
0.0024476533 0.69800001 -0.058743682 1.4205718e-38 322 288
0.0036714801 0.69800001 -0.058743682 1.4298272e-38 323 288
0.0048953067 0.69800001 -0.058743682 1.4480144e-38 324 288
0.006119133 0.69800001 -0.058743682 1.3558188e-38 325 288
0.0073429602 0.69800001 -0.058743682 1.2726982e-38 326 288
0.0085667865 0.69800001 -0.058743682 1.1251852e-38 327 288
0.0097906133 0.69800001 -0.058743682 9.8714344e-39 328 288
0.01101444 0.69800001 -0.058743682 9.226065e-39 329 288
0.012238266 0.69800001 -0.058743682 1.2540439e-38 330 288
0.013462093 0.69800001 -0.058743682 1.4292516e-38 331 288
0.01468592 0.69800001 -0.058743682 1.3926247e-38 332 288
0.015909746 0.69800001 -0.058743682 1.3096488e-38 333 288
0.017133573 0.69800001 -0.058743682 1.2542588e-38 334 288
0.0183574 0.69800001 -0.058743682 1.1805022e-38 335 288
0.019581227 0.69800001 -0.058743682 1.0237703e-38 336 288
0.020805053 0.69800001 -0.058743682 8.2093992e-39 337 288
0.02202888 0.69800001 -0.058743682 7.3814504e-39 338 288
0.023319334 0.69999999 -0.058911994 8.4877965e-39 339 288
0.024546666 0.69999999 -0.058911994 9.4165771e-39 340 288
0.025773998 0.69999999 -0.058911994 1.1352685e-38 341 288
0.027001332 0.69999999 -0.058911994 1.3191183e-38 342 288
0.028228667 0.69999999 -0.058911994 1.3283379e-38 343 288
0.029498078 0.70099998 -0.058996156 1.3833663e-38 344 288
0.030814834 0.70300001 -0.059164476 1.3741468e-38 345 288
0.032093015 0.704 -0.059248637 1.3464858e-38 346 288
0.033422034 0.70599997 -0.059416957 1.2819489e-38 347 288
0.034659892 0.70599997 -0.059416957 1.0614315e-38 348 288
0.035948593 0.70700002 -0.059501119 1.0522119e-38 349 288
0.0372408 0.708 -0.059585281 1.0340579e-38 350 288
0.038590867 0.70999998 -0.059753593 1.0893394e-38 351 288
0.039891839 0.71100003 -0.059837762 1.3099278e-38 352 288
0.041138459 0.71100003 -0.059837762 1.494319e-38 353 288
-0.01745268 0.71100003 -0.061084379 1.6409708e-38 306 289
-0.01620606 0.71100003 -0.061084379 1.5672143e-38 307 289
-0.014959441 0.71100003 -0.061084379 1.3097813e-38 308 289
-0.013693533 0.70999998 -0.060998458 1.254464e-38 309 289
-0.012448666 0.70999998 -0.060998458 1.0894829e-38 310 289
-0.01117224 0.708 -0.060826641 1.1263253e-38 311 289
-0.0099168532 0.70700002 -0.060740728 1.1080351e-38 312 289
-0.008677247 0.70700002 -0.060740728 1.1172547e-38 313 289
-0.0074376399 0.70700002 -0.060740728 1.1812912e-38 314 289
-0.0061892662 0.70599997 -0.060654808 1.1997305e-38 315 289
-0.0049514128 0.70599997 -0.060654808 1.2454344e-38 316 289
-0.0037030398 0.704 -0.060482983 1.1439834e-38 317 289
-0.0024651866 0.70300001 -0.06039707 1.0336025e-38 318 289
-0.0012290865 0.70099998 -0.060225245 1.0704809e-38 319 289
0 0.70099998 -0.060225245 1.2088468e-38 320 289
0.0012273333 0.69999999 -0.060139328 1.3287011e-38 321 289
0.0024546667 0.69999999 -0.060139328 1.4298272e-38 322 289
0.0036819996 0.69999999 -0.060139328 1.4205718e-38 323 289
0.0049093333 0.69999999 -0.060139328 1.438902e-38 324 289
0.0061366665 0.69999999 -0.060139328 1.4204989e-38 325 289
0.0073639993 0.69999999 -0.060139328 1.411171e-38 326 289
0.0085667865 0.69800001 -0.059967503 1.3650734e-38 327 289
0.0097906133 0.69800001 -0.059967503 1.3005361e-38 328 289
0.01101444 0.69800001 -0.059967503 1.1991568e-38 329 289
0.012238266 0.69800001 -0.059967503 1.3370905e-38 330 289
0.013462093 0.69800001 -0.059967503 1.4569449e-38 331 289
0.01468592 0.69800001 -0.059967503 1.4479052e-38 332 289
0.015909746 0.69800001 -0.059967503 1.4386497e-38 333 289
0.017133573 0.69800001 -0.059967503 1.4293582e-38 334 289
0.0183574 0.69800001 -0.059967503 1.3740408e-38 335 289
0.019581227 0.69800001 -0.059967503 1.2450388e-38 336 289
0.020805053 0.69800001 -0.059967503 1.1805378e-38 337 289
0.022091998 0.69999999 -0.060139328 1.1529878e-38 338 289
0.023319334 0.69999999 -0.060139328 1.2175246e-38 339 289
0.024546666 0.69999999 -0.060139328 1.2362149e-38 340 289
0.025773998 0.69999999 -0.060139328 1.3007518e-38 341 289
0.027039904 0.70099998 -0.060225245 1.3466323e-38 342 289
0.028268991 0.70099998 -0.060225245 1.3281931e-38 343 289
0.029582238 0.70300001 -0.06039707 1.3189716e-38 344 289
0.030858666 0.704 -0.060482983 1.2728739e-38 345 289
0.032184184 0.70599997 -0.060654808 1.1350803e-38 346 289
0.033422034 0.70599997 -0.060654808 1.0889827e-38 347 289
0.034659892 0.70599997 -0.060654808 9.3282169e-39 348 289
0.035948593 0.70700002 -0.060740728 9.4204125e-39 349 289
0.037345998 0.70999998 -0.060998458 1.1351133e-38 350 289
0.038590867 0.70999998 -0.060998458 1.2826622e-38 351 289
0.039891839 0.71100003 -0.061084379 1.5306235e-38 352 289
0.041138459 0.71100003 -0.061084379 1.6320387e-38 353 289
-0.017722692 0.722 -0.063295327 1.6501558e-38 306 290
-0.016320027 0.71600002 -0.062769331 1.6132415e-38 307 290
-0.01506464 0.71600002 -0.062769331 1.4570092e-38 308 290
-0.01377068 0.71399999 -0.062593997 1.3740331e-38 309 290
-0.012448666 0.70999998 -0.062243331 1.1445837e-38 310 290
-0.011203799 0.70999998 -0.062243331 1.1261444e-38 311 290
-0.0099308798 0.708 -0.062068 1.0436365e-38 312 290
-0.008689519 0.708 -0.062068 1.0712953e-38 313 290
-0.0074376399 0.70700002 -0.061980337 1.1631711e-38 314 290
-0.0061892662 0.70599997 -0.061892662 1.1631711e-38 315 290
-0.0049514128 0.70599997 -0.061892662 1.190618e-38 316 290
-0.0037030398 0.704 -0.061717331 1.1998377e-38 317 290
-0.0024686933 0.704 -0.061717331 1.144308e-38 318 290
-0.0012325933 0.70300001 -0.061629668 1.1073938e-38 319 290
0 0.70300001 -0.061629668 1.153601e-38 320 290
0.0012290865 0.70099998 -0.06145433 1.30115e-38 321 290
0.0024581731 0.70099998 -0.06145433 1.4298997e-38 322 290
0.0036872597 0.70099998 -0.06145433 1.4298997e-38 323 290
0.0049093333 0.69999999 -0.061366666 1.4390466e-38 324 290
0.0061366665 0.69999999 -0.061366666 1.4574858e-38 325 290
0.0073639993 0.69999999 -0.061366666 1.5125866e-38 326 290
0.0085913334 0.69999999 -0.061366666 1.5125866e-38 327 290
0.0097906133 0.69800001 -0.061191335 1.4848921e-38 328 290
0.01101444 0.69800001 -0.061191335 1.4388301e-38 329 290
0.012238266 0.69800001 -0.061191335 1.429575e-38 330 290
0.013462093 0.69800001 -0.061191335 1.4203554e-38 331 290
0.01468592 0.69800001 -0.061191335 1.4202831e-38 332 290
0.015955333 0.69999999 -0.061366666 1.4295387e-38 333 290
0.017182667 0.69999999 -0.061366666 1.438758e-38 334 290
0.018409999 0.69999999 -0.061366666 1.4295384e-38 335 290
0.019637333 0.69999999 -0.061366666 1.3926241e-38 336 290
0.020864666 0.69999999 -0.061366666 1.3926241e-38 337 290
0.022091998 0.69999999 -0.061366666 1.4111342e-38 338 290
0.023319334 0.69999999 -0.061366666 1.4111342e-38 339 290
0.024546666 0.69999999 -0.061366666 1.3743986e-38 340 290
0.025810819 0.70099998 -0.06145433 1.3467039e-38 341 290
0.027039904 0.70099998 -0.06145433 1.2823082e-38 342 290
0.028349647 0.70300001 -0.061629668 1.2269908e-38 343 290
0.029624319 0.704 -0.061717331 1.1442628e-38 344 290
0.030946331 0.70599997 -0.061892662 1.0797258e-38 345 290
0.032184184 0.70599997 -0.061892662 9.3275036e-39 346 290
0.033469379 0.70700002 -0.061980337 9.5118949e-39 347 290
0.034708988 0.70700002 -0.061980337 9.0520055e-39 348 290
0.035948593 0.70700002 -0.061980337 9.7895706e-39 349 290
0.037345998 0.70999998 -0.062243331 1.3098209e-38 350 290
0.038590867 0.70999998 -0.062243331 1.4849567e-38 351 290
0.039835732 0.70999998 -0.062243331 1.6686671e-38 352 290
-0.0188308 0.71600002 -0.064024724 1.7330255e-38 305 291
