# .PCD v.7 - Point Cloud Data file format
FIELDS x y z rgb imX imY
SIZE 4 4 4 4 4 4
TYPE F F F F F F
COUNT 1 1 1 1 1 1
WIDTH 834
HEIGHT 1
VIEWPOINT 0 0 0 1 0 0 0
POINTS 834
DATA ascii
0.055650797 0.69 -0.022986198 1.6869277e-38 366 259
-0.0098186666 0.69999999 -0.024546666 1.98199e-38 312 260
-0.0085913334 0.69999999 -0.024546666 1.8436965e-38 313 260
-0.0073639993 0.69999999 -0.024546666 1.6689226e-38 314 260
-0.006119133 0.69800001 -0.024476532 1.5121901e-38 315 260
-0.0048882933 0.69700003 -0.024441468 1.3740428e-38 316 260
-0.0036609597 0.69599998 -0.0244064 1.3002861e-38 317 260
-0.0024336267 0.69400001 -0.024336265 1.2267827e-38 318 260
-0.00121506 0.69300002 -0.024301201 1.1990882e-38 319 260
0 0.69099998 -0.024231065 1.1437711e-38 320 260
0.0012097999 0.69 -0.024195999 1.1990884e-38 321 260
0.0024125867 0.68800002 -0.024125867 1.4017386e-38 322 260
0.0036136196 0.68699998 -0.024090799 1.3648964e-38 323 260
0.0048111463 0.68599999 -0.024055731 1.2913191e-38 324 260
0.0059964 0.68400002 -0.0239856 1.27288e-38 325 260
0.0071851597 0.68300003 -0.023950534 1.2359294e-38 326 260
0.0083826864 0.68300003 -0.023950534 1.2359294e-38 327 260
0.009566186 0.68199998 -0.023915464 1.2912468e-38 328 260
0.0107304 0.68000001 -0.023845334 1.3557837e-38 329 260
0.011905133 0.67900002 -0.023810266 1.4385077e-38 330 260
0.013076359 0.67799997 -0.023775198 1.4200686e-38 331 260
0.014265119 0.67799997 -0.023775198 1.2909591e-38 332 260
0.015453878 0.67799997 -0.023775198 1.1895799e-38 333 260
0.016642639 0.67799997 -0.023775198 1.1162916e-38 334 260
0.0178314 0.67799997 -0.023775198 1.1162916e-38 335 260
0.019020159 0.67799997 -0.023775198 1.1069997e-38 336 260
0.020208918 0.67799997 -0.023775198 1.0977802e-38 337 260
0.021397678 0.67799997 -0.023775198 1.0795914e-38 338 260
0.022586439 0.67799997 -0.023775198 1.1441284e-38 339 260
0.023775198 0.67799997 -0.023775198 1.0612947e-38 340 260
0.024890319 0.676 -0.023705067 7.5704911e-39 341 260
0.026075572 0.676 -0.023705067 8.1247383e-39 342 260
0.027260827 0.676 -0.023705067 8.2172927e-39 343 260
0.028446076 0.676 -0.023705067 8.6764505e-39 344 260
0.029718997 0.67799997 -0.023775198 8.6764505e-39 345 260
0.030907756 0.67799997 -0.023775198 8.5856716e-39 346 260
0.03209652 0.67799997 -0.023775198 8.5856716e-39 347 260
0.033334374 0.67900002 -0.023810266 8.1268066e-39 348 260
0.034524884 0.67900002 -0.023810266 7.942414e-39 349 260
0.035715401 0.67900002 -0.023810266 8.0374234e-39 350 260
0.036960267 0.68000001 -0.023845334 7.9452278e-39 351 260
0.038152531 0.68000001 -0.023845334 7.6704163e-39 352 260
0.039460517 0.68199998 -0.023915464 7.6704163e-39 353 260
0.040656291 0.68199998 -0.023915464 8.4965813e-39 354 260
0.041852064 0.68199998 -0.023915464 8.7735283e-39 355 260
0.043110959 0.68300003 -0.023950534 9.1405466e-39 356 260
0.044308487 0.68300003 -0.023950534 9.2327422e-39 357 260
0.045572639 0.68400002 -0.0239856 9.7820148e-39 358 260
0.046908677 0.68599999 -0.024055731 1.0703971e-38 359 260
0.048251733 0.68800002 -0.024125867 1.0055069e-38 360 260
0.049458027 0.68800002 -0.024125867 8.2111564e-39 361 260
0.050811596 0.69 -0.024195999 9.5916021e-39 362 260
0.052021399 0.69 -0.024195999 1.0882341e-38 363 260
0.053308345 0.69099998 -0.024231065 1.078798e-38 364 260
0.054519895 0.69099998 -0.024231065 1.3369458e-38 365 260
0.055731449 0.69099998 -0.024231065 1.6594488e-38 366 260
-0.0098186666 0.69999999 -0.025773998 1.9819544e-38 312 261
-0.0085913334 0.69999999 -0.025773998 1.8436609e-38 313 261
-0.0073639993 0.69999999 -0.025773998 1.6597753e-38 314 261
-0.006119133 0.69800001 -0.025700359 1.4661644e-38 315 261
-0.0048953067 0.69800001 -0.025700359 1.3189055e-38 316 261
-0.0036609597 0.69599998 -0.025626717 1.245149e-38 317 261
-0.0024406398 0.69599998 -0.025626717 1.2175629e-38 318 261
-0.0012168133 0.69400001 -0.025553079 1.1990879e-38 319 261
0 0.69099998 -0.025442619 1.1528827e-38 320 261
0.0012097999 0.69 -0.025405798 1.1990164e-38 321 261
0.0024125867 0.68800002 -0.02533216 1.3281623e-38 322 261
0.0036136196 0.68699998 -0.025295338 1.355821e-38 323 261
0.0048111463 0.68599999 -0.025258519 1.2916065e-38 324 261
0.0059964 0.68400002 -0.025184879 1.2639118e-38 325 261
0.0071956799 0.68400002 -0.025184879 1.2084502e-38 326 261
0.0083826864 0.68300003 -0.02514806 1.2176698e-38 327 261
0.009566186 0.68199998 -0.025111238 1.2358219e-38 328 261
0.010761959 0.68199998 -0.025111238 1.2358219e-38 329 261
0.011922667 0.68000001 -0.025037598 1.2084149e-38 330 261
0.013095647 0.67900002 -0.025000781 1.2360736e-38 331 261
0.01428616 0.67900002 -0.025000781 1.1805767e-38 332 261
0.015476674 0.67900002 -0.025000781 1.1344789e-38 333 261
0.016667187 0.67900002 -0.025000781 1.1345512e-38 334 261
0.017857701 0.67900002 -0.025000781 1.1437708e-38 335 261
0.019020159 0.67799997 -0.024963958 1.116255e-38 336 261
0.020208918 0.67799997 -0.024963958 1.0978158e-38 337 261
0.021397678 0.67799997 -0.024963958 1.1438762e-38 338 261
0.022586439 0.67799997 -0.024963958 1.2545108e-38 339 261
0.023775198 0.67799997 -0.024963958 1.1807171e-38 340 261
0.024963958 0.67799997 -0.024963958 8.4881286e-39 341 261
0.026152719 0.67799997 -0.024963958 8.1250914e-39 342 261
0.027341479 0.67799997 -0.024963958 8.4016769e-39 343 261
0.028530238 0.67799997 -0.024963958 8.6764477e-39 344 261
0.029718997 0.67799997 -0.024963958 8.7686434e-39 345 261
0.030907756 0.67799997 -0.024963958 8.7693468e-39 346 261
0.032143861 0.67900002 -0.025000781 8.6771512e-39 347 261
0.033334374 0.67900002 -0.025000781 7.6661998e-39 348 261
0.034524884 0.67900002 -0.025000781 7.7583954e-39 349 261
0.035767999 0.68000001 -0.025037598 8.3122278e-39 350 261
0.037068974 0.68199998 -0.025111238 8.1281967e-39 351 261
0.038264744 0.68199998 -0.025111238 8.1278184e-39 352 261
0.039460517 0.68199998 -0.025111238 8.1278184e-39 353 261
0.040656291 0.68199998 -0.025111238 8.3129341e-39 354 261
0.041913435 0.68300003 -0.02514806 8.681718e-39 355 261
0.043110959 0.68300003 -0.02514806 9.5071823e-39 356 261
0.04437336 0.68400002 -0.025184879 9.5071823e-39 357 261
0.045705888 0.68599999 -0.025258519 1.0242287e-38 358 261
0.046977058 0.68699998 -0.025295338 1.0887656e-38 359 261
0.048251733 0.68800002 -0.02533216 8.6689101e-39 360 261
0.049601797 0.69 -0.025405798 7.8391495e-39 361 261
0.050811596 0.69 -0.025405798 1.0327022e-38 362 261
0.052096792 0.69099998 -0.025442619 1.0511413e-38 363 261
0.053308345 0.69099998 -0.025442619 1.0785106e-38 364 261
0.054519895 0.69099998 -0.025442619 1.4196705e-38 365 261
0.055731449 0.69099998 -0.025442619 1.7330252e-38 366 261
-0.0098607466 0.70300001 -0.027117053 1.9819544e-38 312 262
-0.0086281532 0.70300001 -0.027117053 1.862064e-38 313 262
-0.0073745195 0.70099998 -0.027039904 1.6413005e-38 314 262
-0.0061366665 0.69999999 -0.027001332 1.4476897e-38 315 262
-0.0049093333 0.69999999 -0.027001332 1.2361092e-38 316 262
-0.00366622 0.69700003 -0.026885614 1.1715723e-38 317 262
-0.0024406398 0.69599998 -0.026847038 1.1990879e-38 318 262
-0.0012168133 0.69400001 -0.026769891 1.1898682e-38 319 262
0 0.69300002 -0.02673132 1.1806133e-38 320 262
0.0012115532 0.69099998 -0.026654173 1.1990884e-38 321 262
0.0024195998 0.69 -0.026615599 1.2175992e-38 322 262
0.0036188802 0.68800002 -0.026538454 1.2729165e-38 323 262
0.0048181596 0.68699998 -0.026499879 1.3099377e-38 324 262
0.0060139326 0.68599999 -0.026461305 1.3560354e-38 325 262
0.0071956799 0.68400002 -0.02638416 1.3836577e-38 326 262
0.0083949603 0.68400002 -0.02638416 1.4020608e-38 327 262
0.0095802136 0.68300003 -0.026345588 1.3740075e-38 328 262
0.010761959 0.68199998 -0.026307013 1.171177e-38 329 262
0.011957732 0.68199998 -0.026307013 9.50664e-39 330 262
0.013114933 0.68000001 -0.026229866 9.7832283e-39 331 262
0.014307199 0.68000001 -0.026229866 1.0517915e-38 332 262
0.015499466 0.68000001 -0.026229866 1.0794861e-38 333 262
0.016691733 0.68000001 -0.026229866 1.1346228e-38 334 262
0.017857701 0.67900002 -0.026191294 1.1438783e-38 335 262
0.019048214 0.67900002 -0.026191294 1.1163269e-38 336 262
0.020238725 0.67900002 -0.026191294 1.1255465e-38 337 262
0.021429239 0.67900002 -0.026191294 1.1716073e-38 338 262
0.022619752 0.67900002 -0.026191294 1.328304e-38 339 262
0.023810266 0.67900002 -0.026191294 1.245219e-38 340 262
0.024963958 0.67799997 -0.026152719 8.6721696e-39 341 262
0.026152719 0.67799997 -0.026152719 7.9403428e-39 342 262
0.027341479 0.67799997 -0.026152719 8.401321e-39 343 262
0.028530238 0.67799997 -0.026152719 8.6771666e-39 344 262
0.029762832 0.67900002 -0.026191294 8.7693622e-39 345 262
0.030953348 0.67900002 -0.026191294 8.7700713e-39 346 262
0.032143861 0.67900002 -0.026191294 8.6775169e-39 347 262
0.033383466 0.68000001 -0.026229866 8.3090679e-39 348 262
0.034575731 0.68000001 -0.026229866 8.1250368e-39 349 262
0.035873197 0.68199998 -0.026307013 8.7710802e-39 350 262
0.037068974 0.68199998 -0.026307013 8.4948535e-39 351 262
0.038320854 0.68300003 -0.026345588 7.7597869e-39 352 262
0.039518382 0.68300003 -0.026345588 7.7597869e-39 353 262
0.040715907 0.68300003 -0.026345588 8.4033585e-39 354 262
0.041913435 0.68300003 -0.026345588 8.9565309e-39 355 262
0.043110959 0.68300003 -0.026345588 9.2309668e-39 356 262
0.04437336 0.68400002 -0.02638416 9.0465755e-39 357 262
0.045772515 0.68699998 -0.026499879 1.0427049e-38 358 262
0.047045439 0.68800002 -0.026538454 1.1533397e-38 359 262
0.048391998 0.69 -0.026615599 9.1266639e-39 360 262
0.049601797 0.69 -0.026615599 9.0344683e-39 361 262
0.050885238 0.69099998 -0.026654173 1.0786558e-38 362 262
0.052096792 0.69099998 -0.026654173 1.0694362e-38 363 262
0.053308345 0.69099998 -0.026654173 1.0877658e-38 364 262
0.054519895 0.69099998 -0.026654173 1.4565483e-38 365 262
0.055731449 0.69099998 -0.026654173 1.7790866e-38 366 262
-0.0098607466 0.70300001 -0.028349647 1.9726995e-38 312 263
-0.0086281532 0.70300001 -0.028349647 1.8344059e-38 313 263
-0.0073745195 0.70099998 -0.028268991 1.6229693e-38 314 263
-0.0061366665 0.69999999 -0.028228667 1.438578e-38 315 263
-0.0049093333 0.69999999 -0.028228667 1.2452209e-38 316 263
-0.00366622 0.69700003 -0.028107686 1.1530612e-38 317 263
-0.0024406398 0.69599998 -0.028067358 1.1806489e-38 318 263
-0.0012203199 0.69599998 -0.028067358 1.1898685e-38 319 263
0 0.69400001 -0.027986705 1.217455e-38 320 263
0.00121506 0.69300002 -0.027946379 1.2358941e-38 321 263
0.0024231065 0.69099998 -0.027865725 1.2175629e-38 322 263
0.0036293997 0.69 -0.027825398 1.2636248e-38 323 263
0.0048181596 0.68699998 -0.027704418 1.2453292e-38 324 263
0.0060226996 0.68699998 -0.027704418 1.2637323e-38 325 263
0.0072167199 0.68599999 -0.027664091 1.337632e-38 326 263
0.0084195063 0.68599999 -0.027664091 1.383694e-38 327 263
0.0095942402 0.68400002 -0.027583439 1.3835143e-38 328 263
0.01077774 0.68300003 -0.027543113 1.1806839e-38 329 263
0.011975267 0.68300003 -0.027543113 1.079306e-38 330 263
0.013153506 0.68199998 -0.027502786 1.0977451e-38 331 263
0.01434928 0.68199998 -0.027502786 1.0794858e-38 332 263
0.015545053 0.68199998 -0.027502786 1.0887055e-38 333 263
0.016740825 0.68199998 -0.027502786 1.1162916e-38 334 263
0.017883999 0.68000001 -0.027422134 1.1255112e-38 335 263
0.019076265 0.68000001 -0.027422134 1.1163991e-38 336 263
0.020268533 0.68000001 -0.027422134 1.1256186e-38 337 263
0.0214608 0.68000001 -0.027422134 1.1808636e-38 338 263
0.022653066 0.68000001 -0.027422134 1.3099374e-38 339 263
0.023845334 0.68000001 -0.027422134 1.2269247e-38 340 263
0.025000781 0.67900002 -0.027381808 8.3048346e-39 341 263
0.026191294 0.67900002 -0.027381808 8.2158605e-39 342 263
0.027381808 0.67900002 -0.027381808 8.6768387e-39 343 263
0.028572321 0.67900002 -0.027381808 8.5860528e-39 344 263
0.029762832 0.67900002 -0.027381808 8.4938571e-39 345 263
0.030998932 0.68000001 -0.027422134 8.5864003e-39 346 263
0.032191198 0.68000001 -0.027422134 8.402009e-39 347 263
0.033383466 0.68000001 -0.027422134 7.8473863e-39 348 263
0.034677424 0.68199998 -0.027502786 8.3083645e-39 349 263
0.035873197 0.68199998 -0.027502786 1.0700025e-38 350 263
0.037123326 0.68300003 -0.027543113 9.96246e-39 351 263
0.038320854 0.68300003 -0.027543113 7.9420482e-39 352 263
0.039518382 0.68300003 -0.027543113 7.8498526e-39 353 263
0.040715907 0.68300003 -0.027543113 7.7601681e-39 354 263
0.041974798 0.68400002 -0.027583439 8.4055375e-39 355 263
0.043174081 0.68400002 -0.027583439 8.6803167e-39 356 263
0.044503104 0.68599999 -0.027664091 8.5881211e-39 357 263
0.045772515 0.68699998 -0.027704418 1.0980223e-38 358 263
0.047182199 0.69 -0.027825398 1.1994735e-38 359 263
0.04846213 0.69099998 -0.027865725 9.4021746e-39 360 263
0.049673684 0.69099998 -0.027865725 9.1259478e-39 361 263
0.050885238 0.69099998 -0.027865725 1.106135e-38 362 263
0.052096792 0.69099998 -0.027865725 1.1153545e-38 363 263
0.053308345 0.69099998 -0.027865725 1.1615224e-38 364 263
0.054519895 0.69099998 -0.027865725 1.5210852e-38 365 263
0.055731449 0.69099998 -0.027865725 1.7883061e-38 366 263
-0.0099028256 0.70599997 -0.029708479 1.9725915e-38 312 264
-0.0086649731 0.70599997 -0.029708479 1.8251145e-38 313 264
-0.0073955595 0.70300001 -0.029582238 1.5954548e-38 314 264
-0.0061454331 0.70099998 -0.029498078 1.4202831e-38 315 264
-0.0049093333 0.69999999 -0.029455997 1.2544407e-38 316 264
-0.00366622 0.69700003 -0.02932976 1.1530257e-38 317 264
-0.0024406398 0.69599998 -0.029287677 1.1622102e-38 318 264
-0.0012203199 0.69599998 -0.029287677 1.1898329e-38 319 264
0 0.69400001 -0.029203519 1.2083433e-38 320 264
0.00121506 0.69300002 -0.029161438 1.2083433e-38 321 264
0.0024231065 0.69099998 -0.029077278 1.2451855e-38 322 264
0.0036346598 0.69099998 -0.029077278 1.2636248e-38 323 264
0.0048251734 0.68800002 -0.028951041 1.2268543e-38 324 264
0.0060226996 0.68699998 -0.028908957 1.2268543e-38 325 264
0.0072272392 0.68699998 -0.028908957 1.3191573e-38 326 264
0.0084195063 0.68599999 -0.02886688 1.3744747e-38 327 264
0.0096222926 0.68599999 -0.02886688 1.3652195e-38 328 264
0.01077774 0.68300003 -0.028740639 1.1808641e-38 329 264
0.011975267 0.68300003 -0.028740639 1.1435906e-38 330 264
0.013172794 0.68300003 -0.028740639 1.1620657e-38 331 264
0.014370319 0.68300003 -0.028740639 1.1162197e-38 332 264
0.015545053 0.68199998 -0.02869856 1.1162197e-38 333 264
0.016740825 0.68199998 -0.02869856 1.1346228e-38 334 264
0.017936599 0.68199998 -0.02869856 1.1530978e-38 335 264
0.019132372 0.68199998 -0.02869856 1.1163638e-38 336 264
0.020328145 0.68199998 -0.02869856 1.1163638e-38 337 264
0.021523919 0.68199998 -0.02869856 1.1533849e-38 338 264
0.022653066 0.68000001 -0.028614398 1.2824588e-38 339 264
0.023845334 0.68000001 -0.028614398 1.2361092e-38 340 264
0.025037598 0.68000001 -0.028614398 8.5810726e-39 341 264
0.026229866 0.68000001 -0.028614398 9.1349484e-39 342 264
0.027422134 0.68000001 -0.028614398 9.4111765e-39 343 264
0.028614398 0.68000001 -0.028614398 8.6768135e-39 344 264
0.029806666 0.68000001 -0.028614398 8.3083897e-39 345 264
0.030998932 0.68000001 -0.028614398 8.7679161e-39 346 264
0.032191198 0.68000001 -0.028614398 8.583885e-39 347 264
0.03348165 0.68199998 -0.02869856 7.1101982e-39 348 264
0.034677424 0.68199998 -0.02869856 8.2165444e-39 349 264
0.035925802 0.68300003 -0.028740639 1.1712053e-38 350 264
0.037123326 0.68300003 -0.028740639 1.0881933e-38 351 264
0.038320854 0.68300003 -0.028740639 8.1250368e-39 352 264
0.03957624 0.68400002 -0.02878272 8.3090679e-39 353 264
0.040775519 0.68400002 -0.02878272 8.5863456e-39 354 264
0.041974798 0.68400002 -0.02878272 9.0473238e-39 355 264
0.043174081 0.68400002 -0.02878272 8.7710676e-39 356 264
0.044503104 0.68599999 -0.02886688 8.5863176e-39 357 264
0.045839146 0.68800002 -0.028951041 1.1071697e-38 358 264
0.047250576 0.69099998 -0.029077278 1.2362436e-38 359 264
0.04846213 0.69099998 -0.029077278 9.4940171e-39 360 264
0.049817458 0.69300002 -0.029161438 8.8486477e-39 361 264
0.051032521 0.69300002 -0.029161438 1.0784406e-38 362 264
0.05224758 0.69300002 -0.029161438 1.1521972e-38 363 264
0.053308345 0.69099998 -0.029077278 1.2627937e-38 364 264
0.054519895 0.69099998 -0.029077278 1.5577837e-38 365 264
0.055731449 0.69099998 -0.029077278 1.7882342e-38 366 264
-0.011203799 0.70999998 -0.031121666 1.9818814e-38 311 265
-0.0099028256 0.70599997 -0.030946331 1.9909946e-38 312 265
-0.0086649731 0.70599997 -0.030946331 1.7973837e-38 313 265
-0.0074060797 0.704 -0.030858666 1.5678321e-38 314 265
-0.0061629666 0.70300001 -0.030814834 1.4110636e-38 315 265
-0.0049163462 0.70099998 -0.030727165 1.2635884e-38 316 265
-0.0036819996 0.69999999 -0.030683333 1.1621373e-38 317 265
-0.0024476533 0.69800001 -0.030595668 1.1622458e-38 318 265
-0.0012220733 0.69700003 -0.030551834 1.1898685e-38 319 265
0 0.69599998 -0.030507999 1.1990879e-38 320 265
0.0012168133 0.69400001 -0.030420333 1.2083433e-38 321 265
0.00243012 0.69300002 -0.0303765 1.2358941e-38 322 265
0.0036346598 0.69099998 -0.030288832 1.3465289e-38 323 265
0.0048391996 0.69 -0.030244999 1.3836223e-38 324 265
0.0060314666 0.68800002 -0.030157333 1.3651831e-38 325 265
0.0072272392 0.68699998 -0.030113498 1.3560348e-38 326 265
0.0084317802 0.68699998 -0.030113498 1.37451e-38 327 265
0.0096363192 0.68699998 -0.030113498 1.3560348e-38 328 265
0.010825079 0.68599999 -0.030069664 1.1993383e-38 329 265
0.0119928 0.68400002 -0.029982001 1.0334231e-38 330 265
0.01319208 0.68400002 -0.029982001 1.0334231e-38 331 265
0.014370319 0.68300003 -0.029938167 1.11622e-38 332 265
0.015567848 0.68300003 -0.029938167 1.1438427e-38 333 265
0.016765373 0.68300003 -0.029938167 1.1530978e-38 334 265
0.017936599 0.68199998 -0.029894331 1.1530978e-38 335 265
0.019132372 0.68199998 -0.029894331 1.1070723e-38 336 265
0.020328145 0.68199998 -0.029894331 1.0701941e-38 337 265
0.021523919 0.68199998 -0.029894331 1.0889203e-38 338 265
0.022719691 0.68199998 -0.029894331 1.2456527e-38 339 265
0.023915464 0.68199998 -0.029894331 1.2176698e-38 340 265
0.025111238 0.68199998 -0.029894331 8.3966771e-39 341 265
0.026229866 0.68000001 -0.029806666 1.0054756e-38 342 265
0.027422134 0.68000001 -0.029806666 1.060793e-38 343 265
0.02869856 0.68199998 -0.029894331 1.0240925e-38 344 265
0.029894331 0.68199998 -0.029894331 1.0148729e-38 345 265
0.031090107 0.68199998 -0.029894331 1.0700085e-38 346 265
0.032285877 0.68199998 -0.029894331 1.0423138e-38 347 265
0.03348165 0.68199998 -0.029894331 9.2285509e-39 348 265
0.034728274 0.68300003 -0.029938167 1.0150148e-38 349 265
0.035925802 0.68300003 -0.029938167 1.2081218e-38 350 265
0.037177678 0.68400002 -0.029982001 1.16206e-38 351 265
0.038376961 0.68400002 -0.029982001 9.7809932e-39 352 265
0.039691959 0.68599999 -0.030069664 9.5969621e-39 353 265
0.040894743 0.68599999 -0.030069664 1.1344341e-38 354 265
0.042097531 0.68599999 -0.030069664 1.1805319e-38 355 265
0.043300316 0.68599999 -0.030069664 9.8731314e-39 356 265
0.044567976 0.68699998 -0.030113498 9.3199576e-39 357 265
0.045972396 0.69 -0.030244999 1.1347934e-38 358 265
0.047387339 0.69300002 -0.0303765 1.2454281e-38 359 265
0.048602402 0.69300002 -0.0303765 9.4011026e-39 360 265
0.049817458 0.69300002 -0.0303765 8.1103638e-39 361 265
0.051032521 0.69300002 -0.0303765 9.1266793e-39 362 265
0.05224758 0.69300002 -0.0303765 1.1524126e-38 363 265
0.053462639 0.69300002 -0.0303765 1.3642801e-38 364 265
0.054677699 0.69300002 -0.0303765 1.5394878e-38 365 265
0.055892758 0.69300002 -0.0303765 1.7882342e-38 366 265
-0.011203799 0.70999998 -0.032366529 1.9726974e-38 311 266
-0.0099589331 0.70999998 -0.032366529 1.9635151e-38 312 266
-0.008677247 0.70700002 -0.032229774 1.7514652e-38 313 266
-0.0074060797 0.704 -0.032093015 1.5584687e-38 314 266
-0.0061629666 0.70300001 -0.032047424 1.4386502e-38 315 266
-0.0049163462 0.70099998 -0.031956252 1.2636604e-38 316 266
-0.0036819996 0.69999999 -0.031910665 1.1438061e-38 317 266
-0.0024476533 0.69800001 -0.031819493 1.1898682e-38 318 266
-0.0012238267 0.69800001 -0.031819493 1.1990879e-38 319 266
0 0.69599998 -0.031728316 1.2266745e-38 320 266
0.0012168133 0.69400001 -0.031637147 1.2266745e-38 321 266
0.00243012 0.69300002 -0.031591557 1.1807569e-38 322 266
0.0036451798 0.69300002 -0.031591557 1.263697e-38 323 266
0.0048462129 0.69099998 -0.031500384 1.3377406e-38 324 266
0.0060489997 0.69 -0.031454802 1.3653993e-38 325 266
0.0072377604 0.68800002 -0.031363625 1.4020608e-38 326 266
0.0084440531 0.68800002 -0.031363625 1.374438e-38 327 266
0.0096363192 0.68699998 -0.031318039 1.3560348e-38 328 266
0.010840859 0.68699998 -0.031318039 1.2730948e-38 329 266
0.012045399 0.68699998 -0.031318039 1.2544401e-38 330 266
0.013230653 0.68599999 -0.031272452 1.2083783e-38 331 266
0.01439136 0.68400002 -0.03118128 1.1990514e-38 332 266
0.01559064 0.68400002 -0.03118128 1.1805764e-38 333 266
0.016765373 0.68300003 -0.031135695 1.1805767e-38 334 266
0.017962901 0.68300003 -0.031135695 1.1713572e-38 335 266
0.019160427 0.68300003 -0.031135695 1.1345512e-38 336 266
0.020357953 0.68300003 -0.031135695 1.0884534e-38 337 266
0.02155548 0.68300003 -0.031135695 1.0701587e-38 338 266
0.022753006 0.68300003 -0.031135695 1.1807935e-38 339 266
0.023915464 0.68199998 -0.031090107 1.2726998e-38 340 266
0.025111238 0.68199998 -0.031090107 1.1067836e-38 341 266
0.026307013 0.68199998 -0.031090107 1.0884514e-38 342 266
0.027502786 0.68199998 -0.031090107 1.1161101e-38 343 266
0.02869856 0.68199998 -0.031090107 1.1162173e-38 344 266
0.029894331 0.68199998 -0.031090107 1.1438762e-38 345 266
0.031090107 0.68199998 -0.031090107 1.2265982e-38 346 266
0.032285877 0.68199998 -0.031090107 1.2265982e-38 347 266
0.033530746 0.68300003 -0.031135695 1.1897555e-38 348 266
0.034728274 0.68300003 -0.031135695 1.2081588e-38 349 266
0.035978399 0.68400002 -0.03118128 1.3001384e-38 350 266
0.037286382 0.68599999 -0.031272452 1.2724439e-38 351 266
0.03848917 0.68599999 -0.031272452 1.1436218e-38 352 266
0.039691959 0.68599999 -0.031272452 1.1067794e-38 353 266
0.040894743 0.68599999 -0.031272452 1.2265966e-38 354 266
0.042158898 0.68699998 -0.031318039 1.2819139e-38 355 266
0.043363437 0.68699998 -0.031318039 1.1714555e-38 356 266
0.0447626 0.69 -0.031454802 1.0976632e-38 357 266
0.046039023 0.69099998 -0.031500384 1.2543252e-38 358 266
0.047387339 0.69300002 -0.031591557 1.3188622e-38 359 266
0.048602402 0.69300002 -0.031591557 8.9430139e-39 360 266
0.049817458 0.69300002 -0.031591557 7.1912984e-39 361 266
0.051032521 0.69300002 -0.031591557 9.7734949e-39 362 266
0.05224758 0.69300002 -0.031591557 1.1617407e-38 363 266
0.053462639 0.69300002 -0.031591557 1.346236e-38 364 266
0.054677699 0.69300002 -0.031591557 1.5121883e-38 365 266
-0.011203799 0.70999998 -0.033611398 1.9818816e-38 311 267
-0.0099589331 0.70999998 -0.033611398 1.935929e-38 312 267
-0.008689519 0.708 -0.033516716 1.7330986e-38 313 267
-0.0074481601 0.708 -0.033516716 1.5400655e-38 314 267
-0.0061892662 0.70599997 -0.033422034 1.4478699e-38 315 267
-0.0049163462 0.70099998 -0.03318534 1.2637323e-38 316 267
-0.0036872597 0.70099998 -0.03318534 1.1623171e-38 317 267
-0.0024546667 0.69999999 -0.033137999 1.1807566e-38 318 267
-0.0012238267 0.69800001 -0.033043321 1.2268543e-38 319 267
0 0.69700003 -0.03299598 1.2175626e-38 320 267
0.0012203199 0.69599998 -0.032948639 1.2175626e-38 321 267
0.0024336267 0.69400001 -0.032853961 1.19916e-38 322 267
0.0036451798 0.69300002 -0.03280662 1.1438427e-38 323 267
0.00486024 0.69300002 -0.03280662 9.7886163e-39 324 267
0.0060577663 0.69099998 -0.032711938 1.1540333e-38 325 267
0.0072587994 0.69 -0.032664597 1.3653627e-38 326 267
0.0084440531 0.68800002 -0.032569919 1.3469236e-38 327 267
0.0096503468 0.68800002 -0.032569919 1.3836577e-38 328 267
0.010856641 0.68800002 -0.032569919 1.3836577e-38 329 267
0.012045399 0.68699998 -0.032522578 1.457234e-38 330 267
0.013249939 0.68699998 -0.032522578 1.4295753e-38 331 267
0.01443344 0.68599999 -0.032475237 1.3095058e-38 332 267
0.015636226 0.68599999 -0.032475237 1.2081265e-38 333 267
0.016789921 0.68400002 -0.032380559 1.1623171e-38 334 267
0.017962901 0.68300003 -0.032333218 1.1530975e-38 335 267
0.019160427 0.68300003 -0.032333218 1.1713569e-38 336 267
0.020357953 0.68300003 -0.032333218 1.1621373e-38 337 267
0.02155548 0.68300003 -0.032333218 1.1991954e-38 338 267
0.022753006 0.68300003 -0.032333218 1.3006105e-38 339 267
0.023950534 0.68300003 -0.032333218 1.3925891e-38 340 267
0.02514806 0.68300003 -0.032333218 1.3925891e-38 341 267
0.026307013 0.68199998 -0.032285877 1.3926241e-38 342 267
0.027502786 0.68199998 -0.032285877 1.374221e-38 343 267
0.028740639 0.68300003 -0.032333218 1.4018074e-38 344 267
0.029938167 0.68300003 -0.032333218 1.411027e-38 345 267
0.031135695 0.68300003 -0.032333218 1.4386131e-38 346 267
0.032333218 0.68300003 -0.032333218 1.4293935e-38 347 267
0.033530746 0.68300003 -0.032333218 1.4015906e-38 348 267
0.03477912 0.68400002 -0.032380559 1.3278341e-38 349 267
0.035978399 0.68400002 -0.032380559 1.3553849e-38 350 267
0.037286382 0.68599999 -0.032475237 1.3461654e-38 351 267
0.03848917 0.68599999 -0.032475237 1.2172717e-38 352 267
0.039749816 0.68699998 -0.032522578 1.0881978e-38 353 267
0.040954359 0.68699998 -0.032522578 1.2082672e-38 354 267
0.042158898 0.68699998 -0.032522578 1.3280857e-38 355 267
0.043426562 0.68800002 -0.032569919 1.3279761e-38 356 267
0.044827472 0.69099998 -0.032711938 1.3003534e-38 357 267
0.04617228 0.69300002 -0.03280662 1.3830419e-38 358 267
0.047455717 0.69400001 -0.032853961 1.3737865e-38 359 267
0.048672531 0.69400001 -0.032853961 9.4086458e-39 360 267
0.049889345 0.69400001 -0.032853961 9.7770682e-39 361 267
0.051106159 0.69400001 -0.032853961 1.2357111e-38 362 267
0.05224758 0.69300002 -0.03280662 1.2910285e-38 363 267
0.053462639 0.69300002 -0.03280662 1.30943e-38 364 267
0.054677699 0.69300002 -0.03280662 1.5030409e-38 365 267
-0.01131426 0.71700001 -0.035199918 1.9726265e-38 311 268
-0.0099729598 0.71100003 -0.034905359 1.9450407e-38 312 268
-0.0087140659 0.70999998 -0.034856264 1.7514298e-38 313 268
-0.0074481601 0.708 -0.034758076 1.530846e-38 314 268
-0.0062067998 0.708 -0.034758076 1.4386502e-38 315 268
-0.0049514128 0.70599997 -0.034659892 1.291391e-38 316 268
-0.0036872597 0.70099998 -0.034414422 1.1991954e-38 317 268
-0.0024546667 0.69999999 -0.034365334 1.2266389e-38 318 268
-0.0012273333 0.69999999 -0.034365334 1.2266389e-38 319 268
0 0.69700003 -0.034218054 1.1990879e-38 320 268
0.0012203199 0.69599998 -0.034168959 1.1990879e-38 321 268
0.0024336267 0.69400001 -0.034070771 1.2543332e-38 322 268
0.0036504399 0.69400001 -0.034070771 1.2635528e-38 323 268
0.00486024 0.69300002 -0.034021679 1.1075389e-38 324 268
0.0060753003 0.69300002 -0.034021679 1.2366128e-38 325 268
0.0072693196 0.69099998 -0.033923492 1.3929488e-38 326 268
0.0084686 0.69 -0.0338744 1.3745097e-38 327 268
0.0096503468 0.68800002 -0.033776212 1.3560348e-38 328 268
0.010856641 0.68800002 -0.033776212 1.2914979e-38 329 268
0.012062933 0.68800002 -0.033776212 1.2914616e-38 330 268
0.013249939 0.68699998 -0.033727121 1.328304e-38 331 268
0.014454478 0.68699998 -0.033727121 1.2268172e-38 332 268
0.015659019 0.68699998 -0.033727121 1.1530607e-38 333 268
0.016839013 0.68599999 -0.033678025 1.1805764e-38 334 268
0.0179892 0.68400002 -0.033579841 1.1805764e-38 335 268
0.01918848 0.68400002 -0.033579841 1.1896884e-38 336 268
0.020387759 0.68400002 -0.033579841 1.1620657e-38 337 268
0.02155548 0.68300003 -0.033530746 1.1900481e-38 338 268
0.022753006 0.68300003 -0.033530746 1.3006829e-38 339 268
0.023950534 0.68300003 -0.033530746 1.4109566e-38 340 268
0.02514806 0.68300003 -0.033530746 1.3925175e-38 341 268
0.026345588 0.68300003 -0.033530746 1.3925523e-38 342 268
0.027543113 0.68300003 -0.033530746 1.3833327e-38 343 268
0.02878272 0.68400002 -0.033579841 1.4108469e-38 344 268
0.029982001 0.68400002 -0.033579841 1.4108469e-38 345 268
0.03118128 0.68400002 -0.033579841 1.4015909e-38 346 268
0.032380559 0.68400002 -0.033579841 1.3923355e-38 347 268
0.033678025 0.68599999 -0.033678025 1.3003196e-38 348 268
0.034880809 0.68599999 -0.033678025 1.2911001e-38 349 268
0.036083598 0.68599999 -0.033678025 1.3280506e-38 350 268
0.037340738 0.68699998 -0.033727121 1.3280506e-38 351 268
0.038545277 0.68699998 -0.033727121 1.2815937e-38 352 268
0.039749816 0.68699998 -0.033727121 1.1064221e-38 353 268
0.041013971 0.68800002 -0.033776212 1.2265634e-38 354 268
0.042220265 0.68800002 -0.033776212 1.3463819e-38 355 268
0.043552797 0.69 -0.0338744 1.3556002e-38 356 268
0.044827472 0.69099998 -0.033923492 1.3556002e-38 357 268
0.04617228 0.69300002 -0.034021679 1.3738951e-38 358 268
0.047455717 0.69400001 -0.034070771 1.3646754e-38 359 268
0.048812799 0.69599998 -0.034168959 1.1711013e-38 360 268
0.050033119 0.69599998 -0.034168959 1.134223e-38 361 268
0.051106159 0.69400001 -0.034070771 1.3093594e-38 362 268
0.052322973 0.69400001 -0.034070771 1.318579e-38 363 268
0.053539783 0.69400001 -0.034070771 1.2725521e-38 364 268
0.054756597 0.69400001 -0.034070771 1.5030053e-38 365 268
-0.01131426 0.71700001 -0.036457058 1.9726265e-38 311 269
-0.010043093 0.71600002 -0.036406212 1.9360009e-38 312 269
-0.0087263398 0.71100003 -0.036151983 1.7331705e-38 313 269
-0.0074797203 0.71100003 -0.036151983 1.5123713e-38 314 269
-0.0062243328 0.70999998 -0.036101133 1.4293951e-38 315 269
-0.0049654399 0.708 -0.03599944 1.3189776e-38 316 269
-0.0037135598 0.70599997 -0.035897743 1.2451853e-38 317 269
-0.0024651866 0.70300001 -0.035745207 1.2450418e-38 318 269
-0.0012273333 0.69999999 -0.035592664 1.2358222e-38 319 269
0 0.69800001 -0.035490975 1.1990161e-38 320 269
0.0012220733 0.69700003 -0.035440128 1.2174194e-38 321 269
0.0024406398 0.69599998 -0.035389278 1.2728803e-38 322 269
0.0036504399 0.69400001 -0.035287585 1.383479e-38 323 269
0.0048672534 0.69400001 -0.035287585 1.4112806e-38 324 269
0.0060753003 0.69300002 -0.035236739 1.3836579e-38 325 269
0.0072693196 0.69099998 -0.035135046 1.3561785e-38 326 269
0.0084686 0.69 -0.035084199 1.365398e-38 327 269
0.0096783992 0.69 -0.035084199 1.3284843e-38 328 269
0.010856641 0.68800002 -0.03498251 1.1440931e-38 329 269
0.012062933 0.68800002 -0.03498251 1.0517547e-38 330 269
0.013269227 0.68800002 -0.03498251 1.0978523e-38 331 269
0.014454478 0.68699998 -0.034931656 1.1439506e-38 332 269
0.015659019 0.68699998 -0.034931656 1.1255114e-38 333 269
0.01686356 0.68699998 -0.034931656 1.1806486e-38 334 269
0.018041799 0.68599999 -0.034880809 1.1530259e-38 335 269
0.019244585 0.68599999 -0.034880809 1.1803972e-38 336 269
0.020447372 0.68599999 -0.034880809 1.1342994e-38 337 269
0.02158704 0.68400002 -0.03477912 1.1163635e-38 338 269
0.022786319 0.68400002 -0.03477912 1.2362538e-38 339 269
0.0239856 0.68400002 -0.03477912 1.3372001e-38 340 269
0.025184879 0.68400002 -0.03477912 1.2726632e-38 341 269
0.026461305 0.68599999 -0.034880809 1.2358928e-38 342 269
0.027664091 0.68599999 -0.034880809 1.2358928e-38 343 269
0.02886688 0.68599999 -0.034880809 1.2450042e-38 344 269
0.030069664 0.68599999 -0.034880809 1.208126e-38 345 269
0.031318039 0.68699998 -0.034931656 1.1987621e-38 346 269
0.032522578 0.68699998 -0.034931656 1.1895066e-38 347 269
0.033727121 0.68699998 -0.034931656 1.1253653e-38 348 269
0.034931656 0.68699998 -0.034931656 1.217525e-38 349 269
0.036136195 0.68699998 -0.034931656 1.2729856e-38 350 269
0.037395094 0.68800002 -0.03498251 1.2637659e-38 351 269
0.038601387 0.68800002 -0.03498251 1.2724461e-38 352 269
0.039807681 0.68800002 -0.03498251 1.1249331e-38 353 269
0.041133199 0.69 -0.035084199 1.2174162e-38 354 269
0.042342998 0.69 -0.035084199 1.3188313e-38 355 269
0.043615919 0.69099998 -0.035135046 1.3647121e-38 356 269
0.044957221 0.69300002 -0.035236739 1.3370534e-38 357 269
0.046238903 0.69400001 -0.035287585 1.3554202e-38 358 269
0.047592476 0.69599998 -0.035389278 1.3738595e-38 359 269
0.048882935 0.69700003 -0.035440128 1.3276541e-38 360 269
0.050176892 0.69800001 -0.035490975 1.3184344e-38 361 269
0.051253434 0.69599998 -0.035389278 1.2725886e-38 362 269
0.052473757 0.69599998 -0.035389278 1.2357464e-38 363 269
0.053694077 0.69599998 -0.035389278 1.2816634e-38 364 269
-0.01005712 0.71700001 -0.037714198 1.9543321e-38 312 270
-0.0087263398 0.71100003 -0.037398599 1.7423182e-38 313 270
-0.0074691991 0.70999998 -0.037345998 1.4756727e-38 314 270
-0.0062243328 0.70999998 -0.037345998 1.365038e-38 315 270
-0.0049654399 0.708 -0.0372408 1.3097222e-38 316 270
-0.0037188199 0.70700002 -0.037188202 1.2544407e-38 317 270
-0.0024686933 0.704 -0.037030395 1.2634805e-38 318 270
-0.0012290865 0.70099998 -0.036872596 1.2358219e-38 319 270
0 0.69999999 -0.036819998 1.1990882e-38 320 270
0.0012238267 0.69800001 -0.0367148 1.2083077e-38 321 270
0.0024441467 0.69700003 -0.036662199 1.1810805e-38 322 270
0.0036609597 0.69599998 -0.036609598 1.2456174e-38 323 270
0.0048672534 0.69400001 -0.036504399 1.3653633e-38 324 270
0.0060840664 0.69400001 -0.036504399 1.3561079e-38 325 270
0.0072903596 0.69300002 -0.036451802 1.3744744e-38 326 270
0.008480873 0.69099998 -0.036346599 1.3744744e-38 327 270
0.0096783992 0.69 -0.036293998 1.3651828e-38 328 270
0.010888199 0.69 -0.036293998 1.2084502e-38 329 270
0.012062933 0.68800002 -0.0361888 1.0334953e-38 330 270
0.013269227 0.68800002 -0.0361888 1.0611899e-38 331 270
0.014475521 0.68800002 -0.0361888 1.134731e-38 332 270
0.015681813 0.68800002 -0.0361888 1.1439506e-38 333 270
0.01686356 0.68699998 -0.036136195 1.1806483e-38 334 270
0.018068098 0.68699998 -0.036136195 1.1806483e-38 335 270
0.019272638 0.68699998 -0.036136195 1.1712853e-38 336 270
0.020447372 0.68599999 -0.036083598 1.1620657e-38 337 270
0.021650158 0.68599999 -0.036083598 1.1990512e-38 338 270
0.022852944 0.68599999 -0.036083598 1.2819914e-38 339 270
0.024055731 0.68599999 -0.036083598 1.2820267e-38 340 270
0.025258519 0.68599999 -0.036083598 1.1806473e-38 341 270
0.026499879 0.68699998 -0.036136195 1.2080909e-38 342 270
0.027704418 0.68699998 -0.036136195 1.2173105e-38 343 270
0.028908957 0.68699998 -0.036136195 1.2081265e-38 344 270
0.030113498 0.68699998 -0.036136195 1.1896515e-38 345 270
0.031318039 0.68699998 -0.036136195 1.1621361e-38 346 270
0.032522578 0.68699998 -0.036136195 1.1529163e-38 347 270
0.033727121 0.68699998 -0.036136195 1.1528442e-38 348 270
0.03498251 0.68800002 -0.0361888 1.198942e-38 349 270
0.0361888 0.68800002 -0.0361888 1.245219e-38 350 270
0.037395094 0.68800002 -0.0361888 1.2544386e-38 351 270
0.038713597 0.69 -0.036293998 1.2173808e-38 352 270
0.039981257 0.69099998 -0.036346599 1.0790874e-38 353 270
0.041192811 0.69099998 -0.036346599 1.2450391e-38 354 270
0.042404365 0.69099998 -0.036346599 1.3280153e-38 355 270
0.043742158 0.69300002 -0.036451802 1.3554568e-38 356 270
0.045022093 0.69400001 -0.036504399 1.3370537e-38 357 270
0.046372157 0.69599998 -0.036609598 1.3461651e-38 358 270
0.047660861 0.69700003 -0.036662199 1.3461651e-38 359 270
0.048953064 0.69800001 -0.0367148 1.2356029e-38 360 270
0.050320663 0.69999999 -0.036819998 1.1895051e-38 361 270
0.051400717 0.69800001 -0.0367148 1.1435518e-38 362 270
0.052624546 0.69800001 -0.0367148 1.1896854e-38 363 270
0.053848371 0.69800001 -0.0367148 1.2725521e-38 364 270
-0.0099729598 0.71100003 -0.038645219 1.9267092e-38 312 271
-0.0087263398 0.71100003 -0.038645219 1.760721e-38 313 271
-0.0074691991 0.70999998 -0.038590867 1.4848201e-38 314 271
-0.0062243328 0.70999998 -0.038590867 1.3557462e-38 315 271
-0.0049654399 0.708 -0.038482159 1.2637323e-38 316 271
-0.0037188199 0.70700002 -0.038427804 1.2176345e-38 317 271
-0.0024686933 0.704 -0.038264744 1.2358938e-38 318 271
-0.0012290865 0.70099998 -0.038101684 1.2266743e-38 319 271
0 0.70099998 -0.038101684 1.2083433e-38 320 271
0.0012273333 0.69999999 -0.038047329 1.2175629e-38 321 271
0.0024476533 0.69800001 -0.037938625 1.1532422e-38 322 271
0.00366622 0.69700003 -0.037884273 1.1993398e-38 323 271
0.0048812795 0.69599998 -0.037829921 1.3376686e-38 324 271
0.0060840664 0.69400001 -0.037721213 1.3561079e-38 325 271
0.0072903596 0.69300002 -0.037666857 1.3469236e-38 326 271
0.008480873 0.69099998 -0.03755815 1.3561432e-38 327 271
0.0096924258 0.69099998 -0.03755815 1.383514e-38 328 271
0.010888199 0.69 -0.037503798 1.2268175e-38 329 271
0.012097999 0.69 -0.037503798 1.1253668e-38 330 271
0.013269227 0.68800002 -0.037395094 1.1438061e-38 331 271
0.014475521 0.68800002 -0.037395094 1.1439506e-38 332 271
0.015681813 0.68800002 -0.037395094 1.134731e-38 333 271
0.016888106 0.68800002 -0.037395094 1.1715367e-38 334 271
0.0180944 0.68800002 -0.037395094 1.1715367e-38 335 271
0.019300694 0.68800002 -0.037395094 1.1621729e-38 336 271
0.020477179 0.68699998 -0.037340738 1.1529175e-38 337 271
0.021681719 0.68699998 -0.037340738 1.2174177e-38 338 271
0.022886258 0.68699998 -0.037340738 1.3003939e-38 339 271
0.024090799 0.68699998 -0.037340738 1.2634799e-38 340 271
0.025295338 0.68699998 -0.037340738 1.1713203e-38 341 271
0.026499879 0.68699998 -0.037340738 1.1805764e-38 342 271
0.027704418 0.68699998 -0.037340738 1.1621373e-38 343 271
0.028908957 0.68699998 -0.037340738 1.1989433e-38 344 271
0.030113498 0.68699998 -0.037340738 1.1713206e-38 345 271
0.031318039 0.68699998 -0.037340738 1.1713556e-38 346 271
0.032569919 0.68800002 -0.037395094 1.1713556e-38 347 271
0.033776212 0.68800002 -0.037395094 1.1253647e-38 348 271
0.03498251 0.68800002 -0.037395094 1.1714625e-38 349 271
0.0361888 0.68800002 -0.037395094 1.2818449e-38 350 271
0.037503798 0.69 -0.037503798 1.2726254e-38 351 271
0.038769703 0.69099998 -0.03755815 1.1989414e-38 352 271
0.039981257 0.69099998 -0.03755815 1.1159654e-38 353 271
0.041312039 0.69300002 -0.037666857 1.2450391e-38 354 271
0.042527102 0.69300002 -0.037666857 1.3187958e-38 355 271
0.043805279 0.69400001 -0.037721213 1.337054e-38 356 271
0.045151837 0.69599998 -0.037829921 1.3093594e-38 357 271
0.046372157 0.69599998 -0.037829921 1.3001401e-38 358 271
0.047660861 0.69700003 -0.037884273 1.2908846e-38 359 271
0.049093332 0.69999999 -0.038047329 1.1342246e-38 360 271
0.050392549 0.70099998 -0.038101684 1.0789432e-38 361 271
0.051621638 0.70099998 -0.038101684 1.0882347e-38 362 271
0.052850723 0.70099998 -0.038101684 1.1804303e-38 363 271
0.054079808 0.70099998 -0.038101684 1.3093582e-38 364 271
-0.0099729598 0.71100003 -0.039891839 1.9267092e-38 312 272
-0.0087263398 0.71100003 -0.039891839 1.7699766e-38 313 272
-0.0074797203 0.71100003 -0.039891839 1.5032952e-38 314 272
-0.0062330998 0.71100003 -0.039891839 1.337307e-38 315 272
-0.0049794666 0.70999998 -0.039835732 1.1808285e-38 316 272
-0.00372408 0.708 -0.039723519 1.1623893e-38 317 272
-0.0024757064 0.70599997 -0.039611302 1.254189e-38 318 272
-0.0012343467 0.704 -0.039499093 1.2726282e-38 319 272
0 0.70300001 -0.039442986 1.2267822e-38 320 272
0.0012273333 0.69999999 -0.039274666 1.208343e-38 321 272
0.0024476533 0.69800001 -0.039162453 1.1623893e-38 322 272
0.00366622 0.69700003 -0.039106347 1.2269262e-38 323 272
0.0048882933 0.69700003 -0.039106347 1.2732034e-38 324 272
0.0061015999 0.69599998 -0.039050236 1.3193371e-38 325 272
0.0073008798 0.69400001 -0.038938027 1.3561432e-38 326 272
0.0085054198 0.69300002 -0.03888192 1.3653627e-38 327 272
0.0097204801 0.69300002 -0.03888192 1.383514e-38 328 272
0.01090398 0.69099998 -0.038769703 1.2268175e-38 329 272
0.012097999 0.69 -0.038713597 1.0794489e-38 330 272
0.0133078 0.69 -0.038713597 1.1070717e-38 331 272
0.014475521 0.68800002 -0.038601387 1.1347666e-38 332 272
0.015681813 0.68800002 -0.038601387 1.1439862e-38 333 272
0.016888106 0.68800002 -0.038601387 1.162389e-38 334 272
0.0180944 0.68800002 -0.038601387 1.1716087e-38 335 272
0.019300694 0.68800002 -0.038601387 1.1438061e-38 336 272
0.020506985 0.68800002 -0.038601387 1.1438061e-38 337 272
0.021713281 0.68800002 -0.038601387 1.21749e-38 338 272
0.022919573 0.68800002 -0.038601387 1.3004661e-38 339 272
0.024125867 0.68800002 -0.038601387 1.2819549e-38 340 272
0.02533216 0.68800002 -0.038601387 1.1436615e-38 341 272
0.026538454 0.68800002 -0.038601387 1.1436262e-38 342 272
0.027744746 0.68800002 -0.038601387 1.1344066e-38 343 272
0.028951041 0.68800002 -0.038601387 1.1067836e-38 344 272
0.030157333 0.68800002 -0.038601387 1.0883085e-38 345 272
0.031363625 0.68800002 -0.038601387 1.0423183e-38 346 272
0.032569919 0.68800002 -0.038601387 1.0515379e-38 347 272
0.033776212 0.68800002 -0.038601387 1.1068903e-38 348 272
0.035084199 0.69 -0.038713597 1.1806468e-38 349 272
0.036293998 0.69 -0.038713597 1.3002843e-38 350 272
0.03755815 0.69099998 -0.038769703 1.2818452e-38 351 272
0.038769703 0.69099998 -0.038769703 1.2356758e-38 352 272
0.04009698 0.69300002 -0.03888192 1.2079811e-38 353 272
0.041312039 0.69300002 -0.03888192 1.2358195e-38 354 272
0.042588469 0.69400001 -0.038938027 1.3003565e-38 355 272
0.043805279 0.69400001 -0.038938027 1.2818449e-38 356 272
0.045151837 0.69599998 -0.039050236 1.2450025e-38 357 272
0.046438783 0.69700003 -0.039106347 1.2724817e-38 358 272
0.047729239 0.69800001 -0.039162453 1.2540426e-38 359 272
0.049093332 0.69999999 -0.039274666 1.0974189e-38 360 272
0.050392549 0.70099998 -0.039330769 1.1066385e-38 361 272
0.051768921 0.70300001 -0.039442986 1.1618837e-38 362 272
0.053001512 0.70300001 -0.039442986 1.2540792e-38 363 272
0.054234106 0.70300001 -0.039442986 1.318578e-38 364 272
-0.0087263398 0.71100003 -0.041138459 1.7792675e-38 313 273
-0.0074797203 0.71100003 -0.041138459 1.5216264e-38 314 273
-0.0062330998 0.71100003 -0.041138459 1.2819178e-38 315 273
-0.0049794666 0.70999998 -0.041080594 1.1255833e-38 316 273
-0.0037188199 0.70700002 -0.040907022 1.0887052e-38 317 273
-0.0024792133 0.70700002 -0.040907022 1.1898682e-38 318 273
-0.0012343467 0.704 -0.040733438 1.2636248e-38 319 273
0 0.70300001 -0.040675577 1.2358938e-38 320 273
0.0012290865 0.70099998 -0.040559858 1.2358938e-38 321 273
0.0024546667 0.69999999 -0.040502001 1.2911749e-38 322 273
0.0036714801 0.69800001 -0.040386278 1.2911749e-38 323 273
0.0048882933 0.69700003 -0.040328421 1.1626042e-38 324 273
0.0061015999 0.69599998 -0.040270556 1.273239e-38 325 273
0.0073219193 0.69599998 -0.040270556 1.3744377e-38 326 273
0.0085176928 0.69400001 -0.040154841 1.4020605e-38 327 273
0.0097204801 0.69300002 -0.04009698 1.374438e-38 328 273
0.010935539 0.69300002 -0.04009698 1.2084499e-38 329 273
0.012115533 0.69099998 -0.039981257 1.0794489e-38 330 273
0.013327086 0.69099998 -0.039981257 1.1070717e-38 331 273
0.014517599 0.69 -0.0399234 1.1347666e-38 332 273
0.015727401 0.69 -0.0399234 1.1347666e-38 333 273
0.0169372 0.69 -0.0399234 1.1439862e-38 334 273
0.018146999 0.69 -0.0399234 1.1439862e-38 335 273
0.019356798 0.69 -0.0399234 1.1255112e-38 336 273
0.020506985 0.68800002 -0.039807681 1.107072e-38 337 273
0.021713281 0.68800002 -0.039807681 1.1624973e-38 338 273
0.022919573 0.68800002 -0.039807681 1.2362538e-38 339 273
0.024125867 0.68800002 -0.039807681 1.2267827e-38 340 273
0.02533216 0.68800002 -0.039807681 9.9625763e-39 341 273
0.026538454 0.68800002 -0.039807681 1.0422117e-38 342 273
0.027744746 0.68800002 -0.039807681 1.0422117e-38 343 273
0.028951041 0.68800002 -0.039807681 1.0238439e-38 344 273
0.030157333 0.68800002 -0.039807681 1.0054406e-38 345 273
0.031363625 0.68800002 -0.039807681 9.592349e-39 346 273
0.032664597 0.69 -0.0399234 9.5001534e-39 347 273
0.0338744 0.69 -0.0399234 1.106819e-38 348 273
0.035084199 0.69 -0.0399234 1.189759e-38 349 273
0.036346599 0.69099998 -0.039981257 1.3645341e-38 350 273
0.037666857 0.69300002 -0.04009698 1.3368754e-38 351 273
0.03888192 0.69300002 -0.04009698 1.1896866e-38 352 273
0.04009698 0.69300002 -0.04009698 1.1436246e-38 353 273
0.041371655 0.69400001 -0.040154841 1.1806468e-38 354 273
0.042588469 0.69400001 -0.040154841 1.2267446e-38 355 273
0.043931518 0.69599998 -0.040270556 1.2174883e-38 356 273
0.045216713 0.69700003 -0.040328421 1.1990133e-38 357 273
0.046505414 0.69800001 -0.040386278 1.1897938e-38 358 273
0.047865998 0.69999999 -0.040502001 1.1529514e-38 359 273
0.049303733 0.70300001 -0.040675577 1.0976344e-38 360 273
0.050536323 0.70300001 -0.040675577 1.0791593e-38 361 273
0.051842559 0.704 -0.040733438 1.1805026e-38 362 273
0.053076904 0.704 -0.040733438 1.2173808e-38 363 273
0.054465543 0.70599997 -0.040849157 1.2633688e-38 364 273
0.055703394 0.70599997 -0.040849157 1.5307361e-38 365 273
-0.0087263398 0.71100003 -0.042385083 1.816182e-38 313 274
-0.0074691991 0.70999998 -0.042325463 1.539849e-38 314 274
-0.0062243328 0.70999998 -0.042325463 1.2263479e-38 315 274
-0.0049654399 0.708 -0.042206239 9.8739778e-39 316 274
-0.0037188199 0.70700002 -0.042146627 9.5048365e-39 317 274
-0.0024792133 0.70700002 -0.042146627 1.107037e-38 318 274
-0.0012378532 0.70599997 -0.042087011 1.2084881e-38 319 274
0 0.704 -0.041967787 1.2541534e-38 320 274
0.0012325933 0.70300001 -0.041908171 1.3002511e-38 321 274
0.0024546667 0.69999999 -0.041729331 1.4569472e-38 322 274
0.0036819996 0.69999999 -0.041729331 1.373971e-38 323 274
0.0048953067 0.69800001 -0.041610107 1.1257616e-38 324 274
0.0061103669 0.69700003 -0.041550495 1.2271768e-38 325 274
0.00733244 0.69700003 -0.041550495 1.3284841e-38 326 274
0.0085176928 0.69400001 -0.041371655 1.3561788e-38 327 274
0.0097345067 0.69400001 -0.041371655 1.3652548e-38 328 274
0.01095132 0.69400001 -0.041371655 1.190119e-38 329 274
0.012150601 0.69300002 -0.041312039 1.0977802e-38 330 274
0.013327086 0.69099998 -0.041192811 1.1162553e-38 331 274
0.014538639 0.69099998 -0.041192811 1.1530259e-38 332 274
0.015727401 0.69 -0.041133199 1.1622455e-38 333 274
0.0169372 0.69 -0.041133199 1.1439862e-38 334 274
0.018146999 0.69 -0.041133199 1.1255112e-38 335 274
0.019356798 0.69 -0.041133199 1.0977088e-38 336 274
0.020566599 0.69 -0.041133199 1.0423554e-38 337 274
0.021776399 0.69 -0.041133199 9.8782966e-39 338 274
0.022986198 0.69 -0.041133199 1.1353068e-38 339 274
0.024195999 0.69 -0.041133199 1.162354e-38 340 274
0.025405798 0.69 -0.041133199 8.3044969e-39 341 274
0.026615599 0.69 -0.041133199 9.0384732e-39 342 274
0.027825398 0.69 -0.041133199 9.6838426e-39 343 274
0.029035198 0.69 -0.041133199 9.9589875e-39 344 274
0.030244999 0.69 -0.041133199 9.9589875e-39 345 274
0.031454802 0.69 -0.041133199 9.8660646e-39 346 274
0.032664597 0.69 -0.041133199 1.0142653e-38 347 274
0.033923492 0.69099998 -0.041192811 1.1343697e-38 348 274
0.035135046 0.69099998 -0.041192811 1.2173458e-38 349 274
0.036346599 0.69099998 -0.041192811 1.3645697e-38 350 274
0.037666857 0.69300002 -0.041312039 1.3092525e-38 351 274
0.03888192 0.69300002 -0.041312039 1.116217e-38 352 274
0.040154841 0.69400001 -0.041371655 1.0978139e-38 353 274
0.041371655 0.69400001 -0.041371655 1.189794e-38 354 274
0.042711195 0.69599998 -0.041490879 1.1990136e-38 355 274
0.043994639 0.69700003 -0.041550495 1.1714272e-38 356 274
0.045281585 0.69800001 -0.041610107 1.1529881e-38 357 274
0.046638668 0.69999999 -0.041729331 1.1529161e-38 358 274
0.047934376 0.70099998 -0.041788943 1.1436965e-38 359 274
0.049303733 0.70300001 -0.041908171 1.1344767e-38 360 274
0.050608214 0.704 -0.041967787 1.1344767e-38 361 274
0.051842559 0.704 -0.041967787 1.1529514e-38 362 274
0.053227689 0.70599997 -0.042087011 1.1437318e-38 363 274
0.054465543 0.70599997 -0.042087011 1.1986877e-38 364 274
0.055703394 0.70599997 -0.042087011 1.5398115e-38 365 274
-0.0087140659 0.70999998 -0.043570329 1.8345132e-38 313 275
-0.0074691991 0.70999998 -0.043570329 1.5949861e-38 314 275
-0.0062243328 0.70999998 -0.043570329 1.3091795e-38 315 275
-0.0049654399 0.708 -0.043447599 1.1712123e-38 316 275
-0.00372408 0.708 -0.043447599 1.1066753e-38 317 275
-0.0024792133 0.70700002 -0.043386232 1.0977098e-38 318 275
-0.0012378532 0.70599997 -0.043324865 1.116185e-38 319 275
0 0.704 -0.043202132 1.2080925e-38 320 275
0.0012325933 0.70300001 -0.043140765 1.2911046e-38 321 275
0.0024581731 0.70099998 -0.043018032 1.4848217e-38 322 275
0.0036819996 0.69999999 -0.042956665 1.4571989e-38 323 275
0.0049093333 0.69999999 -0.042956665 1.2914979e-38 324 275
0.006119133 0.69800001 -0.042833932 1.3191926e-38 325 275
0.0073429602 0.69800001 -0.042833932 1.3744377e-38 326 275
0.0085545136 0.69700003 -0.042772565 1.4020605e-38 327 275
0.0097765867 0.69700003 -0.042772565 1.374438e-38 328 275
0.010982879 0.69599998 -0.042711195 1.2176695e-38 329 275
0.012168133 0.69400001 -0.042588469 1.1070353e-38 330 275
