# .PCD v.7 - Point Cloud Data file format
FIELDS x y z rgb imX imY
SIZE 4 4 4 4 4 4
TYPE F F F F F F
COUNT 1 1 1 1 1 1
WIDTH 833
HEIGHT 1
VIEWPOINT 0 0 0 1 0 0 0
POINTS 833
DATA ascii
-0.016023712 0.70300001 -0.051768921 1.2908499e-38 307 282
-0.014749039 0.70099998 -0.051621638 1.2268909e-38 308 282
-0.013442807 0.69700003 -0.051327083 1.1347313e-38 309 282
-0.0122032 0.69599998 -0.051253434 9.3211894e-39 310 282
-0.01095132 0.69400001 -0.051106159 7.0166587e-39 311 282
-0.0097204801 0.69300002 -0.051032521 6.6460966e-39 312 282
-0.0085054198 0.69300002 -0.051032521 7.3836616e-39 313 282
-0.0072693196 0.69099998 -0.050885238 7.3008014e-39 314 282
-0.0060577663 0.69099998 -0.050885238 9.144714e-39 315 282
-0.0048391996 0.69 -0.050811596 1.1810452e-38 316 282
-0.0036188802 0.68800002 -0.050664321 1.2548018e-38 317 282
-0.0024090798 0.68699998 -0.050590675 1.3007908e-38 318 282
-0.0012027866 0.68599999 -0.050517038 1.3007908e-38 319 282
0 0.68599999 -0.050517038 1.319122e-38 320 282
0.00119928 0.68400002 -0.050369758 1.2269262e-38 321 282
0.0023950534 0.68300003 -0.05029612 1.1252962e-38 322 282
0.0035925799 0.68300003 -0.05029612 1.1898331e-38 323 282
0.0047901068 0.68300003 -0.05029612 1.2362904e-38 324 282
0.0059876335 0.68300003 -0.05029612 1.3008273e-38 325 282
0.00717464 0.68199998 -0.050222475 1.4111008e-38 326 282
0.0083704125 0.68199998 -0.050222475 1.42954e-38 327 282
0.009566186 0.68199998 -0.050222475 1.4477629e-38 328 282
0.010761959 0.68199998 -0.050222475 1.3924456e-38 329 282
0.011975267 0.68300003 -0.05029612 1.3464553e-38 330 282
0.013172794 0.68300003 -0.05029612 1.3279803e-38 331 282
0.014370319 0.68300003 -0.05029612 1.2358923e-38 332 282
0.015567848 0.68300003 -0.05029612 1.2635508e-38 333 282
0.016765373 0.68300003 -0.05029612 1.3189405e-38 334 282
0.017962901 0.68300003 -0.05029612 1.3558188e-38 335 282
0.019160427 0.68300003 -0.05029612 1.4108119e-38 336 282
0.020357953 0.68300003 -0.05029612 1.3554945e-38 337 282
0.02155548 0.68300003 -0.05029612 1.2820253e-38 338 282
0.022753006 0.68300003 -0.05029612 1.2912448e-38 339 282
0.023950534 0.68300003 -0.05029612 1.300425e-38 340 282
0.02514806 0.68300003 -0.05029612 1.2912055e-38 341 282
0.026345588 0.68300003 -0.05029612 1.2912755e-38 342 282
0.027583439 0.68400002 -0.050369758 1.2728362e-38 343 282
0.02878272 0.68400002 -0.050369758 1.0979193e-38 344 282
0.030069664 0.68599999 -0.050517038 1.0517855e-38 345 282
0.031318039 0.68699998 -0.050590675 1.1345467e-38 346 282
0.032522578 0.68699998 -0.050590675 1.1898641e-38 347 282
0.033776212 0.68800002 -0.050664321 1.1346552e-38 348 282
0.035135046 0.69099998 -0.050885238 1.1346552e-38 349 282
0.036451802 0.69300002 -0.051032521 1.0978142e-38 350 282
0.037721213 0.69400001 -0.051106159 1.0885946e-38 351 282
0.038938027 0.69400001 -0.051106159 1.0700846e-38 352 282
0.040270556 0.69599998 -0.051253434 1.0516454e-38 353 282
0.041550495 0.69700003 -0.051327083 1.0608997e-38 354 282
0.042772565 0.69700003 -0.051327083 1.199229e-38 355 282
0.043994639 0.69700003 -0.051327083 1.5118283e-38 356 282
-0.018567799 0.70599997 -0.053227689 1.7514296e-38 305 283
-0.017329946 0.70599997 -0.053227689 1.5305216e-38 306 283
-0.016046507 0.704 -0.053076904 1.4475815e-38 307 283
-0.014791119 0.70300001 -0.053001512 1.3097222e-38 308 283
-0.013462093 0.69800001 -0.052624546 1.1991235e-38 309 283
-0.0122032 0.69599998 -0.052473757 1.0241335e-38 310 283
-0.01095132 0.69400001 -0.052322973 7.9360843e-39 311 283
-0.0097345067 0.69400001 -0.052322973 7.0123526e-39 312 283
-0.0085054198 0.69300002 -0.05224758 6.82832e-39 313 283
-0.0072903596 0.69300002 -0.05224758 5.2742954e-39 314 283
-0.0060577663 0.69099998 -0.052096792 8.2241969e-39 315 283
-0.0048391996 0.69 -0.052021399 1.1073967e-38 316 283
-0.0036188802 0.68800002 -0.051870614 1.2180313e-38 317 283
-0.0024090798 0.68699998 -0.051795214 1.2730963e-38 318 283
-0.0012027866 0.68599999 -0.051719822 1.282316e-38 319 283
0 0.68599999 -0.051719822 1.2915712e-38 320 283
0.00119928 0.68400002 -0.051569041 1.19012e-38 321 283
0.0023985601 0.68400002 -0.051569041 1.0517196e-38 322 283
0.0035925799 0.68300003 -0.051493648 9.9640224e-39 323 283
0.0047901068 0.68300003 -0.051493648 9.3236907e-39 324 283
0.0059876335 0.68300003 -0.051493648 9.8768645e-39 325 283
0.0071851597 0.68300003 -0.051493648 1.0795575e-38 326 283
0.0083826864 0.68300003 -0.051493648 1.153314e-38 327 283
0.0095802136 0.68300003 -0.051493648 1.2266743e-38 328 283
0.01077774 0.68300003 -0.051493648 1.1529178e-38 329 283
0.011975267 0.68300003 -0.051493648 1.0885243e-38 330 283
0.013172794 0.68300003 -0.051493648 1.0700493e-38 331 283
0.014370319 0.68300003 -0.051493648 1.0148041e-38 332 283
0.015567848 0.68300003 -0.051493648 1.0885606e-38 333 283
0.016765373 0.68300003 -0.051493648 1.1623171e-38 334 283
0.017962901 0.68300003 -0.051493648 1.1715367e-38 335 283
0.01918848 0.68400002 -0.051569041 1.2357492e-38 336 283
0.020387759 0.68400002 -0.051569041 1.180432e-38 337 283
0.02158704 0.68400002 -0.051569041 1.0518253e-38 338 283
0.022786319 0.68400002 -0.051569041 1.1255818e-38 339 283
0.0239856 0.68400002 -0.051569041 1.2451448e-38 340 283
0.025258519 0.68599999 -0.051719822 1.2543645e-38 341 283
0.026461305 0.68599999 -0.051719822 1.2361385e-38 342 283
0.027664091 0.68599999 -0.051719822 1.2084439e-38 343 283
0.02886688 0.68599999 -0.051719822 1.0059754e-38 344 283
0.030113498 0.68699998 -0.051795214 1.0059754e-38 345 283
0.031363625 0.68800002 -0.051870614 1.1346552e-38 346 283
0.032569919 0.68800002 -0.051870614 1.162278e-38 347 283
0.0338744 0.69 -0.052021399 1.1253647e-38 348 283
0.035135046 0.69099998 -0.052096792 1.1253647e-38 349 283
0.036504399 0.69400001 -0.052322973 1.0885593e-38 350 283
0.037721213 0.69400001 -0.052322973 1.0793398e-38 351 283
0.039050236 0.69599998 -0.052473757 1.0883438e-38 352 283
0.040328421 0.69700003 -0.052549154 1.0330266e-38 353 283
0.041550495 0.69700003 -0.052549154 1.0791227e-38 354 283
0.042772565 0.69700003 -0.052549154 1.3095758e-38 355 283
0.043994639 0.69700003 -0.052549154 1.5671092e-38 356 283
-0.018567799 0.70599997 -0.054465543 1.7054394e-38 305 284
-0.017329946 0.70599997 -0.054465543 1.595058e-38 306 284
-0.016046507 0.704 -0.054311249 1.548996e-38 307 284
-0.014812159 0.704 -0.054311249 1.4293597e-38 308 284
-0.013519952 0.70099998 -0.054079808 1.3095414e-38 309 284
-0.012220734 0.69700003 -0.053771228 1.1344789e-38 310 284
-0.010982879 0.69599998 -0.053694077 1.0238441e-38 311 284
-0.0097345067 0.69400001 -0.053539783 8.765482e-39 312 284
-0.0085176928 0.69400001 -0.053539783 8.3963408e-39 313 284
-0.0072903596 0.69300002 -0.053462639 7.3890286e-39 314 284
-0.0060577663 0.69099998 -0.053308345 9.1407456e-39 315 284
-0.0048391996 0.69 -0.053231198 1.107289e-38 316 284
-0.0036188802 0.68800002 -0.053076908 1.2087043e-38 317 284
-0.0024125867 0.68800002 -0.053076908 1.1995563e-38 318 284
-0.0012045399 0.68699998 -0.052999757 1.2088118e-38 319 284
0 0.68599999 -0.05292261 1.2180313e-38 320 284
0.0012027866 0.68599999 -0.05292261 1.1442748e-38 321 284
0.0024055731 0.68599999 -0.05292261 1.0060893e-38 322 284
0.00359784 0.68400002 -0.05276832 9.322969e-39 323 284
0.0047901068 0.68300003 -0.052691177 9.6885145e-39 324 284
0.0059876335 0.68300003 -0.052691177 9.6885145e-39 325 284
0.0071851597 0.68300003 -0.052691177 9.597035e-39 326 284
0.0083826864 0.68300003 -0.052691177 1.03346e-38 327 284
0.0095802136 0.68300003 -0.052691177 1.0151288e-38 328 284
0.01077774 0.68300003 -0.052691177 9.2293314e-39 329 284
0.011975267 0.68300003 -0.052691177 1.0238088e-38 330 284
0.013172794 0.68300003 -0.052691177 1.0330284e-38 331 284
0.014370319 0.68300003 -0.052691177 1.0332085e-38 332 284
0.015567848 0.68300003 -0.052691177 1.0700508e-38 333 284
0.016789921 0.68400002 -0.05276832 9.9661762e-39 334 284
0.0179892 0.68400002 -0.05276832 1.0150209e-38 335 284
0.01918848 0.68400002 -0.05276832 1.0149486e-38 336 284
0.020387759 0.68400002 -0.05276832 9.2275294e-39 337 284
0.02158704 0.68400002 -0.05276832 8.2180508e-39 338 284
0.022786319 0.68400002 -0.05276832 1.0246355e-38 339 284
0.024055731 0.68599999 -0.05292261 1.2175599e-38 340 284
0.025258519 0.68599999 -0.05292261 1.2267796e-38 341 284
0.026461305 0.68599999 -0.05292261 1.1440171e-38 342 284
0.027704418 0.68699998 -0.052999757 1.0610409e-38 343 284
0.028908957 0.68699998 -0.052999757 9.8746532e-39 344 284
0.030157333 0.68800002 -0.053076908 1.0151599e-38 345 284
0.031454802 0.69 -0.053231198 1.153023e-38 346 284
0.032664597 0.69 -0.053231198 1.1622427e-38 347 284
0.0338744 0.69 -0.053231198 1.1254369e-38 348 284
0.035236739 0.69300002 -0.053462639 1.0885946e-38 349 284
0.036504399 0.69400001 -0.053539783 1.0517531e-38 350 284
0.037721213 0.69400001 -0.053539783 1.0517531e-38 351 284
0.039050236 0.69599998 -0.053694077 1.079124e-38 352 284
0.040328421 0.69700003 -0.053771228 1.0238425e-38 353 284
0.041550495 0.69700003 -0.053771228 1.171066e-38 354 284
0.042833932 0.69800001 -0.053848371 1.3738964e-38 355 284
0.04405776 0.69800001 -0.053848371 1.5395579e-38 356 284
-0.017329946 0.70599997 -0.055703394 1.5675425e-38 306 285
-0.016046507 0.704 -0.055545598 1.5767621e-38 307 285
-0.014812159 0.704 -0.055545598 1.5031872e-38 308 285
-0.013558527 0.70300001 -0.0554667 1.383333e-38 309 285
-0.012273333 0.69999999 -0.055229999 1.1621729e-38 310 285
-0.01099866 0.69700003 -0.054993302 1.0423186e-38 311 285
-0.0097625591 0.69599998 -0.054914396 1.0055492e-38 312 285
-0.0085176928 0.69400001 -0.054756597 9.779264e-39 313 285
-0.0073008798 0.69400001 -0.054756597 9.3211739e-39 314 285
-0.0060753003 0.69300002 -0.054677699 1.0150935e-38 315 285
-0.0048462129 0.69099998 -0.054519895 1.0613357e-38 316 285
-0.0036293997 0.69 -0.054440998 1.1350923e-38 317 285
-0.0024125867 0.68800002 -0.054283202 1.1351643e-38 318 285
-0.0012045399 0.68699998 -0.054204296 1.1536393e-38 319 285
0 0.68699998 -0.054204296 1.1444192e-38 320 285
0.0012045399 0.68699998 -0.054204296 1.1351995e-38 321 285
0.0024055731 0.68599999 -0.054125395 1.0890291e-38 322 285
0.00360836 0.68599999 -0.054125395 1.0429314e-38 323 285
0.0048111463 0.68599999 -0.054125395 1.1163638e-38 324 285
0.0059964 0.68400002 -0.053967599 1.0887052e-38 325 285
0.0071956799 0.68400002 -0.053967599 1.0795575e-38 326 285
0.0083949603 0.68400002 -0.053967599 1.0887771e-38 327 285
0.0095942402 0.68400002 -0.053967599 1.042787e-38 328 285
0.01079352 0.68400002 -0.053967599 9.5059155e-39 329 285
0.0119928 0.68400002 -0.053967599 9.6903054e-39 330 285
0.01319208 0.68400002 -0.053967599 1.0059089e-38 331 285
0.01439136 0.68400002 -0.053967599 1.0978523e-38 332 285
0.01559064 0.68400002 -0.053967599 1.0794492e-38 333 285
0.016789921 0.68400002 -0.053967599 1.0702297e-38 334 285
0.0179892 0.68400002 -0.053967599 1.0702297e-38 335 285
0.019244585 0.68599999 -0.054125395 1.0334231e-38 336 285
0.020447372 0.68599999 -0.054125395 9.5966664e-39 337 285
0.021650158 0.68599999 -0.054125395 9.0449332e-39 338 285
0.022852944 0.68599999 -0.054125395 1.0520063e-38 339 285
0.024090799 0.68699998 -0.054204296 1.2358928e-38 340 285
0.025295338 0.68699998 -0.054204296 1.2451124e-38 341 285
0.026499879 0.68699998 -0.054204296 1.1161807e-38 342 285
0.027704418 0.68699998 -0.054204296 8.3955799e-39 343 285
0.028908957 0.68699998 -0.054204296 7.4793843e-39 344 285
0.030157333 0.68800002 -0.054283202 9.1392658e-39 345 285
0.031500384 0.69099998 -0.054519895 1.2541871e-38 346 285
0.032711938 0.69099998 -0.054519895 1.2541871e-38 347 285
0.033923492 0.69099998 -0.054519895 1.1989414e-38 348 285
0.035236739 0.69300002 -0.054677699 1.1897219e-38 349 285
0.036504399 0.69400001 -0.054756597 1.1805022e-38 350 285
0.037829921 0.69599998 -0.054914396 1.1712826e-38 351 285
0.039106347 0.69700003 -0.054993302 1.1435518e-38 352 285
0.040328421 0.69700003 -0.054993302 1.1435518e-38 353 285
0.041610107 0.69800001 -0.0550722 1.2724439e-38 354 285
0.042833932 0.69800001 -0.0550722 1.3738951e-38 355 285
0.04405776 0.69800001 -0.0550722 1.5212257e-38 356 285
-0.017329946 0.70599997 -0.056941248 1.4202087e-38 306 286
-0.016092092 0.70599997 -0.056941248 1.5216598e-38 307 286
-0.014812159 0.704 -0.056779943 1.5860912e-38 308 286
-0.013558527 0.70300001 -0.056699295 1.4938954e-38 309 286
-0.012290866 0.70099998 -0.056537982 1.1991232e-38 310 286
-0.01101444 0.69800001 -0.056296028 8.0268184e-39 311 286
-0.0097625591 0.69599998 -0.056134716 7.1120746e-39 312 286
-0.0085422397 0.69599998 -0.056134716 9.0481828e-39 313 286
-0.0073008798 0.69400001 -0.055973411 9.9669119e-39 314 286
-0.0060753003 0.69300002 -0.055892758 1.042825e-38 315 286
-0.00486024 0.69300002 -0.055892758 9.9712307e-39 316 286
-0.0036346598 0.69099998 -0.055731449 1.0340015e-38 317 286
-0.0024195998 0.69 -0.055650797 1.0524046e-38 318 286
-0.0012062934 0.68800002 -0.055489492 1.06166e-38 319 286
0 0.68800002 -0.055489492 1.1534591e-38 320 286
0.0012045399 0.68699998 -0.055408835 1.1442395e-38 321 286
0.0024090798 0.68699998 -0.055408835 1.11676e-38 322 286
0.0036136196 0.68699998 -0.055408835 1.1259796e-38 323 286
0.0048181596 0.68699998 -0.055408835 1.1167956e-38 324 286
0.0060139326 0.68599999 -0.055328183 1.1075402e-38 325 286
0.0072167199 0.68599999 -0.055328183 1.1167954e-38 326 286
0.0084195063 0.68599999 -0.055328183 1.1075758e-38 327 286
0.0096222926 0.68599999 -0.055328183 1.1258351e-38 328 286
0.010825079 0.68599999 -0.055328183 1.0982123e-38 329 286
0.012027865 0.68599999 -0.055328183 1.153314e-38 330 286
0.013230653 0.68599999 -0.055328183 1.153314e-38 331 286
0.01443344 0.68599999 -0.055328183 1.0890641e-38 332 286
0.015636226 0.68599999 -0.055328183 1.070661e-38 333 286
0.016839013 0.68599999 -0.055328183 1.0889559e-38 334 286
0.018041799 0.68599999 -0.055328183 1.107359e-38 335 286
0.019272638 0.68699998 -0.055408835 1.1256184e-38 336 286
0.020477179 0.68699998 -0.055408835 1.0887761e-38 337 286
0.021681719 0.68699998 -0.055408835 1.0792694e-38 338 286
0.022886258 0.68699998 -0.055408835 9.4094011e-39 339 286
0.024090799 0.68699998 -0.055408835 7.9367906e-39 340 286
0.025295338 0.68699998 -0.055408835 7.5680094e-39 341 286
0.026499879 0.68699998 -0.055408835 6.2747553e-39 342 286
0.027704418 0.68699998 -0.055408835 3.6932776e-39 343 286
0.028908957 0.68699998 -0.055408835 2.5051615e-39 344 286
0.030157333 0.68800002 -0.055489492 6.4695736e-39 345 286
0.031500384 0.69099998 -0.055731449 1.3369833e-38 346 286
0.032711938 0.69099998 -0.055731449 1.3923007e-38 347 286
0.034021679 0.69300002 -0.055892758 1.3737164e-38 348 286
0.035287585 0.69400001 -0.055973411 1.3737164e-38 349 286
0.036609598 0.69599998 -0.056134716 1.3737161e-38 350 286
0.037829921 0.69599998 -0.056134716 1.3737161e-38 351 286
0.039106347 0.69700003 -0.056215372 1.3553486e-38 352 286
0.040386278 0.69800001 -0.056296028 1.392191e-38 353 286
0.041610107 0.69800001 -0.056296028 1.4288518e-38 354 286
0.042956665 0.69999999 -0.056457333 1.4012291e-38 355 286
0.044183996 0.69999999 -0.056457333 1.4936379e-38 356 286
-0.017329946 0.70599997 -0.058179103 1.3189e-38 306 287
-0.016092092 0.70599997 -0.058179103 1.4387185e-38 307 287
-0.014812159 0.704 -0.058014292 1.5494999e-38 308 287
-0.013558527 0.70300001 -0.057931885 1.5310608e-38 309 287
-0.012325933 0.70300001 -0.057931885 1.4292866e-38 310 287
-0.011045999 0.69999999 -0.05768466 1.125005e-38 311 287
-0.0097906133 0.69800001 -0.057519849 7.4776117e-39 312 287
-0.0085545136 0.69700003 -0.05743745 8.6761549e-39 313 287
-0.0073219193 0.69599998 -0.057355035 9.0496415e-39 314 287
-0.0060840664 0.69400001 -0.057190225 1.0155989e-38 315 287
-0.00486024 0.69300002 -0.057107817 9.8804798e-39 316 287
-0.0036346598 0.69099998 -0.056942999 9.8804798e-39 317 287
-0.0024195998 0.69 -0.0568606 9.7890086e-39 318 287
-0.0012062934 0.68800002 -0.056695789 9.7890086e-39 319 287
0 0.68800002 -0.056695789 1.0524046e-38 320 287
0.0012062934 0.68800002 -0.056695789 1.0524046e-38 321 287
0.0024090798 0.68699998 -0.056613375 1.0709146e-38 322 287
0.0036136196 0.68699998 -0.056613375 1.0801342e-38 323 287
0.0048181596 0.68699998 -0.056613375 1.11676e-38 324 287
0.0060226996 0.68699998 -0.056613375 1.1075405e-38 325 287
0.0072272392 0.68699998 -0.056613375 1.1075402e-38 326 287
0.0084317802 0.68699998 -0.056613375 1.1075402e-38 327 287
0.0096363192 0.68699998 -0.056613375 1.1442748e-38 328 287
0.010840859 0.68699998 -0.056613375 1.1442748e-38 329 287
0.012045399 0.68699998 -0.056613375 1.1442745e-38 330 287
0.013249939 0.68699998 -0.056613375 1.1258354e-38 331 287
0.014454478 0.68699998 -0.056613375 1.0982474e-38 332 287
0.015659019 0.68699998 -0.056613375 1.0890278e-38 333 287
0.01686356 0.68699998 -0.056613375 1.0798082e-38 334 287
0.018068098 0.68699998 -0.056613375 1.0798082e-38 335 287
0.019272638 0.68699998 -0.056613375 1.1256184e-38 336 287
0.020477179 0.68699998 -0.056613375 1.1163988e-38 337 287
0.021681719 0.68699998 -0.056613375 9.4162394e-39 338 287
0.022886258 0.68699998 -0.056613375 6.6503705e-39 339 287
0.024125867 0.68800002 -0.056695789 5.3546095e-39 340 287
0.02533216 0.68800002 -0.056695789 4.8936327e-39 341 287
0.026538454 0.68800002 -0.056695789 5.1662721e-39 342 287
0.027744746 0.68800002 -0.056695789 4.7978498e-39 343 287
0.028951041 0.68800002 -0.056695789 4.8939886e-39 344 287
0.030244999 0.69 -0.0568606 6.7378998e-39 345 287
0.031500384 0.69099998 -0.056942999 1.2172732e-38 346 287
0.03280662 0.69300002 -0.057107817 1.3740058e-38 347 287
0.034070771 0.69400001 -0.057190225 1.3554924e-38 348 287
0.035389278 0.69599998 -0.057355035 1.3370534e-38 349 287
0.036662199 0.69700003 -0.05743745 1.3737868e-38 350 287
0.037884273 0.69700003 -0.05743745 1.3830063e-38 351 287
0.039162453 0.69800001 -0.057519849 1.4014809e-38 352 287
0.040386278 0.69800001 -0.057519849 1.4014809e-38 353 287
0.041729331 0.69999999 -0.05768466 1.3554537e-38 354 287
0.043018032 0.70099998 -0.057767071 1.3093199e-38 355 287
0.044247117 0.70099998 -0.057767071 1.484418e-38 356 287
-0.016092092 0.70599997 -0.059416957 1.30046e-38 307 288
-0.014812159 0.704 -0.059248637 1.4206406e-38 308 288
-0.013558527 0.70300001 -0.059164476 1.5128721e-38 309 288
-0.012325933 0.70300001 -0.059164476 1.6411568e-38 310 288
-0.011061779 0.70099998 -0.058996156 1.4291067e-38 311 288
-0.0097906133 0.69800001 -0.058743682 1.10664e-38 312 288
-0.0085667865 0.69800001 -0.058743682 7.4711307e-39 313 288
-0.00733244 0.69700003 -0.05865952 6.931293e-39 314 288
-0.0061015999 0.69599998 -0.058575355 9.9737488e-39 315 288
-0.0048672534 0.69400001 -0.058407038 9.789359e-39 316 288
-0.0036451798 0.69300002 -0.058322877 9.6049663e-39 317 288
-0.0024231065 0.69099998 -0.058154557 1.0063426e-38 318 288
-0.0012115532 0.69099998 -0.058154557 1.0247819e-38 319 288
0 0.69 -0.058070395 1.0706276e-38 320 288
0.0012097999 0.69 -0.058070395 1.0614079e-38 321 288
0.0024125867 0.68800002 -0.057902083 1.0522608e-38 322 288
0.0036188802 0.68800002 -0.057902083 1.0522608e-38 323 288
0.0048251734 0.68800002 -0.057902083 1.0522964e-38 324 288
0.0060314666 0.68800002 -0.057902083 1.0522964e-38 325 288
0.0072377604 0.68800002 -0.057902083 1.0522961e-38 326 288
0.0084440531 0.68800002 -0.057902083 1.0799547e-38 327 288
0.0096503468 0.68800002 -0.057902083 1.0706629e-38 328 288
0.010840859 0.68699998 -0.057817914 1.0798825e-38 329 288
0.012045399 0.68699998 -0.057817914 1.1073967e-38 330 288
0.013249939 0.68699998 -0.057817914 1.098177e-38 331 288
0.014454478 0.68699998 -0.057817914 1.0796657e-38 332 288
0.015659019 0.68699998 -0.057817914 1.0796657e-38 333 288
0.01686356 0.68699998 -0.057817914 1.0612985e-38 334 288
0.0180944 0.68800002 -0.057902083 1.0428954e-38 335 288
0.019300694 0.68800002 -0.057902083 1.0427514e-38 336 288
0.020506985 0.68800002 -0.057902083 9.1367757e-39 337 288
0.021713281 0.68800002 -0.057902083 8.1190308e-39 338 288
0.022919573 0.68800002 -0.057902083 6.275477e-39 339 288
0.024125867 0.68800002 -0.057902083 5.8116289e-39 340 288
0.02533216 0.68800002 -0.057902083 5.2584552e-39 341 288
0.026538454 0.68800002 -0.057902083 5.9027484e-39 342 288
0.027825398 0.69 -0.058070395 6.6403134e-39 343 288
0.029035198 0.69 -0.058070395 6.6453455e-39 344 288
0.030288832 0.69099998 -0.058154557 7.1066838e-39 345 288
0.031591557 0.69300002 -0.058322877 1.0885243e-38 346 288
0.032853961 0.69400001 -0.058407038 1.3097578e-38 347 288
0.034070771 0.69400001 -0.058407038 1.3555651e-38 348 288
0.035389278 0.69599998 -0.058575355 1.3463456e-38 349 288
0.036662199 0.69700003 -0.05865952 1.3554921e-38 350 288
0.037884273 0.69700003 -0.05865952 1.3647118e-38 351 288
0.039162453 0.69800001 -0.058743682 1.3646748e-38 352 288
0.040386278 0.69800001 -0.058743682 1.3554553e-38 353 288
0.041729331 0.69999999 -0.058911994 1.2544329e-38 354 288
0.043018032 0.70099998 -0.058996156 1.1898959e-38 355 288
0.04437336 0.70300001 -0.059164476 1.4845249e-38 356 288
-0.016092092 0.70599997 -0.060654808 1.291059e-38 307 289
-0.014812159 0.704 -0.060482983 1.2181678e-38 308 289
-0.013577812 0.704 -0.060482983 1.365681e-38 309 289
-0.012325933 0.70300001 -0.06039707 1.5768715e-38 310 289
-0.011061779 0.70099998 -0.060225245 1.503115e-38 311 289
-0.0098186666 0.69999999 -0.060139328 1.3185808e-38 312 289
-0.0085667865 0.69800001 -0.059967503 9.6827342e-39 313 289
-0.0073429602 0.69800001 -0.059967503 6.7475996e-39 314 289
-0.0061103669 0.69700003 -0.05988159 1.0159197e-38 315 289
-0.0048812795 0.69599998 -0.059795678 1.2546222e-38 316 289
-0.0036504399 0.69400001 -0.059623852 1.1993048e-38 317 289
-0.00243012 0.69300002 -0.05953794 9.6006377e-39 318 289
-0.00121506 0.69300002 -0.05953794 9.5080833e-39 319 289
0 0.69099998 -0.059366114 9.7817976e-39 320 289
0.0012115532 0.69099998 -0.059366114 1.0427167e-38 321 289
0.0024195998 0.69 -0.059280202 9.6960857e-39 322 289
0.0036293997 0.69 -0.059280202 9.6960857e-39 323 289
0.0048391996 0.69 -0.059280202 9.9708748e-39 324 289
0.0060489997 0.69 -0.059280202 1.006307e-38 325 289
0.0072587994 0.69 -0.059280202 9.7886345e-39 326 289
0.0084440531 0.68800002 -0.059108373 1.0065223e-38 327 289
0.0096503468 0.68800002 -0.059108373 1.0614432e-38 328 289
0.010856641 0.68800002 -0.059108373 1.0521878e-38 329 289
0.012045399 0.68699998 -0.059022456 1.0333528e-38 330 289
0.013249939 0.68699998 -0.059022456 9.6881586e-39 331 289
0.014475521 0.68800002 -0.059108373 8.9577836e-39 332 289
0.015681813 0.68800002 -0.059108373 9.6031516e-39 333 289
0.016888106 0.68800002 -0.059108373 9.9683384e-39 334 289
0.0180944 0.68800002 -0.059108373 9.5995559e-39 335 289
0.019300694 0.68800002 -0.059108373 8.7708714e-39 336 289
0.020506985 0.68800002 -0.059108373 7.8489137e-39 337 289
0.021713281 0.68800002 -0.059108373 7.3825448e-39 338 289
0.022919573 0.68800002 -0.059108373 6.5527841e-39 339 289
0.024125867 0.68800002 -0.059108373 6.6431833e-39 340 289
0.025405798 0.69 -0.059280202 6.1822065e-39 341 289
0.026615599 0.69 -0.059280202 5.5400741e-39 342 289
0.027825398 0.69 -0.059280202 6.1854435e-39 343 289
0.029077278 0.69099998 -0.059366114 6.4613144e-39 344 289
0.0303765 0.69300002 -0.05953794 6.7378998e-39 345 289
0.031637147 0.69400001 -0.059623852 8.7661855e-39 346 289
0.032853961 0.69400001 -0.059623852 1.162389e-38 347 289
0.034070771 0.69400001 -0.059623852 1.3003199e-38 348 289
0.035389278 0.69599998 -0.059795678 1.3095395e-38 349 289
0.036662199 0.69700003 -0.05988159 1.3647118e-38 350 289
0.037938625 0.69800001 -0.059967503 1.337089e-38 351 289
0.039274666 0.69999999 -0.060139328 1.3463058e-38 352 289
0.040502001 0.69999999 -0.060139328 1.2817688e-38 353 289
0.041788943 0.70099998 -0.060225245 1.1534829e-38 354 289
0.043140765 0.70300001 -0.06039707 1.1811057e-38 355 289
0.04437336 0.70300001 -0.06039707 1.5490256e-38 356 289
0.04560595 0.70300001 -0.06039707 1.8163929e-38 357 289
-0.017329946 0.70599997 -0.061892662 1.5490256e-38 306 290
-0.016092092 0.70599997 -0.061892662 1.3461593e-38 307 290
-0.014812159 0.704 -0.061717331 1.0338454e-38 308 290
-0.013577812 0.704 -0.061717331 1.1997616e-38 309 290
-0.012325933 0.70300001 -0.061629668 1.3928743e-38 310 290
-0.01109334 0.70300001 -0.061629668 1.4574112e-38 311 290
-0.0098326923 0.70099998 -0.06145433 1.4754207e-38 312 290
-0.0085913334 0.69999999 -0.061366666 1.2541871e-38 313 290
-0.0073639993 0.69999999 -0.061366666 1.0520767e-38 314 290
-0.006119133 0.69800001 -0.061191335 1.1443083e-38 315 290
-0.0048882933 0.69700003 -0.061103668 1.3466362e-38 316 290
-0.0036609597 0.69599998 -0.061015997 1.3374166e-38 317 290
-0.0024336267 0.69400001 -0.060840666 9.4147891e-39 318 290
-0.0012168133 0.69400001 -0.060840666 8.7694197e-39 319 290
0 0.69300002 -0.060752999 9.04458e-39 320 290
0.00121506 0.69300002 -0.060752999 1.0151288e-38 321 290
0.0024231065 0.69099998 -0.060577665 1.0154903e-38 322 290
0.0036346598 0.69099998 -0.060577665 1.0062707e-38 323 290
0.0048462129 0.69099998 -0.060577665 1.0245301e-38 324 290
0.0060489997 0.69 -0.060489997 1.0429332e-38 325 290
0.0072587994 0.69 -0.060489997 9.8790323e-39 326 290
0.0084686 0.69 -0.060489997 1.0063424e-38 327 290
0.0096503468 0.68800002 -0.060314666 1.0887423e-38 328 290
0.010856641 0.68800002 -0.060314666 9.9658273e-39 329 290
0.012062933 0.68800002 -0.060314666 7.5691095e-39 330 290
0.013269227 0.68800002 -0.060314666 5.26386e-39 331 290
0.014475521 0.68800002 -0.060314666 7.5752177e-39 332 290
0.015681813 0.68800002 -0.060314666 9.6035216e-39 333 290
0.016888106 0.68800002 -0.060314666 1.0703013e-38 334 290
0.0180944 0.68800002 -0.060314666 9.9654475e-39 335 290
0.019300694 0.68800002 -0.060314666 8.6757849e-39 336 290
0.020506985 0.68800002 -0.060314666 8.2148068e-39 337 290
0.021713281 0.68800002 -0.060314666 8.4870749e-39 338 290
0.022986198 0.69 -0.060489997 8.0264554e-39 339 290
0.024195999 0.69 -0.060489997 8.2086957e-39 340 290
0.025405798 0.69 -0.060489997 7.8395544e-39 341 290
0.026615599 0.69 -0.060489997 6.6460545e-39 342 290
0.027865725 0.69099998 -0.060577665 6.369469e-39 343 290
0.029077278 0.69099998 -0.060577665 6.1829226e-39 344 290
0.0303765 0.69300002 -0.060752999 5.7223032e-39 345 290
0.031637147 0.69400001 -0.060840666 7.2910554e-39 346 290
0.032948639 0.69599998 -0.061015997 9.0424122e-39 347 290
0.034168959 0.69599998 -0.061015997 1.1898294e-38 348 290
0.035389278 0.69599998 -0.061015997 1.2451827e-38 349 290
0.0367148 0.69800001 -0.061191335 1.373967e-38 350 290
0.038047329 0.69999999 -0.061366666 1.30943e-38 351 290
0.039274666 0.69999999 -0.061366666 1.2359919e-38 352 290
0.040559858 0.70099998 -0.06145433 1.1345766e-38 353 290
0.041908171 0.70300001 -0.061629668 1.1075628e-38 354 290
0.043140765 0.70300001 -0.061629668 1.2366366e-38 355 290
0.04437336 0.70300001 -0.061629668 1.641078e-38 356 290
-0.016092092 0.70599997 -0.063130513 1.4934209e-38 307 291
-0.014854239 0.70599997 -0.063130513 1.1623776e-38 308 291
-0.013577812 0.704 -0.062951677 1.1715972e-38 309 291
-0.012343466 0.704 -0.062951677 1.0803407e-38 310 291
-0.011109119 0.704 -0.062951677 1.1817919e-38 311 291
-0.0098326923 0.70099998 -0.062683418 1.4020945e-38 312 291
-0.0086036054 0.70099998 -0.062683418 1.4113141e-38 313 291
-0.0073639993 0.69999999 -0.062593997 1.3559617e-38 314 291
-0.0061366665 0.69999999 -0.062593997 1.3467421e-38 315 291
-0.0048953067 0.69800001 -0.062415157 1.4020242e-38 316 291
-0.00366622 0.69700003 -0.062325738 1.4112438e-38 317 291
-0.0024406398 0.69599998 -0.062236317 1.1440565e-38 318 291
-0.0012168133 0.69400001 -0.06205748 1.051825e-38 319 291
0 0.69400001 -0.06205748 1.1165786e-38 320 291
0.00121506 0.69300002 -0.061968062 1.2180298e-38 321 291
0.00243012 0.69300002 -0.061968062 1.3191944e-38 322 291
0.0036346598 0.69099998 -0.061789215 1.2730966e-38 323 291
0.0048462129 0.69099998 -0.061789215 1.2360033e-38 324 291
0.0060577663 0.69099998 -0.061789215 1.116185e-38 325 291
0.0072693196 0.69099998 -0.061789215 8.1298334e-39 326 291
0.008480873 0.69099998 -0.061789215 6.2859208e-39 327 291
0.0096783992 0.69 -0.061699796 7.8392322e-39 328 291
0.010888199 0.69 -0.061699796 6.3637433e-39 329 291
0.012097999 0.69 -0.061699796 3.4199684e-39 330 291
0.0133078 0.69 -0.061699796 2.774599e-39 331 291
0.014517599 0.69 -0.061699796 9.7789249e-39 332 291
0.015727401 0.69 -0.061699796 1.2452598e-38 333 291
0.016888106 0.68800002 -0.06152096 1.3185811e-38 334 291
0.0180944 0.68800002 -0.06152096 1.281703e-38 335 291
0.019356798 0.69 -0.061699796 1.226313e-38 336 291
0.020566599 0.69 -0.061699796 1.1156782e-38 337 291
0.021776399 0.69 -0.061699796 1.0235908e-38 338 291
0.023019511 0.69099998 -0.061789215 9.6827342e-39 339 291
0.024231065 0.69099998 -0.061789215 9.3150405e-39 340 291
0.025442619 0.69099998 -0.061789215 9.1306478e-39 341 291
0.02673132 0.69300002 -0.061968062 8.6711158e-39 342 291
0.027946379 0.69300002 -0.061968062 8.6711158e-39 343 291
0.029161438 0.69300002 -0.061968062 8.9469796e-39 344 291
0.030420333 0.69400001 -0.06205748 8.7625883e-39 345 291
0.031728316 0.69599998 -0.062236317 8.8551315e-39 346 291
0.03299598 0.69700003 -0.062325738 9.4083053e-39 347 291
0.034218054 0.69700003 -0.062325738 1.1252919e-38 348 291
0.035440128 0.69700003 -0.062325738 1.2083038e-38 349 291
0.036819998 0.69999999 -0.062593997 1.2544344e-38 350 291
0.038101684 0.70099998 -0.062683418 1.1898975e-38 351 291
0.039330769 0.70099998 -0.062683418 1.0522466e-38 352 291
0.040559858 0.70099998 -0.062683418 1.0338075e-38 353 291
0.041908171 0.70300001 -0.062862262 1.190324e-38 354 291
0.043140765 0.70300001 -0.062862262 1.3747151e-38 355 291
0.04437336 0.70300001 -0.062862262 1.71462e-38 356 291
-0.014812159 0.704 -0.064186029 1.3463706e-38 308 292
-0.013577812 0.704 -0.064186029 1.2265163e-38 309 292
-0.012343466 0.704 -0.064186029 9.9732177e-39 310 292
-0.011109119 0.704 -0.064186029 1.0895533e-38 311 292
-0.0098186666 0.69999999 -0.063821331 1.2641929e-38 312 292
-0.0085913334 0.69999999 -0.063821331 1.3932668e-38 313 292
-0.0073745195 0.70099998 -0.063912503 1.4575567e-38 314 292
-0.0061366665 0.69999999 -0.063821331 1.4390817e-38 315 292
-0.0048953067 0.69800001 -0.063638985 1.4390464e-38 316 292
-0.0036714801 0.69800001 -0.063638985 1.4390464e-38 317 292
-0.0024406398 0.69599998 -0.063456632 1.3650383e-38 318 292
-0.0012168133 0.69400001 -0.063274294 1.245184e-38 319 292
0 0.69400001 -0.063274294 1.3374522e-38 320 292
0.00121506 0.69300002 -0.063183114 1.4204283e-38 321 292
0.00243012 0.69300002 -0.063183114 1.4204649e-38 322 292
0.0036451798 0.69300002 -0.063183114 1.3651475e-38 323 292
0.00486024 0.69300002 -0.063183114 1.2546572e-38 324 292
0.0060577663 0.69099998 -0.063000768 1.0610464e-38 325 292
0.0072693196 0.69099998 -0.063000768 8.4881735e-39 326 292
0.008480873 0.69099998 -0.063000768 6.4598682e-39 327 292
0.0096924258 0.69099998 -0.063000768 5.4417856e-39 328 292
0.01090398 0.69099998 -0.063000768 3.8748201e-39 329 292
0.012097999 0.69 -0.062909603 1.9452111e-39 330 292
0.0133078 0.69 -0.062909603 2.1296023e-39 331 292
0.014517599 0.69 -0.062909603 8.0286597e-39 332 292
0.015727401 0.69 -0.062909603 1.2361853e-38 333 292
0.0169372 0.69 -0.062909603 1.373971e-38 334 292
0.018146999 0.69 -0.062909603 1.3831907e-38 335 292
0.019356798 0.69 -0.062909603 1.4105966e-38 336 292
0.020596405 0.69099998 -0.063000768 1.3092175e-38 337 292
0.021807959 0.69099998 -0.063000768 1.1709237e-38 338 292
0.023019511 0.69099998 -0.063000768 1.1156064e-38 339 292
0.024301201 0.69300002 -0.063183114 1.0328467e-38 340 292
0.02551626 0.69300002 -0.063183114 1.0328467e-38 341 292
0.02673132 0.69300002 -0.063183114 1.0328469e-38 342 292
0.027986705 0.69400001 -0.063274294 1.0512861e-38 343 292
0.029203519 0.69400001 -0.063274294 1.1065669e-38 344 292
0.030420333 0.69400001 -0.063274294 1.1065669e-38 345 292
0.031728316 0.69599998 -0.063456632 1.0605761e-38 346 292
0.033043321 0.69800001 -0.063638985 1.0789792e-38 347 292
0.034267146 0.69800001 -0.063638985 1.1070666e-38 348 292
0.035592664 0.69999999 -0.063821331 1.1255057e-38 349 292
0.036872596 0.70099998 -0.063912503 1.0981654e-38 350 292
0.038101684 0.70099998 -0.063912503 1.0520315e-38 351 292
0.039330769 0.70099998 -0.063912503 9.9710681e-39 352 292
0.040675577 0.70300001 -0.064094849 1.080083e-38 353 292
0.041908171 0.70300001 -0.064094849 1.3648859e-38 354 292
0.043140765 0.70300001 -0.064094849 1.5492771e-38 355 292
-0.013577812 0.704 -0.065420374 1.4657956e-38 309 293
-0.012343466 0.704 -0.065420374 1.1627687e-38 310 293
-0.011109119 0.704 -0.065420374 1.1258545e-38 311 293
-0.0098186666 0.69999999 -0.065048665 1.0342742e-38 312 293
-0.0085913334 0.69999999 -0.065048665 1.0988111e-38 313 293
-0.0073745195 0.70099998 -0.065141588 1.1079651e-38 314 293
-0.0061366665 0.69999999 -0.065048665 1.1817216e-38 315 293
-0.0048953067 0.69800001 -0.06486281 1.3745798e-38 316 293
-0.0036714801 0.69800001 -0.06486281 1.429897e-38 317 293
-0.0024441467 0.69700003 -0.064769886 1.4665965e-38 318 293
-0.0012203199 0.69599998 -0.064676955 1.4573409e-38 319 293
0 0.69599998 -0.064676955 1.5031516e-38 320 293
0.0012168133 0.69400001 -0.064491108 1.4570898e-38 321 293
0.0024336267 0.69400001 -0.064491108 1.3377036e-38 322 293
0.0036451798 0.69300002 -0.064398177 1.2547275e-38 323 293
0.00486024 0.69300002 -0.064398177 1.1533131e-38 324 293
0.0060753003 0.69300002 -0.064398177 1.0149836e-38 325 293
0.0072903596 0.69300002 -0.064398177 9.5966664e-39 326 293
0.0085054198 0.69300002 -0.064398177 7.4761655e-39 327 293
0.0096924258 0.69099998 -0.06421233 5.5408e-39 328 293
0.01090398 0.69099998 -0.06421233 3.4203005e-39 329 293
0.012115533 0.69099998 -0.06421233 2.035962e-39 330 293
0.013327086 0.69099998 -0.06421233 1.2983969e-39 331 293
0.014538639 0.69099998 -0.06421233 8.4927795e-40 332 293
0.015750192 0.69099998 -0.06421233 6.1966245e-39 333 293
0.016961746 0.69099998 -0.06421233 1.337202e-38 334 293
0.0181733 0.69099998 -0.06421233 1.3464215e-38 335 293
0.019384852 0.69099998 -0.06421233 1.3553513e-38 336 293
0.020656019 0.69300002 -0.064398177 1.2908143e-38 337 293
0.021871079 0.69300002 -0.064398177 1.2813783e-38 338 293
0.02308614 0.69300002 -0.064398177 1.2168413e-38 339 293
0.024301201 0.69300002 -0.064398177 1.1066741e-38 340 293
0.025553079 0.69400001 -0.064491108 1.1158936e-38 341 293
0.026769891 0.69400001 -0.064491108 1.0608283e-38 342 293
0.027986705 0.69400001 -0.064491108 1.0515729e-38 343 293
0.029203519 0.69400001 -0.064491108 1.1526991e-38 344 293
0.030507999 0.69599998 -0.064676955 1.1987968e-38 345 293
0.03177391 0.69700003 -0.064769886 1.2174492e-38 346 293
0.033137999 0.69999999 -0.065048665 1.1897905e-38 347 293
0.034365334 0.69999999 -0.065048665 1.0613966e-38 348 293
0.035643511 0.70099998 -0.065141588 1.0152988e-38 349 293
0.036977798 0.70300001 -0.065327443 1.0061843e-38 350 293
0.038210396 0.70300001 -0.065327443 9.8774502e-39 351 293
0.039442986 0.70300001 -0.065327443 1.0521748e-38 352 293
0.040675577 0.70300001 -0.065327443 1.2457856e-38 353 293
0.041908171 0.70300001 -0.065327443 1.5119691e-38 354 293
0.043140765 0.70300001 -0.065327443 1.6594822e-38 355 293
-0.011140679 0.70599997 -0.066844068 1.3370046e-38 311 294
-0.0098326923 0.70099998 -0.066370681 1.0709652e-38 312 294
-0.0086036054 0.70099998 -0.066370681 1.0525262e-38 313 294
-0.0073745195 0.70099998 -0.066370681 9.9757415e-39 314 294
-0.0061366665 0.69999999 -0.066275999 1.0897698e-38 315 294
-0.0049093333 0.69999999 -0.066275999 1.209056e-38 316 294
-0.0036714801 0.69800001 -0.066086642 1.2828125e-38 317 294
-0.0024476533 0.69800001 -0.066086642 1.3655403e-38 318 294
-0.0012220733 0.69700003 -0.06599196 1.4024184e-38 319 294
0 0.69700003 -0.06599196 1.4481216e-38 320 294
0.0012203199 0.69599998 -0.065897278 1.4481216e-38 321 294
0.0024336267 0.69400001 -0.065707922 1.3928042e-38 322 294
0.0036504399 0.69400001 -0.065707922 1.355962e-38 323 294
0.0048672534 0.69400001 -0.065707922 1.2914969e-38 324 294
0.0060840664 0.69400001 -0.065707922 1.2638024e-38 325 294
0.0073008798 0.69400001 -0.065707922 1.3002849e-38 326 294
0.0085054198 0.69300002 -0.06561324 1.171211e-38 327 294
0.0097204801 0.69300002 -0.06561324 1.0145157e-38 328 294
0.010935539 0.69300002 -0.06561324 8.6696682e-39 329 294
0.012150601 0.69300002 -0.06561324 6.9179863e-39 330 294
0.01336566 0.69300002 -0.06561324 4.797847e-39 331 294
0.014580719 0.69300002 -0.06561324 2.4987324e-39 332 294
0.015795778 0.69300002 -0.06561324 2.775678e-39 333 294
0.01701084 0.69300002 -0.06561324 7.94005e-39 334 294
0.018225901 0.69300002 -0.06561324 1.006091e-38 335 294
0.01944096 0.69300002 -0.06561324 1.0885959e-38 336 294
0.020656019 0.69300002 -0.06561324 1.107035e-38 337 294
0.021871079 0.69300002 -0.06561324 1.2079815e-38 338 294
0.023119451 0.69400001 -0.065707922 1.1711391e-38 339 294
0.024336265 0.69400001 -0.065707922 1.1711741e-38 340 294
0.025553079 0.69400001 -0.065707922 1.1711741e-38 341 294
0.026847038 0.69599998 -0.065897278 1.1069241e-38 342 294
0.028067358 0.69599998 -0.065897278 1.1345467e-38 343 294
0.029287677 0.69599998 -0.065897278 1.1530921e-38 344 294
0.030551834 0.69700003 -0.06599196 1.1530921e-38 345 294
0.031819493 0.69800001 -0.066086642 1.0889474e-38 346 294
0.033137999 0.69999999 -0.066275999 1.0797278e-38 347 294
0.034365334 0.69999999 -0.066275999 1.0245508e-38 348 294
0.035745207 0.70300001 -0.066560037 1.0153311e-38 349 294
0.036977798 0.70300001 -0.066560037 9.7877587e-39 350 294
0.038210396 0.70300001 -0.066560037 1.0248378e-38 351 294
0.039442986 0.70300001 -0.066560037 1.254359e-38 352 294
0.040675577 0.70300001 -0.066560037 1.401872e-38 353 294
-0.0086281532 0.70300001 -0.067792632 1.190353e-38 313 295
-0.0073745195 0.70099998 -0.067599766 1.0802927e-38 314 295
-0.0061366665 0.69999999 -0.067503333 1.0802927e-38 315 295
-0.0049093333 0.69999999 -0.067503333 1.0526392e-38 316 295
-0.0036819996 0.69999999 -0.067503333 1.0895533e-38 317 295
-0.0024476533 0.69800001 -0.06731046 1.1447316e-38 318 295
-0.0012220733 0.69700003 -0.067214034 1.1723903e-38 319 295
0 0.69700003 -0.067214034 1.2733774e-38 320 295
0.0012203199 0.69599998 -0.067117594 1.3010721e-38 321 295
0.0024406398 0.69599998 -0.067117594 1.3653232e-38 322 295
0.0036504399 0.69400001 -0.066924736 1.411421e-38 323 295
0.0048672534 0.69400001 -0.066924736 1.4481563e-38 324 295
0.0060840664 0.69400001 -0.066924736 1.4666315e-38 325 295
0.0073008798 0.69400001 -0.066924736 1.4573043e-38 326 295
0.0085176928 0.69400001 -0.066924736 1.420426e-38 327 295
0.0097204801 0.69300002 -0.066828303 1.4479052e-38 328 295
0.010935539 0.69300002 -0.066828303 1.4294301e-38 329 295
0.012150601 0.69300002 -0.066828303 1.374113e-38 330 295
0.01336566 0.69300002 -0.066828303 1.2081969e-38 331 295
0.014580719 0.69300002 -0.066828303 8.0239513e-39 332 295
0.015795778 0.69300002 -0.066828303 4.7971043e-39 333 295
0.01701084 0.69300002 -0.066828303 3.1559455e-39 334 295
0.018225901 0.69300002 -0.066828303 6.1983999e-39 335 295
0.019469013 0.69400001 -0.066924736 8.7712203e-39 336 295
0.020685827 0.69400001 -0.066924736 9.7853723e-39 337 295
0.021902639 0.69400001 -0.066924736 1.1622063e-38 338 295
0.023119451 0.69400001 -0.066924736 1.1529867e-38 339 295
0.024336265 0.69400001 -0.066924736 1.1255776e-38 340 295
0.025626717 0.69599998 -0.067117594 1.1440168e-38 341 295
0.026847038 0.69599998 -0.067117594 1.1074236e-38 342 295
0.028107686 0.69700003 -0.067214034 1.1074236e-38 343 295
0.02932976 0.69700003 -0.067214034 1.1166041e-38 344 295
0.030595668 0.69800001 -0.06731046 1.0612867e-38 345 295
0.031910665 0.69999999 -0.067503333 9.6951945e-39 346 295
0.033137999 0.69999999 -0.067503333 9.6951945e-39 347 295
0.034414422 0.70099998 -0.067599766 9.7863055e-39 348 295
0.035745207 0.70300001 -0.067792632 1.0063251e-38 349 295
0.036977798 0.70300001 -0.067792632 1.1166038e-38 350 295
0.038264744 0.704 -0.067889065 1.2272746e-38 351 295
-0.0061366665 0.69999999 -0.068730667 1.1995699e-38 315 296
-0.0049093333 0.69999999 -0.068730667 1.0526687e-38 316 296
-0.0036819996 0.69999999 -0.068730667 1.0987664e-38 317 296
-0.0024546667 0.69999999 -0.068730667 1.0802956e-38 318 296
-0.0012238267 0.69800001 -0.068534292 1.1079902e-38 319 296
0 0.69800001 -0.068534292 1.1263627e-38 320 296
0.0012220733 0.69700003 -0.068436109 1.144802e-38 321 296
0.0024406398 0.69599998 -0.068337917 1.1631007e-38 322 296
0.0036609597 0.69599998 -0.068337917 1.2184181e-38 323 296
0.0048672534 0.69400001 -0.068141542 1.2550462e-38 324 296
0.0060840664 0.69400001 -0.068141542 1.2827048e-38 325 296
0.0073008798 0.69400001 -0.068141542 1.3286235e-38 326 296
0.0085176928 0.69400001 -0.068141542 1.337843e-38 327 296
0.0097204801 0.69300002 -0.068043359 1.3836897e-38 328 296
0.010935539 0.69300002 -0.068043359 1.3836897e-38 329 296
0.012168133 0.69400001 -0.068141542 1.3836181e-38 330 296
0.013384946 0.69400001 -0.068141542 1.3190812e-38 331 296
0.01460176 0.69400001 -0.068141542 1.1622783e-38 332 296
0.015818574 0.69400001 -0.068141542 9.3178921e-39 333 296
0.017035386 0.69400001 -0.068141542 8.5868109e-39 334 296
0.0182522 0.69400001 -0.068141542 9.4169303e-39 335 296
0.019469013 0.69400001 -0.068141542 1.0429625e-38 336 296
0.020685827 0.69400001 -0.068141542 1.0798768e-38 337 296
0.021902639 0.69400001 -0.068141542 1.1441594e-38 338 296
0.023186078 0.69599998 -0.068337917 1.1165007e-38 339 296
0.0244064 0.69599998 -0.068337917 1.0891993e-38 340 296
0.025663542 0.69700003 -0.068436109 1.0615408e-38 341 296
0.026885614 0.69700003 -0.068436109 1.0065434e-38 342 296
0.028148014 0.69800001 -0.068534292 9.6966533e-39 343 296
0.029371841 0.69800001 -0.068534292 9.7866587e-39 344 296
0.030683333 0.69999999 -0.068730667 9.3260392e-39 345 296
0.031956252 0.70099998 -0.068828844 9.5133144e-39 346 296
0.03318534 0.70099998 -0.068828844 9.6980658e-39 347 296
0.034512613 0.70300001 -0.069025226 1.0247665e-38 348 296
0.035796054 0.704 -0.06912341 1.0892676e-38 349 296
0.037030395 0.704 -0.06912341 1.3096056e-38 350 296
-0.0061366665 0.69999999 -0.069957994 1.3465504e-38 315 297
-0.0049093333 0.69999999 -0.069957994 1.2087549e-38 316 297
-0.0036819996 0.69999999 -0.069957994 1.1995352e-38 317 297
-0.0024546667 0.69999999 -0.069957994 1.1262453e-38 318 297
-0.0012238267 0.69800001 -0.069758117 1.135465e-38 319 297
0 0.69800001 -0.069758117 1.0895495e-38 320 297
0.0012220733 0.69700003 -0.069658175 1.0618548e-38 321 297
0.0024441467 0.69700003 -0.069658175 1.015974e-38 322 297
0.0036609597 0.69599998 -0.069558233 1.0251936e-38 323 297
0.0048812795 0.69599998 -0.069558233 1.0802606e-38 324 297
0.0061015999 0.69599998 -0.069558233 1.1171747e-38 325 297
0.0073008798 0.69400001 -0.069358356 1.1538754e-38 326 297
0.0085176928 0.69400001 -0.069358356 1.163095e-38 327 297
0.0097345067 0.69400001 -0.069358356 1.199832e-38 328 297
0.01095132 0.69400001 -0.069358356 1.1906124e-38 329 297
0.012168133 0.69400001 -0.069358356 1.2180565e-38 330 297
0.013384946 0.69400001 -0.069358356 1.2088368e-38 331 297
0.01460176 0.69400001 -0.069358356 1.1628108e-38 332 297
0.015818574 0.69400001 -0.069358356 1.1444077e-38 333 297
0.017035386 0.69400001 -0.069358356 1.1259681e-38 334 297
0.0182522 0.69400001 -0.069358356 1.1167486e-38 335 297
0.019525118 0.69599998 -0.069558233 1.1168555e-38 336 297
0.020745439 0.69599998 -0.069558233 1.0892328e-38 337 297
0.021965759 0.69599998 -0.069558233 1.0801186e-38 338 297
0.023186078 0.69599998 -0.069558233 1.0616793e-38 339 297
0.024441468 0.69700003 -0.069658175 1.0617497e-38 340 297
0.025663542 0.69700003 -0.069658175 1.0064325e-38 341 297
0.026924185 0.69800001 -0.069758117 9.4214565e-39 342 297
0.028148014 0.69800001 -0.069758117 9.3292608e-39 343 297
0.029371841 0.69800001 -0.069758117 8.9579742e-39 344 297
0.030683333 0.69999999 -0.069957994 9.3267553e-39 345 297
0.032047424 0.70300001 -0.070257813 1.153879e-38 346 297
0.033280019 0.70300001 -0.070257813 1.2737332e-38 347 297
0.034512613 0.70300001 -0.070257813 1.282201e-38 348 297
0.035796054 0.704 -0.070357755 1.282201e-38 349 297
0.037030395 0.704 -0.070357755 1.4382869e-38 350 297
-0.0049093333 0.69999999 -0.071185328 1.4199824e-38 316 298
-0.0036819996 0.69999999 -0.071185328 1.3554455e-38 317 298
-0.0024546667 0.69999999 -0.071185328 1.2271958e-38 318 298
-0.0012273333 0.69999999 -0.071185328 1.2179763e-38 319 298
0 0.69800001 -0.07098195 1.1172075e-38 320 298
0.0012238267 0.69800001 -0.07098195 1.0803294e-38 321 298
0.0024441467 0.69700003 -0.070880257 1.0528488e-38 322 298
0.00366622 0.69700003 -0.070880257 1.0436292e-38 323 298
0.0048882933 0.69700003 -0.070880257 1.0711434e-38 324 298
0.0061015999 0.69599998 -0.070778556 1.0987661e-38 325 298
0.0073219193 0.69599998 -0.070778556 1.1355016e-38 326 298
0.0085422397 0.69599998 -0.070778556 1.144757e-38 327 298
0.0097345067 0.69400001 -0.07057517 1.0804388e-38 328 298
0.01095132 0.69400001 -0.07057517 1.0712192e-38 329 298
0.012168133 0.69400001 -0.07057517 1.0525673e-38 330 298
0.013384946 0.69400001 -0.07057517 1.034128e-38 331 298
0.014643839 0.69599998 -0.070778556 1.0525678e-38 332 298
0.015864158 0.69599998 -0.070778556 1.0433122e-38 333 298
0.017084479 0.69599998 -0.070778556 1.0340558e-38 334 298
0.018304799 0.69599998 -0.070778556 1.0248363e-38 335 298
0.019525118 0.69599998 -0.070778556 1.0249069e-38 336 298
0.020745439 0.69599998 -0.070778556 1.0156873e-38 337 298
0.02199732 0.69700003 -0.070880257 9.8813584e-39 338 298
0.023219392 0.69700003 -0.070880257 1.0157587e-38 339 298
0.024441468 0.69700003 -0.070880257 1.0250138e-38 340 298
0.025700359 0.69800001 -0.07098195 9.8813556e-39 341 298
0.026924185 0.69800001 -0.07098195 9.7888097e-39 342 298
0.028148014 0.69800001 -0.07098195 1.0249788e-38 343 298
0.029371841 0.69800001 -0.07098195 1.2363495e-38 344 298
0.030727165 0.70099998 -0.071287021 1.3930461e-38 345 298
0.032047424 0.70300001 -0.071490414 1.5587153e-38 346 298
0.033280019 0.70300001 -0.071490414 1.586374e-38 347 298
0.034561705 0.704 -0.071592107 1.530483e-38 348 298
-0.0036819996 0.69999999 -0.072412662 1.4472524e-38 317 299
-0.0024546667 0.69999999 -0.072412662 1.3556645e-38 318 299
-0.0012273333 0.69999999 -0.072412662 1.3556645e-38 319 299
0 0.69999999 -0.072412662 1.2271252e-38 320 299
0.0012238267 0.69800001 -0.072205767 1.1810634e-38 321 299
0.0024476533 0.69800001 -0.072205767 1.2088621e-38 322 299
0.0036714801 0.69800001 -0.072205767 1.2273012e-38 323 299
0.0048953067 0.69800001 -0.072205767 1.2272973e-38 324 299
0.006119133 0.69800001 -0.072205767 1.17198e-38 325 299
0.00733244 0.69700003 -0.072102323 1.1169851e-38 326 299
0.0085422397 0.69599998 -0.071998879 1.1169851e-38 327 299
0.0097625591 0.69599998 -0.071998879 1.1170589e-38 328 299
0.010982879 0.69599998 -0.071998879 1.1078394e-38 329 299
0.0122032 0.69599998 -0.071998879 1.0709652e-38 330 299
0.013423519 0.69599998 -0.071998879 1.0340869e-38 331 299
0.014643839 0.69599998 -0.071998879 1.0250135e-38 332 299
0.015864158 0.69599998 -0.071998879 9.9739086e-39 333 299
0.017084479 0.69599998 -0.071998879 1.0156851e-38 334 299
0.018304799 0.69599998 -0.071998879 1.0156851e-38 335 299
0.019553173 0.69700003 -0.072102323 1.0340516e-38 336 299
0.020775247 0.69700003 -0.072102323 1.0525268e-38 337 299
0.02199732 0.69700003 -0.072102323 1.0891542e-38 338 299
0.023252707 0.69800001 -0.072205767 1.1168129e-38 339 299
0.024476532 0.69800001 -0.072205767 1.2086858e-38 340 299
0.025700359 0.69800001 -0.072205767 1.1257457e-38 341 299
0.026924185 0.69800001 -0.072205767 1.107346e-38 342 299
0.028228667 0.69999999 -0.072412662 1.2272003e-38 343 299
0.029455997 0.69999999 -0.072412662 1.5584266e-38 344 299
0.030727165 0.70099998 -0.072516106 1.761257e-38 345 299
-0.0012273333 0.69999999 -0.073639996 1.4934581e-38 319 300
0 0.69999999 -0.073639996 1.3647064e-38 320 300
0.0012273333 0.69999999 -0.073639996 1.3278281e-38 321 300
0.0024546667 0.69999999 -0.073639996 1.401512e-38 322 300
0.0049093333 0.69999999 -0.073639996 1.5860465e-38 324 300
0.006119133 0.69800001 -0.073429599 1.5307291e-38 325 300
0.0073429602 0.69800001 -0.073429599 1.383825e-38 326 300
0.0085545136 0.69700003 -0.073324397 1.3285076e-38 327 300
0.0097765867 0.69700003 -0.073324397 1.2732956e-38 328 300
0.01099866 0.69700003 -0.073324397 1.2456369e-38 329 300
0.012220734 0.69700003 -0.073324397 1.2364173e-38 330 300
0.013442807 0.69700003 -0.073324397 1.2364173e-38 331 300
0.014643839 0.69599998 -0.073219195 1.1904657e-38 332 300
