# .PCD v.7 - Point Cloud Data file format
FIELDS x y z rgb imX imY
SIZE 4 4 4 4 4 4
TYPE F F F F F F
COUNT 1 1 1 1 1 1
WIDTH 843
HEIGHT 1
VIEWPOINT 0 0 0 1 0 0 0
POINTS 843
DATA ascii
0.017954132 0.63999999 0.10099199 1.8620608e-38 336 150
0.019076265 0.63999999 0.10099199 1.7975239e-38 337 150
0.020261521 0.64200002 0.1013076 1.7234427e-38 338 150
-0.0044885329 0.63999999 0.099869862 1.8345113e-38 316 151
-0.0033663998 0.63999999 0.099869862 1.9728047e-38 317 151
-0.0022442664 0.63999999 0.099869862 1.8624591e-38 318 151
-0.0011238866 0.64099997 0.1000259 1.8440198e-38 319 151
0 0.64099997 0.1000259 1.8532031e-38 320 151
0.0011221332 0.63999999 0.099869862 1.8532031e-38 321 151
0.0022442664 0.63999999 0.099869862 1.8532031e-38 322 151
0.0033716597 0.64099997 0.1000259 1.8716063e-38 323 151
0.0044955462 0.64099997 0.1000259 1.8532028e-38 324 151
0.0056194332 0.64099997 0.1000259 1.8532028e-38 325 151
0.0067433193 0.64099997 0.1000259 1.871534e-38 326 151
0.0078672068 0.64099997 0.1000259 1.871534e-38 327 151
0.0090191467 0.64300001 0.100338 1.8715696e-38 328 151
0.01014654 0.64300001 0.100338 1.8715696e-38 329 151
0.011273934 0.64300001 0.100338 1.8439829e-38 330 151
0.012401327 0.64300001 0.100338 1.8439829e-38 331 151
0.01352872 0.64300001 0.100338 1.8531299e-38 332 151
0.014656113 0.64300001 0.100338 1.8531299e-38 333 151
0.01575896 0.64200002 0.10018196 1.8255788e-38 334 151
0.016884599 0.64200002 0.10018196 1.8071396e-38 335 151
0.01801024 0.64200002 0.10018196 1.8345469e-38 336 151
0.019135879 0.64200002 0.10018196 1.8345469e-38 337 151
0.020261521 0.64200002 0.10018196 1.8525892e-38 338 151
0.02138716 0.64200002 0.10018196 1.5852218e-38 339 151
-0.0055931332 0.63800001 0.098439142 1.8436583e-38 315 152
-0.0044745067 0.63800001 0.098439142 1.8900452e-38 316 152
-0.00335588 0.63800001 0.098439142 1.8993006e-38 317 152
-0.0022442664 0.63999999 0.09874773 1.8349086e-38 318 152
-0.0011238866 0.64099997 0.098902017 1.825653e-38 319 152
0 0.64099997 0.098902017 1.8531678e-38 320 152
0.0011221332 0.63999999 0.09874773 1.8807906e-38 321 152
0.0022442664 0.63999999 0.09874773 1.8624591e-38 322 152
0.0033663998 0.63999999 0.09874773 1.8532395e-38 323 152
0.0044955462 0.64099997 0.098902017 1.8716063e-38 324 152
0.0056194332 0.64099997 0.098902017 1.8716063e-38 325 152
0.0067433193 0.64099997 0.098902017 1.8716059e-38 326 152
0.0078672068 0.64099997 0.098902017 1.8716059e-38 327 152
0.00900512 0.64200002 0.099056318 1.8532028e-38 328 152
0.01013076 0.64200002 0.099056318 1.8716059e-38 329 152
0.0112564 0.64200002 0.099056318 1.871534e-38 330 152
0.01238204 0.64200002 0.099056318 1.8623144e-38 331 152
0.01350768 0.64200002 0.099056318 1.8623498e-38 332 152
0.01463332 0.64200002 0.099056318 1.8531302e-38 333 152
0.01575896 0.64200002 0.099056318 1.8347631e-38 334 152
0.016884599 0.64200002 0.099056318 1.816324e-38 335 152
0.01801024 0.64200002 0.099056318 1.8162519e-38 336 152
0.019106071 0.64099997 0.098902017 1.8070324e-38 337 152
0.020229958 0.64099997 0.098902017 1.8803923e-38 338 152
0.02138716 0.64200002 0.099056318 1.6867815e-38 339 152
0.022512799 0.64200002 0.099056318 1.5482716e-38 340 152
-0.0056194332 0.64099997 0.097778134 2.0554202e-38 315 153
-0.0044745067 0.63800001 0.097320519 1.9545821e-38 316 153
-0.00335588 0.63800001 0.097320519 1.8900452e-38 317 153
-0.0022477731 0.64099997 0.097778134 1.8349083e-38 318 153
-0.0011238866 0.64099997 0.097778134 1.8349083e-38 319 153
0 0.63999999 0.097625598 1.8624591e-38 320 153
0.0011221332 0.63999999 0.097625598 1.8624591e-38 321 153
0.0022442664 0.63999999 0.097625598 1.8624947e-38 322 153
0.0033663998 0.63999999 0.097625598 1.8624947e-38 323 153
0.0044885329 0.63999999 0.097625598 1.8808259e-38 324 153
0.0056106662 0.63999999 0.097625598 1.8808259e-38 325 153
0.0067433193 0.64099997 0.097778134 1.8716059e-38 326 153
0.0078672068 0.64099997 0.097778134 1.8716059e-38 327 153
0.0089910924 0.64099997 0.097778134 1.8807536e-38 328 153
0.01013076 0.64200002 0.097930677 1.871534e-38 329 153
0.011238866 0.64099997 0.097778134 1.8715696e-38 330 153
0.012362752 0.64099997 0.097778134 1.8623142e-38 331 153
0.01350768 0.64200002 0.097930677 1.8623498e-38 332 153
0.01463332 0.64200002 0.097930677 1.8623498e-38 333 153
0.01575896 0.64200002 0.097930677 1.8531302e-38 334 153
0.016858298 0.64099997 0.097778134 1.8346912e-38 335 153
0.017982185 0.64099997 0.097778134 1.8438385e-38 336 153
0.019106071 0.64099997 0.097778134 1.8346188e-38 337 153
0.020229958 0.64099997 0.097778134 1.8897195e-38 338 153
0.021353846 0.64099997 0.097778134 1.7790847e-38 339 153
0.022477733 0.64099997 0.097778134 1.6220998e-38 340 153
-0.0056194332 0.64099997 0.096654251 2.0832244e-38 315 154
-0.0044955462 0.64099997 0.096654251 1.9362156e-38 316 154
-0.0033716597 0.64099997 0.096654251 1.8532395e-38 317 154
-0.0022477731 0.64099997 0.096654251 1.8349083e-38 318 154
-0.0011238866 0.64099997 0.096654251 1.8349083e-38 319 154
0 0.63999999 0.096503459 1.8624593e-38 320 154
0.0011221332 0.63999999 0.096503459 1.8624593e-38 321 154
0.0022372534 0.63800001 0.096201889 1.8807906e-38 322 154
0.00335588 0.63800001 0.096201889 1.8807906e-38 323 154
0.0044745067 0.63800001 0.096201889 1.8807903e-38 324 154
0.0055931332 0.63800001 0.096201889 1.8807903e-38 325 154
0.0067327996 0.63999999 0.096503459 1.8807543e-38 326 154
0.0078549329 0.63999999 0.096503459 1.8807543e-38 327 154
0.0089770658 0.63999999 0.096503459 1.8715707e-38 328 154
0.010114979 0.64099997 0.096654251 1.8715707e-38 329 154
0.011221332 0.63999999 0.096503459 1.871534e-38 330 154
0.012343466 0.63999999 0.096503459 1.871534e-38 331 154
0.013465599 0.63999999 0.096503459 1.8532028e-38 332 154
0.014610525 0.64099997 0.096654251 1.8439832e-38 333 154
0.015734414 0.64099997 0.096654251 1.8439476e-38 334 154
0.016858298 0.64099997 0.096654251 1.8347281e-38 335 154
0.017954132 0.63999999 0.096503459 1.8346918e-38 336 154
0.019016653 0.63800001 0.096201889 1.8162168e-38 337 154
0.02013528 0.63800001 0.096201889 1.8621697e-38 338 154
0.021220595 0.63700002 0.096051104 1.8253273e-38 339 154
0.022337466 0.63700002 0.096051104 1.6684503e-38 340 154
-0.0055931332 0.63800001 0.095083259 2.0283036e-38 315 155
-0.0044674934 0.63700002 0.094934233 1.9362877e-38 316 155
-0.0033506199 0.63700002 0.094934233 1.8625312e-38 317 155
-0.0022337467 0.63700002 0.094934233 1.8624947e-38 318 155
-0.0011168733 0.63700002 0.094934233 1.8624947e-38 319 155
0 0.63700002 0.094934233 1.8624591e-38 320 155
0.0011186267 0.63800001 0.095083259 1.8624591e-38 321 155
0.0022372534 0.63800001 0.095083259 1.8807903e-38 322 155
0.0033506199 0.63700002 0.094934233 1.8900457e-38 323 155
0.0044674934 0.63700002 0.094934233 1.8624947e-38 324 155
0.0055843666 0.63700002 0.094934233 1.8624947e-38 325 155
0.0067012399 0.63700002 0.094934233 1.8808259e-38 326 155
0.0078181131 0.63700002 0.094934233 1.8808259e-38 327 155
0.0089349868 0.63700002 0.094934233 1.8899736e-38 328 155
0.01005186 0.63700002 0.094934233 1.880754e-38 329 155
0.011168733 0.63700002 0.094934233 1.871534e-38 330 155
0.012304893 0.63800001 0.095083259 1.871534e-38 331 155
0.013465599 0.63999999 0.095381327 1.8532028e-38 332 155
0.014587732 0.63999999 0.095381327 1.8439832e-38 333 155
0.015709866 0.63999999 0.095381327 1.8623144e-38 334 155
0.016831998 0.63999999 0.095381327 1.8530949e-38 335 155
0.017954132 0.63999999 0.095381327 1.8622426e-38 336 155
0.019016653 0.63800001 0.095083259 1.8438034e-38 337 155
0.02013528 0.63800001 0.095083259 1.86217e-38 338 155
0.021220595 0.63700002 0.094934233 1.8437308e-38 339 155
0.022337466 0.63700002 0.094934233 1.6779219e-38 340 155
-0.0067117601 0.63800001 0.093964644 1.5952715e-38 314 156
-0.0055843666 0.63700002 0.093817361 2.0101517e-38 315 156
-0.0044674934 0.63700002 0.093817361 1.945472e-38 316 156
-0.0033506199 0.63700002 0.093817361 1.8717155e-38 317 156
-0.0022337467 0.63700002 0.093817361 1.8624593e-38 318 156
-0.0011168733 0.63700002 0.093817361 1.8624593e-38 319 156
0 0.63700002 0.093817361 1.8624591e-38 320 156
0.0011168733 0.63700002 0.093817361 1.8716786e-38 321 156
0.0022337467 0.63700002 0.093817361 1.8716786e-38 322 156
0.0033506199 0.63700002 0.093817361 1.8809341e-38 323 156
0.0044674934 0.63700002 0.093817361 1.8717142e-38 324 156
0.0055843666 0.63700002 0.093817361 1.8624947e-38 325 156
0.0067012399 0.63700002 0.093817361 1.8808259e-38 326 156
0.0078181131 0.63700002 0.093817361 1.8808259e-38 327 156
0.0089349868 0.63700002 0.093817361 1.8899736e-38 328 156
0.01005186 0.63700002 0.093817361 1.8899736e-38 329 156
0.011168733 0.63700002 0.093817361 1.8716063e-38 330 156
0.012285607 0.63700002 0.093817361 1.8532031e-38 331 156
0.01342352 0.63800001 0.093964644 1.8532031e-38 332 156
0.014542148 0.63800001 0.093964644 1.8532031e-38 333 156
0.015660774 0.63800001 0.093964644 1.8532031e-38 334 156
0.016831998 0.63999999 0.094259195 1.8439476e-38 335 156
0.017954132 0.63999999 0.094259195 1.8530593e-38 336 156
0.018986847 0.63700002 0.093817361 1.8346562e-38 337 156
0.020103721 0.63700002 0.093817361 1.8530227e-38 338 156
0.021220595 0.63700002 0.093817361 1.8253639e-38 339 156
0.022337466 0.63700002 0.093817361 1.6594472e-38 340 156
-0.0067117601 0.63800001 0.092846014 1.613783e-38 314 157
-0.0055843666 0.63700002 0.092700489 2.0102242e-38 315 157
-0.0044674934 0.63700002 0.092700489 1.9456522e-38 316 157
-0.0033506199 0.63700002 0.092700489 1.862676e-38 317 157
-0.0022337467 0.63700002 0.092700489 1.8717508e-38 318 157
-0.0011168733 0.63700002 0.092700489 1.8625312e-38 319 157
0 0.63700002 0.092700489 1.8717142e-38 320 157
0.0011168733 0.63700002 0.092700489 1.8717142e-38 321 157
0.0022337467 0.63700002 0.092700489 1.8717142e-38 322 157
0.0033506199 0.63700002 0.092700489 1.8809338e-38 323 157
0.0044674934 0.63700002 0.092700489 1.8717142e-38 324 157
0.0055843666 0.63700002 0.092700489 1.8717142e-38 325 157
0.0067012399 0.63700002 0.092700489 1.8717142e-38 326 157
0.0078058392 0.63599998 0.092554957 1.8717142e-38 327 157
0.0089209592 0.63599998 0.092554957 1.8624947e-38 328 157
0.01005186 0.63700002 0.092700489 1.8624947e-38 329 157
0.011151199 0.63599998 0.092554957 1.8532031e-38 330 157
0.012266319 0.63599998 0.092554957 1.8532031e-38 331 157
0.01340248 0.63700002 0.092700489 1.8532751e-38 332 157
0.014519353 0.63700002 0.092700489 1.8440195e-38 333 157
0.015636226 0.63700002 0.092700489 1.8715343e-38 334 157
0.0167531 0.63700002 0.092700489 1.8623147e-38 335 157
0.017869974 0.63700002 0.092700489 1.8439476e-38 336 157
0.018986847 0.63700002 0.092700489 1.8347281e-38 337 157
0.020103721 0.63700002 0.092700489 1.8530593e-38 338 157
0.021120653 0.634 0.092263907 1.8069974e-38 339 157
0.022232266 0.634 0.092263907 1.6226413e-38 340 157
-0.0067117601 0.63800001 0.091727383 1.6322595e-38 314 158
-0.0055843666 0.63700002 0.09158361 2.0010061e-38 315 158
-0.0044674934 0.63700002 0.09158361 1.8998786e-38 316 158
-0.0033506199 0.63700002 0.09158361 1.8353417e-38 317 158
-0.0022302398 0.63599998 0.091439828 1.8717505e-38 318 158
-0.0011151199 0.63599998 0.091439828 1.8717505e-38 319 158
0 0.63599998 0.091439828 1.8900454e-38 320 158
0.0011151199 0.63599998 0.091439828 1.8900454e-38 321 158
0.0022302398 0.63599998 0.091439828 1.8900457e-38 322 158
0.0033453598 0.63599998 0.091439828 1.8900457e-38 323 158
0.0044604796 0.63599998 0.091439828 1.8716786e-38 324 158
0.0055755996 0.63599998 0.091439828 1.8809341e-38 325 158
0.0066907196 0.63599998 0.091439828 1.8900454e-38 326 158
0.0078058392 0.63599998 0.091439828 1.8900454e-38 327 158
0.0089209592 0.63599998 0.091439828 1.8900454e-38 328 158
0.010036079 0.63599998 0.091439828 1.8808259e-38 329 158
0.011151199 0.63599998 0.091439828 1.8716063e-38 330 158
0.012266319 0.63599998 0.091439828 1.8532031e-38 331 158
0.013381439 0.63599998 0.091439828 1.8716059e-38 332 158
0.014496559 0.63599998 0.091439828 1.8716059e-38 333 158
0.015611678 0.63599998 0.091439828 1.8532028e-38 334 158
0.016726799 0.63599998 0.091439828 1.8439832e-38 335 158
0.017841918 0.63599998 0.091439828 1.8347283e-38 336 158
0.018957037 0.63599998 0.091439828 1.8347283e-38 337 158
0.0200406 0.63499999 0.091296062 1.8531322e-38 338 158
0.021054026 0.63200003 0.090864748 1.751717e-38 339 158
0.022162134 0.63200003 0.090864748 1.5766159e-38 340 158
-0.0067117601 0.63800001 0.090608761 1.6231845e-38 314 159
-0.0055843666 0.63700002 0.090466738 1.9366495e-38 315 159
-0.0044674934 0.63700002 0.090466738 1.8725089e-38 316 159
-0.0033506199 0.63700002 0.090466738 1.8448143e-38 317 159
-0.0022302398 0.63599998 0.090324715 1.8810069e-38 318 159
-0.0011151199 0.63599998 0.090324715 1.8533843e-38 319 159
0 0.63599998 0.090324715 1.8717508e-38 320 159
0.0011151199 0.63599998 0.090324715 1.8625312e-38 321 159
0.0022302398 0.63599998 0.090324715 1.8900457e-38 322 159
0.0033453598 0.63599998 0.090324715 1.8900457e-38 323 159
0.0044604796 0.63599998 0.090324715 1.8717142e-38 324 159
0.0055755996 0.63599998 0.090324715 1.8809338e-38 325 159
0.0066907196 0.63599998 0.090324715 1.8900454e-38 326 159
0.0078058392 0.63599998 0.090324715 1.8900454e-38 327 159
0.0089209592 0.63599998 0.090324715 1.8991934e-38 328 159
0.0100203 0.63499999 0.090182692 1.8899738e-38 329 159
0.011133666 0.63499999 0.090182692 1.8808259e-38 330 159
0.012247032 0.63499999 0.090182692 1.8716063e-38 331 159
0.013381439 0.63599998 0.090324715 1.871534e-38 332 159
0.014496559 0.63599998 0.090324715 1.871534e-38 333 159
0.015611678 0.63599998 0.090324715 1.8623144e-38 334 159
0.016700499 0.63499999 0.090182692 1.8623144e-38 335 159
0.017785814 0.634 0.090040676 1.8347281e-38 336 159
0.018897425 0.634 0.090040676 1.8439476e-38 337 159
0.020009039 0.634 0.090040676 1.8439126e-38 338 159
0.021054026 0.63200003 0.089756638 1.6410822e-38 339 159
0.022162134 0.63200003 0.089756638 1.4753449e-38 340 159
-0.0067433193 0.64099997 0.089910932 1.5958501e-38 314 160
-0.0056106662 0.63999999 0.08977066 1.8447424e-38 315 160
-0.0044674934 0.63700002 0.089349866 1.7715626e-38 316 160
-0.0033506199 0.63700002 0.089349866 1.7715626e-38 317 160
-0.0022302398 0.63599998 0.089209594 1.9089181e-38 318 160
-0.0011151199 0.63599998 0.089209594 1.8536008e-38 319 160
0 0.63599998 0.089209594 1.9084846e-38 320 160
0.0011151199 0.63599998 0.089209594 1.9084846e-38 321 160
0.0022302398 0.63599998 0.089209594 1.8900452e-38 322 160
0.0033453598 0.63599998 0.089209594 1.8900452e-38 323 160
0.0044604796 0.63599998 0.089209594 1.8625665e-38 324 160
0.0055755996 0.63599998 0.089209594 1.8625665e-38 325 160
0.0066907196 0.63599998 0.089209594 1.8716786e-38 326 160
0.0078058392 0.63599998 0.089209594 1.8624591e-38 327 160
0.0089209592 0.63599998 0.089209594 1.8716786e-38 328 160
0.0100203 0.63499999 0.089069329 1.8624591e-38 329 160
0.011133666 0.63499999 0.089069329 1.8716063e-38 330 160
0.012247032 0.63499999 0.089069329 1.8532031e-38 331 160
0.0133604 0.63499999 0.089069329 1.8532028e-38 332 160
0.014496559 0.63599998 0.089209594 1.8532028e-38 333 160
0.015611678 0.63599998 0.089209594 1.8623144e-38 334 160
0.016700499 0.63499999 0.089069329 1.8623144e-38 335 160
0.017785814 0.634 0.088929065 1.8439482e-38 336 160
0.018897425 0.634 0.088929065 1.8070341e-38 337 160
0.020009039 0.634 0.088929065 1.6784647e-38 338 160
0.021054026 0.63200003 0.088648535 1.4756343e-38 339 160
0.022162134 0.63200003 0.088648535 1.4107724e-38 340 160
-0.0056106662 0.63999999 0.088648528 1.7526197e-38 315 161
-0.0044674934 0.63700002 0.088232994 1.6795481e-38 316 161
-0.0033506199 0.63700002 0.088232994 1.7533045e-38 317 161
-0.0022302398 0.63599998 0.088094473 1.9275746e-38 318 161
-0.0011151199 0.63599998 0.088094473 1.8722572e-38 319 161
0 0.63599998 0.088094473 1.9087014e-38 320 161
0.0011151199 0.63599998 0.088094473 1.8626394e-38 321 161
0.0022302398 0.63599998 0.088094473 1.8624947e-38 322 161
0.0033453598 0.63599998 0.088094473 1.8717142e-38 323 161
0.0044534663 0.63499999 0.087955967 1.8624591e-38 324 161
0.0055668331 0.63499999 0.087955967 1.8624591e-38 325 161
0.0066801999 0.63499999 0.087955967 1.8624591e-38 326 161
0.0077935657 0.63499999 0.087955967 1.8624591e-38 327 161
0.0089069325 0.63499999 0.087955967 1.8624591e-38 328 161
0.0100203 0.63499999 0.087955967 1.8624591e-38 329 161
0.011133666 0.63499999 0.087955967 1.8715707e-38 330 161
0.012247032 0.63499999 0.087955967 1.8531675e-38 331 161
0.0133604 0.63499999 0.087955967 1.8715343e-38 332 161
0.014496559 0.63599998 0.088094473 1.8623147e-38 333 161
0.015611678 0.63599998 0.088094473 1.8623144e-38 334 161
0.016726799 0.63599998 0.088094473 1.871534e-38 335 161
0.017813865 0.63499999 0.087955967 1.8716063e-38 336 161
0.018927233 0.63499999 0.087955967 1.7241292e-38 337 161
0.020009039 0.634 0.087817445 1.5402065e-38 338 161
0.021120653 0.634 0.087817445 1.3742184e-38 339 161
-0.0067327996 0.63999999 0.087526396 1.568265e-38 314 162
-0.0056106662 0.63999999 0.087526396 1.7158139e-38 315 162
-0.0044745067 0.63800001 0.087252878 1.6426707e-38 316 162
-0.0033506199 0.63700002 0.087116122 1.7071715e-38 317 162
-0.0022302398 0.63599998 0.086979352 1.7898944e-38 318 162
-0.0011151199 0.63599998 0.086979352 1.7991141e-38 319 162
0 0.63599998 0.086979352 1.8998786e-38 320 162
0.0011133666 0.63499999 0.086842597 1.8721839e-38 321 162
0.0022267331 0.63499999 0.086842597 1.8902619e-38 322 162
0.0033400999 0.63499999 0.086842597 1.8534196e-38 323 162
0.0044534663 0.63499999 0.086842597 1.8900101e-38 324 162
0.0055668331 0.63499999 0.086842597 1.871571e-38 325 162
0.0066801999 0.63499999 0.086842597 1.8807903e-38 326 162
0.0077935657 0.63499999 0.086842597 1.8807903e-38 327 162
0.0089069325 0.63499999 0.086842597 1.8624591e-38 328 162
0.0100203 0.63499999 0.086842597 1.8624591e-38 329 162
0.011133666 0.63499999 0.086842597 1.8715707e-38 330 162
0.012247032 0.63499999 0.086842597 1.8807903e-38 331 162
0.0133604 0.63499999 0.086842597 1.8532751e-38 332 162
0.014496559 0.63599998 0.086979352 1.8440195e-38 333 162
0.015611678 0.63599998 0.086979352 1.8440195e-38 334 162
0.016726799 0.63599998 0.086979352 1.8071773e-38 335 162
0.017813865 0.63499999 0.086842597 1.7609363e-38 336 162
0.018927233 0.63499999 0.086842597 1.6134232e-38 337 162
0.0200406 0.63499999 0.086842597 1.4570152e-38 338 162
0.021153966 0.63499999 0.086842597 1.3924783e-38 339 162
-0.0067327996 0.63999999 0.086404264 1.5590823e-38 314 163
-0.0056106662 0.63999999 0.086404264 1.6973757e-38 315 163
-0.0044745067 0.63800001 0.086134247 1.6149411e-38 316 163
-0.0033506199 0.63700002 0.08599925 1.6425997e-38 317 163
-0.0022337467 0.63700002 0.08599925 1.6795131e-38 318 163
-0.0011151199 0.63599998 0.085864238 1.7164268e-38 319 163
0 0.63599998 0.085864238 1.8541794e-38 320 163
0.0011133666 0.63499999 0.085729234 1.8357042e-38 321 163
0.0022267331 0.63499999 0.085729234 1.8814042e-38 322 163
0.0033400999 0.63499999 0.085729234 1.8445259e-38 323 163
0.0044534663 0.63499999 0.085729234 1.8901905e-38 324 163
0.0055668331 0.63499999 0.085729234 1.8717155e-38 325 163
0.0066801999 0.63499999 0.085729234 1.8625309e-38 326 163
0.0077935657 0.63499999 0.085729234 1.8717505e-38 327 163
0.0089069325 0.63499999 0.085729234 1.8625312e-38 328 163
0.0100203 0.63499999 0.085729234 1.8533117e-38 329 163
0.011133666 0.63499999 0.085729234 1.8441644e-38 330 163
0.012247032 0.63499999 0.085729234 1.8441644e-38 331 163
0.0133604 0.63499999 0.085729234 1.8441644e-38 332 163
0.014473766 0.63499999 0.085729234 1.8349448e-38 333 163
0.015611678 0.63599998 0.085864238 1.7888473e-38 334 163
0.016726799 0.63599998 0.085864238 1.6873961e-38 335 163
0.017813865 0.63499999 0.085729234 1.5582506e-38 336 163
0.018927233 0.63499999 0.085729234 1.447616e-38 337 163
0.0200406 0.63499999 0.085729234 1.355672e-38 338 163
0.021153966 0.63499999 0.085729234 1.3648916e-38 339 163
-0.00675384 0.64200002 0.085548639 1.5314959e-38 314 164
-0.0056281998 0.64200002 0.085548639 1.6882644e-38 315 164
-0.0044955462 0.64099997 0.085415386 1.5966099e-38 316 164
-0.00335588 0.63800001 0.085015625 1.6058295e-38 317 164
-0.0022337467 0.63700002 0.084882379 1.6058292e-38 318 164
-0.0011168733 0.63700002 0.084882379 1.6427073e-38 319 164
0 0.63599998 0.084749117 1.6887683e-38 320 164
0.0011151199 0.63599998 0.084749117 1.6887683e-38 321 164
0.0022302398 0.63599998 0.084749117 1.7804945e-38 322 164
0.0033453598 0.63599998 0.084749117 1.7804945e-38 323 164
0.0044534663 0.63499999 0.084615864 1.853853e-38 324 164
0.0055668331 0.63499999 0.084615864 1.8446334e-38 325 164
0.0066801999 0.63499999 0.084615864 1.8811152e-38 326 164
0.0077935657 0.63499999 0.084615864 1.8718957e-38 327 164
0.0089069325 0.63499999 0.084615864 1.8534564e-38 328 164
0.0100203 0.63499999 0.084615864 1.8534564e-38 329 164
0.011133666 0.63499999 0.084615864 1.7983192e-38 330 164
0.012247032 0.63499999 0.084615864 1.7798443e-38 331 164
0.0133604 0.63499999 0.084615864 1.6969764e-38 332 164
0.014473766 0.63499999 0.084615864 1.6692817e-38 333 164
0.015611678 0.63599998 0.084749117 1.5863056e-38 334 164
0.016726799 0.63599998 0.084749117 1.5033655e-38 335 164
0.017813865 0.63499999 0.084615864 1.4201737e-38 336 164
0.018927233 0.63499999 0.084615864 1.3741117e-38 337 164
0.020072158 0.63599998 0.084749117 1.3648916e-38 338 164
-0.00675384 0.64200002 0.084422998 1.5406792e-38 314 165
-0.0056281998 0.64200002 0.084422998 1.7065953e-38 315 165
-0.00450256 0.64200002 0.084422998 1.6149408e-38 316 165
-0.0033663998 0.63999999 0.08416 1.6057213e-38 317 165
-0.0022372534 0.63800001 0.083897002 1.6057213e-38 318 165
-0.0011168733 0.63700002 0.083765499 1.6241604e-38 319 165
0 0.63700002 0.083765499 1.6058645e-38 320 165
0.0011151199 0.63599998 0.083633989 1.6242676e-38 321 165
0.0022302398 0.63599998 0.083633989 1.6885881e-38 322 165
0.0033453598 0.63599998 0.083633989 1.6978076e-38 323 165
0.0044534663 0.63499999 0.083502494 1.8079734e-38 324 165
0.0055668331 0.63499999 0.083502494 1.7987538e-38 325 165
0.0066801999 0.63499999 0.083502494 1.8352711e-38 326 165
0.0077935657 0.63499999 0.083502494 1.8168319e-38 327 165
0.0089069325 0.63499999 0.083502494 1.8259793e-38 328 165
0.0100203 0.63499999 0.083502494 1.7983205e-38 329 165
0.011133666 0.63499999 0.083502494 1.7523303e-38 330 165
0.012247032 0.63499999 0.083502494 1.7154521e-38 331 165
0.0133604 0.63499999 0.083502494 1.5957052e-38 332 165
0.014496559 0.63599998 0.083633989 1.5496075e-38 333 165
0.015611678 0.63599998 0.083633989 1.4573399e-38 334 165
0.016726799 0.63599998 0.083633989 1.392803e-38 335 165
0.017841918 0.63599998 0.083633989 1.3465251e-38 336 165
0.018957037 0.63599998 0.083633989 1.3373055e-38 337 165
0.020103721 0.63700002 0.083765499 1.3832228e-38 338 165
-0.0079408465 0.64700001 0.083946094 1.49404e-38 313 166
-0.00679592 0.64600003 0.083816342 1.5590823e-38 314 166
-0.0056632664 0.64600003 0.083816342 1.7065953e-38 315 166
-0.0045095733 0.64300001 0.083427109 1.5688786e-38 316 166
-0.00337692 0.64200002 0.083297364 1.5780982e-38 317 166
-0.0022477731 0.64099997 0.083167605 1.6239805e-38 318 166
-0.0011221332 0.63999999 0.083037868 1.6147609e-38 319 166
0 0.63700002 0.082648627 1.614689e-38 320 166
0.0011168733 0.63700002 0.082648627 1.6239086e-38 321 166
0.0022302398 0.63599998 0.082518876 1.5689502e-38 322 166
0.0033453598 0.63599998 0.082518876 1.5413276e-38 323 166
0.0044604796 0.63599998 0.082518876 1.5963203e-38 324 166
0.0055755996 0.63599998 0.082518876 1.5686616e-38 325 166
0.0066907196 0.63599998 0.082518876 1.5685171e-38 326 166
0.0078058392 0.63599998 0.082518876 1.5592975e-38 327 166
0.0089209592 0.63599998 0.082518876 1.6142906e-38 328 166
0.0100203 0.63499999 0.082389124 1.5866318e-38 329 166
0.011133666 0.63499999 0.082389124 1.5129829e-38 330 166
0.012266319 0.63599998 0.082518876 1.4945438e-38 331 166
0.013381439 0.63599998 0.082518876 1.4483015e-38 332 166
0.014496559 0.63599998 0.082518876 1.4206427e-38 333 166
0.015636226 0.63700002 0.082648627 1.3928395e-38 334 166
0.0167531 0.63700002 0.082648627 1.3744004e-38 335 166
0.017869974 0.63700002 0.082648627 1.4108825e-38 336 166
0.019016653 0.63800001 0.082778372 1.3924074e-38 337 166
0.020229958 0.64099997 0.083167605 1.3648919e-38 338 166
-0.0079408465 0.64700001 0.082811691 1.3929491e-38 313 167
-0.00679592 0.64600003 0.08268369 1.5407511e-38 314 167
-0.0056632664 0.64600003 0.08268369 1.6790445e-38 315 167
-0.0045165867 0.64399999 0.082427703 1.5779903e-38 316 167
-0.00337692 0.64200002 0.082171716 1.5872099e-38 317 167
-0.00225128 0.64200002 0.082171716 1.5871748e-38 318 167
-0.0011238866 0.64099997 0.082043722 1.5871748e-38 319 167
0 0.64099997 0.082043722 1.559624e-38 320 167
0.0011186267 0.63800001 0.081659749 1.5688436e-38 321 167
0.0022337467 0.63700002 0.081531756 1.5872099e-38 322 167
0.0033506199 0.63700002 0.081531756 1.5595872e-38 323 167
0.0044604796 0.63599998 0.081403755 1.5686621e-38 324 167
0.0055755996 0.63599998 0.081403755 1.5501871e-38 325 167
0.0066907196 0.63599998 0.081403755 1.5316761e-38 326 167
0.0078058392 0.63599998 0.081403755 1.5224564e-38 327 167
0.0089209592 0.63599998 0.081403755 1.5407511e-38 328 167
0.010036079 0.63599998 0.081403755 1.4946534e-38 329 167
0.011151199 0.63599998 0.081403755 1.466958e-38 330 167
0.012266319 0.63599998 0.081403755 1.4484828e-38 331 167
0.01340248 0.63700002 0.081531756 1.4206074e-38 332 167
0.014519353 0.63700002 0.081531756 1.3837293e-38 333 167
0.015636226 0.63700002 0.081531756 1.3928395e-38 334 167
0.016779399 0.63800001 0.081659749 1.3559614e-38 335 167
0.017954132 0.63999999 0.081915729 1.392551e-38 336 167
0.019076265 0.63999999 0.081915729 1.3741117e-38 337 167
0.020261521 0.64200002 0.082171716 1.36482e-38 338 167
-0.0079408465 0.64700001 0.08167728 1.3193727e-38 313 168
-0.00679592 0.64600003 0.081551038 1.5406441e-38 314 168
-0.0056632664 0.64600003 0.081551038 1.7249995e-38 315 168
-0.0045306133 0.64600003 0.081551038 1.6239805e-38 316 168
-0.0033821799 0.64300001 0.081172317 1.5963578e-38 317 168
-0.00225128 0.64200002 0.081046082 1.5688789e-38 318 168
-0.00112564 0.64200002 0.081046082 1.5596235e-38 319 168
0 0.64099997 0.080919832 1.5779906e-38 320 168
0.0011221332 0.63999999 0.080793597 1.5779906e-38 321 168
0.0022372534 0.63800001 0.080541119 1.5779906e-38 322 168
0.0033506199 0.63700002 0.080414884 1.5779906e-38 323 168
0.0044674934 0.63700002 0.080414884 1.5686988e-38 324 168
0.0055843666 0.63700002 0.080414884 1.5502596e-38 325 168
0.0067012399 0.63700002 0.080414884 1.5500076e-38 326 168
0.0078181131 0.63700002 0.080414884 1.5500076e-38 327 168
0.0089349868 0.63700002 0.080414884 1.5040167e-38 328 168
0.010036079 0.63599998 0.080288634 1.4579548e-38 329 168
0.011151199 0.63599998 0.080288634 1.4577744e-38 330 168
0.012285607 0.63700002 0.080414884 1.4209321e-38 331 168
0.01340248 0.63700002 0.080414884 1.393021e-38 332 168
0.014542148 0.63800001 0.080541119 1.3561788e-38 333 168
0.015660774 0.63800001 0.080541119 1.3835847e-38 334 168
0.016831998 0.63999999 0.080793597 1.337487e-38 335 168
0.017982185 0.64099997 0.080919832 1.3648569e-38 336 168
0.019106071 0.64099997 0.080919832 1.3556373e-38 337 168
0.020261521 0.64200002 0.081046082 1.3648197e-38 338 168
0.021620352 0.64899999 0.081929758 1.3556002e-38 339 168
-0.0079408465 0.64700001 0.08054287 1.2085581e-38 313 169
-0.0068064397 0.64700001 0.08054287 1.448593e-38 314 169
-0.0056720334 0.64700001 0.08054287 1.7159603e-38 315 169
-0.0045306133 0.64600003 0.080418386 1.6516752e-38 316 169
-0.0033874398 0.64399999 0.08016941 1.6239805e-38 317 169
-0.0022547867 0.64300001 0.080044925 1.5598389e-38 318 169
-0.00112564 0.64200002 0.079920441 1.5413997e-38 319 169
0 0.64200002 0.079920441 1.5596235e-38 320 169
0.0011238866 0.64099997 0.079795949 1.5504039e-38 321 169
0.0022442664 0.63999999 0.079671465 1.5779906e-38 322 169
0.00335588 0.63800001 0.079422489 1.5779906e-38 323 169
0.0044745067 0.63800001 0.079422489 1.5594789e-38 324 169
0.0055931332 0.63800001 0.079422489 1.5594789e-38 325 169
0.0067117601 0.63800001 0.079422489 1.5684821e-38 326 169
0.0078181131 0.63700002 0.079298005 1.5500429e-38 327 169
0.0089349868 0.63700002 0.079298005 1.5132e-38 328 169
0.01005186 0.63700002 0.079298005 1.4762857e-38 329 169
0.011168733 0.63700002 0.079298005 1.4393713e-38 330 169
0.012285607 0.63700002 0.079298005 1.4024571e-38 331 169
0.01342352 0.63800001 0.079422489 1.3838014e-38 332 169
0.014587732 0.63999999 0.079671465 1.3469232e-38 333 169
0.015709866 0.63999999 0.079671465 1.355962e-38 334 169
0.016858298 0.64099997 0.079795949 1.337487e-38 335 169
0.017982185 0.64099997 0.079795949 1.3741117e-38 336 169
0.019165685 0.64300001 0.080044925 1.3741117e-38 337 169
0.02032464 0.64399999 0.08016941 1.3924061e-38 338 169
0.021620352 0.64899999 0.080791838 1.373967e-38 339 169
0.022793332 0.64999998 0.08091633 1.3187941e-38 340 169
-0.0079531204 0.648 0.0795312 1.1436965e-38 313 170
-0.0068169599 0.648 0.0795312 1.2643807e-38 314 170
-0.0056807999 0.648 0.0795312 1.6424186e-38 315 170
-0.0045376266 0.64700001 0.079408467 1.6976651e-38 316 170
-0.00339796 0.64600003 0.079285733 1.6791904e-38 317 170
-0.0022582933 0.64399999 0.079040259 1.5966096e-38 318 170
-0.0011291467 0.64399999 0.079040259 1.5781704e-38 319 170
0 0.64300001 0.078917533 1.5780985e-38 320 170
0.00112564 0.64200002 0.0787948 1.5596235e-38 321 170
0.0022477731 0.64099997 0.078672059 1.5779187e-38 322 170
0.0033663998 0.63999999 0.078549333 1.5686632e-38 323 170
0.0044885329 0.63999999 0.078549333 1.5502593e-38 324 170
0.0056106662 0.63999999 0.078549333 1.5502593e-38 325 170
0.0067327996 0.63999999 0.078549333 1.5684821e-38 326 170
0.007830387 0.63800001 0.078303866 1.5500429e-38 327 170
0.0089490134 0.63800001 0.078303866 1.5039448e-38 328 170
0.01006764 0.63800001 0.078303866 1.4578829e-38 329 170
0.011186266 0.63800001 0.078303866 1.4300437e-38 330 170
0.012304893 0.63800001 0.078303866 1.383946e-38 331 170
0.013465599 0.63999999 0.078549333 1.4112438e-38 332 170
0.014610525 0.64099997 0.078672059 1.3743295e-38 333 170
0.015734414 0.64099997 0.078672059 1.3926595e-38 334 170
0.016884599 0.64200002 0.0787948 1.3742563e-38 335 170
0.01801024 0.64200002 0.0787948 1.383331e-38 336 170
0.019255107 0.64600003 0.079285733 1.3741115e-38 337 170
0.020387759 0.64600003 0.079285733 1.3924064e-38 338 170
0.021620352 0.64899999 0.079653934 1.3647118e-38 339 170
-0.0068064397 0.64700001 0.078274064 1.0248874e-38 314 171
-0.0056720334 0.64700001 0.078274064 1.4213288e-38 315 171
-0.0045376266 0.64700001 0.078274064 1.6423844e-38 316 171
-0.0034032199 0.64700001 0.078274064 1.697701e-38 317 171
-0.0022653067 0.64600003 0.078153081 1.6424921e-38 318 171
-0.0011326533 0.64600003 0.078153081 1.6240891e-38 319 171
0 0.64399999 0.077911116 1.587318e-38 320 171
0.0011273933 0.64300001 0.077790141 1.5780985e-38 321 171
0.00225128 0.64200002 0.077669159 1.5779906e-38 322 171
0.00337692 0.64200002 0.077669159 1.5411123e-38 323 171
0.0044955462 0.64099997 0.077548169 1.522601e-38 324 171
0.0056194332 0.64099997 0.077548169 1.5133815e-38 325 171
0.0067433193 0.64099997 0.077548169 1.5316761e-38 326 171
0.0078672068 0.64099997 0.077548169 1.4763587e-38 327 171
0.0089770658 0.63999999 0.077427194 1.4854337e-38 328 171
0.0100992 0.63999999 0.077427194 1.4301164e-38 329 171
0.011221332 0.63999999 0.077427194 1.4115321e-38 330 171
0.012362752 0.64099997 0.077548169 1.3839093e-38 331 171
0.013486639 0.64099997 0.077548169 1.4388299e-38 332 171
0.01463332 0.64200002 0.077669159 1.4203907e-38 333 171
0.01575896 0.64200002 0.077669159 1.4111339e-38 334 171
0.016910899 0.64300001 0.077790141 1.3926948e-38 335 171
0.018038293 0.64300001 0.077790141 1.3834386e-38 336 171
0.019255107 0.64600003 0.078153081 1.3741831e-38 337 171
0.020387759 0.64600003 0.078153081 1.3831512e-38 338 171
-0.00679592 0.64600003 0.077020429 1.1435906e-38 314 172
-0.0056632664 0.64600003 0.077020429 1.3648961e-38 315 172
-0.0045376266 0.64700001 0.077139653 1.4582456e-38 316 172
-0.00339796 0.64600003 0.077020429 1.6426356e-38 317 172
-0.0022653067 0.64600003 0.077020429 1.6792263e-38 318 172
-0.0011326533 0.64600003 0.077020429 1.6608233e-38 319 172
0 0.64600003 0.077020429 1.6149408e-38 320 172
0.0011291467 0.64399999 0.076781973 1.587318e-38 321 172
0.0022547867 0.64300001 0.076662742 1.5963578e-38 322 172
0.0033821799 0.64300001 0.076662742 1.5779187e-38 323 172
0.0045095733 0.64300001 0.076662742 1.5501521e-38 324 172
0.0056369668 0.64300001 0.076662742 1.531713e-38 325 172
0.00675384 0.64200002 0.076543517 1.4949772e-38 326 172
0.0078794798 0.64200002 0.076543517 1.4488796e-38 327 172
0.00900512 0.64200002 0.076543517 1.4669577e-38 328 172
0.01013076 0.64200002 0.076543517 1.4485184e-38 329 172
0.0112564 0.64200002 0.076543517 1.4758526e-38 330 172
0.012401327 0.64300001 0.076662742 1.466633e-38 331 172
0.01352872 0.64300001 0.076662742 1.457269e-38 332 172
0.014656113 0.64300001 0.076662742 1.4480494e-38 333 172
0.015808053 0.64399999 0.076781973 1.4112058e-38 334 172
0.0169372 0.64399999 0.076781973 1.3835831e-38 335 172
0.018066347 0.64399999 0.076781973 1.3925507e-38 336 172
0.019255107 0.64600003 0.077020429 1.3741115e-38 337 172
0.020387759 0.64600003 0.077020429 1.3372702e-38 338 172
-0.00679592 0.64600003 0.075887777 1.6127084e-38 314 173
-0.0056632664 0.64600003 0.075887777 1.1517302e-38 315 173
-0.0045306133 0.64600003 0.075887777 9.8873013e-39 316 173
-0.00339796 0.64600003 0.075887777 1.3482571e-38 317 173
-0.0022653067 0.64600003 0.075887777 1.6608233e-38 318 173
-0.0011326533 0.64600003 0.075887777 1.7068845e-38 319 173
0 0.64600003 0.075887777 1.6516397e-38 320 173
0.0011326533 0.64600003 0.075887777 1.633165e-38 321 173
0.0022582933 0.64399999 0.075652823 1.6056139e-38 322 173
0.0033874398 0.64399999 0.075652823 1.5779553e-38 323 173
0.0045165867 0.64399999 0.075652823 1.5686268e-38 324 173
0.0056457333 0.64399999 0.075652823 1.5686268e-38 325 173
0.0067748795 0.64399999 0.075652823 1.5409313e-38 326 173
0.0078917528 0.64300001 0.07553535 1.5224561e-38 327 173
0.0090191467 0.64300001 0.07553535 1.5406066e-38 328 173
0.01014654 0.64300001 0.07553535 1.5129479e-38 329 173
0.011291467 0.64399999 0.075652823 1.5770883e-38 330 173
0.012420613 0.64399999 0.075652823 1.5494296e-38 331 173
0.013549759 0.64399999 0.075652823 1.4482296e-38 332 173
0.014678906 0.64399999 0.075652823 1.4205708e-38 333 173
0.015857147 0.64600003 0.075887777 1.4021308e-38 334 173
0.016989801 0.64600003 0.075887777 1.3560689e-38 335 173
0.018122453 0.64600003 0.075887777 1.3833313e-38 336 173
0.019255107 0.64600003 0.075887777 1.2910998e-38 337 173
-0.0056632664 0.64600003 0.074755117 1.0693994e-38 315 174
-0.0045306133 0.64600003 0.074755117 8.1280033e-39 316 174
-0.00339796 0.64600003 0.074755117 1.1815829e-38 317 174
-0.0022653067 0.64600003 0.074755117 1.4487026e-38 318 174
-0.0011326533 0.64600003 0.074755117 1.6423127e-38 319 174
0 0.64700001 0.07487084 1.6608233e-38 320 174
0.0011326533 0.64600003 0.074755117 1.6516039e-38 321 174
0.0022653067 0.64600003 0.074755117 1.6516397e-38 322 174
0.00339796 0.64600003 0.074755117 1.6239452e-38 323 174
0.0045165867 0.64399999 0.074523672 1.587138e-38 324 174
0.0056457333 0.64399999 0.074523672 1.5686988e-38 325 174
0.0067748795 0.64399999 0.074523672 1.5502946e-38 326 174
0.0079040267 0.64399999 0.074523672 1.5134165e-38 327 174
0.0090331733 0.64399999 0.074523672 1.5591176e-38 328 174
0.01016232 0.64399999 0.074523672 1.5222395e-38 329 174
0.011326533 0.64600003 0.074755117 1.522023e-38 330 174
0.012420613 0.64399999 0.074523672 1.522023e-38 331 174
0.013549759 0.64399999 0.074523672 1.4850003e-38 332 174
0.014724494 0.64600003 0.074755117 1.4665611e-38 333 174
0.015857147 0.64600003 0.074755117 1.4110989e-38 334 174
0.016989801 0.64600003 0.074755117 1.3650012e-38 335 174
0.018122453 0.64600003 0.074755117 1.2821319e-38 336 174
0.019255107 0.64600003 0.074755117 1.1991918e-38 337 174
-0.00113616 0.648 0.073850393 1.2735649e-38 319 175
0 0.64700001 0.073736429 1.4855798e-38 320 175
0.0011344067 0.64700001 0.073736429 1.5778115e-38 321 175
0.0022653067 0.64600003 0.073622465 1.6332005e-38 322 175
0.00339796 0.64600003 0.073622465 1.64242e-38 323 175
0.0045306133 0.64600003 0.073622465 1.6332358e-38 324 175
0.0056632664 0.64600003 0.073622465 1.6147965e-38 325 175
0.00679592 0.64600003 0.073622465 1.6237638e-38 326 175
0.0079285735 0.64600003 0.073622465 1.596141e-38 327 175
0.0090612266 0.64600003 0.073622465 1.6143275e-38 328 175
0.01019388 0.64600003 0.073622465 1.5774851e-38 329 175
0.011326533 0.64600003 0.073622465 1.5496813e-38 330 175
0.012459187 0.64600003 0.073622465 1.5128031e-38 331 175
0.01359184 0.64600003 0.073622465 1.521698e-38 332 175
0.014747286 0.64700001 0.073736429 1.4571611e-38 333 175
0.015881693 0.64700001 0.073736429 1.3649285e-38 334 175
0.016989801 0.64600003 0.073622465 1.2635493e-38 335 175
0.018122453 0.64600003 0.073622465 1.0519309e-38 336 175
-0.0011379133 0.64899999 0.072826453 1.1897938e-38 319 176
0 0.648 0.072714239 1.2638768e-38 320 176
0.00113616 0.648 0.072714239 1.3376333e-38 321 176
0.0022688133 0.64700001 0.072602026 1.3654367e-38 322 176
0.0034032199 0.64700001 0.072602026 1.4944747e-38 323 176
0.0045376266 0.64700001 0.072602026 1.5132013e-38 324 176
0.0056720334 0.64700001 0.072602026 1.5224208e-38 325 176
0.0068064397 0.64700001 0.072602026 1.5315315e-38 326 176
0.0079285735 0.64600003 0.072489813 1.4946534e-38 327 176
0.0090612266 0.64600003 0.072489813 1.522023e-38 328 176
0.01019388 0.64600003 0.072489813 1.4851087e-38 329 176
0.011326533 0.64600003 0.072489813 1.4848201e-38 330 176
0.012459187 0.64600003 0.072489813 1.401844e-38 331 176
0.01359184 0.64600003 0.072489813 1.3370905e-38 332 176
0.014747286 0.64700001 0.072602026 1.2725536e-38 333 176
0.015881693 0.64700001 0.072602026 1.1163958e-38 334 176
0 0.648 0.071578078 1.161884e-38 320 177
0.00113616 0.648 0.071578078 1.1249697e-38 321 177
0.00227232 0.648 0.071578078 1.0240239e-38 322 177
0.0034032199 0.64700001 0.071467623 1.1530978e-38 323 177
0.0045376266 0.64700001 0.071467623 1.1812251e-38 324 177
0.0056720334 0.64700001 0.071467623 1.2273229e-38 325 177
0.0068064397 0.64700001 0.071467623 1.2823879e-38 326 177
0.0079408465 0.64700001 0.071467623 1.2731684e-38 327 177
0.0090752533 0.64700001 0.071467623 1.2638749e-38 328 177
0.01020966 0.64700001 0.071467623 1.2454358e-38 329 177
0.011344067 0.64700001 0.071467623 1.2359273e-38 330 177
0.012478473 0.64700001 0.071467623 1.1068534e-38 331 177
0.013612879 0.64700001 0.071467623 1.0697229e-38 332 177
0.014747286 0.64700001 0.071467623 1.0697229e-38 333 177
0.0034032199 0.64700001 0.070333213 1.318364e-38 323 178
0.0045376266 0.64700001 0.070333213 1.1622802e-38 324 178
0.0056720334 0.64700001 0.070333213 1.1346216e-38 325 178
0.0068064397 0.64700001 0.070333213 1.1896152e-38 326 178
0.0079408465 0.64700001 0.070333213 1.1711401e-38 327 178
0.0090752533 0.64700001 0.070333213 1.1161452e-38 328 178
0.01020966 0.64700001 0.070333213 1.1161452e-38 329 178
0.011344067 0.64700001 0.070333213 1.1529148e-38 330 178
0.012478473 0.64700001 0.070333213 1.1436594e-38 331 178
0.013612879 0.64700001 0.070333213 1.2356026e-38 332 178
0.0056807999 0.648 0.069305755 1.3002831e-38 325 179
0.0068169599 0.648 0.069305755 1.3093226e-38 326 179
0.0079408465 0.64700001 0.069198802 1.2724442e-38 327 179
0.0090752533 0.64700001 0.069198802 1.2173067e-38 328 179
0.01020966 0.64700001 0.069198802 1.2357458e-38 329 179
0.011344067 0.64700001 0.069198802 1.3000675e-38 330 179
0.012478473 0.64700001 0.069198802 1.3646045e-38 331 179
-0.020254506 0.722 0.020254506 1.0803763e-38 304 224
-0.0189886 0.722 0.020254506 1.2186699e-38 305 224
-0.017722692 0.722 0.020254506 1.4112414e-38 306 224
-0.021520413 0.722 0.0189886 1.0614722e-38 303 225
-0.020254506 0.722 0.0189886 9.7899685e-39 304 225
-0.018935999 0.72000003 0.018935999 1.0342784e-38 305 225
-0.017673599 0.72000003 0.018935999 1.2091282e-38 306 225
-0.016388407 0.71899998 0.018909698 1.2183477e-38 307 225
-0.01512776 0.71899998 0.018909698 1.3002124e-38 308 225
-0.013828539 0.71700001 0.018857099 1.2264559e-38 309 225
-0.012553867 0.71600002 0.0188308 1.1807935e-38 310 225
-0.01129848 0.71600002 0.0188308 1.3375261e-38 311 225
0.029438468 0.73000002 0.019199001 1.3554918e-38 343 225
0.030718399 0.73000002 0.019199001 1.1993323e-38 344 225
0.031998333 0.73000002 0.019199001 1.1716736e-38 345 225
-0.021520413 0.722 0.017722692 1.1992284e-38 303 226
-0.020254506 0.722 0.017722692 9.6963184e-39 304 226
-0.018935999 0.72000003 0.017673599 9.6963184e-39 305 226
-0.017673599 0.72000003 0.017673599 1.0158373e-38 306 226
-0.016388407 0.71899998 0.017649053 1.1172525e-38 307 226
-0.01512776 0.71899998 0.017649053 1.3191162e-38 308 226
-0.013828539 0.71700001 0.017599959 1.2545793e-38 309 226
-0.012553867 0.71600002 0.017575413 1.0334195e-38 310 226
-0.01129848 0.71600002 0.017575413 9.7810212e-39 311 226
0.028081384 0.72799999 0.017869972 1.2729799e-38 342 226
0.029357811 0.72799999 0.017869972 1.143906e-38 343 226
0.030718399 0.73000002 0.017919067 1.1071697e-38 344 226
0.031998333 0.73000002 0.017919067 1.1717066e-38 345 226
0.033278264 0.73000002 0.017919067 1.2818392e-38 346 226
-0.022975679 0.72799999 0.016593546 1.3557467e-38 302 227
-0.021699252 0.72799999 0.016593546 1.2912099e-38 303 227
-0.020338668 0.72500002 0.016525166 1.1813619e-38 304 227
-0.019014901 0.72299999 0.01647958 1.1444838e-38 305 227
-0.017722692 0.722 0.016456785 9.6069968e-39 306 227
-0.016456785 0.722 0.016456785 9.6991924e-39 307 227
-0.0151488 0.72000003 0.0164112 1.0986341e-38 308 227
-0.013867113 0.71899998 0.016388407 1.1262568e-38 309 227
-0.0125714 0.71700001 0.016342819 1.1994044e-38 310 227
-0.01129848 0.71600002 0.016320027 1.1625622e-38 311 227
-0.010043093 0.71600002 0.016320027 1.2357081e-38 312 227
-0.0088245263 0.71899998 0.016388407 1.2080855e-38 313 227
0.026804959 0.72799999 0.016593546 1.0244457e-38 341 227
0.028081384 0.72799999 0.016593546 9.144204e-39 342 227
0.029357811 0.72799999 0.016593546 9.6973777e-39 343 227
0.030718399 0.73000002 0.016639132 1.2175524e-38 344 227
0.031998333 0.73000002 0.016639132 1.2636502e-38 345 227
0.033278264 0.73000002 0.016639132 1.2818395e-38 346 227
0.034558199 0.73000002 0.016639132 1.4016938e-38 347 227
-0.027394081 0.74400002 0.015653761 1.5213746e-38 299 228
-0.026019465 0.74199998 0.015611678 1.4294681e-38 300 228
-0.024718491 0.74199998 0.015611678 1.4294681e-38 301 228
-0.022975679 0.72799999 0.01531712 1.3559635e-38 302 228
-0.021699252 0.72799999 0.01531712 1.3006461e-38 303 228
-0.020394772 0.727 0.015296079 1.2549408e-38 304 228
-0.0190675 0.72500002 0.015254001 1.2457213e-38 305 228
-0.017747238 0.72299999 0.015211919 9.7895734e-39 306 228
-0.01647958 0.72299999 0.015211919 9.3285966e-39 307 228
-0.015190879 0.722 0.015190879 9.6080337e-39 308 228
-0.013924973 0.722 0.015190879 1.0160849e-38 309 228
-0.012624 0.72000003 0.0151488 1.0801947e-38 310 228
-0.01129848 0.71600002 0.01506464 1.0894143e-38 311 228
-0.010043093 0.71600002 0.01506464 1.1443026e-38 312 228
-0.0087999795 0.71700001 0.015085679 1.1443026e-38 313 228
-0.0075428397 0.71700001 0.015085679 1.2266682e-38 314 228
0.026804959 0.72799999 0.01531712 9.6018975e-39 341 228
0.028081384 0.72799999 0.01531712 1.0706457e-38 342 228
0.029438468 0.73000002 0.0153592 1.1259272e-38 343 228
0.030718399 0.73000002 0.0153592 1.2543234e-38 344 228
0.031998333 0.73000002 0.0153592 1.3004211e-38 345 228
0.033278264 0.73000002 0.0153592 1.3553811e-38 346 228
0.034558199 0.73000002 0.0153592 1.484455e-38 347 228
-0.02869856 0.74400002 0.01434928 1.6134623e-38 298 229
-0.027394081 0.74400002 0.01434928 1.558145e-38 299 229
-0.026019465 0.74199998 0.014310705 1.493897e-38 300 229
-0.024718491 0.74199998 0.014310705 1.4662743e-38 301 229
-0.022975679 0.72799999 0.014040692 1.3468883e-38 302 229
-0.021699252 0.72799999 0.014040692 1.3468883e-38 303 229
-0.020422826 0.72799999 0.014040692 1.4022037e-38 304 229
-0.019120099 0.727 0.014021406 1.3653253e-38 305 229
-0.017845426 0.727 0.014021406 1.0340596e-38 306 229
-0.016525166 0.72500002 0.013982833 9.4186399e-39 307 229
-0.015211919 0.72299999 0.01394426 9.0566326e-39 308 229
-0.013924973 0.722 0.013924973 9.2410253e-39 309 229
-0.012659066 0.722 0.013924973 9.7005797e-39 310 229
-0.011361601 0.72000003 0.0138864 9.8849724e-39 311 229
-0.010099201 0.72000003 0.0138864 1.0618252e-38 312 229
-0.0087999795 0.71700001 0.013828539 1.0895199e-38 313 229
-0.0075428397 0.71700001 0.013828539 1.1718887e-38 314 229
0.0037556398 0.71399999 0.01377068 1.1805375e-38 323 229
0.024318734 0.73000002 0.014079267 9.1437906e-39 339 229
0.025598666 0.73000002 0.014079267 1.0156122e-38 340 229
0.026804959 0.72799999 0.014040692 1.0248677e-38 341 229
0.028081384 0.72799999 0.014040692 1.1164924e-38 342 229
0.029438468 0.73000002 0.014079267 1.1534067e-38 343 229
0.030718399 0.73000002 0.014079267 1.2543237e-38 344 229
0.031998333 0.73000002 0.014079267 1.3096409e-38 345 229
0.033278264 0.73000002 0.014079267 1.419811e-38 346 229
-0.030124018 0.74699998 0.013097399 1.7056557e-38 297 230
-0.028775707 0.74599999 0.013079867 1.5951308e-38 298 230
-0.027467718 0.74599999 0.013079867 1.5213743e-38 299 230
-0.025914267 0.73900002 0.012957133 1.493897e-38 300 230
-0.024585238 0.73799998 0.012939599 1.4754939e-38 301 230
-0.022975679 0.72799999 0.012764266 1.3652198e-38 302 230
-0.021699252 0.72799999 0.012764266 1.3283415e-38 303 230
-0.020478934 0.73000002 0.012799333 1.3194443e-38 304 230
-0.0191464 0.72799999 0.012764266 1.2825662e-38 305 230
-0.017869972 0.72799999 0.012764266 1.0891993e-38 306 230
-0.016525166 0.72500002 0.012711667 9.9700382e-39 307 230
-0.015254001 0.72500002 0.012711667 9.3310755e-39 308 230
-0.013924973 0.722 0.012659066 9.3310755e-39 309 230
-0.012659066 0.722 0.012659066 9.6072841e-39 310 230
-0.011361601 0.72000003 0.012624 9.792034e-39 311 230
-0.010099201 0.72000003 0.012624 9.8838794e-39 312 230
-0.0087999795 0.71700001 0.0125714 9.976075e-39 313 230
-0.0075428397 0.71700001 0.0125714 1.0159076e-38 314 230
-0.0063032326 0.71899998 0.012606465 1.0435662e-38 315 230
0.0025037599 0.71399999 0.012518799 1.2912057e-38 322 230
0.0037503797 0.713 0.012501267 1.2912057e-38 323 230
0.0050005065 0.713 0.012501267 1.3001379e-38 324 230
0.022975679 0.72799999 0.012764266 9.604005e-39 338 230
0.024252106 0.72799999 0.012764266 9.5118094e-39 339 230
0.025598666 0.73000002 0.012799333 1.0156831e-38 340 230
0.026878599 0.73000002 0.012799333 1.0341223e-38 341 230
0.028158534 0.73000002 0.012799333 1.1532983e-38 342 230
0.029478792 0.73100001 0.012816866 1.1717735e-38 343 230
0.03076048 0.73100001 0.012816866 1.2543956e-38 344 230
0.032042164 0.73100001 0.012816866 1.2912738e-38 345 230
0.033323854 0.73100001 0.012816866 1.4289951e-38 346 230
-0.030124018 0.74699998 0.011787659 1.7240588e-38 297 231
-0.028775707 0.74599999 0.011771879 1.6043863e-38 298 231
-0.027467718 0.74599999 0.011771879 1.5029352e-38 299 231
-0.025914267 0.73900002 0.01166142 1.4387595e-38 300 231
-0.024585238 0.73799998 0.011645639 1.4479791e-38 301 231
-0.023038799 0.73000002 0.011519399 1.3744394e-38 302 231
-0.021758866 0.73000002 0.011519399 1.2914631e-38 303 231
-0.020478934 0.73000002 0.011519399 1.1996623e-38 304 231
-0.019199001 0.73000002 0.011519399 1.1904427e-38 305 231
-0.017869972 0.72799999 0.01148784 1.144376e-38 306 231
-0.016593546 0.72799999 0.01148784 1.1259729e-38 307 231
-0.015296079 0.727 0.01147206 1.0616833e-38 308 231
-0.01394426 0.72299999 0.01140894 1.0155855e-38 309 231
-0.012659066 0.722 0.01139316 1.0249437e-38 310 231
-0.011361601 0.72000003 0.011361601 1.0156883e-38 311 231
-0.010099201 0.72000003 0.011361601 9.5175799e-39 312 231
-0.0088245263 0.71899998 0.01134582 9.2406329e-39 313 231
-0.0075638802 0.71899998 0.01134582 9.1498862e-39 314 231
-0.0063032326 0.71899998 0.01134582 9.4264731e-39 315 231
-0.0050496003 0.72000003 0.011361601 1.0526394e-38 316 231
-0.0037714199 0.71700001 0.01131426 1.061859e-38 317 231
-0.0025142799 0.71700001 0.01131426 1.1168207e-38 318 231
-0.00125714 0.71700001 0.01131426 1.1813577e-38 319 231
0 0.71399999 0.011266919 1.2456449e-38 320 231
0.00125188 0.71399999 0.011266919 1.2272058e-38 321 231
0.0025037599 0.71399999 0.011266919 1.2639048e-38 322 231
