# .PCD v.7 - Point Cloud Data file format
FIELDS x y z rgb imX imY
SIZE 4 4 4 4 4 4
TYPE F F F F F F
COUNT 1 1 1 1 1 1
WIDTH 836
HEIGHT 1
VIEWPOINT 0 0 0 1 0 0 0
POINTS 836
DATA ascii
-0.02199732 0.69700003 0.00733244 1.2353098e-38 302 234
-0.020745439 0.69599998 0.0073219193 1.1431141e-38 303 234
-0.019469013 0.69400001 0.0073008798 8.8567766e-39 304 234
-0.018225901 0.69300002 0.0072903596 7.842266e-39 305 234
-0.016961746 0.69099998 0.0072693196 7.0207519e-39 306 234
-0.015727401 0.69 0.0072587994 6.9285577e-39 307 234
-0.014475521 0.68800002 0.0072377604 6.9274815e-39 308 234
-0.013269227 0.68800002 0.0072377604 6.7430931e-39 309 234
-0.012062933 0.68800002 0.0072377604 6.9246116e-39 310 234
-0.010856641 0.68800002 0.0072377604 7.0168059e-39 311 234
-0.0096503468 0.68800002 0.0072377604 7.4767008e-39 312 234
-0.0084317802 0.68699998 0.0072272392 7.2919536e-39 313 234
-0.0072272392 0.68699998 0.0072272392 7.478161e-39 314 234
-0.0060226996 0.68699998 0.0072272392 8.6767042e-39 315 234
-0.0048181596 0.68699998 0.0072272392 1.0604961e-38 316 234
-0.00360836 0.68599999 0.0072167199 1.1342526e-38 317 234
-0.0024055731 0.68599999 0.0072167199 1.1432238e-38 318 234
-0.00119928 0.68400002 0.0071956799 1.1340043e-38 319 234
0 0.68400002 0.0071956799 1.0144002e-38 320 234
0.00119928 0.68400002 0.0071956799 8.0235015e-39 321 234
0.0023985601 0.68400002 0.0071956799 3.0499429e-39 322 234
0.00359784 0.68400002 0.0071956799 3.1421372e-39 323 234
0.0047971201 0.68400002 0.0071956799 4.2473917e-39 324 234
0.0059964 0.68400002 0.0071956799 4.7083642e-39 325 234
0.0071956799 0.68400002 0.0071956799 5.1693424e-39 326 234
0.0083949603 0.68400002 0.0071956799 5.3537337e-39 327 234
0.0096363192 0.68699998 0.0072272392 5.8139929e-39 328 234
0.010840859 0.68699998 0.0072272392 5.9061886e-39 329 234
0.012045399 0.68699998 0.0072272392 6.6434033e-39 330 234
0.013249939 0.68699998 0.0072272392 7.4728038e-39 331 234
0.014454478 0.68699998 0.0072272392 8.2997128e-39 332 234
0.015659019 0.68699998 0.0072272392 7.9309317e-39 333 234
0.016888106 0.68800002 0.0072377604 7.6547176e-39 334 234
0.0180944 0.68800002 0.0072377604 7.8391074e-39 335 234
0.019300694 0.68800002 0.0072377604 8.2982877e-39 336 234
0.020506985 0.68800002 0.0072377604 8.8514615e-39 337 234
0.021776399 0.69 0.0072587994 9.4943156e-39 338 234
0.022986198 0.69 0.0072587994 9.4943156e-39 339 234
0.024231065 0.69099998 0.0072693196 9.126975e-39 340 234
0.02551626 0.69300002 0.0072903596 8.38941e-39 341 234
0.02673132 0.69300002 0.0072903596 7.837332e-39 342 234
0.027986705 0.69400001 0.0073008798 8.574897e-39 343 234
0.029287677 0.69599998 0.0073219193 1.0321589e-38 344 234
0.030551834 0.69700003 0.00733244 1.1151708e-38 345 234
0.031819493 0.69800001 0.0073429602 8.5720286e-39 346 234
0.033137999 0.69999999 0.0073639993 6.3589747e-39 347 234
0.034414422 0.70099998 0.0073745195 9.0369696e-39 348 234
0.035745207 0.70300001 0.0073955595 1.281699e-38 349 234
-0.028268991 0.70099998 0.0061454331 1.0233009e-38 297 235
-0.027039904 0.70099998 0.0061454331 6.4587528e-39 298 235
-0.025810819 0.70099998 0.0061454331 7.5650989e-39 299 235
-0.024546666 0.69999999 0.0061366665 1.0329523e-38 300 235
-0.023252707 0.69800001 0.006119133 1.1251479e-38 301 235
-0.02199732 0.69700003 0.0061103669 1.2446397e-38 302 235
-0.020745439 0.69599998 0.0061015999 1.1985059e-38 303 235
-0.019469013 0.69400001 0.0060840664 1.0880076e-38 304 235
-0.0182522 0.69400001 0.0060840664 9.6815347e-39 305 235
-0.01701084 0.69300002 0.0060753003 8.7649159e-39 306 235
-0.015750192 0.69099998 0.0060577663 8.4883276e-39 307 235
-0.014517599 0.69 0.0060489997 8.120987e-39 308 235
-0.013269227 0.68800002 0.0060314666 8.2131827e-39 309 235
-0.012062933 0.68800002 0.0060314666 8.3046762e-39 310 235
-0.010856641 0.68800002 0.0060314666 8.4890675e-39 311 235
-0.0096503468 0.68800002 0.0060314666 9.3156024e-39 312 235
-0.0084317802 0.68699998 0.0060226996 9.1315713e-39 313 235
-0.0072272392 0.68699998 0.0060226996 9.1334013e-39 314 235
-0.0060226996 0.68699998 0.0060226996 1.0147555e-38 315 235
-0.0048181596 0.68699998 0.0060226996 1.0974838e-38 316 235
-0.00360836 0.68599999 0.0060139326 1.1067033e-38 317 235
-0.0024055731 0.68599999 0.0060139326 1.1248921e-38 318 235
-0.00119928 0.68400002 0.0059964 1.0972334e-38 319 235
0 0.68400002 0.0059964 9.8670399e-39 320 235
0.00119928 0.68400002 0.0059964 8.0234861e-39 321 235
0.0023985601 0.68400002 0.0059964 5.7210882e-39 322 235
0.00359784 0.68400002 0.0059964 5.4445e-39 323 235
0.0047971201 0.68400002 0.0059964 5.9976807e-39 324 235
0.0059964 0.68400002 0.0059964 6.1817133e-39 325 235
0.0071956799 0.68400002 0.0059964 6.5508545e-39 326 235
0.0084195063 0.68599999 0.0060139326 6.9192783e-39 327 235
0.0096363192 0.68699998 0.0060226996 7.4710158e-39 328 235
0.010840859 0.68699998 0.0060226996 7.7472425e-39 329 235
0.012045399 0.68699998 0.0060226996 8.4819377e-39 330 235
0.013249939 0.68699998 0.0060226996 8.8507202e-39 331 235
0.014454478 0.68699998 0.0060226996 8.7592533e-39 332 235
0.015681813 0.68800002 0.0060314666 8.6666989e-39 333 235
0.016888106 0.68800002 0.0060314666 9.2177231e-39 334 235
0.0180944 0.68800002 0.0060314666 9.4021143e-39 335 235
0.019300694 0.68800002 0.0060314666 9.4943128e-39 336 235
0.020506985 0.68800002 0.0060314666 9.8630953e-39 337 235
0.021776399 0.69 0.0060489997 1.004677e-38 338 235
0.022986198 0.69 0.0060489997 9.8620205e-39 339 235
0.024231065 0.69099998 0.0060577663 8.5723817e-39 340 235
0.02551626 0.69300002 0.0060753003 6.6362735e-39 341 235
0.02673132 0.69300002 0.0060753003 5.8076212e-39 342 235
0.027986705 0.69400001 0.0060840664 7.1905557e-39 343 235
0.029287677 0.69599998 0.0061015999 8.664241e-39 344 235
0.030551834 0.69700003 0.0061103669 9.2174148e-39 345 235
0.031819493 0.69800001 0.006119133 6.2685826e-39 346 235
0.033137999 0.69999999 0.0061366665 4.8852894e-39 347 235
0.034512613 0.70300001 0.0061629666 9.3128334e-39 348 235
0.035745207 0.70300001 0.0061629666 1.2908464e-38 349 235
-0.028228667 0.69999999 0.0049093333 9.9571448e-39 297 236
-0.027001332 0.69999999 0.0049093333 4.79923e-39 298 236
-0.025810819 0.70099998 0.0049163462 4.2460563e-39 299 236
-0.024546666 0.69999999 0.0049093333 5.9066538e-39 300 236
-0.023252707 0.69800001 0.0048953067 8.5803271e-39 301 236
-0.02199732 0.69700003 0.0048882933 1.106492e-38 302 236
-0.020775247 0.69700003 0.0048882933 1.2079072e-38 303 236
-0.019469013 0.69400001 0.0048672534 1.2169435e-38 304 236
-0.0182522 0.69400001 0.0048672534 1.1524066e-38 305 236
-0.01701084 0.69300002 0.00486024 1.0696781e-38 306 236
-0.015795778 0.69300002 0.00486024 9.959216e-39 307 236
-0.014517599 0.69 0.0048391996 8.8568215e-39 308 236
-0.0133078 0.69 0.0048391996 9.5021909e-39 309 236
-0.012062933 0.68800002 0.0048251734 1.0329819e-38 310 236
-0.010856641 0.68800002 0.0048251734 1.0698243e-38 311 236
-0.0096503468 0.68800002 0.0048251734 1.1157431e-38 312 236
-0.0084317802 0.68699998 0.0048181596 1.0880484e-38 313 236
-0.0072272392 0.68699998 0.0048181596 1.0881933e-38 314 236
-0.0060226996 0.68699998 0.0048181596 1.0881933e-38 315 236
-0.0048181596 0.68699998 0.0048181596 1.124857e-38 316 236
-0.00360836 0.68599999 0.0048111463 1.124857e-38 317 236
-0.0024055731 0.68599999 0.0048111463 1.1157096e-38 318 236
-0.00119928 0.68400002 0.0047971201 1.0880511e-38 319 236
0 0.68400002 0.0047971201 9.7759443e-39 320 236
0.00119928 0.68400002 0.0047971201 9.4989987e-39 321 236
0.0023985601 0.68400002 0.0047971201 9.4064359e-39 322 236
0.00360836 0.68599999 0.0048111463 9.498633e-39 323 236
0.0048111463 0.68599999 0.0048111463 9.7741409e-39 324 236
0.0060139326 0.68599999 0.0048111463 9.6819452e-39 325 236
0.0072167199 0.68599999 0.0048111463 9.131291e-39 326 236
0.0084317802 0.68699998 0.0048181596 9.3156837e-39 327 236
0.0096363192 0.68699998 0.0048181596 9.8659862e-39 328 236
0.010840859 0.68699998 0.0048181596 9.6815949e-39 329 236
0.012045399 0.68699998 0.0048181596 9.4957645e-39 330 236
0.013249939 0.68699998 0.0048181596 9.4957645e-39 331 236
0.014454478 0.68699998 0.0048181596 9.7730717e-39 332 236
0.015681813 0.68800002 0.0048251734 1.0141853e-38 333 236
0.016888106 0.68800002 0.0048251734 1.0691787e-38 334 236
0.018146999 0.69 0.0048391996 1.0691787e-38 335 236
0.019356798 0.69 0.0048391996 1.0783257e-38 336 236
0.020566599 0.69 0.0048391996 1.0783257e-38 337 236
0.021776399 0.69 0.0048391996 1.0874749e-38 338 236
0.023019511 0.69099998 0.0048462129 9.4918143e-39 339 236
0.024301201 0.69300002 0.00486024 6.5473415e-39 340 236
0.02551626 0.69300002 0.00486024 5.2566026e-39 341 236
0.02673132 0.69300002 0.00486024 5.9895112e-39 342 236
0.027986705 0.69400001 0.0048672534 6.4504893e-39 343 236
0.029287677 0.69599998 0.0048812795 6.5448359e-39 344 236
0.030507999 0.69599998 0.0048812795 5.8072709e-39 345 236
0.031819493 0.69800001 0.0048953067 3.8707913e-39 346 236
0.033137999 0.69999999 0.0049093333 4.3317681e-39 347 236
0.034512613 0.70300001 0.0049303733 9.681267e-39 348 236
0.035745207 0.70300001 0.0049303733 1.2908114e-38 349 236
-0.028228667 0.69999999 0.0036819996 8.852598e-39 297 237
-0.027001332 0.69999999 0.0036819996 4.4286497e-39 298 237
-0.025810819 0.70099998 0.0036872597 3.4148579e-39 299 237
-0.024546666 0.69999999 0.0036819996 4.7037974e-39 300 237
-0.023252707 0.69800001 0.0036714801 5.9945362e-39 301 237
-0.02202888 0.69800001 0.0036714801 8.5810459e-39 302 237
-0.020775247 0.69700003 0.00366622 1.0886297e-38 303 237
-0.019525118 0.69599998 0.0036609597 1.216982e-38 304 237
-0.0182522 0.69400001 0.0036504399 1.1893592e-38 305 237
-0.017035386 0.69400001 0.0036504399 1.1801731e-38 306 237
-0.015795778 0.69300002 0.0036451798 1.1524784e-38 307 237
-0.014517599 0.69 0.0036293997 1.0972687e-38 308 237
-0.0133078 0.69 0.0036293997 1.1157078e-38 309 237
-0.012062933 0.68800002 0.0036188802 1.1065974e-38 310 237
-0.010856641 0.68800002 0.0036188802 1.1342561e-38 311 237
-0.0096503468 0.68800002 0.0036188802 1.1801747e-38 312 237
-0.0084317802 0.68699998 0.0036136196 1.0971627e-38 313 237
-0.0072272392 0.68699998 0.0036136196 8.2097074e-39 314 237
-0.0060226996 0.68699998 0.0036136196 5.6282298e-39 315 237
-0.0048181596 0.68699998 0.0036136196 6.6384357e-39 316 237
-0.00360836 0.68599999 0.00360836 7.0072182e-39 317 237
-0.0024055731 0.68599999 0.00360836 6.5527239e-39 318 237
-0.0012027866 0.68599999 0.00360836 8.5810277e-39 319 237
0 0.68599999 0.00360836 1.023766e-38 320 237
0.0012027866 0.68599999 0.00360836 1.0145463e-38 321 237
0.0024055731 0.68599999 0.00360836 9.4997302e-39 322 237
0.00360836 0.68599999 0.00360836 8.3930225e-39 323 237
0.0048111463 0.68599999 0.00360836 8.3879848e-39 324 237
0.0060139326 0.68599999 0.00360836 7.9270067e-39 325 237
0.0072167199 0.68599999 0.00360836 7.9331205e-39 326 237
0.0084317802 0.68699998 0.0036136196 9.4082506e-39 327 237
0.0096363192 0.68699998 0.0036136196 1.0233345e-38 328 237
0.010840859 0.68699998 0.0036136196 9.3110299e-39 329 237
0.012045399 0.68699998 0.0036136196 8.4816294e-39 330 237
0.013249939 0.68699998 0.0036136196 8.6656605e-39 331 237
0.014454478 0.68699998 0.0036136196 9.9563994e-39 332 237
0.015681813 0.68800002 0.0036188802 1.0601769e-38 333 237
0.016888106 0.68800002 0.0036188802 1.0784348e-38 334 237
0.018146999 0.69 0.0036293997 1.0692153e-38 335 237
0.019356798 0.69 0.0036293997 1.0875096e-38 336 237
0.020566599 0.69 0.0036293997 1.0875096e-38 337 237
0.021807959 0.69099998 0.0036346598 1.022831e-38 338 237
0.023019511 0.69099998 0.0036346598 7.8308636e-39 339 237
0.024301201 0.69300002 0.0036451798 5.1654986e-39 340 237
0.02551626 0.69300002 0.0036451798 5.4417254e-39 341 237
0.026769891 0.69400001 0.0036504399 5.9920321e-39 342 237
0.027986705 0.69400001 0.0036504399 6.0842277e-39 343 237
0.029287677 0.69599998 0.0036609597 6.4515655e-39 344 237
0.030507999 0.69599998 0.0036609597 5.8061961e-39 345 237
0.031819493 0.69800001 0.0036714801 4.6994786e-39 346 237
0.033137999 0.69999999 0.0036819996 4.5147272e-39 347 237
0.034512613 0.70300001 0.0036977797 9.680188e-39 348 237
0.035745207 0.70300001 0.0036977797 1.2814839e-38 349 237
-0.028268991 0.70099998 0.0024581731 9.2195812e-39 297 238
-0.027039904 0.70099998 0.0024581731 4.8871097e-39 298 238
-0.025810819 0.70099998 0.0024581731 4.3339359e-39 299 238
-0.024546666 0.69999999 0.0024546667 5.4395646e-39 300 238
-0.023252707 0.69800001 0.0024476533 4.7941952e-39 301 238
-0.02202888 0.69800001 0.0024476533 7.8402439e-39 302 238
-0.020805053 0.69800001 0.0024476533 1.152771e-38 303 238
-0.019553173 0.69700003 0.0024441467 1.1893958e-38 304 238
-0.018304799 0.69599998 0.0024406398 1.1893958e-38 305 238
-0.017035386 0.69400001 0.0024336267 1.216982e-38 306 238
-0.015795778 0.69300002 0.00243012 1.1985788e-38 307 238
-0.014538639 0.69099998 0.0024231065 1.1801038e-38 308 238
-0.0133078 0.69 0.0024195998 1.1801038e-38 309 238
-0.012097999 0.69 0.0024195998 1.1709193e-38 310 238
-0.010856641 0.68800002 0.0024125867 1.1709193e-38 311 238
-0.0096503468 0.68800002 0.0024125867 1.1892139e-38 312 238
-0.0084440531 0.68800002 0.0024125867 1.078615e-38 313 238
-0.0072272392 0.68699998 0.0024090798 8.2014258e-39 314 238
-0.0060226996 0.68699998 0.0024090798 3.9604282e-39 315 238
-0.0048181596 0.68699998 0.0024090798 1.5684019e-39 316 238
-0.00360836 0.68599999 0.0024055731 1.6605975e-39 317 238
-0.0024055731 0.68599999 0.0024055731 4.1542138e-39 318 238
-0.0012027866 0.68599999 0.0024055731 7.4732564e-39 319 238
0 0.68599999 0.0024055731 1.0972356e-38 320 238
0.0012027866 0.68599999 0.0024055731 1.0603572e-38 321 238
0.0024055731 0.68599999 0.0024055731 8.9440523e-39 322 238
0.0036136196 0.68699998 0.0024090798 6.8235528e-39 323 238
0.0048181596 0.68699998 0.0024090798 5.5302959e-39 324 238
0.0060226996 0.68699998 0.0024090798 4.8849264e-39 325 238
0.0072272392 0.68699998 0.0024090798 5.6242823e-39 326 238
0.0084440531 0.68800002 0.0024125867 9.8652827e-39 327 238
0.0096503468 0.68800002 0.0024125867 1.0601053e-38 328 238
0.010856641 0.68800002 0.0024125867 8.6649445e-39 329 238
0.012062933 0.68800002 0.0024125867 8.1089022e-39 330 238
0.013269227 0.68800002 0.0024125867 8.477326e-39 331 238
0.014475521 0.68800002 0.0024125867 9.4947051e-39 332 238
0.015681813 0.68800002 0.0024125867 1.0785444e-38 333 238
0.0169372 0.69 0.0024195998 1.0783626e-38 334 238
0.018146999 0.69 0.0024195998 1.0783626e-38 335 238
0.019356798 0.69 0.0024195998 1.0691434e-38 336 238
0.020566599 0.69 0.0024195998 9.7691186e-39 337 238
0.021807959 0.69099998 0.0024231065 7.926306e-39 338 238
0.02308614 0.69300002 0.00243012 6.3589803e-39 339 238
0.024301201 0.69300002 0.00243012 4.8860377e-39 340 238
0.02551626 0.69300002 0.00243012 5.5314071e-39 341 238
0.026769891 0.69400001 0.0024336267 5.8991162e-39 342 238
0.027986705 0.69400001 0.0024336267 6.3597356e-39 343 238
0.029287677 0.69599998 0.0024406398 6.2678903e-39 344 238
0.030507999 0.69599998 0.0024406398 5.9916622e-39 345 238
0.031819493 0.69800001 0.0024476533 4.9753396e-39 346 238
0.033137999 0.69999999 0.0024546667 4.883144e-39 347 238
0.034512613 0.70300001 0.0024651866 9.9553302e-39 348 238
-0.028389972 0.704 0.0012343467 9.8649352e-39 297 239
-0.027117053 0.70300001 0.0012325933 5.438466e-39 298 239
-0.025884461 0.70300001 0.0012325933 4.2399228e-39 299 239
-0.024581732 0.70099998 0.0012290865 6.8160124e-39 300 239
-0.023319334 0.69999999 0.0012273333 6.6316212e-39 301 239
-0.022091998 0.69999999 0.0012273333 8.3912471e-39 302 239
-0.020805053 0.69800001 0.0012238267 1.1986877e-38 303 239
-0.019553173 0.69700003 0.0012220733 1.2169467e-38 304 239
-0.018304799 0.69599998 0.0012203199 1.1985435e-38 305 239
-0.017035386 0.69400001 0.0012168133 1.1893955e-38 306 239
-0.015795778 0.69300002 0.00121506 1.1801759e-38 307 239
-0.014538639 0.69099998 0.0012115532 1.1617726e-38 308 239
-0.0133078 0.69 0.0012097999 1.152553e-38 309 239
-0.012097999 0.69 0.0012097999 1.152553e-38 310 239
-0.010888199 0.69 0.0012097999 1.152553e-38 311 239
-0.0096503468 0.68800002 0.0012062934 1.1800675e-38 312 239
-0.0084440531 0.68800002 0.0012062934 1.1523728e-38 313 239
-0.0072272392 0.68699998 0.0012045399 1.0872598e-38 314 239
-0.0060226996 0.68699998 0.0012045399 7.7379463e-39 315 239
-0.0048181596 0.68699998 0.0012045399 4.3303205e-39 316 239
-0.0036136196 0.68699998 0.0012045399 4.6072662e-39 317 239
-0.0024090798 0.68699998 0.0012045399 8.2969004e-39 318 239
-0.0012027866 0.68599999 0.0012027866 9.9567805e-39 319 239
0 0.68599999 0.0012027866 1.1062404e-38 320 239
0.0012027866 0.68599999 0.0012027866 1.0693261e-38 321 239
0.0024090798 0.68699998 0.0012045399 8.4812917e-39 322 239
0.0036136196 0.68699998 0.0012045399 5.6232272e-39 323 239
0.0048181596 0.68699998 0.0012045399 3.2261436e-39 324 239
0.0060226996 0.68699998 0.0012045399 2.119796e-39 325 239
0.0072377604 0.68800002 0.0012062934 4.0594972e-39 326 239
0.0084440531 0.68800002 0.0012062934 9.5912364e-39 327 239
0.0096503468 0.68800002 0.0012062934 1.1150636e-38 328 239
0.010856641 0.68800002 0.0012062934 9.8598975e-39 329 239
0.012062933 0.68800002 0.0012062934 9.1234017e-39 330 239
0.013269227 0.68800002 0.0012062934 9.0312061e-39 331 239
0.014475521 0.68800002 0.0012062934 9.3059979e-39 332 239
0.015727401 0.69 0.0012097999 8.4758771e-39 333 239
0.0169372 0.69 0.0012097999 7.3691694e-39 334 239
0.018146999 0.69 0.0012097999 7.8297888e-39 335 239
0.019356798 0.69 0.0012097999 6.8214004e-39 336 239
0.020596405 0.69099998 0.0012115532 4.9774878e-39 337 239
0.021807959 0.69099998 0.0012115532 3.2322589e-39 338 239
0.02308614 0.69300002 0.00121506 4.5229977e-39 339 239
0.024301201 0.69300002 0.00121506 5.0722226e-39 340 239
0.025553079 0.69400001 0.0012168133 5.3488109e-39 341 239
0.026769891 0.69400001 0.0012168133 6.0809879e-39 342 239
0.027986705 0.69400001 0.0012168133 6.7263573e-39 343 239
0.029287677 0.69599998 0.0012203199 5.9934642e-39 344 239
0.030551834 0.69700003 0.0012220733 5.6243216e-39 345 239
0.031819493 0.69800001 0.0012238267 4.8817049e-39 346 239
0.033280019 0.70300001 0.0012325933 5.0657374e-39 347 239
0.034512613 0.70300001 0.0012325933 1.0415585e-38 348 239
0.035948593 0.70700002 0.0012396066 1.2812672e-38 349 239
-0.02855128 0.708 -0 1.1156743e-38 297 240
-0.027117053 0.70300001 -0 7.4631573e-39 298 240
-0.025884461 0.70300001 -0 5.527049e-39 299 240
-0.024581732 0.70099998 -0 5.898005e-39 300 240
-0.023319334 0.69999999 -0 6.0823976e-39 301 240
-0.022091998 0.69999999 -0 8.4820106e-39 302 240
-0.020805053 0.69800001 -0 1.1985805e-38 303 240
-0.019581227 0.69800001 -0 1.1986155e-38 304 240
-0.018331099 0.69700003 -0 1.1893958e-38 305 240
-0.017084479 0.69599998 -0 1.1801759e-38 306 240
-0.015818574 0.69400001 -0 1.1801759e-38 307 240
-0.014580719 0.69300002 -0 1.152553e-38 308 240
-0.013327086 0.69099998 -0 1.152553e-38 309 240
-0.012115533 0.69099998 -0 1.1708842e-38 310 240
-0.010888199 0.69 -0 1.1708842e-38 311 240
-0.0096783992 0.69 -0 1.1708126e-38 312 240
-0.0084440531 0.68800002 -0 1.2169103e-38 313 240
-0.0072377604 0.68800002 -0 1.2166233e-38 314 240
-0.0060314666 0.68800002 -0 8.3862122e-39 315 240
-0.0048181596 0.68699998 -0 5.2555194e-39 316 240
-0.0036136196 0.68699998 -0 5.6246621e-39 317 240
-0.0024090798 0.68699998 -0 8.2969032e-39 318 240
-0.0012045399 0.68699998 -0 9.6798377e-39 319 240
0 0.68699998 -0 9.2170617e-39 320 240
0.0012045399 0.68699998 -0 8.9408335e-39 321 240
0.0024090798 0.68699998 -0 7.0076064e-39 322 240
0.0036188802 0.68800002 -0 4.9793025e-39 323 240
0.0048251734 0.68800002 -0 3.6864183e-39 324 240
0.0060314666 0.68800002 -0 2.8570178e-39 325 240
0.0072377604 0.68800002 -0 4.6098235e-39 326 240
0.0084440531 0.68800002 -0 7.8366706e-39 327 240
0.0096503468 0.68800002 -0 9.2170617e-39 328 240
0.010856641 0.68800002 -0 8.2032685e-39 329 240
0.012062933 0.68800002 -0 8.0170541e-39 330 240
0.013269227 0.68800002 -0 7.2794891e-39 331 240
0.014475521 0.68800002 -0 6.6344882e-39 332 240
0.015727401 0.69 -0 5.9891188e-39 333 240
0.0169372 0.69 -0 4.2385005e-39 334 240
0.018146999 0.69 -0 3.9619136e-39 335 240
0.019384852 0.69099998 -0 4.3314318e-39 336 240
0.020596405 0.69099998 -0 4.700573e-39 337 240
0.021807959 0.69099998 -0 4.7030884e-39 338 240
0.02308614 0.69300002 -0 5.4410121e-39 339 240
0.024336265 0.69400001 -0 6.817474e-39 340 240
0.025553079 0.69400001 -0 6.1721046e-39 341 240
0.026769891 0.69400001 -0 5.7143718e-39 342 240
0.028067358 0.69599998 -0 5.9909587e-39 343 240
0.02932976 0.69700003 -0 5.8991134e-39 344 240
0.030683333 0.69999999 -0 5.6225265e-39 345 240
0.031956252 0.70099998 -0 5.3437494e-39 346 240
0.033469379 0.70700002 -0 5.9891188e-39 347 240
0.034708988 0.70700002 -0 1.1521917e-38 348 240
0.035948593 0.70700002 -0 1.3273274e-38 349 240
-0.028470624 0.70599997 -0.0012378532 1.2447126e-38 297 241
-0.027232772 0.70599997 -0.0012378532 1.0966944e-38 298 241
-0.02592128 0.704 -0.0012343467 6.5415555e-39 299 241
-0.024686933 0.704 -0.0012343467 5.8039919e-39 300 241
-0.023352645 0.70099998 -0.0012290865 6.4493613e-39 301 241
-0.022123558 0.70099998 -0.0012290865 7.9302703e-39 302 241
-0.020864666 0.69999999 -0.0012273333 1.1802487e-38 303 241
-0.019581227 0.69800001 -0.0012238267 1.1985435e-38 304 241
-0.018331099 0.69700003 -0.0012220733 1.1893239e-38 305 241
-0.017084479 0.69599998 -0.0012203199 1.1801759e-38 306 241
-0.015818574 0.69400001 -0.0012168133 1.1617728e-38 307 241
-0.014580719 0.69300002 -0.00121506 1.1617728e-38 308 241
-0.01336566 0.69300002 -0.00121506 1.1617728e-38 309 241
-0.012115533 0.69099998 -0.0012115532 1.1525533e-38 310 241
-0.01090398 0.69099998 -0.0012115532 1.1525533e-38 311 241
-0.0096783992 0.69 -0.0012097999 1.1616649e-38 312 241
-0.0084440531 0.68800002 -0.0012062934 1.1708845e-38 313 241
-0.0072377604 0.68800002 -0.0012062934 1.1340068e-38 314 241
-0.0060314666 0.68800002 -0.0012062934 8.1132224e-39 315 241
-0.0048251734 0.68800002 -0.0012062934 5.0718513e-39 316 241
-0.0036136196 0.68699998 -0.0012045399 4.9796556e-39 317 241
-0.0024090798 0.68699998 -0.0012045399 5.992381e-39 318 241
-0.0012045399 0.68699998 -0.0012045399 5.3470116e-39 319 241
0 0.68699998 -0.0012045399 3.775021e-39 320 241
0.0012045399 0.68699998 -0.0012045399 4.2359991e-39 321 241
0.0024125867 0.68800002 -0.0012062934 4.7945609e-39 322 241
0.0036188802 0.68800002 -0.0012062934 4.6105298e-39 323 241
0.0048251734 0.68800002 -0.0012062934 4.6062082e-39 324 241
0.0060314666 0.68800002 -0.0012062934 4.6062082e-39 325 241
0.0072377604 0.68800002 -0.0012062934 4.7916868e-39 326 241
0.0084440531 0.68800002 -0.0012062934 5.5292519e-39 327 241
0.0096503468 0.68800002 -0.0012062934 5.1640637e-39 328 241
0.010856641 0.68800002 -0.0012062934 5.7172361e-39 329 241
0.012062933 0.68800002 -0.0012062934 4.3321352e-39 330 241
0.0133078 0.69 -0.0012097999 2.396027e-39 331 241
0.014517599 0.69 -0.0012097999 2.6726195e-39 332 241
0.015727401 0.69 -0.0012097999 4.3317821e-39 333 241
0.0169372 0.69 -0.0012097999 4.1473978e-39 334 241
0.0181733 0.69099998 -0.0012115532 3.9630052e-39 335 241
0.019384852 0.69099998 -0.0012115532 4.6969731e-39 336 241
0.020656019 0.69300002 -0.00121506 5.3423425e-39 337 241
0.021871079 0.69300002 -0.00121506 5.3473647e-39 338 241
0.023119451 0.69400001 -0.0012168133 5.9927342e-39 339 241
0.024336265 0.69400001 -0.0012168133 6.267526e-39 340 241
0.025553079 0.69400001 -0.0012168133 5.8987449e-39 341 241
0.026847038 0.69599998 -0.0012203199 5.989514e-39 342 241
0.028107686 0.69700003 -0.0012220733 5.989514e-39 343 241
0.029455997 0.69999999 -0.0012273333 5.3434229e-39 344 241
0.030683333 0.69999999 -0.0012273333 5.6200084e-39 345 241
0.031956252 0.70099998 -0.0012290865 7.2805877e-39 346 241
0.033469379 0.70700002 -0.0012396066 9.1244989e-39 347 241
0.034708988 0.70700002 -0.0012396066 1.1798876e-38 348 241
0.035948593 0.70700002 -0.0012396066 1.3642788e-38 349 241
-0.028470624 0.70599997 -0.0024757064 1.2540405e-38 297 242
-0.027232772 0.70599997 -0.0024757064 1.2350246e-38 298 242
-0.02592128 0.704 -0.0024686933 1.0967311e-38 299 242
-0.024686933 0.704 -0.0024686933 8.6602557e-39 300 242
-0.023419274 0.70300001 -0.0024651866 7.7382994e-39 301 242
-0.022123558 0.70099998 -0.0024581731 7.9306262e-39 302 242
-0.020864666 0.69999999 -0.0024546667 1.14337e-38 303 242
-0.019581227 0.69800001 -0.0024476533 1.1892883e-38 304 242
-0.018331099 0.69700003 -0.0024441467 1.1892883e-38 305 242
-0.017109027 0.69700003 -0.0024441467 1.1893239e-38 306 242
-0.015818574 0.69400001 -0.0024336267 1.1801043e-38 307 242
-0.01460176 0.69400001 -0.0024336267 1.1801043e-38 308 242
-0.01336566 0.69300002 -0.00243012 1.1801043e-38 309 242
-0.012150601 0.69300002 -0.00243012 1.1616649e-38 310 242
-0.010935539 0.69300002 -0.00243012 1.1708845e-38 311 242
-0.0097204801 0.69300002 -0.00243012 1.1708126e-38 312 242
-0.0084686 0.69 -0.0024195998 1.1800322e-38 313 242
-0.0072377604 0.68800002 -0.0024125867 1.1524101e-38 314 242
-0.0060314666 0.68800002 -0.0024125867 8.2972536e-39 315 242
-0.0048251734 0.68800002 -0.0024125867 5.2562467e-39 316 242
-0.0036188802 0.68800002 -0.0024125867 5.0718541e-39 317 242
-0.0024090798 0.68699998 -0.0024090798 6.2671701e-39 318 242
-0.0012045399 0.68699998 -0.0024090798 6.0827788e-39 319 242
0 0.68699998 -0.0024090798 4.2410368e-39 320 242
0.0012062934 0.68800002 -0.0024125867 3.1346893e-39 321 242
0.0024125867 0.68800002 -0.0024125867 4.3317877e-39 322 242
0.0036188802 0.68800002 -0.0024125867 4.516179e-39 323 242
0.0048251734 0.68800002 -0.0024125867 4.3310632e-39 324 242
0.0060314666 0.68800002 -0.0024125867 4.1466706e-39 325 242
0.0072377604 0.68800002 -0.0024125867 4.7891729e-39 326 242
0.0084440531 0.68800002 -0.0024125867 4.7891729e-39 327 242
0.0096503468 0.68800002 -0.0024125867 4.8860405e-39 328 242
0.010856641 0.68800002 -0.0024125867 5.9920293e-39 329 242
0.012062933 0.68800002 -0.0024125867 5.2519489e-39 330 242
0.0133078 0.69 -0.0024195998 3.5924276e-39 331 242
0.014517599 0.69 -0.0024195998 4.3281948e-39 332 242
0.015727401 0.69 -0.0024195998 5.1583142e-39 333 242
0.016961746 0.69099998 -0.0024231065 4.6080117e-39 334 242
0.0181733 0.69099998 -0.0024231065 4.5154573e-39 335 242
0.01944096 0.69300002 -0.00243012 3.8729619e-39 336 242
0.020656019 0.69300002 -0.00243012 4.9793081e-39 337 242
0.021871079 0.69300002 -0.00243012 6.5437387e-39 338 242
0.023119451 0.69400001 -0.0024336267 7.1891081e-39 339 242
0.0244064 0.69599998 -0.0024406398 7.0036407e-39 340 242
0.025626717 0.69599998 -0.0024406398 6.7274139e-39 341 242
0.026885614 0.69700003 -0.0024441467 6.5423178e-39 342 242
0.028148014 0.69800001 -0.0024476533 6.2653722e-39 343 242
0.029498078 0.70099998 -0.0024581731 6.4504893e-39 344 242
0.030814834 0.70300001 -0.0024651866 7.28025e-39 345 242
0.032047424 0.70300001 -0.0024651866 9.3982117e-39 346 242
0.033422034 0.70599997 -0.0024757064 1.0227972e-38 347 242
0.034659892 0.70599997 -0.0024757064 1.161341e-38 348 242
0.035897743 0.70599997 -0.0024757064 1.4010495e-38 349 242
-0.028510952 0.70700002 -0.0037188199 1.2630807e-38 297 243
-0.027232772 0.70599997 -0.0037135598 1.1983281e-38 298 243
-0.025994917 0.70599997 -0.0037135598 1.2352062e-38 299 243
-0.024757065 0.70599997 -0.0037135598 1.2072586e-38 300 243
-0.023452586 0.704 -0.0037030398 9.8602507e-39 301 243
-0.022218239 0.704 -0.0037030398 8.1193265e-39 302 243
-0.020894472 0.70099998 -0.0036872597 1.0332022e-38 303 243
-0.019637333 0.69999999 -0.0036819996 1.1708489e-38 304 243
-0.0183574 0.69800001 -0.0036714801 1.1801043e-38 305 243
-0.017133573 0.69800001 -0.0036714801 1.1893239e-38 306 243
-0.015818574 0.69400001 -0.0036504399 1.1801043e-38 307 243
-0.01460176 0.69400001 -0.0036504399 1.1801043e-38 308 243
-0.013384946 0.69400001 -0.0036504399 1.1708489e-38 309 243
-0.012150601 0.69300002 -0.0036451798 1.1708129e-38 310 243
-0.010935539 0.69300002 -0.0036451798 1.1708129e-38 311 243
-0.0096924258 0.69099998 -0.0036346598 1.1616293e-38 312 243
-0.008480873 0.69099998 -0.0036346598 1.1708489e-38 313 243
-0.0072587994 0.69 -0.0036293997 1.1524101e-38 314 243
-0.0060489997 0.69 -0.0036293997 8.1132224e-39 315 243
-0.0048391996 0.69 -0.0036293997 5.4399149e-39 316 243
-0.0036188802 0.68800002 -0.0036188802 5.3477179e-39 317 243
-0.0024125867 0.68800002 -0.0036188802 6.3604391e-39 318 243
-0.0012062934 0.68800002 -0.0036188802 6.0842109e-39 319 243
0 0.68800002 -0.0036188802 4.7963616e-39 320 243
0.0012062934 0.68800002 -0.0036188802 3.7822111e-39 321 243
0.0024125867 0.68800002 -0.0036188802 4.3310688e-39 322 243
0.0036188802 0.68800002 -0.0036188802 4.3310688e-39 323 243
0.0048251734 0.68800002 -0.0036188802 4.2388662e-39 324 243
0.0060489997 0.69 -0.0036293997 4.0544749e-39 325 243
0.0072587994 0.69 -0.0036293997 4.328901e-39 326 243
0.0084686 0.69 -0.0036293997 4.2367054e-39 327 243
0.0096783992 0.69 -0.0036293997 5.2540943e-39 328 243
0.010888199 0.69 -0.0036293997 6.5448331e-39 329 243
0.012097999 0.69 -0.0036293997 5.4374094e-39 330 243
0.0133078 0.69 -0.0036293997 3.8704438e-39 331 243
0.014517599 0.69 -0.0036293997 4.6976793e-39 332 243
0.015750192 0.69099998 -0.0036346598 5.7118327e-39 333 243
0.016961746 0.69099998 -0.0036346598 4.7923959e-39 334 243
0.018225901 0.69300002 -0.0036451798 4.608006e-39 335 243
0.01944096 0.69300002 -0.0036451798 4.0580749e-39 336 243
0.020685827 0.69400001 -0.0036504399 4.8878355e-39 337 243
0.021902639 0.69400001 -0.0036504399 7.5578963e-39 338 243
0.023186078 0.69599998 -0.0036609597 7.92632e-39 339 243
0.0244064 0.69599998 -0.0036609597 7.0057931e-39 340 243
0.025663542 0.69700003 -0.00366622 7.0979887e-39 341 243
0.026924185 0.69800001 -0.0036714801 7.3731365e-39 342 243
0.028228667 0.69999999 -0.0036819996 7.7415588e-39 343 243
0.029582238 0.70300001 -0.0036977797 8.8482567e-39 344 243
0.030814834 0.70300001 -0.0036977797 9.5858218e-39 345 243
0.032184184 0.70599997 -0.0037135598 9.6762195e-39 346 243
0.033422034 0.70599997 -0.0037135598 9.492187e-39 347 243
0.034659892 0.70599997 -0.0037135598 1.1060957e-38 348 243
0.035897743 0.70599997 -0.0037135598 1.3919023e-38 349 243
-0.02855128 0.708 -0.0049654399 1.1983634e-38 297 244
-0.027271347 0.70700002 -0.0049584266 9.131333e-39 298 244
-0.025994917 0.70599997 -0.0049514128 1.0329876e-38 299 244
-0.024757065 0.70599997 -0.0049514128 1.1617375e-38 300 244
-0.023452586 0.704 -0.0049373866 1.1248233e-38 301 244
-0.022218239 0.704 -0.0049373866 1.0605016e-38 302 244
-0.020954086 0.70300001 -0.0049303733 1.1250385e-38 303 244
-0.019637333 0.69999999 -0.0049093333 1.1617372e-38 304 244
-0.018409999 0.69999999 -0.0049093333 1.1617372e-38 305 244
-0.017133573 0.69800001 -0.0048953067 1.1801043e-38 306 244
-0.015864158 0.69599998 -0.0048812795 1.1801043e-38 307 244
-0.014643839 0.69599998 -0.0048812795 1.1617372e-38 308 244
-0.013384946 0.69400001 -0.0048672534 1.1525177e-38 309 244
-0.012168133 0.69400001 -0.0048672534 1.1616649e-38 310 244
-0.010935539 0.69300002 -0.00486024 1.1616649e-38 311 244
-0.0096924258 0.69099998 -0.0048462129 1.1616293e-38 312 244
-0.008480873 0.69099998 -0.0048462129 1.1708489e-38 313 244
-0.0072693196 0.69099998 -0.0048462129 1.1340788e-38 314 244
-0.0060577663 0.69099998 -0.0048462129 8.1139413e-39 315 244
-0.0048391996 0.69 -0.0048391996 5.2551635e-39 316 244
-0.0036293997 0.69 -0.0048391996 4.7023485e-39 317 244
-0.0024125867 0.68800002 -0.0048251734 5.7143564e-39 318 244
-0.0012062934 0.68800002 -0.0048251734 5.806552e-39 319 244
0 0.68800002 -0.0048251734 4.978955e-39 320 244
0.0012062934 0.68800002 -0.0048251734 4.4257812e-39 321 244
0.0024125867 0.68800002 -0.0048251734 3.9651604e-39 322 244
0.0036188802 0.68800002 -0.0048251734 3.780409e-39 323 244
0.0048251734 0.68800002 -0.0048251734 4.1466734e-39 324 244
0.0060489997 0.69 -0.0048391996 3.8700879e-39 325 244
0.0072587994 0.69 -0.0048391996 3.780046e-39 326 244
0.0084686 0.69 -0.0048391996 3.6878504e-39 327 244
0.0096783992 0.69 -0.0048391996 4.4254127e-39 328 244
0.010888199 0.69 -0.0048391996 5.3470088e-39 329 244
0.012097999 0.69 -0.0048391996 4.7920428e-39 330 244
0.013327086 0.69099998 -0.0048462129 3.501304e-39 331 244
0.014538639 0.69099998 -0.0048462129 4.6976793e-39 332 244
0.015750192 0.69099998 -0.0048462129 5.619637e-39 333 244
0.01701084 0.69300002 -0.00486024 4.609078e-39 334 244
0.018225901 0.69300002 -0.00486024 4.3324912e-39 335 244
0.019469013 0.69400001 -0.0048672534 4.3357324e-39 336 244
0.020685827 0.69400001 -0.0048672534 4.5204823e-39 337 244
0.021902639 0.69400001 -0.0048672534 5.8994511e-39 338 244
0.023186078 0.69599998 -0.0048812795 6.3604293e-39 339 244
0.024441468 0.69700003 -0.0048882933 7.2816597e-39 340 244
0.025663542 0.69700003 -0.0048882933 8.5723985e-39 341 244
0.027001332 0.69999999 -0.0049093333 8.8493357e-39 342 244
0.028268991 0.70099998 -0.0049163462 8.9415314e-39 343 244
0.029582238 0.70300001 -0.0049303733 9.1273547e-39 344 244
0.030858666 0.704 -0.0049373866 8.9426034e-39 345 244
0.032184184 0.70599997 -0.0049514128 8.3865625e-39 346 244
0.033422034 0.70599997 -0.0049514128 7.4646048e-39 347 244
0.034659892 0.70599997 -0.0049514128 1.0142245e-38 348 244
-0.028631933 0.70999998 -0.0062243328 1.2258053e-38 297 245
-0.027309919 0.708 -0.0062067998 7.0104678e-39 298 245
-0.02603174 0.70700002 -0.0061980332 9.0387717e-39 299 245
-0.024757065 0.70599997 -0.0061892662 1.069758e-38 300 245
-0.023519212 0.70599997 -0.0061892662 1.1435145e-38 301 245
-0.022218239 0.704 -0.0061717331 1.1802487e-38 302 245
-0.020983893 0.704 -0.0061717331 1.1525898e-38 303 245
-0.019665385 0.70099998 -0.0061454331 1.1066725e-38 304 245
-0.018409999 0.69999999 -0.0061366665 1.0974171e-38 305 245
-0.017133573 0.69800001 -0.006119133 1.1250037e-38 306 245
-0.015886955 0.69700003 -0.0061103669 1.1157842e-38 307 245
-0.014643839 0.69599998 -0.0061015999 1.1433703e-38 308 245
-0.013384946 0.69400001 -0.0060840664 1.1433703e-38 309 245
-0.012168133 0.69400001 -0.0060840664 1.1616293e-38 310 245
-0.010935539 0.69300002 -0.0060753003 1.1616293e-38 311 245
-0.0097204801 0.69300002 -0.0060753003 1.1616293e-38 312 245
-0.008480873 0.69099998 -0.0060577663 1.1708489e-38 313 245
-0.0072693196 0.69099998 -0.0060577663 1.1248233e-38 314 245
-0.0060577663 0.69099998 -0.0060577663 8.2983326e-39 315 245
-0.0048391996 0.69 -0.0060489997 5.4399121e-39 316 245
-0.0036293997 0.69 -0.0060489997 4.2413689e-39 317 245
-0.0024195998 0.69 -0.0060489997 4.8838727e-39 318 245
-0.0012097999 0.69 -0.0060489997 5.6214377e-39 319 245
0 0.69 -0.0060489997 4.8878383e-39 320 245
0.0012097999 0.69 -0.0060489997 4.4265015e-39 321 245
0.0024195998 0.69 -0.0060489997 4.3310632e-39 322 245
0.0036293997 0.69 -0.0060489997 4.4236176e-39 323 245
0.0048391996 0.69 -0.0060489997 4.6062082e-39 324 245
0.0060489997 0.69 -0.0060489997 4.0530344e-39 325 245
0.0072587994 0.69 -0.0060489997 4.6980563e-39 326 245
0.0084686 0.69 -0.0060489997 4.6058607e-39 327 245
0.0096783992 0.69 -0.0060489997 3.963724e-39 328 245
0.010888199 0.69 -0.0060489997 4.7012905e-39 329 245
0.012115533 0.69099998 -0.0060577663 5.0657402e-39 330 245
0.013327086 0.69099998 -0.0060577663 4.1437839e-39 331 245
0.014538639 0.69099998 -0.0060577663 4.9749711e-39 332 245
0.015795778 0.69300002 -0.0060753003 6.2657099e-39 333 245
0.01701084 0.69300002 -0.0060753003 5.161156e-39 334 245
0.0182522 0.69400001 -0.0060840664 4.1470055e-39 335 245
0.019469013 0.69400001 -0.0060840664 5.9008706e-39 336 245
0.020685827 0.69400001 -0.0060840664 5.6242823e-39 337 245
0.021902639 0.69400001 -0.0060840664 5.1593371e-39 338 245
0.023186078 0.69599998 -0.0061015999 6.4500759e-39 339 245
0.024441468 0.69700003 -0.0061103669 7.7426182e-39 340 245
0.025700359 0.69800001 -0.006119133 9.4939765e-39 341 245
0.027039904 0.70099998 -0.0061454331 8.9429705e-39 342 245
0.028349647 0.70300001 -0.0061629666 8.9429705e-39 343 245
0.029624319 0.704 -0.0061717331 8.7585876e-39 344 245
0.030858666 0.704 -0.0061717331 8.0210226e-39 345 245
0.032184184 0.70599997 -0.0061892662 6.5448177e-39 346 245
0.033422034 0.70599997 -0.0061892662 5.5306644e-39 347 245
0.034659892 0.70599997 -0.0061892662 1.0325557e-38 348 245
0.035897743 0.70599997 -0.0061892662 1.3552404e-38 349 245
-0.028631933 0.70999998 -0.0074691991 1.3362959e-38 297 246
-0.027309919 0.708 -0.0074481601 9.4968729e-39 298 246
-0.026068559 0.708 -0.0074481601 8.9436992e-39 299 246
-0.024792133 0.70700002 -0.0074376399 8.7650743e-39 300 246
-0.023519212 0.70599997 -0.0074271196 9.7788674e-39 301 246
-0.022281358 0.70599997 -0.0074271196 1.0789781e-38 302 246
-0.021043506 0.70599997 -0.0074271196 1.0512835e-38 303 246
-0.019721493 0.70300001 -0.0073955595 1.0878381e-38 304 246
-0.018409999 0.69999999 -0.0073639993 1.0878381e-38 305 246
-0.017133573 0.69800001 -0.0073429602 1.1244647e-38 306 246
-0.015886955 0.69700003 -0.00733244 1.1797819e-38 307 246
-0.01466488 0.69700003 -0.00733244 1.1615577e-38 308 246
-0.013423519 0.69599998 -0.0073219193 1.1707773e-38 309 246
-0.012168133 0.69400001 -0.0073008798 1.1616293e-38 310 246
-0.01095132 0.69400001 -0.0073008798 1.1616293e-38 311 246
-0.0097204801 0.69300002 -0.0072903596 1.161593e-38 312 246
-0.0085054198 0.69300002 -0.0072903596 1.1800322e-38 313 246
-0.0072693196 0.69099998 -0.0072693196 1.1248589e-38 314 246
-0.0060577663 0.69099998 -0.0072693196 8.6671109e-39 315 246
-0.0048462129 0.69099998 -0.0072693196 6.2700259e-39 316 246
-0.0036346598 0.69099998 -0.0072693196 4.7026988e-39 317 246
-0.0024231065 0.69099998 -0.0072693196 4.1466706e-39 318 246
-0.0012115532 0.69099998 -0.0072693196 4.2388662e-39 319 246
0 0.69099998 -0.0072693196 3.5996331e-39 320 246
0.0012097999 0.69 -0.0072587994 2.9542637e-39 321 246
0.0024195998 0.69 -0.0072587994 3.0442957e-39 322 246
0.0036293997 0.69 -0.0072587994 3.5974695e-39 323 246
0.0048391996 0.69 -0.0072587994 3.9648044e-39 324 246
0.0060489997 0.69 -0.0072587994 3.5960205e-39 325 246
0.0072587994 0.69 -0.0072587994 5.8069178e-39 326 246
0.0084686 0.69 -0.0072587994 7.2820479e-39 327 246
0.0096783992 0.69 -0.0072587994 5.7150697e-39 328 246
0.010888199 0.69 -0.0072587994 4.7934721e-39 329 246
0.012115533 0.69099998 -0.0072693196 5.4395478e-39 330 246
0.013327086 0.69099998 -0.0072693196 5.9923628e-39 331 246
0.014580719 0.69300002 -0.0072903596 7.2816597e-39 332 246
0.015795778 0.69300002 -0.0072903596 8.3876471e-39 333 246
0.017035386 0.69400001 -0.0073008798 8.6634955e-39 334 246
0.0182522 0.69400001 -0.0073008798 7.6497037e-39 335 246
0.019469013 0.69400001 -0.0073008798 7.5585745e-39 336 246
0.020685827 0.69400001 -0.0073008798 8.8493133e-39 337 246
0.021965759 0.69599998 -0.0073219193 9.9509749e-39 338 246
0.023186078 0.69599998 -0.0073219193 8.6602361e-39 339 246
0.024476532 0.69800001 -0.0073429602 8.203574e-39 340 246
0.025700359 0.69800001 -0.0073429602 8.8489434e-39 341 246
0.027117053 0.70300001 -0.0073955595 8.6652976e-39 342 246
0.028389972 0.704 -0.0074060797 8.3883506e-39 343 246
0.029708479 0.70599997 -0.0074271196 8.2918614e-39 344 246
0.030946331 0.70599997 -0.0074271196 7.923439e-39 345 246
0.032184184 0.70599997 -0.0074271196 7.3691834e-39 346 246
0.033422034 0.70599997 -0.0074271196 7.8301601e-39 347 246
0.034659892 0.70599997 -0.0074271196 1.1336465e-38 348 246
0.035897743 0.70599997 -0.0074271196 1.3641716e-38 349 246
-0.029918881 0.71100003 -0.0087263398 1.566677e-38 296 247
-0.028672259 0.71100003 -0.0087263398 1.4007609e-38 297 247
-0.027387066 0.70999998 -0.0087140659 1.124787e-38 298 247
-0.026068559 0.708 -0.008689519 1.0233359e-38 299 247
-0.024827199 0.708 -0.008689519 7.5654521e-39 300 247
-0.023519212 0.70599997 -0.0086649731 9.3168103e-39 301 247
-0.022281358 0.70599997 -0.0086649731 9.5905357e-39 302 247
-0.021043506 0.70599997 -0.0086649731 9.4061431e-39 303 247
-0.019721493 0.70300001 -0.0086281532 8.9451635e-39 304 247
-0.018436298 0.70099998 -0.0086036054 8.7607709e-39 305 247
-0.017182667 0.69999999 -0.0085913334 8.7636421e-39 306 247
-0.015909746 0.69800001 -0.0085667865 9.6855998e-39 307 247
-0.01468592 0.69800001 -0.0085667865 1.0789062e-38 308 247
-0.013423519 0.69599998 -0.0085422397 1.106529e-38 309 247
-0.0122032 0.69599998 -0.0085422397 1.1157117e-38 310 247
-0.01095132 0.69400001 -0.0085176928 1.1157117e-38 311 247
-0.0097345067 0.69400001 -0.0085176928 1.1524454e-38 312 247
-0.0085054198 0.69300002 -0.0085054198 1.1524454e-38 313 247
-0.0072903596 0.69300002 -0.0085054198 1.1340062e-38 314 247
-0.0060753003 0.69300002 -0.0085054198 1.0049324e-38 315 247
-0.0048462129 0.69099998 -0.008480873 9.4943548e-39 316 247
-0.0036346598 0.69099998 -0.008480873 8.6645941e-39 317 247
-0.0024231065 0.69099998 -0.008480873 7.7415743e-39 318 247
-0.0012115532 0.69099998 -0.008480873 6.5433912e-39 319 247
0 0.69099998 -0.008480873 6.2696938e-39 320 247
0.0012115532 0.69099998 -0.008480873 6.1774982e-39 321 247
0.0024231065 0.69099998 -0.008480873 6.3604447e-39 322 247
0.0036346598 0.69099998 -0.008480873 6.6370316e-39 323 247
0.0048462129 0.69099998 -0.008480873 7.0976412e-39 324 247
0.0060577663 0.69099998 -0.008480873 7.1898368e-39 325 247
0.0072693196 0.69099998 -0.008480873 8.2018307e-39 326 247
0.008480873 0.69099998 -0.008480873 8.9397545e-39 327 247
0.0096924258 0.69099998 -0.008480873 8.7546388e-39 328 247
0.01090398 0.69099998 -0.008480873 8.5702461e-39 329 247
0.012115533 0.69099998 -0.008480873 8.3880002e-39 330 247
0.01336566 0.69300002 -0.0085054198 8.6649473e-39 331 247
0.014580719 0.69300002 -0.0085054198 9.4925429e-39 332 247
0.015818574 0.69400001 -0.0085176928 1.0045358e-38 333 247
0.017035386 0.69400001 -0.0085176928 9.6772621e-39 334 247
0.0182522 0.69400001 -0.0085176928 8.8471427e-39 335 247
0.019469013 0.69400001 -0.0085176928 8.4797895e-39 336 247
0.020745439 0.69599998 -0.0085422397 9.6783313e-39 337 247
0.021965759 0.69599998 -0.0085422397 1.032335e-38 338 247
0.023219392 0.69700003 -0.0085545136 9.0326116e-39 339 247
0.024476532 0.69800001 -0.0085667865 8.6659982e-39 340 247
0.025773998 0.69999999 -0.0085913334 8.4816056e-39 341 247
0.027155625 0.704 -0.0086404262 7.9270263e-39 342 247
0.028389972 0.704 -0.0086404262 7.3738525e-39 343 247
0.029708479 0.70599997 -0.0086649731 7.4635496e-39 344 247
0.030946331 0.70599997 -0.0086649731 7.6479409e-39 345 247
0.032184184 0.70599997 -0.0086649731 7.2831044e-39 346 247
0.033422034 0.70599997 -0.0086649731 7.8362782e-39 347 247
0.034659892 0.70599997 -0.0086649731 1.1792406e-38 348 247
0.035897743 0.70599997 -0.0086649731 1.317534e-38 349 247
-0.028672259 0.71100003 -0.0099729598 1.4191643e-38 297 248
-0.027387066 0.70999998 -0.0099589331 1.1799971e-38 298 248
-0.026142199 0.70999998 -0.0099589331 1.1338633e-38 299 248
-0.024827199 0.708 -0.0099308798 1.023409e-38 300 248
-0.023519212 0.70599997 -0.0099028256 1.023409e-38 301 248
-0.022281358 0.70599997 -0.0099028256 9.5890896e-39 302 248
-0.021043506 0.70599997 -0.0099028256 9.0359158e-39 303 248
-0.019721493 0.70300001 -0.0098607466 7.8395404e-39 304 248
-0.018488899 0.70300001 -0.0098607466 7.1019754e-39 305 248
-0.017207211 0.70099998 -0.0098326923 6.4616437e-39 306 248
-0.015955333 0.69999999 -0.0098186666 7.7523825e-39 307 248
-0.014727999 0.69999999 -0.0098186666 9.6834474e-39 308 248
-0.013442807 0.69700003 -0.0097765867 1.0328817e-38 309 248
-0.012220734 0.69700003 -0.0097765867 1.1155684e-38 310 248
-0.01095132 0.69400001 -0.0097345067 1.1155684e-38 311 248
-0.0097345067 0.69400001 -0.0097345067 1.1156037e-38 312 248
-0.0085176928 0.69400001 -0.0097345067 1.1248233e-38 313 248
-0.0072903596 0.69300002 -0.0097204801 1.1340065e-38 314 248
-0.0060753003 0.69300002 -0.0097204801 1.1155674e-38 315 248
-0.00486024 0.69300002 -0.0097204801 1.1521577e-38 316 248
-0.0036451798 0.69300002 -0.0097204801 1.1060957e-38 317 248
-0.00243012 0.69300002 -0.0097204801 1.1155674e-38 318 248
-0.00121506 0.69300002 -0.0097204801 1.1340065e-38 319 248
0 0.69300002 -0.0097204801 1.1248235e-38 320 248
0.0012115532 0.69099998 -0.0096924258 1.1248235e-38 321 248
0.0024231065 0.69099998 -0.0096924258 1.133863e-38 322 248
0.0036346598 0.69099998 -0.0096924258 1.1431185e-38 323 248
0.0048462129 0.69099998 -0.0096924258 1.1247867e-38 324 248
0.0060577663 0.69099998 -0.0096924258 1.1063476e-38 325 248
0.0072693196 0.69099998 -0.0096924258 1.0694693e-38 326 248
0.008480873 0.69099998 -0.0096924258 1.0602497e-38 327 248
0.0096924258 0.69099998 -0.0096924258 1.1061311e-38 328 248
0.010935539 0.69300002 -0.0097204801 1.0876561e-38 329 248
0.012150601 0.69300002 -0.0097204801 1.0969109e-38 330 248
0.01336566 0.69300002 -0.0097204801 1.0876914e-38 331 248
0.01460176 0.69400001 -0.0097345067 1.1151337e-38 332 248
0.015818574 0.69400001 -0.0097345067 1.0505968e-38 333 248
0.017035386 0.69400001 -0.0097345067 9.4925177e-39 334 248
0.0182522 0.69400001 -0.0097345067 9.0315396e-39 335 248
0.019525118 0.69599998 -0.0097625591 8.6656311e-39 336 248
0.020745439 0.69599998 -0.0097625591 9.495033e-39 337 248
0.021965759 0.69599998 -0.0097625591 9.4039192e-39 338 248
0.023219392 0.69700003 -0.0097765867 8.7585498e-39 339 248
0.024476532 0.69800001 -0.0097906133 8.2982905e-39 340 248
0.025884461 0.70300001 -0.0098607466 8.2982905e-39 341 248
0.027155625 0.704 -0.0098747732 8.1128399e-39 342 248
0.028389972 0.704 -0.0098747732 7.7444175e-39 343 248
0.029708479 0.70599997 -0.0099028256 7.6522373e-39 344 248
0.030946331 0.70599997 -0.0099028256 7.9288242e-39 345 248
0.032184184 0.70599997 -0.0099028256 7.9309794e-39 346 248
0.033422034 0.70599997 -0.0099028256 7.9309794e-39 347 248
0.034659892 0.70599997 -0.0099028256 1.1512925e-38 348 248
0.035897743 0.70599997 -0.0099028256 1.1789872e-38 349 248
-0.031296998 0.71399999 -0.011266919 1.6586189e-38 295 249
-0.029918881 0.71100003 -0.01121958 1.5758966e-38 296 249
-0.028672259 0.71100003 -0.01121958 1.4283836e-38 297 249
-0.027425639 0.71100003 -0.01121958 1.1432631e-38 298 249
-0.026142199 0.70999998 -0.011203799 1.1155684e-38 299 249
-0.024897331 0.70999998 -0.011203799 1.0511044e-38 300 249
-0.023552528 0.70700002 -0.011156459 1.0050065e-38 301 249
-0.022281358 0.70599997 -0.011140679 9.2213931e-39 302 249
-0.021043506 0.70599997 -0.011140679 8.2997969e-39 303 249
-0.019721493 0.70300001 -0.01109334 6.457699e-39 304 249
-0.018488899 0.70300001 -0.01109334 5.6279369e-39 305 249
-0.017207211 0.70099998 -0.011061779 5.2623984e-39 306 249
-0.015978126 0.70099998 -0.011061779 6.7375285e-39 307 249
-0.014727999 0.69999999 -0.011045999 8.4874308e-39 308 249
-0.013462093 0.69800001 -0.01101444 9.3171915e-39 309 249
-0.012220734 0.69700003 -0.01099866 1.0419924e-38 310 249
-0.010982879 0.69599998 -0.010982879 1.0604315e-38 311 249
-0.0097345067 0.69400001 -0.01095132 1.0880532e-38 312 249
-0.0085176928 0.69400001 -0.01095132 1.0880532e-38 313 249
-0.0073008798 0.69400001 -0.01095132 1.0788331e-38 314 249
-0.0060840664 0.69400001 -0.01095132 9.7745374e-39 315 249
-0.00486024 0.69300002 -0.010935539 8.8533014e-39 316 249
-0.0036451798 0.69300002 -0.010935539 8.7611058e-39 317 249
-0.00243012 0.69300002 -0.010935539 1.0508507e-38 318 249
-0.00121506 0.69300002 -0.010935539 1.1246072e-38 319 249
0 0.69300002 -0.010935539 1.1246072e-38 320 249
0.00121506 0.69300002 -0.010935539 1.1338267e-38 321 249
0.00243012 0.69300002 -0.010935539 1.1062757e-38 322 249
0.0036451798 0.69300002 -0.010935539 1.0878364e-38 323 249
0.00486024 0.69300002 -0.010935539 1.0325189e-38 324 249
0.0060753003 0.69300002 -0.010935539 9.7720151e-39 325 249
0.0072903596 0.69300002 -0.010935539 8.8518567e-39 326 249
0.0085054198 0.69300002 -0.010935539 8.759661e-39 327 249
0.0097204801 0.69300002 -0.010935539 1.0139351e-38 328 249
0.010935539 0.69300002 -0.010935539 1.0139351e-38 329 249
0.012168133 0.69400001 -0.01095132 1.0324093e-38 330 249
0.013384946 0.69400001 -0.01095132 1.0139702e-38 331 249
0.01460176 0.69400001 -0.01095132 1.0044985e-38 332 249
0.015864158 0.69599998 -0.010982879 9.7683997e-39 333 249
0.017084479 0.69599998 -0.010982879 8.8485902e-39 334 249
0.018304799 0.69599998 -0.010982879 8.5720033e-39 335 249
0.019525118 0.69599998 -0.010982879 8.8489462e-39 336 249
0.020745439 0.69599998 -0.010982879 8.9411432e-39 337 249
0.02199732 0.69700003 -0.01099866 8.0213449e-39 338 249
0.023252707 0.69800001 -0.01101444 7.7451167e-39 339 249
0.024546666 0.69999999 -0.011045999 7.7476377e-39 340 249
0.02592128 0.704 -0.011109119 7.8398333e-39 341 249
