# .PCD v.7 - Point Cloud Data file format
FIELDS x y z rgb imX imY
SIZE 4 4 4 4 4 4
TYPE F F F F F F
COUNT 1 1 1 1 1 1
WIDTH 834
HEIGHT 1
VIEWPOINT 0 0 0 1 0 0 0
POINTS 834
DATA ascii
-0.018331099 0.69700003 -0 2.6747845e-39 305 240
-0.017109027 0.69700003 -0 4.236718e-39 306 240
-0.015864158 0.69599998 -0 4.3289136e-39 307 240
-0.014643839 0.69599998 -0 3.686068e-39 308 240
-0.013442807 0.69700003 -0 3.4094811e-39 309 240
-0.0122032 0.69599998 -0 1.9415383e-39 310 240
-0.010982879 0.69599998 -0 4.7996028e-39 311 240
-0.0097625591 0.69599998 -0 7.9295725e-39 312 240
-0.0085545136 0.69700003 -0 3.780409e-39 313 240
-0.00733244 0.69700003 -0 2.3974745e-39 314 240
-0.0061103669 0.69700003 -0 4.4257784e-39 315 240
-0.0048953067 0.69800001 -0 5.1618987e-39 316 240
-0.0036714801 0.69800001 -0 5.1618987e-39 317 240
-0.0024546667 0.69999999 -0 4.4250595e-39 318 240
-0.0012290865 0.70099998 -0 4.4250595e-39 319 240
0 0.70300001 -0 6.3597258e-39 320 240
0.0012325933 0.70300001 -0 7.8348559e-39 321 240
0.0024686933 0.704 -0 7.3753001e-39 322 240
0.0037030398 0.704 -0 7.1909088e-39 323 240
0.0049584266 0.70700002 -0 8.1067484e-39 324 240
0.0061980332 0.70700002 -0 7.8301601e-39 325 240
0.0074481601 0.708 -0 6.2700287e-39 326 240
0.0087263398 0.71100003 -0 8.2061369e-39 327 240
0.010001013 0.713 -0 9.952812e-39 328 240
0.011251139 0.713 -0 9.952812e-39 329 240
0.012501267 0.713 -0 1.1338615e-38 330 240
0.01377068 0.71399999 -0 1.3459473e-38 331 240
-0.053981625 0.71600002 -0.0012553866 1.4290323e-38 277 241
-0.052726239 0.71600002 -0.0012553866 1.4382165e-38 278 241
-0.05132708 0.71399999 -0.00125188 1.3921546e-38 279 241
-0.050075196 0.71399999 -0.00125188 1.0972377e-38 280 241
-0.048754938 0.713 -0.0012501266 1.0234453e-38 281 241
-0.047371563 0.71100003 -0.00124662 8.4823931e-39 282 241
-0.046060063 0.70999998 -0.0012448666 8.2976417e-39 283 241
-0.044688959 0.708 -0.00124136 7.196692e-39 284 241
-0.043386232 0.70700002 -0.0012396066 7.2888876e-39 285 241
-0.042087011 0.70599997 -0.0012378532 8.485979e-39 286 241
-0.040733438 0.704 -0.0012343467 1.0053306e-38 287 241
-0.039442986 0.70300001 -0.0012325933 1.0972374e-38 288 241
-0.038101684 0.70099998 -0.0012290865 1.0327005e-38 289 241
-0.036872596 0.70099998 -0.0012290865 1.0419198e-38 290 241
-0.035592664 0.69999999 -0.0012273333 1.0972372e-38 291 241
-0.034267146 0.69800001 -0.0012238267 1.1432981e-38 292 241
-0.033043321 0.69800001 -0.0012238267 1.1617372e-38 293 241
-0.03177391 0.69700003 -0.0012220733 1.1801394e-38 294 241
-0.030551834 0.69700003 -0.0012220733 1.1617002e-38 295 241
-0.02932976 0.69700003 -0.0012220733 1.1250735e-38 296 241
-0.028067358 0.69599998 -0.0012203199 1.115854e-38 297 241
-0.026847038 0.69599998 -0.0012203199 1.0142261e-38 298 241
-0.025626717 0.69599998 -0.0012203199 2.5822203e-39 299 241
-0.0244064 0.69599998 -0.0012203199 3.4116461e-39 300 241
-0.023219392 0.69700003 -0.0012220733 7.0072756e-39 301 241
-0.02202888 0.69800001 -0.0012238267 5.3538514e-39 302 241
-0.020805053 0.69800001 -0.0012238267 4.3397008e-39 303 241
-0.019581227 0.69800001 -0.0012238267 4.6080089e-39 304 241
-0.0183574 0.69800001 -0.0012238267 3.8704438e-39 305 241
-0.017133573 0.69800001 -0.0012238267 4.4210995e-39 306 241
-0.015864158 0.69599998 -0.0012203199 4.4210995e-39 307 241
-0.014643839 0.69599998 -0.0012203199 3.9612073e-39 308 241
-0.013442807 0.69700003 -0.0012220733 3.5002292e-39 309 241
-0.0122032 0.69599998 -0.0012203199 2.3077998e-39 310 241
-0.010982879 0.69599998 -0.0012203199 5.1658644e-39 311 241
-0.0097765867 0.69700003 -0.0012220733 7.9284921e-39 312 241
-0.0085545136 0.69700003 -0.0012220733 4.056277e-39 313 241
-0.00733244 0.69700003 -0.0012220733 2.6744188e-39 314 241
-0.0061103669 0.69700003 -0.0012220733 4.5183314e-39 315 241
-0.0048953067 0.69800001 -0.0012238267 5.34629e-39 316 241
-0.0036714801 0.69800001 -0.0012238267 5.0697031e-39 317 241
-0.0024546667 0.69999999 -0.0012273333 4.5190474e-39 318 241
-0.0012325933 0.70300001 -0.0012325933 4.7037974e-39 319 241
0 0.70300001 -0.0012325933 7.0029246e-39 320 241
0.0012343467 0.704 -0.0012343467 7.7404897e-39 321 241
0.0024686933 0.704 -0.0012343467 7.649366e-39 322 241
0.0037135598 0.70599997 -0.0012378532 8.2025398e-39 323 241
0.0049584266 0.70700002 -0.0012396066 8.6653102e-39 324 241
0.0061980332 0.70700002 -0.0012396066 9.6798223e-39 325 241
0.0074481601 0.708 -0.00124136 9.7720151e-39 326 241
0.0087263398 0.71100003 -0.00124662 1.0048601e-38 327 241
0.010001013 0.713 -0.0012501266 9.2163162e-39 328 241
0.011251139 0.713 -0.0012501266 8.29472e-39 329 241
0.012501267 0.713 -0.0012501266 1.050921e-38 330 241
-0.052726239 0.71600002 -0.0025107733 1.4198853e-38 278 242
-0.05132708 0.71399999 -0.0025037599 1.382971e-38 279 242
-0.050075196 0.71399999 -0.0025037599 1.0421722e-38 280 242
-0.048754938 0.713 -0.0025002533 9.6841565e-39 281 242
-0.047371563 0.71100003 -0.0024932399 7.8395404e-39 282 242
-0.046060063 0.70999998 -0.0024897333 7.5625948e-39 283 242
-0.044688959 0.708 -0.00248272 7.3789294e-39 284 242
-0.043386232 0.70700002 -0.0024792133 7.3789294e-39 285 242
-0.042087011 0.70599997 -0.0024757064 8.2086733e-39 286 242
-0.040733438 0.704 -0.0024686933 1.0236977e-38 287 242
-0.039442986 0.70300001 -0.0024651866 1.1065287e-38 288 242
-0.038210396 0.70300001 -0.0024651866 1.0327721e-38 289 242
-0.036872596 0.70099998 -0.0024581731 1.0236606e-38 290 242
-0.035643511 0.70099998 -0.0024581731 1.0697583e-38 291 242
-0.034365334 0.69999999 -0.0024546667 1.1433703e-38 292 242
-0.033137999 0.69999999 -0.0024546667 1.171029e-38 293 242
-0.031819493 0.69800001 -0.0024476533 1.1894311e-38 294 242
-0.030595668 0.69800001 -0.0024476533 1.1617726e-38 295 242
-0.02932976 0.69700003 -0.0024441467 1.1525527e-38 296 242
-0.028107686 0.69700003 -0.0024441467 1.1525527e-38 297 242
-0.026847038 0.69599998 -0.0024406398 1.0234456e-38 298 242
-0.025626717 0.69599998 -0.0024406398 2.5822203e-39 299 242
-0.024441468 0.69700003 -0.0024441467 2.8573989e-39 300 242
-0.023219392 0.69700003 -0.0024441467 5.070094e-39 301 242
-0.02202888 0.69800001 -0.0024476533 4.7985266e-39 302 242
-0.020805053 0.69800001 -0.0024476533 4.8907222e-39 303 242
-0.019581227 0.69800001 -0.0024476533 5.2494154e-39 304 242
-0.0183574 0.69800001 -0.0024476533 4.5114916e-39 305 242
-0.017133573 0.69800001 -0.0024476533 4.2370683e-39 306 242
-0.015886955 0.69700003 -0.0024441467 4.329264e-39 307 242
-0.01466488 0.69700003 -0.0024441467 3.8700907e-39 308 242
-0.013462093 0.69800001 -0.0024476533 4.1463174e-39 309 242
-0.012220734 0.69700003 -0.0024441467 3.1404346e-39 310 242
-0.01099866 0.69700003 -0.0024441467 4.338619e-39 311 242
-0.0097765867 0.69700003 -0.0024441467 6.2689721e-39 312 242
-0.0085545136 0.69700003 -0.0024441467 3.5952989e-39 313 242
-0.0073429602 0.69800001 -0.0024476533 2.0304899e-39 314 242
-0.006119133 0.69800001 -0.0024476533 4.1509894e-39 315 242
-0.0048953067 0.69800001 -0.0024476533 6.0824131e-39 316 242
-0.0036714801 0.69800001 -0.0024476533 5.805466e-39 317 242
-0.0024546667 0.69999999 -0.0024546667 5.8079688e-39 318 242
-0.0012325933 0.70300001 -0.0024651866 6.4533382e-39 319 242
0 0.70300001 -0.0024651866 7.0968985e-39 320 242
0.0012343467 0.704 -0.0024686933 7.2812898e-39 321 242
0.0024686933 0.704 -0.0024686933 7.9255802e-39 322 242
0.0037135598 0.70599997 -0.0024757064 8.8475379e-39 323 242
0.0049584266 0.70700002 -0.0024792133 9.4035787e-39 324 242
0.0061980332 0.70700002 -0.0024792133 9.4957743e-39 325 242
0.0074481601 0.708 -0.00248272 9.4028626e-39 326 242
0.0087263398 0.71100003 -0.0024932399 8.9418845e-39 327 242
0.010001013 0.713 -0.0025002533 8.3851164e-39 328 242
0.011251139 0.713 -0.0025002533 7.2787702e-39 329 242
0.012501267 0.713 -0.0025002533 1.0323387e-38 330 242
-0.052726239 0.71600002 -0.00376616 1.4567279e-38 278 243
-0.051470853 0.71600002 -0.00376616 1.4106301e-38 279 243
-0.050075196 0.71399999 -0.0037556398 1.0145861e-38 280 243
-0.048823316 0.71399999 -0.0037556398 9.5004911e-39 281 243
-0.047504812 0.713 -0.0037503797 7.8399062e-39 282 243
-0.046060063 0.70999998 -0.0037345996 7.4714838e-39 283 243
-0.044688959 0.708 -0.00372408 7.4711279e-39 284 243
-0.043447599 0.708 -0.00372408 7.3789322e-39 285 243
-0.042087011 0.70599997 -0.0037135598 8.3005158e-39 286 243
-0.040733438 0.704 -0.0037030398 1.0421015e-38 287 243
-0.039499093 0.704 -0.0037030398 1.0881622e-38 288 243
-0.038210396 0.70300001 -0.0036977797 1.0144057e-38 289 243
-0.036872596 0.70099998 -0.0036872597 1.0236609e-38 290 243
-0.035643511 0.70099998 -0.0036872597 1.0605031e-38 291 243
-0.034365334 0.69999999 -0.0036819996 1.1341151e-38 292 243
-0.033137999 0.69999999 -0.0036819996 1.1618097e-38 293 243
-0.031819493 0.69800001 -0.0036714801 1.1618091e-38 294 243
-0.030595668 0.69800001 -0.0036714801 1.14337e-38 295 243
-0.029371841 0.69800001 -0.0036714801 1.1434056e-38 296 243
-0.028107686 0.69700003 -0.00366622 1.1526252e-38 297 243
-0.026885614 0.69700003 -0.00366622 1.0234088e-38 298 243
-0.025663542 0.69700003 -0.00366622 3.1350242e-39 299 243
-0.024441468 0.69700003 -0.00366622 1.3836954e-39 300 243
-0.023219392 0.69700003 -0.00366622 2.8588254e-39 301 243
-0.02202888 0.69800001 -0.0036714801 3.41739e-39 302 243
-0.020805053 0.69800001 -0.0036714801 5.2613026e-39 303 243
-0.019581227 0.69800001 -0.0036714801 5.5274414e-39 304 243
-0.0183574 0.69800001 -0.0036714801 3.4069405e-39 305 243
-0.017133573 0.69800001 -0.0036714801 3.5009354e-39 306 243
-0.015886955 0.69700003 -0.00366622 4.2385005e-39 307 243
-0.01466488 0.69700003 -0.00366622 3.6853267e-39 308 243
-0.013462093 0.69800001 -0.0036714801 4.8838699e-39 309 243
-0.012220734 0.69700003 -0.00366622 5.6243062e-39 310 243
-0.01099866 0.69700003 -0.00366622 5.2551635e-39 311 243
-0.0097906133 0.69800001 -0.0036714801 4.9749865e-39 312 243
-0.0085667865 0.69800001 -0.0036714801 3.6842477e-39 313 243
-0.0073429602 0.69800001 -0.0036714801 2.0304871e-39 314 243
-0.0061366665 0.69999999 -0.0036819996 4.4279336e-39 315 243
-0.0049093333 0.69999999 -0.0036819996 6.7270608e-39 316 243
-0.0036819996 0.69999999 -0.0036819996 6.5426681e-39 317 243
-0.0024581731 0.70099998 -0.0036872597 6.6391545e-39 318 243
-0.0012325933 0.70300001 -0.0036977797 7.8376977e-39 319 243
0 0.704 -0.0037030398 8.0209792e-39 320 243
0.0012343467 0.704 -0.0037030398 7.7443909e-39 321 243
0.0024686933 0.704 -0.0037030398 8.2028579e-39 322 243
0.0037135598 0.70599997 -0.0037135598 9.3088467e-39 323 243
0.0049584266 0.70700002 -0.0037188199 9.3113831e-39 324 243
0.0062067998 0.708 -0.00372408 8.8504049e-39 325 243
0.0074481601 0.708 -0.00372408 8.8471875e-39 326 243
0.0087263398 0.71100003 -0.0037398601 8.1096225e-39 327 243
0.01001504 0.71399999 -0.0037556398 7.6461262e-39 328 243
0.011251139 0.713 -0.0037503797 7.5539306e-39 329 243
0.012501267 0.713 -0.0037503797 1.0600337e-38 330 243
-0.051470853 0.71600002 -0.0050215465 1.4658759e-38 279 244
-0.050075196 0.71399999 -0.0050075199 9.8689149e-39 280 244
-0.048823316 0.71399999 -0.0050075199 9.2235455e-39 281 244
-0.047504812 0.713 -0.0050005065 8.0246548e-39 282 244
-0.046060063 0.70999998 -0.0049794666 7.5636766e-39 283 244
-0.044688959 0.708 -0.0049654399 7.6544401e-39 284 244
-0.043447599 0.708 -0.0049654399 7.5622445e-39 285 244
-0.042146627 0.70700002 -0.0049584266 8.3005158e-39 286 244
-0.040849157 0.70599997 -0.0049514128 1.0513211e-38 287 244
-0.039499093 0.704 -0.0049373866 1.1065293e-38 288 244
-0.038210396 0.70300001 -0.0049303733 1.0143337e-38 289 244
-0.036977798 0.70300001 -0.0049303733 1.0327724e-38 290 244
-0.035643511 0.70099998 -0.0049163462 1.0696866e-38 291 244
-0.034365334 0.69999999 -0.0049093333 1.1432628e-38 292 244
-0.033137999 0.69999999 -0.0049093333 1.1525182e-38 293 244
-0.031819493 0.69800001 -0.0048953067 1.1525177e-38 294 244
-0.030595668 0.69800001 -0.0048953067 1.1525177e-38 295 244
-0.029371841 0.69800001 -0.0048953067 1.14337e-38 296 244
-0.028148014 0.69800001 -0.0048953067 1.14337e-38 297 244
-0.026924185 0.69800001 -0.0048953067 1.0326992e-38 298 244
-0.025663542 0.69700003 -0.0048882933 4.9792871e-39 299 244
-0.024441468 0.69700003 -0.0048882933 3.9651576e-39 300 244
-0.023252707 0.69800001 -0.0048953067 4.9793081e-39 301 244
-0.02202888 0.69800001 -0.0048953067 3.9680414e-39 302 244
-0.020864666 0.69999999 -0.0049093333 4.7981608e-39 303 244
-0.019637333 0.69999999 -0.0049093333 4.7941924e-39 304 244
-0.018409999 0.69999999 -0.0049093333 3.6878448e-39 305 244
-0.017133573 0.69800001 -0.0048953067 4.7923903e-39 306 244
-0.015909746 0.69800001 -0.0048953067 5.8069024e-39 307 244
-0.01468592 0.69800001 -0.0048953067 5.7154228e-39 308 244
-0.013462093 0.69800001 -0.0048953067 7.0061616e-39 309 244
-0.012238266 0.69800001 -0.0048953067 9.1226982e-39 310 244
-0.01101444 0.69800001 -0.0048953067 8.0163507e-39 311 244
-0.0097906133 0.69800001 -0.0048953067 7.0954734e-39 312 244
-0.0085913334 0.69999999 -0.0049093333 7.2795045e-39 313 244
-0.0073639993 0.69999999 -0.0049093333 6.6384539e-39 314 244
-0.0061454331 0.70099998 -0.0049163462 8.0213897e-39 315 244
-0.0049093333 0.69999999 -0.0049093333 9.3092419e-39 316 244
-0.0036819996 0.69999999 -0.0049093333 8.940458e-39 317 244
-0.0024651866 0.70300001 -0.0049303733 8.9407873e-39 318 244
-0.0012343467 0.704 -0.0049373866 9.3095684e-39 319 244
0 0.704 -0.0049373866 8.7603224e-39 320 244
0.0012343467 0.704 -0.0049373866 8.7603224e-39 321 244
0.0024686933 0.704 -0.0049373866 8.5745019e-39 322 244
0.0037135598 0.70599997 -0.0049514128 8.7592533e-39 323 244
0.0049584266 0.70700002 -0.0049584266 8.7578436e-39 324 244
0.0062067998 0.708 -0.0049654399 8.4812553e-39 325 244
0.0074481601 0.708 -0.0049654399 8.2922173e-39 326 244
0.0087508867 0.713 -0.0050005065 7.9234362e-39 327 244
0.01001504 0.71399999 -0.0050075199 7.7422777e-39 328 244
0.011251139 0.713 -0.0050005065 7.5582466e-39 329 244
0.012501267 0.713 -0.0050005065 1.0968393e-38 330 244
-0.051470853 0.71600002 -0.0062769335 1.4843869e-38 279 245
-0.050075196 0.71399999 -0.0062593995 9.5916049e-39 280 245
-0.048823316 0.71399999 -0.0062593995 9.1306268e-39 281 245
-0.047504812 0.713 -0.0062506334 8.3927142e-39 282 245
-0.046060063 0.70999998 -0.0062243328 7.8395404e-39 283 245
-0.044815198 0.70999998 -0.0062243328 8.0224996e-39 284 245
-0.043447599 0.708 -0.0062067998 7.6540772e-39 285 245
-0.042146627 0.70700002 -0.0061980332 8.0250051e-39 286 245
-0.040849157 0.70599997 -0.0061892662 1.02377e-38 287 245
-0.039499093 0.704 -0.0061717331 1.1065293e-38 288 245
-0.038264744 0.704 -0.0061717331 1.0143337e-38 289 245
-0.037030395 0.704 -0.0061717331 1.0051141e-38 290 245
-0.035745207 0.70300001 -0.0061629666 1.0512119e-38 291 245
-0.034414422 0.70099998 -0.0061454331 1.0789781e-38 292 245
-0.03318534 0.70099998 -0.0061454331 1.0881978e-38 293 245
-0.031910665 0.69999999 -0.0061366665 1.1157839e-38 294 245
-0.030683333 0.69999999 -0.0061366665 1.1157839e-38 295 245
-0.029371841 0.69800001 -0.006119133 1.1157836e-38 296 245
-0.028148014 0.69800001 -0.006119133 1.1157836e-38 297 245
-0.026924185 0.69800001 -0.006119133 1.1063473e-38 298 245
-0.025700359 0.69800001 -0.006119133 8.5745495e-39 299 245
-0.024476532 0.69800001 -0.006119133 7.7440826e-39 300 245
-0.023252707 0.69800001 -0.006119133 8.0206695e-39 301 245
-0.022091998 0.69999999 -0.0061366665 7.1920018e-39 302 245
-0.020864666 0.69999999 -0.0061366665 6.9154135e-39 303 245
-0.019637333 0.69999999 -0.0061366665 7.09836e-39 304 245
-0.018409999 0.69999999 -0.0061366665 7.0061644e-39 305 245
-0.017133573 0.69800001 -0.006119133 8.0181555e-39 306 245
-0.015909746 0.69800001 -0.006119133 8.663525e-39 307 245
-0.01468592 0.69800001 -0.006119133 8.479847e-39 308 245
-0.013462093 0.69800001 -0.006119133 8.9411838e-39 309 245
-0.012238266 0.69800001 -0.006119133 1.0414866e-38 310 245
-0.01101444 0.69800001 -0.006119133 1.0230475e-38 311 245
-0.0098186666 0.69999999 -0.0061366665 9.4936261e-39 312 245
-0.0085913334 0.69999999 -0.0061366665 9.7705718e-39 313 245
-0.0073639993 0.69999999 -0.0061366665 1.0138998e-38 314 245
-0.0061454331 0.70099998 -0.0061454331 1.0600337e-38 315 245
-0.0049303733 0.70300001 -0.0061629666 1.0601753e-38 316 245
-0.0036977797 0.70300001 -0.0061629666 9.8641869e-39 317 245
-0.0024686933 0.704 -0.0061717331 9.5875622e-39 318 245
-0.0012343467 0.704 -0.0061717331 9.4953666e-39 319 245
0 0.704 -0.0061717331 9.129814e-39 320 245
0.0012343467 0.704 -0.0061717331 8.945064e-39 321 245
0.0024686933 0.704 -0.0061717331 8.7599721e-39 322 245
0.0037135598 0.70599997 -0.0061892662 8.7599721e-39 323 245
0.0049584266 0.70700002 -0.0061980332 8.4823357e-39 324 245
0.0062067998 0.708 -0.0062067998 8.0209974e-39 325 245
0.0074797203 0.71100003 -0.0062330998 8.1078204e-39 326 245
0.0087631596 0.71399999 -0.0062593995 8.5691587e-39 327 245
0.010043093 0.71600002 -0.0062769335 8.0213757e-39 328 245
0.01129848 0.71600002 -0.0062769335 7.7444301e-39 329 245
-0.053168077 0.722 -0.0075954394 1.5305566e-38 278 246
-0.051542737 0.71700001 -0.0075428397 1.4476166e-38 279 246
-0.050215468 0.71600002 -0.00753232 9.8671128e-39 280 246
-0.048823316 0.71399999 -0.0075112795 9.4986904e-39 281 246
-0.047571439 0.71399999 -0.0075112795 9.1284786e-39 282 246
-0.046319555 0.71399999 -0.0075112795 8.5753048e-39 283 246
-0.044878319 0.71100003 -0.0074797203 8.1150483e-39 284 246
-0.043570329 0.70999998 -0.0074691991 7.9306571e-39 285 246
-0.042206239 0.708 -0.0074481601 7.5658206e-39 286 246
-0.040849157 0.70599997 -0.0074271196 9.6863215e-39 287 246
-0.039499093 0.704 -0.0074060797 1.0146574e-38 288 246
-0.038264744 0.704 -0.0074060797 9.5012044e-39 289 246
-0.037030395 0.704 -0.0074060797 9.8674687e-39 290 246
-0.035796054 0.704 -0.0074060797 1.0236253e-38 291 246
-0.034414422 0.70099998 -0.0073745195 1.0880179e-38 292 246
-0.03318534 0.70099998 -0.0073745195 1.106457e-38 293 246
-0.031910665 0.69999999 -0.0073639993 1.1248238e-38 294 246
-0.030683333 0.69999999 -0.0073639993 1.1248238e-38 295 246
-0.029455997 0.69999999 -0.0073639993 1.1248235e-38 296 246
-0.028228667 0.69999999 -0.0073639993 1.1340432e-38 297 246
-0.027001332 0.69999999 -0.0073639993 1.1799243e-38 298 246
-0.025700359 0.69800001 -0.0073429602 1.0785091e-38 299 246
-0.024476532 0.69800001 -0.0073429602 1.0139724e-38 300 246
-0.023252707 0.69800001 -0.0073429602 1.170669e-38 301 246
-0.022091998 0.69999999 -0.0073639993 1.1706339e-38 302 246
-0.020864666 0.69999999 -0.0073639993 1.1522308e-38 303 246
-0.019637333 0.69999999 -0.0073639993 1.1522661e-38 304 246
-0.018409999 0.69999999 -0.0073639993 1.1430466e-38 305 246
-0.017182667 0.69999999 -0.0073639993 1.152158e-38 306 246
-0.015909746 0.69800001 -0.0073429602 1.1153156e-38 307 246
-0.01468592 0.69800001 -0.0073429602 1.1519415e-38 308 246
-0.013462093 0.69800001 -0.0073429602 1.0874045e-38 309 246
-0.012238266 0.69800001 -0.0073429602 9.6808943e-39 310 246
-0.01101444 0.69800001 -0.0073429602 9.7730899e-39 311 246
-0.0098186666 0.69999999 -0.0073639993 1.0234065e-38 312 246
-0.0086036054 0.70099998 -0.0073745195 1.0234065e-38 313 246
-0.0073745195 0.70099998 -0.0073745195 1.0602122e-38 314 246
-0.0061629666 0.70300001 -0.0073955595 1.0141144e-38 315 246
-0.0049303733 0.70300001 -0.0073955595 9.863468e-39 316 246
-0.0036977797 0.70300001 -0.0073955595 9.5868811e-39 317 246
-0.0024686933 0.704 -0.0074060797 9.4953862e-39 318 246
-0.0012343467 0.704 -0.0074060797 9.2187993e-39 319 246
0 0.704 -0.0074060797 9.1266036e-39 320 246
0.0012343467 0.704 -0.0074060797 8.8500168e-39 321 246
0.0024757064 0.70599997 -0.0074271196 8.5737984e-39 322 246
0.0037135598 0.70599997 -0.0074271196 8.7585498e-39 323 246
0.0049584266 0.70700002 -0.0074376399 8.4826986e-39 324 246
0.0062330998 0.71100003 -0.0074797203 8.2983073e-39 325 246
0.0075007593 0.713 -0.0075007593 8.3880002e-39 326 246
0.0087631596 0.71399999 -0.0075112795 8.5723929e-39 327 246
0.010043093 0.71600002 -0.00753232 8.3901554e-39 328 246
0.01129848 0.71600002 -0.00753232 7.6522317e-39 329 246
-0.053168077 0.722 -0.0088613462 1.5763302e-38 278 247
-0.051542737 0.71700001 -0.0087999795 1.5117932e-38 279 247
-0.050215468 0.71600002 -0.0087877065 1.0326655e-38 280 247
-0.048823316 0.71399999 -0.0087631596 9.6812852e-39 281 247
-0.047571439 0.71399999 -0.0087631596 8.4852728e-39 282 247
-0.046319555 0.71399999 -0.0087631596 8.1168504e-39 283 247
-0.044878319 0.71100003 -0.0087263398 8.2072482e-39 284 247
-0.043570329 0.70999998 -0.0087140659 8.2994438e-39 285 247
-0.042206239 0.708 -0.008689519 8.5756551e-39 286 247
-0.040907022 0.70700002 -0.008677247 1.0511763e-38 287 247
-0.039667413 0.70700002 -0.008677247 1.0606466e-38 288 247
-0.038373452 0.70599997 -0.0086649731 1.0145129e-38 289 247
-0.037030395 0.704 -0.0086404262 1.005186e-38 290 247
-0.035796054 0.704 -0.0086404262 1.005186e-38 291 247
-0.034512613 0.70300001 -0.0086281532 1.0053306e-38 292 247
-0.033280019 0.70300001 -0.0086281532 1.0053306e-38 293 247
-0.031956252 0.70099998 -0.0086036054 1.0238053e-38 294 247
-0.030727165 0.70099998 -0.0086036054 1.0145858e-38 295 247
-0.029455997 0.69999999 -0.0085913334 1.0512835e-38 296 247
-0.028228667 0.69999999 -0.0085913334 1.0605031e-38 297 247
-0.027001332 0.69999999 -0.0085913334 1.0880176e-38 298 247
-0.025773998 0.69999999 -0.0085913334 8.3908939e-39 299 247
-0.024546666 0.69999999 -0.0085913334 8.3005004e-39 300 247
-0.023319334 0.69999999 -0.0085913334 9.8674659e-39 301 247
-0.022091998 0.69999999 -0.0085913334 1.1155684e-38 302 247
-0.020864666 0.69999999 -0.0085913334 1.1155684e-38 303 247
-0.019637333 0.69999999 -0.0085913334 1.1522659e-38 304 247
-0.018409999 0.69999999 -0.0085913334 1.1522659e-38 305 247
-0.017182667 0.69999999 -0.0085913334 1.0603567e-38 306 247
-0.015955333 0.69999999 -0.0085913334 9.9581972e-39 307 247
-0.014727999 0.69999999 -0.0085913334 9.9553147e-39 308 247
-0.013500666 0.69999999 -0.0085913334 9.5861721e-39 309 247
-0.012273333 0.69999999 -0.0085913334 9.1255653e-39 310 247
-0.011045999 0.69999999 -0.0085913334 9.4947079e-39 311 247
-0.0098326923 0.70099998 -0.0086036054 1.0691096e-38 312 247
-0.0086281532 0.70300001 -0.0086281532 1.0783293e-38 313 247
-0.0073955595 0.70300001 -0.0086281532 1.0598888e-38 314 247
-0.0061717331 0.704 -0.0086404262 9.4925401e-39 315 247
-0.0049373866 0.704 -0.0086404262 8.6674486e-39 316 247
-0.0037030398 0.704 -0.0086404262 8.6674486e-39 317 247
-0.0024686933 0.704 -0.0086404262 8.7589127e-39 318 247
-0.0012343467 0.704 -0.0086404262 8.6667171e-39 319 247
0 0.704 -0.0086404262 8.3876191e-39 320 247
0.0012343467 0.704 -0.0086404262 8.0184764e-39 321 247
0.0024757064 0.70599997 -0.0086649731 7.5618241e-39 322 247
0.0037135598 0.70599997 -0.0086649731 8.2071935e-39 323 247
0.0049794666 0.70999998 -0.0087140659 8.5756187e-39 324 247
0.0062330998 0.71100003 -0.0087263398 8.4834231e-39 325 247
0.0075007593 0.713 -0.0087508867 8.4827168e-39 326 247
0.0087631596 0.71399999 -0.0087631596 8.4827168e-39 327 247
0.010043093 0.71600002 -0.0087877065 8.4819951e-39 328 247
0.01129848 0.71600002 -0.0087877065 7.9291801e-39 329 247
-0.050215468 0.71600002 -0.010043093 1.069399e-38 280 248
-0.048960082 0.71600002 -0.010043093 9.5876421e-39 281 248
-0.047571439 0.71399999 -0.01001504 7.2888876e-39 282 248
-0.046319555 0.71399999 -0.01001504 7.2888876e-39 283 248
-0.045004558 0.713 -0.010001013 8.1150511e-39 284 248
-0.043631699 0.71100003 -0.0099729598 8.2072482e-39 285 248
-0.042325463 0.70999998 -0.0099589331 8.9437202e-39 286 248
-0.040907022 0.70700002 -0.0099168532 1.0879828e-38 287 248
-0.039667413 0.70700002 -0.0099168532 1.0239125e-38 288 248
-0.038373452 0.70599997 -0.0099028256 9.7781486e-39 289 248
-0.037030395 0.704 -0.0098747732 9.7781542e-39 290 248
-0.035796054 0.704 -0.0098747732 9.6855998e-39 291 248
-0.034561705 0.704 -0.0098747732 9.8689149e-39 292 248
-0.033280019 0.70300001 -0.0098607466 9.8689149e-39 293 248
-0.031956252 0.70099998 -0.0098326923 1.0144779e-38 294 248
-0.030727165 0.70099998 -0.0098326923 1.0144779e-38 295 248
-0.029498078 0.70099998 -0.0098326923 9.9607448e-39 296 248
-0.028228667 0.69999999 -0.0098186666 9.8685477e-39 297 248
-0.027001332 0.69999999 -0.0098186666 9.1338638e-39 298 248
-0.025773998 0.69999999 -0.0098186666 5.2620061e-39 299 248
-0.024546666 0.69999999 -0.0098186666 5.7251534e-39 300 248
-0.023319334 0.69999999 -0.0098186666 6.8314996e-39 301 248
-0.022091998 0.69999999 -0.0098186666 8.2086733e-39 302 248
-0.020864666 0.69999999 -0.0098186666 8.5774558e-39 303 248
-0.019637333 0.69999999 -0.0098186666 9.3103321e-39 304 248
-0.018409999 0.69999999 -0.0098186666 9.4025277e-39 305 248
-0.017182667 0.69999999 -0.0098186666 9.4929227e-39 306 248
-0.015955333 0.69999999 -0.0098186666 8.3869339e-39 307 248
-0.014749039 0.70099998 -0.0098326923 6.7310069e-39 308 248
-0.013519952 0.70099998 -0.0098326923 6.8232025e-39 309 248
-0.012290866 0.70099998 -0.0098326923 7.7422805e-39 310 248
-0.011061779 0.70099998 -0.0098326923 8.1114232e-39 311 248
-0.0098607466 0.70300001 -0.0098607466 8.479477e-39 312 248
-0.0086404262 0.704 -0.0098747732 8.5716726e-39 313 248
-0.0074060797 0.704 -0.0098747732 8.0170569e-39 314 248
-0.0061717331 0.704 -0.0098747732 7.3716875e-39 315 248
-0.0049373866 0.704 -0.0098747732 7.744786e-39 316 248
-0.0037030398 0.704 -0.0098747732 8.3901554e-39 317 248
-0.0024686933 0.704 -0.0098747732 8.4823329e-39 318 248
-0.0012343467 0.704 -0.0098747732 8.2979402e-39 319 248
0 0.70599997 -0.0099028256 7.8351642e-39 320 248
0.0012378532 0.70599997 -0.0099028256 7.6507729e-39 321 248
0.0024757064 0.70599997 -0.0099028256 7.6543827e-39 322 248
0.0037135598 0.70599997 -0.0099028256 8.2075564e-39 323 248
0.0049794666 0.70999998 -0.0099589331 8.2994018e-39 324 248
0.0062330998 0.71100003 -0.0099729598 8.3915974e-39 325 248
0.0075112795 0.71399999 -0.01001504 8.2983326e-39 326 248
0.0087877065 0.71600002 -0.010043093 8.2983326e-39 327 248
0.010043093 0.71600002 -0.010043093 8.7575058e-39 328 248
0.01131426 0.71700001 -0.01005712 8.4812791e-39 329 248
-0.050215468 0.71600002 -0.01129848 1.0140093e-38 280 249
-0.048960082 0.71600002 -0.01129848 9.4947234e-39 281 249
-0.047571439 0.71399999 -0.011266919 8.2997997e-39 282 249
-0.046319555 0.71399999 -0.011266919 8.0228527e-39 283 249
-0.045004558 0.713 -0.011251139 7.8391873e-39 284 249
-0.043631699 0.71100003 -0.01121958 7.8391873e-39 285 249
-0.042325463 0.70999998 -0.011203799 8.2997969e-39 286 249
-0.040964879 0.708 -0.01117224 1.014371e-38 287 249
-0.039667413 0.70700002 -0.011156459 1.0146577e-38 288 249
-0.038373452 0.70599997 -0.011140679 9.7781542e-39 289 249
-0.037030395 0.704 -0.011109119 9.4100933e-39 290 249
-0.035796054 0.704 -0.011109119 9.317539e-39 291 249
-0.034561705 0.704 -0.011109119 9.2253461e-39 292 249
-0.033280019 0.70300001 -0.01109334 9.3175418e-39 293 249
-0.032047424 0.70300001 -0.01109334 9.500854e-39 294 249
-0.030727165 0.70099998 -0.011061779 9.4086584e-39 295 249
-0.029498078 0.70099998 -0.011061779 9.5926839e-39 296 249
-0.028268991 0.70099998 -0.011061779 9.5004883e-39 297 249
-0.027039904 0.70099998 -0.011061779 9.0402332e-39 298 249
-0.025773998 0.69999999 -0.011045999 6.2743629e-39 299 249
-0.024546666 0.69999999 -0.011045999 5.8134016e-39 300 249
-0.023319334 0.69999999 -0.011045999 5.9055972e-39 301 249
-0.022123558 0.70099998 -0.011061779 5.4464169e-39 302 249
-0.020954086 0.70300001 -0.01109334 5.7230038e-39 303 249
-0.019665385 0.70099998 -0.011061779 6.7342635e-39 304 249
-0.018436298 0.70099998 -0.011061779 7.1030446e-39 305 249
-0.017207211 0.70099998 -0.011061779 7.4678656e-39 306 249
-0.015978126 0.70099998 -0.011061779 6.9146919e-39 307 249
-0.014791119 0.70300001 -0.01109334 7.0068903e-39 308 249
-0.013558527 0.70300001 -0.01109334 7.3756728e-39 309 249
-0.012325933 0.70300001 -0.01109334 7.6526128e-39 310 249
-0.01109334 0.70300001 -0.01109334 7.836644e-39 311 249
-0.0098607466 0.70300001 -0.01109334 8.0199436e-39 312 249
-0.0086404262 0.704 -0.011109119 8.2043349e-39 313 249
-0.0074060797 0.704 -0.011109119 7.5568145e-39 314 249
-0.0061717331 0.704 -0.011109119 7.1883907e-39 315 249
-0.0049373866 0.704 -0.011109119 7.7440798e-39 316 249
-0.0037030398 0.704 -0.011109119 8.4816448e-39 317 249
-0.0024686933 0.704 -0.011109119 8.2071879e-39 318 249
-0.0012378532 0.70599997 -0.011140679 7.6543729e-39 319 249
0 0.70599997 -0.011140679 7.1001201e-39 320 249
0.0012378532 0.70599997 -0.011140679 7.2845113e-39 321 249
0.0024757064 0.70599997 -0.011140679 7.5639905e-39 322 249
0.0037188199 0.70700002 -0.011156459 7.9324143e-39 323 249
0.0049794666 0.70999998 -0.011203799 8.2990486e-39 324 249
0.0062506334 0.713 -0.011251139 8.2990486e-39 325 249
0.00753232 0.71600002 -0.01129848 8.2983354e-39 326 249
0.0087877065 0.71600002 -0.01129848 8.2983354e-39 327 249
0.010043093 0.71600002 -0.01129848 8.2983298e-39 328 249
0.01131426 0.71700001 -0.01131426 8.1139385e-39 329 249
0.0125714 0.71700001 -0.01131426 1.1705232e-38 330 249
-0.051470853 0.71600002 -0.012553867 1.5851518e-38 279 250
-0.050215468 0.71600002 -0.012553867 9.9542582e-39 280 250
-0.048823316 0.71399999 -0.012518799 9.2166917e-39 281 250
-0.047571439 0.71399999 -0.012518799 8.5760237e-39 282 250
-0.046319555 0.71399999 -0.012518799 8.2076013e-39 283 250
-0.044878319 0.71100003 -0.0124662 7.5636794e-39 284 250
-0.043631699 0.71100003 -0.0124662 7.3789294e-39 285 250
-0.042325463 0.70999998 -0.012448666 7.9306571e-39 286 250
-0.040964879 0.708 -0.0124136 1.0051157e-38 287 250
-0.039667413 0.70700002 -0.012396066 1.0146223e-38 288 250
-0.038427804 0.70700002 -0.012396066 9.5930497e-39 289 250
-0.037135597 0.70599997 -0.012378532 9.1327946e-39 290 250
-0.035796054 0.704 -0.012343466 9.040599e-39 291 250
-0.034561705 0.704 -0.012343466 8.7647379e-39 292 250
-0.033280019 0.70300001 -0.012325933 8.7647379e-39 293 250
-0.032047424 0.70300001 -0.012325933 9.040599e-39 294 250
-0.030814834 0.70300001 -0.012325933 9.040599e-39 295 250
-0.029582238 0.70300001 -0.012325933 8.8572839e-39 296 250
-0.028268991 0.70099998 -0.012290866 8.7650883e-39 297 250
-0.027039904 0.70099998 -0.012290866 8.7647211e-39 298 250
-0.025810819 0.70099998 -0.012290866 7.1048411e-39 299 250
-0.024581732 0.70099998 -0.012290866 5.7211919e-39 300 250
-0.023352645 0.70099998 -0.012290866 5.7211919e-39 301 250
-0.02218668 0.70300001 -0.012325933 5.0776316e-39 302 250
-0.020954086 0.70300001 -0.012325933 5.0776316e-39 303 250
-0.019665385 0.70099998 -0.012290866 5.6311613e-39 304 250
-0.018436298 0.70099998 -0.012290866 5.9077482e-39 305 250
-0.017207211 0.70099998 -0.012290866 7.3745966e-39 306 250
-0.015978126 0.70099998 -0.012290866 7.4667936e-39 307 250
-0.014791119 0.70300001 -0.012325933 7.5611333e-39 308 250
-0.013558527 0.70300001 -0.012325933 7.8380803e-39 309 250
-0.012325933 0.70300001 -0.012325933 8.1146602e-39 310 250
-0.01109334 0.70300001 -0.012325933 8.2990514e-39 311 250
-0.0098747732 0.704 -0.012343466 8.1157364e-39 312 250
-0.0086404262 0.704 -0.012343466 8.1157364e-39 313 250
-0.0074060797 0.704 -0.012343466 7.928827e-39 314 250
-0.0061717331 0.704 -0.012343466 7.3756532e-39 315 250
-0.0049373866 0.704 -0.012343466 7.9295458e-39 316 250
-0.0037030398 0.704 -0.012343466 8.4827196e-39 317 250
-0.0024686933 0.704 -0.012343466 8.1142888e-39 318 250
-0.0012378532 0.70599997 -0.012378532 7.0083e-39 319 250
0 0.70599997 -0.012378532 5.9026685e-39 320 250
0.0012378532 0.70599997 -0.012378532 6.3636467e-39 321 250
0.0024792133 0.70700002 -0.012396066 8.6667451e-39 322 250
0.0037345996 0.70999998 -0.012448666 8.9429733e-39 323 250
0.0049864799 0.71100003 -0.0124662 8.9422558e-39 324 250
0.0062593995 0.71399999 -0.012518799 8.8497015e-39 325 250
0.00753232 0.71600002 -0.012553867 8.9411838e-39 326 250
0.0087877065 0.71600002 -0.012553867 8.8489882e-39 327 250
0.01005712 0.71700001 -0.0125714 8.4812763e-39 328 250
0.01131426 0.71700001 -0.0125714 8.0202967e-39 329 250
0.0125714 0.71700001 -0.0125714 1.1704509e-38 330 250
-0.050215468 0.71600002 -0.013809253 1.0966964e-38 280 251
-0.048823316 0.71399999 -0.01377068 9.7684208e-39 281 251
-0.047571439 0.71399999 -0.01377068 7.9328095e-39 282 251
-0.046319555 0.71399999 -0.01377068 7.5640269e-39 283 251
-0.044878319 0.71100003 -0.01371282 7.196692e-39 284 251
-0.043631699 0.71100003 -0.01371282 7.2888876e-39 285 251
-0.042325463 0.70999998 -0.013693533 8.3901905e-39 286 251
-0.040964879 0.708 -0.013654959 1.0141907e-38 287 251
-0.039723519 0.708 -0.013654959 9.8707156e-39 288 251
-0.038427804 0.70700002 -0.013635674 9.3175418e-39 289 251
-0.037135597 0.70599997 -0.013616386 8.765454e-39 290 251
-0.035897743 0.70599997 -0.013616386 8.4892258e-39 291 251
-0.034561705 0.704 -0.013577812 8.3966771e-39 292 251
-0.03332736 0.704 -0.013577812 8.3966771e-39 293 251
-0.032093015 0.704 -0.013577812 8.6725409e-39 294 251
-0.030814834 0.70300001 -0.013558527 8.5803453e-39 295 251
-0.029582238 0.70300001 -0.013558527 8.489223e-39 296 251
-0.028349647 0.70300001 -0.013558527 8.3970274e-39 297 251
-0.027117053 0.70300001 -0.013558527 8.4884972e-39 298 251
-0.025810819 0.70099998 -0.013519952 8.4884972e-39 299 251
-0.024581732 0.70099998 -0.013519952 7.4729033e-39 300 251
-0.023352645 0.70099998 -0.013519952 7.4729033e-39 301 251
-0.02218668 0.70300001 -0.013558527 7.8416928e-39 302 251
-0.020954086 0.70300001 -0.013558527 8.1179196e-39 303 251
-0.019721493 0.70300001 -0.013558527 8.2097523e-39 304 251
-0.018488899 0.70300001 -0.013558527 8.0250023e-39 305 251
-0.017256306 0.70300001 -0.013558527 7.7487643e-39 306 251
-0.016023712 0.70300001 -0.013558527 7.933157e-39 307 251
-0.014791119 0.70300001 -0.013558527 8.1182573e-39 308 251
-0.013558527 0.70300001 -0.013558527 8.2104529e-39 309 251
-0.012325933 0.70300001 -0.013558527 8.3941211e-39 310 251
-0.011109119 0.704 -0.013577812 8.4863167e-39 311 251
-0.0098747732 0.704 -0.013577812 8.4859608e-39 312 251
-0.0086404262 0.704 -0.013577812 8.2093739e-39 313 251
-0.0074060797 0.704 -0.013577812 8.0231876e-39 314 251
-0.0061717331 0.704 -0.013577812 7.4700138e-39 315 251
-0.0049514128 0.70599997 -0.013616386 7.4689348e-39 316 251
-0.0037135598 0.70599997 -0.013616386 6.8235654e-39 317 251
-0.0024757064 0.70599997 -0.013616386 6.3604293e-39 318 251
-0.0012396066 0.70700002 -0.013635674 5.6225041e-39 319 251
0 0.70700002 -0.013635674 2.4925288e-39 320 251
0.0012396066 0.70700002 -0.013635674 4.7970594e-39 321 251
0.00248272 0.708 -0.013654959 1.0045729e-38 322 251
0.0037345996 0.70999998 -0.013693533 1.0230122e-38 323 251
0.0049864799 0.71100003 -0.01371282 9.6780202e-39 324 251
0.0062593995 0.71399999 -0.01377068 9.6780202e-39 325 251
0.00753232 0.71600002 -0.013809253 9.0344529e-39 326 251
0.0087877065 0.71600002 -0.013809253 8.9422558e-39 327 251
0.01005712 0.71700001 -0.013828539 8.8478938e-39 328 251
0.01131426 0.71700001 -0.013828539 8.8478938e-39 329 251
0.0125714 0.71700001 -0.013828539 1.2623942e-38 330 251
0.013828539 0.71700001 -0.013828539 1.5666758e-38 331 251
-0.051470853 0.71600002 -0.01506464 1.6219932e-38 279 252
-0.050215468 0.71600002 -0.01506464 1.1889273e-38 280 252
-0.048960082 0.71600002 -0.01506464 1.0782926e-38 281 252
-0.047571439 0.71399999 -0.015022559 9.0369864e-39 282 252
-0.046319555 0.71399999 -0.015022559 8.1153888e-39 283 252
-0.045004558 0.713 -0.015001519 7.4718313e-39 284 252
-0.043631699 0.71100003 -0.014959441 7.5640269e-39 285 252
-0.042325463 0.70999998 -0.014938398 8.4813099e-39 286 252
-0.040964879 0.708 -0.01489632 9.9564414e-39 287 252
-0.039723519 0.708 -0.01489632 9.5923308e-39 288 252
-0.038482159 0.708 -0.01489632 9.5001352e-39 289 252
-0.037188202 0.70700002 -0.01487528 8.4892258e-39 290 252
-0.035948593 0.70700002 -0.01487528 8.212639e-39 291 252
-0.034659892 0.70599997 -0.014854239 7.661633e-39 292 252
-0.033422034 0.70599997 -0.014854239 7.7538286e-39 293 252
-0.032093015 0.704 -0.014812159 7.7538286e-39 294 252
-0.030858666 0.704 -0.014812159 7.661633e-39 295 252
-0.029624319 0.704 -0.014812159 7.9371381e-39 296 252
-0.028389972 0.704 -0.014812159 7.7531069e-39 297 252
-0.027117053 0.70300001 -0.014791119 7.9371255e-39 298 252
-0.025884461 0.70300001 -0.014791119 8.3059066e-39 299 252
-0.024651866 0.70300001 -0.014791119 8.3037374e-39 300 252
-0.023419274 0.70300001 -0.014791119 8.1197048e-39 301 252
-0.02218668 0.70300001 -0.014791119 8.4884846e-39 302 252
-0.020983893 0.704 -0.014812159 8.5806802e-39 303 252
-0.019749546 0.704 -0.014812159 8.7636267e-39 304 252
-0.018515198 0.704 -0.014812159 8.579234e-39 305 252
-0.017280852 0.704 -0.014812159 8.4870356e-39 306 252
-0.016046507 0.704 -0.014812159 8.5792312e-39 307 252
-0.014812159 0.704 -0.014812159 8.3955631e-39 308 252
-0.013577812 0.704 -0.014812159 8.3033674e-39 309 252
-0.012343466 0.704 -0.014812159 8.5785152e-39 310 252
-0.011109119 0.704 -0.014812159 8.5785152e-39 311 252
-0.0098747732 0.704 -0.014812159 8.6696318e-39 312 252
-0.0086404262 0.704 -0.014812159 8.3930463e-39 313 252
-0.0074271196 0.70599997 -0.014854239 8.2072285e-39 314 252
-0.0061892662 0.70599997 -0.014854239 7.3774679e-39 315 252
-0.0049514128 0.70599997 -0.014854239 6.4551584e-39 316 252
-0.0037135598 0.70599997 -0.014854239 4.5190502e-39 317 252
-0.0024757064 0.70599997 -0.014854239 4.2403151e-39 318 252
-0.0012396066 0.70700002 -0.01487528 3.9637268e-39 319 252
0 0.708 -0.01489632 2.4868031e-39 320 252
0.00124136 0.708 -0.01489632 4.0537687e-39 321 252
0.0024897333 0.70999998 -0.014938398 9.5854714e-39 322 252
0.0037398601 0.71100003 -0.014959441 1.0784015e-38 323 252
0.0049864799 0.71100003 -0.014959441 1.0231897e-38 324 252
0.0062593995 0.71399999 -0.015022559 1.0139702e-38 325 252
0.00753232 0.71600002 -0.01506464 1.0413772e-38 326 252
0.0087877065 0.71600002 -0.01506464 1.0137184e-38 327 252
0.01005712 0.71700001 -0.015085679 9.2170196e-39 328 252
0.01131426 0.71700001 -0.015085679 9.5861623e-39 329 252
0.0125714 0.71700001 -0.015085679 1.2991999e-38 330 252
0.0138864 0.72000003 -0.0151488 1.5481641e-38 331 252
0.0151488 0.72000003 -0.0151488 1.6403594e-38 332 252
-0.05168651 0.71899998 -0.016388407 1.6128099e-38 279 253
-0.050425861 0.71899998 -0.016388407 1.2903067e-38 280 253
-0.04902846 0.71700001 -0.016342819 1.1981469e-38 281 253
-0.047704693 0.71600002 -0.016320027 1.0876939e-38 282 253
-0.046449307 0.71600002 -0.016320027 1.0139374e-38 283 253
-0.045067675 0.71399999 -0.016274439 9.1270296e-39 284 253
-0.043631699 0.71100003 -0.01620606 8.7586073e-39 285 253
-0.042325463 0.70999998 -0.016183265 8.7586073e-39 286 253
-0.041080594 0.70999998 -0.016183265 9.6805636e-39 287 253
-0.039723519 0.708 -0.01613768 9.317539e-39 288 253
-0.038482159 0.708 -0.01613768 9.0409521e-39 289 253
-0.0372408 0.708 -0.01613768 8.1218881e-39 290 253
-0.035948593 0.70700002 -0.016114887 7.6609113e-39 291 253
-0.034659892 0.70599997 -0.016092092 7.4768858e-39 292 253
-0.033422034 0.70599997 -0.016092092 7.4768858e-39 293 253
-0.032184184 0.70599997 -0.016092092 7.6605582e-39 294 253
-0.030858666 0.704 -0.016046507 7.5683626e-39 295 253
-0.029624319 0.704 -0.016046507 7.5687143e-39 296 253
-0.028389972 0.704 -0.016046507 7.5687143e-39 297 253
-0.027117053 0.70300001 -0.016023712 7.7523825e-39 298 253
-0.025884461 0.70300001 -0.016023712 7.7523825e-39 299 253
-0.024651866 0.70300001 -0.016023712 7.9360535e-39 300 253
-0.023419274 0.70300001 -0.016023712 7.9360535e-39 301 253
-0.02218668 0.70300001 -0.016023712 8.3952295e-39 302 253
-0.020983893 0.704 -0.016046507 8.3952295e-39 303 253
-0.019749546 0.704 -0.016046507 8.3948666e-39 304 253
-0.018515198 0.704 -0.016046507 8.3023108e-39 305 253
-0.017280852 0.704 -0.016046507 8.5774558e-39 306 253
-0.016046507 0.704 -0.016046507 8.4852602e-39 307 253
-0.014812159 0.704 -0.016046507 8.6685724e-39 308 253
-0.013577812 0.704 -0.016046507 8.5763768e-39 309 253
-0.012343466 0.704 -0.016046507 8.4852574e-39 310 253
-0.011109119 0.704 -0.016046507 8.4852574e-39 311 253
-0.0098747732 0.704 -0.016046507 8.2097467e-39 312 253
-0.0086649731 0.70599997 -0.016092092 8.2097467e-39 313 253
-0.0074271196 0.70599997 -0.016092092 7.1952374e-39 314 253
-0.0061892662 0.70599997 -0.016092092 5.4438806e-39 315 253
-0.0049514128 0.70599997 -0.016092092 3.7847292e-39 316 253
-0.0037135598 0.70599997 -0.016092092 2.7705759e-39 317 253
-0.0024792133 0.70700002 -0.016114887 4.5129448e-39 318 253
-0.00124136 0.708 -0.01613768 4.2359991e-39 319 253
0 0.708 -0.01613768 3.3158351e-39 320 253
0.0012448666 0.70999998 -0.016183265 4.5143783e-39 321 253
0.0024897333 0.70999998 -0.016183265 7.744077e-39 322 253
0.0037398601 0.71100003 -0.01620606 9.5879896e-39 323 253
0.0050005065 0.713 -0.016251646 1.0785071e-38 324 253
0.0062593995 0.71399999 -0.016274439 1.0508484e-38 325 253
0.00753232 0.71600002 -0.016320027 1.0966942e-38 326 253
0.0087877065 0.71600002 -0.016320027 1.1151693e-38 327 253
0.01005712 0.71700001 -0.016342819 1.1059493e-38 328 253
0.01131426 0.71700001 -0.016342819 1.1520113e-38 329 253
0.0125714 0.71700001 -0.016342819 1.3178548e-38 330 253
0.0138864 0.72000003 -0.0164112 1.502246e-38 331 253
0.0151488 0.72000003 -0.0164112 1.6220279e-38 332 253
-0.05168651 0.71899998 -0.017649053 1.6311771e-38 279 254
-0.050425861 0.71899998 -0.017649053 1.2903067e-38 280 254
-0.049165215 0.71899998 -0.017649053 1.2349893e-38 281 254
-0.04777132 0.71700001 -0.017599959 1.1430829e-38 282 254
-0.046449307 0.71600002 -0.017575413 1.0601068e-38 283 254
-0.045067675 0.71399999 -0.017526319 9.5883651e-39 284 254
-0.043754432 0.713 -0.017501773 9.3117782e-39 285 254
-0.042385083 0.71100003 -0.01745268 9.0377151e-39 286 254
-0.041080594 0.70999998 -0.017428132 9.5908889e-39 287 254
-0.039835732 0.70999998 -0.017428132 9.8667625e-39 288 254
-0.038482159 0.708 -0.017379038 9.4061431e-39 289 254
-0.0372408 0.708 -0.017379038 6.8333171e-39 290 254
-0.03599944 0.708 -0.017379038 6.5567316e-39 291 254
-0.034708988 0.70700002 -0.017354494 6.7404124e-39 292 254
-0.033469379 0.70700002 -0.017354494 6.8329667e-39 293 254
-0.032184184 0.70599997 -0.017329946 6.7418445e-39 294 254
-0.030946331 0.70599997 -0.017329946 6.7418445e-39 295 254
-0.029624319 0.704 -0.017280852 6.7422004e-39 296 254
-0.028389972 0.704 -0.017280852 6.6500048e-39 297 254
-0.027155625 0.704 -0.017280852 6.9255099e-39 298 254
-0.02592128 0.704 -0.017280852 7.0177055e-39 299 254
-0.024686933 0.704 -0.017280852 7.4765187e-39 300 254
-0.023419274 0.70300001 -0.017256306 7.4765187e-39 301 254
-0.02218668 0.70300001 -0.017256306 7.7523825e-39 302 254
-0.020983893 0.704 -0.017280852 7.7523825e-39 303 254
-0.019749546 0.704 -0.017280852 7.7516608e-39 304 254
-0.018515198 0.704 -0.017280852 7.7516608e-39 305 254
-0.017280852 0.704 -0.017280852 7.6594624e-39 306 254
-0.016046507 0.704 -0.017280852 7.5672667e-39 307 254
-0.014812159 0.704 -0.017280852 7.2896037e-39 308 254
-0.013577812 0.704 -0.017280852 7.3817993e-39 309 254
-0.012343466 0.704 -0.017280852 7.5654675e-39 310 254
-0.011109119 0.704 -0.017280852 7.7498601e-39 311 254
-0.0098747732 0.704 -0.017280852 7.7505664e-39 312 254
-0.0086649731 0.70599997 -0.017329946 7.105197e-39 313 254
-0.0074271196 0.70599997 -0.017329946 7.0083252e-39 314 254
-0.0061892662 0.70599997 -0.017329946 5.072217e-39 315 254
-0.0049514128 0.70599997 -0.017329946 4.4257812e-39 316 254
-0.0037188199 0.70700002 -0.017354494 4.1488356e-39 317 254
-0.0024792133 0.70700002 -0.017354494 4.1473978e-39 318 254
-0.00124136 0.708 -0.017379038 4.1473978e-39 319 254
0 0.70999998 -0.017428132 5.1615358e-39 320 254
0.0012448666 0.70999998 -0.017428132 5.8069052e-39 321 254
0.0024932399 0.71100003 -0.01745268 8.1096183e-39 322 254
0.0037503797 0.713 -0.017501773 9.6773041e-39 323 254
0.0050075199 0.71399999 -0.017526319 1.1335368e-38 324 254
0.0062769335 0.71600002 -0.017575413 1.1151337e-38 325 254
0.0075428397 0.71700001 -0.017599959 1.1335356e-38 326 254
0.0087999795 0.71700001 -0.017599959 1.1519747e-38 327 254
0.010099201 0.72000003 -0.017673599 1.1612661e-38 328 254
0.011361601 0.72000003 -0.017673599 1.1889608e-38 329 254
0.012659066 0.722 -0.017722692 1.3179264e-38 330 254
0.013924973 0.722 -0.017722692 1.474695e-38 331 254
0.015190879 0.722 -0.017722692 1.612736e-38 332 254
0.016456785 0.722 -0.017722692 1.6403947e-38 333 254
-0.050496001 0.72000003 -0.018935999 1.2352049e-38 280 255
-0.049165215 0.71899998 -0.018909698 1.1614126e-38 281 255
-0.04790457 0.71899998 -0.018909698 1.1707773e-38 282 255
-0.046449307 0.71600002 -0.0188308 1.0878011e-38 283 255
-0.045193922 0.71600002 -0.0188308 9.6809139e-39 284 255
-0.043754432 0.713 -0.018751899 9.5887183e-39 285 255
-0.042385083 0.71100003 -0.0186993 9.5883651e-39 286 255
-0.041138459 0.71100003 -0.0186993 1.0141539e-38 287 255
-0.039835732 0.70999998 -0.018672999 1.0602164e-38 288 255
-0.038590867 0.70999998 -0.018672999 9.2192281e-39 289 255
-0.0372408 0.708 -0.0186204 5.6329732e-39 290 255
-0.03599944 0.708 -0.0186204 5.1723538e-39 291 255
-0.034758076 0.708 -0.0186204 6.2772762e-39 292 255
-0.033469379 0.70700002 -0.018594101 7.0148413e-39 293 255
-0.032229774 0.70700002 -0.018594101 6.5574532e-39 294 255
-0.030946331 0.70599997 -0.018567799 6.5574532e-39 295 255
-0.029708479 0.70599997 -0.018567799 6.5574504e-39 296 255
-0.028470624 0.70599997 -0.018567799 6.5574504e-39 297 255
-0.027155625 0.704 -0.018515198 6.5570875e-39 298 255
-0.02592128 0.704 -0.018515198 6.8333143e-39 299 255
-0.024686933 0.704 -0.018515198 7.2006548e-39 300 255
-0.023452586 0.704 -0.018515198 7.2006548e-39 301 255
-0.022218239 0.704 -0.018515198 7.4757998e-39 302 255
-0.020983893 0.704 -0.018515198 7.4757998e-39 303 255
-0.019749546 0.704 -0.018515198 7.3836014e-39 304 255
-0.018515198 0.704 -0.018515198 7.2914057e-39 305 255
-0.017280852 0.704 -0.018515198 7.6594652e-39 306 255
-0.016046507 0.704 -0.018515198 7.1062914e-39 307 255
-0.014812159 0.704 -0.018515198 5.8155498e-39 308 255
-0.013577812 0.704 -0.018515198 6.1843323e-39 309 255
-0.012343466 0.704 -0.018515198 7.6544247e-39 310 255
-0.011109119 0.704 -0.018515198 8.1154015e-39 311 255
-0.0099028256 0.70599997 -0.018567799 8.1161077e-39 312 255
-0.0086649731 0.70599997 -0.018567799 7.0097616e-39 313 255
-0.0074271196 0.70599997 -0.018567799 6.3625901e-39 314 255
-0.0061980332 0.70700002 -0.018594101 4.9796556e-39 315 255
-0.0049584266 0.70700002 -0.018594101 5.0697031e-39 316 255
-0.0037188199 0.70700002 -0.018594101 4.7009205e-39 317 255
-0.00248272 0.708 -0.0186204 4.333217e-39 318 255
-0.0012448666 0.70999998 -0.018672999 4.8863908e-39 319 255
0 0.70999998 -0.018672999 6.6359372e-39 320 255
0.00124662 0.71100003 -0.0186993 6.7281328e-39 321 255
0.0024932399 0.71100003 -0.0186993 8.1089022e-39 322 255
0.0037503797 0.713 -0.018751899 9.6758692e-39 323 255
0.0050075199 0.71399999 -0.018778199 1.0876195e-38 324 255
0.0062769335 0.71600002 -0.0188308 1.0876195e-38 325 255
0.0075428397 0.71700001 -0.018857099 1.151975e-38 326 255
0.0087999795 0.71700001 -0.018857099 1.151975e-38 327 255
0.010085173 0.71899998 -0.018909698 1.1705216e-38 328 255
0.011361601 0.72000003 -0.018935999 1.1797413e-38 329 255
0.012624 0.72000003 -0.018935999 1.253605e-38 330 255
0.0138864 0.72000003 -0.018935999 1.401118e-38 331 255
0.015190879 0.722 -0.0189886 1.6035521e-38 332 255
0.016456785 0.722 -0.0189886 1.6127716e-38 333 255
-0.050496001 0.72000003 -0.020198401 1.1983984e-38 280 256
-0.0492336 0.72000003 -0.020198401 1.1246419e-38 281 256
-0.0479712 0.72000003 -0.020198401 1.1893236e-38 282 256
-0.046514176 0.71700001 -0.020114239 1.1801041e-38 283 256
-0.045193922 0.71600002 -0.020086186 1.1429387e-38 284 256
-0.043815799 0.71399999 -0.020030079 1.0507431e-38 285 256
-0.042504307 0.713 -0.020002026 1.0047178e-38 286 256
-0.041138459 0.71100003 -0.01994592 1.106097e-38 287 256
-0.039891839 0.71100003 -0.01994592 1.0970221e-38 288 256
-0.038590867 0.70999998 -0.019917866 9.1266667e-39 289 256
-0.037345998 0.70999998 -0.019917866 4.6173821e-39 290 256
-0.03599944 0.708 -0.01986176 3.7872613e-39 291 256
-0.034758076 0.708 -0.01986176 5.2634928e-39 292 256
-0.033516716 0.708 -0.01986176 6.277286e-39 293 256
-0.03227536 0.708 -0.01986176 6.3719886e-39 294 256
-0.030990168 0.70700002 -0.019833706 6.4641856e-39 295 256
-0.029708479 0.70599997 -0.019805651 6.0971968e-39 296 256
-0.028470624 0.70599997 -0.019805651 5.7284156e-39 297 256
