# .PCD v.7 - Point Cloud Data file format
FIELDS x y z rgb imX imY
SIZE 4 4 4 4 4 4
TYPE F F F F F F
COUNT 1 1 1 1 1 1
WIDTH 833
HEIGHT 1
VIEWPOINT 0 0 0 1 0 0 0
POINTS 833
DATA ascii
0.041133199 0.69 -0.024195999 1.391759e-38 354 260
0.042404365 0.69099998 -0.024231065 1.5300526e-38 355 260
0.043615919 0.69099998 -0.024231065 1.7236617e-38 356 260
0.044827472 0.69099998 -0.024231065 1.9264921e-38 357 260
-0.020805053 0.69800001 -0.025700359 1.7882708e-38 303 261
-0.019553173 0.69700003 -0.025663542 1.3000328e-38 304 261
-0.018304799 0.69599998 -0.025626717 1.1801786e-38 305 261
-0.017035386 0.69400001 -0.025553079 1.2267096e-38 306 261
-0.015795778 0.69300002 -0.02551626 1.2636237e-38 307 261
-0.014517599 0.69 -0.025405798 1.448085e-38 308 261
-0.013249939 0.68699998 -0.025295338 1.3927676e-38 309 261
-0.012027865 0.68599999 -0.025258519 1.2731276e-38 310 261
-0.010825079 0.68599999 -0.025258519 1.2823471e-38 311 261
-0.0095942402 0.68400002 -0.025184879 1.2826692e-38 312 261
-0.0083826864 0.68300003 -0.02514806 1.162815e-38 313 261
-0.00717464 0.68199998 -0.025111238 1.0065063e-38 314 261
-0.005978866 0.68199998 -0.025111238 8.1293135e-39 315 261
-0.0047690663 0.68000001 -0.025037598 7.4878636e-39 316 261
-0.0035715401 0.67900002 -0.025000781 6.8424942e-39 317 261
-0.0023775198 0.67799997 -0.024963958 6.0167594e-39 318 261
-0.0011852533 0.676 -0.024890319 7.8606706e-39 319 261
0 0.676 -0.024890319 1.1171509e-38 320 261
0.0011852533 0.676 -0.024890319 1.2646999e-38 321 261
0.0023705065 0.676 -0.024890319 1.4851033e-38 322 261
0.0035505001 0.67500001 -0.0248535 1.3560294e-38 323 261
0.0047339997 0.67500001 -0.0248535 1.1994299e-38 324 261
0.0059174998 0.67500001 -0.0248535 1.0611363e-38 325 261
0.0071010003 0.67500001 -0.0248535 1.0154997e-38 326 261
0.0082844999 0.67500001 -0.0248535 1.0523777e-38 327 261
0.0094679995 0.67500001 -0.0248535 1.0246474e-38 328 261
0.01063572 0.67400002 -0.024816679 9.9702498e-39 329 261
0.011817466 0.67400002 -0.024816679 9.6029078e-39 330 261
0.012999214 0.67400002 -0.024816679 9.6029078e-39 331 261
0.01418096 0.67400002 -0.024816679 9.8766346e-39 332 261
0.015362706 0.67400002 -0.024816679 9.9688317e-39 333 261
0.016544454 0.67400002 -0.024816679 1.0426948e-38 334 261
0.0177262 0.67400002 -0.024816679 1.0426948e-38 335 261
0.018935999 0.67500001 -0.0248535 9.6933336e-39 336 261
0.020119499 0.67500001 -0.0248535 9.4167453e-39 337 261
0.021334561 0.676 -0.024890319 8.590579e-39 338 261
0.022519812 0.676 -0.024890319 8.4983833e-39 339 261
0.023705067 0.676 -0.024890319 8.2214657e-39 340 261
0.024963958 0.67799997 -0.024963958 9.0512264e-39 341 261
0.026152719 0.67799997 -0.024963958 1.134936e-38 342 261
0.027381808 0.67900002 -0.025000781 1.2640099e-38 343 261
0.028572321 0.67900002 -0.025000781 1.3002828e-38 344 261
0.029806666 0.68000001 -0.025037598 1.2265263e-38 345 261
0.031090107 0.68199998 -0.025111238 9.5923336e-39 346 261
0.032285877 0.68199998 -0.025111238 8.7625729e-39 347 261
0.033530746 0.68300003 -0.02514806 1.0142633e-38 348 261
0.03477912 0.68400002 -0.025184879 1.0511416e-38 349 261
0.036083598 0.68599999 -0.025258519 1.0788709e-38 350 261
0.037340738 0.68699998 -0.025295338 1.0972742e-38 351 261
0.038601387 0.68800002 -0.02533216 1.115677e-38 352 261
0.0399234 0.69 -0.025405798 1.198617e-38 353 261
0.041192811 0.69099998 -0.025442619 1.3552407e-38 354 261
0.042404365 0.69099998 -0.025442619 1.4658756e-38 355 261
0.043615919 0.69099998 -0.025442619 1.7328816e-38 356 261
-0.020805053 0.69800001 -0.026924185 1.7975261e-38 303 262
-0.019525118 0.69599998 -0.026847038 1.2170211e-38 304 262
-0.0182522 0.69400001 -0.026769891 9.8656807e-39 305 262
-0.017035386 0.69400001 -0.026769891 1.1713574e-38 306 262
-0.015795778 0.69300002 -0.02673132 1.2911759e-38 307 262
-0.014538639 0.69099998 -0.026654173 1.5125516e-38 308 262
-0.013269227 0.68800002 -0.026538454 1.5217712e-38 309 262
-0.012027865 0.68599999 -0.026461305 1.4756358e-38 310 262
-0.010825079 0.68599999 -0.026461305 1.3742566e-38 311 262
-0.0096222926 0.68599999 -0.026461305 1.2366439e-38 312 262
-0.0083949603 0.68400002 -0.02638416 1.172107e-38 313 262
-0.0071851597 0.68300003 -0.026345588 1.0433128e-38 314 262
-0.005978866 0.68199998 -0.026307013 8.4970213e-39 315 262
-0.004783093 0.68199998 -0.026307013 8.0381507e-39 316 262
-0.00358732 0.68199998 -0.026307013 7.9459536e-39 317 262
-0.0023915465 0.68199998 -0.026307013 6.1985933e-39 318 262
-0.0011905134 0.67900002 -0.026191294 6.382986e-39 319 262
0 0.67799997 -0.026152719 5.9271198e-39 320 262
0.0011852533 0.676 -0.026075572 8.5085974e-39 321 262
0.0023705065 0.676 -0.026075572 1.365539e-38 322 262
0.0035557596 0.676 -0.026075572 1.3839421e-38 323 262
0.0047410131 0.676 -0.026075572 1.3376575e-38 324 262
0.0059174998 0.67500001 -0.026037 1.1716694e-38 325 262
0.0071010003 0.67500001 -0.026037 1.0890836e-38 326 262
0.0082844999 0.67500001 -0.026037 1.1075586e-38 327 262
0.0094679995 0.67500001 -0.026037 1.0613848e-38 328 262
0.0106515 0.67500001 -0.026037 9.8762815e-39 329 262
0.011835 0.67500001 -0.026037 9.4185249e-39 330 262
0.0130185 0.67500001 -0.026037 9.6025575e-39 331 262
0.014202001 0.67500001 -0.026037 1.0151443e-38 332 262
0.0153855 0.67500001 -0.026037 1.0243639e-38 333 262
0.016569 0.67500001 -0.026037 1.0152159e-38 334 262
0.0177525 0.67500001 -0.026037 9.9681282e-39 335 262
0.018964052 0.676 -0.026075572 9.2341463e-39 336 262
0.020149305 0.676 -0.026075572 9.1419507e-39 337 262
0.021334561 0.676 -0.026075572 8.591651e-39 338 262
0.022586439 0.67799997 -0.026152719 8.1306728e-39 339 262
0.023775198 0.67799997 -0.026152719 8.5909923e-39 340 262
0.024963958 0.67799997 -0.026152719 1.0526742e-38 341 262
0.026191294 0.67900002 -0.026191294 1.3003884e-38 342 262
0.027381808 0.67900002 -0.026191294 1.3557058e-38 343 262
0.028614398 0.68000001 -0.026229866 1.2910279e-38 344 262
0.029894331 0.68199998 -0.026307013 1.226491e-38 345 262
0.031090107 0.68199998 -0.026307013 9.9611133e-39 346 262
0.032333218 0.68300003 -0.026345588 9.1313512e-39 347 262
0.033579841 0.68400002 -0.02638416 1.0328101e-38 348 262
0.034880809 0.68599999 -0.026461305 1.0696882e-38 349 262
0.036136195 0.68699998 -0.026499879 1.1064218e-38 350 262
0.037395094 0.68800002 -0.026538454 1.1156414e-38 351 262
0.038713597 0.69 -0.026615599 1.1799621e-38 352 262
0.039981257 0.69099998 -0.026654173 1.2260241e-38 353 262
0.041192811 0.69099998 -0.026654173 1.3366937e-38 354 262
0.042527102 0.69300002 -0.02673132 1.4842068e-38 355 262
0.043742158 0.69300002 -0.02673132 1.7328816e-38 356 262
0.044957221 0.69300002 -0.02673132 1.9448956e-38 357 262
-0.019525118 0.69599998 -0.028067358 1.3458066e-38 304 263
-0.0182522 0.69400001 -0.027986705 1.0231219e-38 305 263
-0.017035386 0.69400001 -0.027986705 1.1068205e-38 306 263
-0.015795778 0.69300002 -0.027946379 1.1252596e-38 307 263
-0.014580719 0.69300002 -0.027946379 1.1718609e-38 308 263
-0.0133078 0.69 -0.027825398 1.3470686e-38 309 263
-0.012062933 0.68800002 -0.027744746 1.4940766e-38 310 263
-0.010840859 0.68699998 -0.027704418 1.4756373e-38 311 263
-0.0096363192 0.68699998 -0.027704418 1.4114213e-38 312 263
-0.0084195063 0.68599999 -0.027664091 1.3745431e-38 313 263
-0.0072167199 0.68599999 -0.027664091 1.3100004e-38 314 263
-0.0059964 0.68400002 -0.027583439 1.19011e-38 315 263
-0.0047901068 0.68300003 -0.027543113 1.0614271e-38 316 263
-0.0035925799 0.68300003 -0.027543113 9.9689017e-39 317 263
-0.0023985601 0.68400002 -0.027583439 8.4984408e-39 318 263
-0.0011905134 0.67900002 -0.027381808 7.5768432e-39 319 263
0 0.67799997 -0.027341479 4.0842511e-39 320 263
0.0011887599 0.67799997 -0.027341479 5.7434123e-39 321 263
0.0023775198 0.67799997 -0.027341479 9.3322666e-39 322 263
0.0035557596 0.676 -0.027260827 1.1268375e-38 323 263
0.0047410131 0.676 -0.027260827 1.4113112e-38 324 263
0.0059262668 0.676 -0.027260827 1.3467742e-38 325 263
0.0071115191 0.676 -0.027260827 1.2824133e-38 326 263
0.0082967728 0.676 -0.027260827 1.2547906e-38 327 263
0.0094820261 0.676 -0.027260827 1.2913034e-38 328 263
0.0106515 0.67500001 -0.027220501 1.15301e-38 329 263
0.011835 0.67500001 -0.027220501 9.7840971e-39 330 263
0.0130185 0.67500001 -0.027220501 9.7840971e-39 331 263
0.014202001 0.67500001 -0.027220501 1.0335832e-38 332 263
0.015408293 0.676 -0.027260827 1.0243636e-38 333 263
0.016593546 0.676 -0.027260827 9.6936867e-39 334 263
0.017778801 0.676 -0.027260827 9.6014897e-39 335 263
0.019020159 0.67799997 -0.027341479 9.0511872e-39 336 263
0.020208918 0.67799997 -0.027341479 8.8667959e-39 337 263
0.021397678 0.67799997 -0.027341479 8.6831249e-39 338 263
0.022586439 0.67799997 -0.027341479 8.4065366e-39 339 263
0.023810266 0.67900002 -0.027381808 8.9583427e-39 340 263
0.025000781 0.67900002 -0.027381808 1.1171398e-38 341 263
0.026191294 0.67900002 -0.027381808 1.3372675e-38 342 263
0.027422134 0.68000001 -0.027422134 1.3649622e-38 343 263
0.02869856 0.68199998 -0.027502786 1.3277985e-38 344 263
0.029894331 0.68199998 -0.027502786 1.2632975e-38 345 263
0.031135695 0.68300003 -0.027543113 1.1341527e-38 346 263
0.032333218 0.68300003 -0.027543113 1.0511766e-38 347 263
0.033579841 0.68400002 -0.027583439 1.0696876e-38 348 263
0.034931656 0.68699998 -0.027704418 1.0881628e-38 349 263
0.0361888 0.68800002 -0.027744746 1.1157133e-38 350 263
0.037503798 0.69 -0.027825398 1.1249687e-38 351 263
0.038713597 0.69 -0.027825398 1.1893254e-38 352 263
0.039981257 0.69099998 -0.027865725 1.1985452e-38 353 263
0.041312039 0.69300002 -0.027946379 1.2999233e-38 354 263
0.042527102 0.69300002 -0.027946379 1.4842787e-38 355 263
0.043742158 0.69300002 -0.027946379 1.714514e-38 356 263
0.044957221 0.69300002 -0.027946379 1.9265641e-38 357 263
-0.019553173 0.69700003 -0.02932976 1.4933187e-38 304 264
-0.018304799 0.69599998 -0.029287677 1.1522308e-38 305 264
-0.017035386 0.69400001 -0.029203519 1.0697975e-38 306 264
-0.015818574 0.69400001 -0.029203519 9.2228448e-39 307 264
-0.014580719 0.69300002 -0.029161438 8.1251489e-39 308 264
-0.013327086 0.69099998 -0.029077278 1.0522234e-38 309 264
-0.012062933 0.68800002 -0.028951041 1.4295049e-38 310 264
-0.010856641 0.68800002 -0.028951041 1.512481e-38 311 264
-0.0096503468 0.68800002 -0.028951041 1.5218062e-38 312 264
-0.0084317802 0.68699998 -0.028908957 1.5218062e-38 313 264
-0.0072272392 0.68699998 -0.028908957 1.3931617e-38 314 264
-0.0060139326 0.68599999 -0.02886688 1.2917466e-38 315 264
-0.0047971201 0.68400002 -0.02878272 1.2916005e-38 316 264
-0.00359784 0.68400002 -0.02878272 1.2639416e-38 317 264
-0.0023950534 0.68300003 -0.028740639 1.1535196e-38 318 264
-0.0011922666 0.68000001 -0.028614398 1.0428849e-38 319 264
0 0.68000001 -0.028614398 6.5641753e-39 320 264
0.0011905134 0.67900002 -0.028572321 6.2872282e-39 321 264
0.0023810267 0.67900002 -0.028572321 6.0178721e-39 322 264
0.0035662798 0.67799997 -0.028530238 9.0603292e-39 323 264
0.0047550397 0.67799997 -0.028530238 1.4021299e-38 324 264
0.0059262668 0.676 -0.028446076 1.4389721e-38 325 264
0.0071115191 0.676 -0.028446076 1.4296088e-38 326 264
0.0082967728 0.676 -0.028446076 1.4296088e-38 327 264
0.0094820261 0.676 -0.028446076 1.4294599e-38 328 264
0.01066728 0.676 -0.028446076 1.2727275e-38 329 264
0.011852534 0.676 -0.028446076 1.0611363e-38 330 264
0.013037786 0.676 -0.028446076 9.5050173e-39 331 264
0.014223038 0.676 -0.028446076 1.0153216e-38 332 264
0.015408293 0.676 -0.028446076 1.0153216e-38 333 264
0.016642639 0.67799997 -0.028530238 9.3274013e-39 334 264
0.0178314 0.67799997 -0.028530238 9.1430129e-39 335 264
0.019020159 0.67799997 -0.028530238 8.9593419e-39 336 264
0.020208918 0.67799997 -0.028530238 8.8671476e-39 337 264
0.021429239 0.67900002 -0.028572321 8.6834808e-39 338 264
0.022619752 0.67900002 -0.028572321 8.1303113e-39 339 264
0.023810266 0.67900002 -0.028572321 9.1405704e-39 340 264
0.025000781 0.67900002 -0.028572321 1.1722048e-38 341 264
0.026229866 0.68000001 -0.028614398 1.3372675e-38 342 264
0.027422134 0.68000001 -0.028614398 1.3557427e-38 343 264
0.02869856 0.68199998 -0.02869856 1.3277988e-38 344 264
0.029894331 0.68199998 -0.02869856 1.2908846e-38 345 264
0.031135695 0.68300003 -0.028740639 1.1894701e-38 346 264
0.032333218 0.68300003 -0.028740639 1.1341527e-38 347 264
0.033579841 0.68400002 -0.02878272 1.0973821e-38 348 264
0.034931656 0.68699998 -0.028908957 1.0973821e-38 349 264
0.0361888 0.68800002 -0.028951041 1.1066016e-38 350 264
0.03755815 0.69099998 -0.029077278 1.1250406e-38 351 264
0.038769703 0.69099998 -0.029077278 1.1618107e-38 352 264
0.04009698 0.69300002 -0.029161438 1.2263476e-38 353 264
0.041312039 0.69300002 -0.029161438 1.3091782e-38 354 264
0.042527102 0.69300002 -0.029161438 1.4659108e-38 355 264
0.043742158 0.69300002 -0.029161438 1.7237692e-38 356 264
0.044957221 0.69300002 -0.029161438 1.9081605e-38 357 264
-0.019581227 0.69800001 -0.030595668 1.6408674e-38 304 265
-0.018331099 0.69700003 -0.030551834 1.3642804e-38 305 265
-0.017084479 0.69599998 -0.030507999 1.0880921e-38 306 265
-0.015818574 0.69400001 -0.030420333 8.9448132e-39 307 265
-0.01460176 0.69400001 -0.030420333 7.4761823e-39 308 265
-0.013327086 0.69099998 -0.030288832 9.0435081e-39 309 265
-0.012097999 0.69 -0.030244999 1.1252599e-38 310 265
-0.010856641 0.68800002 -0.030157333 1.2266392e-38 311 265
-0.0096503468 0.68800002 -0.030157333 1.2912112e-38 312 265
-0.0084317802 0.68699998 -0.030113498 1.3649677e-38 313 265
-0.0072272392 0.68699998 -0.030113498 1.1895802e-38 314 265
-0.0060226996 0.68699998 -0.030113498 7.9310312e-39 315 265
-0.0048111463 0.68599999 -0.030069664 7.8499647e-39 316 265
-0.00359784 0.68400002 -0.029982001 1.006266e-38 317 265
-0.0023950534 0.68300003 -0.029938167 1.3558871e-38 318 265
-0.0011957732 0.68199998 -0.029894331 1.4112045e-38 319 265
0 0.68199998 -0.029894331 1.2639411e-38 320 265
0.0011957732 0.68199998 -0.029894331 1.1625619e-38 321 265
0.0023845332 0.68000001 -0.029806666 1.098278e-38 322 265
0.0035715401 0.67900002 -0.029762832 1.2273519e-38 323 265
0.0047550397 0.67799997 -0.029718997 1.3745083e-38 324 265
0.0059437994 0.67799997 -0.029718997 1.4113507e-38 325 265
0.0071325595 0.67799997 -0.029718997 1.4020242e-38 326 265
0.0083213197 0.67799997 -0.029718997 1.4020242e-38 327 265
0.0095100794 0.67799997 -0.029718997 1.4111324e-38 328 265
0.01066728 0.676 -0.029631332 1.3281563e-38 329 265
0.011852534 0.676 -0.029631332 1.1716325e-38 330 265
0.013037786 0.676 -0.029631332 1.0517782e-38 331 265
0.014265119 0.67799997 -0.029718997 9.8784619e-39 332 265
0.015453878 0.67799997 -0.029718997 9.5100395e-39 333 265
0.016642639 0.67799997 -0.029718997 8.9589915e-39 334 265
0.0178314 0.67799997 -0.029718997 9.0511872e-39 335 265
0.019048214 0.67900002 -0.029762832 8.9600635e-39 336 265
0.020238725 0.67900002 -0.029762832 8.5912824e-39 337 265
0.021429239 0.67900002 -0.029762832 8.039573e-39 338 265
0.022653066 0.68000001 -0.029806666 8.039573e-39 339 265
0.023845334 0.68000001 -0.029806666 9.6941351e-39 340 265
0.025037598 0.68000001 -0.029806666 1.1814274e-38 341 265
0.026229866 0.68000001 -0.029806666 1.3188294e-38 342 265
0.027502786 0.68199998 -0.029894331 1.3556718e-38 343 265
0.02869856 0.68199998 -0.029894331 1.327871e-38 344 265
0.029938167 0.68300003 -0.029938167 1.2817733e-38 345 265
0.03118128 0.68400002 -0.029982001 1.2079811e-38 346 265
0.032380559 0.68400002 -0.029982001 1.1434801e-38 347 265
0.033678025 0.68599999 -0.030069664 1.1066019e-38 348 265
0.034931656 0.68699998 -0.030113498 1.0973823e-38 349 265
0.0361888 0.68800002 -0.030157333 1.1249331e-38 350 265
0.03755815 0.69099998 -0.030288832 1.1157136e-38 351 265
0.038769703 0.69099998 -0.030288832 1.1434076e-38 352 265
0.04009698 0.69300002 -0.0303765 1.3001401e-38 353 265
0.041371655 0.69400001 -0.030420333 1.428673e-38 354 265
0.042588469 0.69400001 -0.030420333 1.5485273e-38 355 265
0.043805279 0.69400001 -0.030420333 1.7237692e-38 356 265
0.045022093 0.69400001 -0.030420333 1.8805019e-38 357 265
-0.019637333 0.69999999 -0.031910665 1.6778175e-38 304 266
-0.0183574 0.69800001 -0.031819493 1.4934623e-38 305 266
-0.017109027 0.69700003 -0.03177391 1.1617043e-38 306 266
-0.015864158 0.69599998 -0.031728316 9.2199582e-39 307 266
-0.014643839 0.69599998 -0.031728316 9.8660618e-39 308 266
-0.01336566 0.69300002 -0.031591557 1.0050453e-38 309 266
-0.012115533 0.69099998 -0.031500384 8.7633184e-39 310 266
-0.01090398 0.69099998 -0.031500384 9.0395452e-39 311 266
-0.0096783992 0.69 -0.031454802 1.0329212e-38 312 266
-0.0084440531 0.68800002 -0.031363625 1.0882386e-38 313 266
-0.0072377604 0.68800002 -0.031363625 9.3165076e-39 314 266
-0.0060226996 0.68699998 -0.031318039 5.5364868e-39 315 266
-0.0048181596 0.68699998 -0.031318039 5.9142544e-39 316 266
-0.00360836 0.68599999 -0.031272452 7.1124375e-39 317 266
-0.0023985601 0.68400002 -0.03118128 1.0705528e-38 318 266
-0.00119928 0.68400002 -0.03118128 1.3656148e-38 319 266
0 0.68300003 -0.031135695 1.5034387e-38 320 266
0.0011975267 0.68300003 -0.031135695 1.4481213e-38 321 266
0.0023915465 0.68199998 -0.031090107 1.4113138e-38 322 266
0.0035767998 0.68000001 -0.030998932 1.3744354e-38 323 266
0.0047690663 0.68000001 -0.030998932 1.3558182e-38 324 266
0.0059613334 0.68000001 -0.030998932 1.3927323e-38 325 266
0.0071535995 0.68000001 -0.030998932 1.4203557e-38 326 266
0.0083458666 0.68000001 -0.030998932 1.392697e-38 327 266
0.0095100794 0.67799997 -0.030907756 1.4295734e-38 328 266
0.010698839 0.67799997 -0.030907756 1.4019146e-38 329 266
0.011887599 0.67799997 -0.030907756 1.3465932e-38 330 266
0.013095647 0.67900002 -0.030953348 1.245178e-38 331 266
0.01428616 0.67900002 -0.030953348 1.1625179e-38 332 266
0.015476674 0.67900002 -0.030953348 1.0795418e-38 333 266
0.016667187 0.67900002 -0.030953348 9.3248972e-39 334 266
0.017857701 0.67900002 -0.030953348 9.3248972e-39 335 266
0.019076265 0.68000001 -0.030998932 9.1426541e-39 336 266
0.020328145 0.68199998 -0.031090107 8.681683e-39 337 266
0.021523919 0.68199998 -0.031090107 8.0381535e-39 338 266
0.022719691 0.68199998 -0.031090107 9.5129234e-39 339 266
0.023915464 0.68199998 -0.031090107 1.1441574e-38 340 266
0.025111238 0.68199998 -0.031090107 1.2547921e-38 341 266
0.026307013 0.68199998 -0.031090107 1.3371253e-38 342 266
0.027502786 0.68199998 -0.031090107 1.3556004e-38 343 266
0.02869856 0.68199998 -0.031090107 1.3553852e-38 344 266
0.029938167 0.68300003 -0.031135695 1.3092875e-38 345 266
0.03118128 0.68400002 -0.03118128 1.2262763e-38 346 266
0.032475237 0.68599999 -0.031272452 1.1801786e-38 347 266
0.033727121 0.68699998 -0.031318039 1.0972744e-38 348 266
0.03498251 0.68800002 -0.031363625 1.106494e-38 349 266
0.036293998 0.69 -0.031454802 1.0971668e-38 350 266
0.03755815 0.69099998 -0.031500384 1.0971668e-38 351 266
0.03888192 0.69300002 -0.031591557 1.1341883e-38 352 266
0.04009698 0.69300002 -0.031591557 1.2632622e-38 353 266
0.041371655 0.69400001 -0.031637147 1.4197771e-38 354 266
0.042588469 0.69400001 -0.031637147 1.5120086e-38 355 266
0.043805279 0.69400001 -0.031637147 1.7329166e-38 356 266
0.045022093 0.69400001 -0.031637147 1.8988687e-38 357 266
-0.0183574 0.69800001 -0.033043321 1.5395241e-38 305 267
-0.017133573 0.69800001 -0.033043321 1.2815218e-38 306 267
-0.015864158 0.69599998 -0.032948639 1.087911e-38 307 267
-0.014643839 0.69599998 -0.032948639 1.0694375e-38 308 267
-0.013384946 0.69400001 -0.032853961 1.0694375e-38 309 267
-0.012150601 0.69300002 -0.03280662 8.3934541e-39 310 267
-0.01090398 0.69099998 -0.032711938 8.3012585e-39 311 267
-0.0096783992 0.69 -0.032664597 9.0348789e-39 312 267
-0.0084440531 0.68800002 -0.032569919 8.5739007e-39 313 267
-0.0072377604 0.68800002 -0.032569919 7.6569891e-39 314 267
-0.0060226996 0.68699998 -0.032522578 6.7346741e-39 315 267
-0.0048181596 0.68699998 -0.032522578 7.5712745e-39 316 267
-0.0036136196 0.68699998 -0.032522578 7.2021318e-39 317 267
-0.0024055731 0.68599999 -0.032475237 5.9214543e-39 318 267
-0.0012027866 0.68599999 -0.032475237 9.6096382e-39 319 267
0 0.68400002 -0.032380559 1.4667059e-38 320 267
0.0011975267 0.68300003 -0.032333218 1.4667059e-38 321 267
0.0023950534 0.68300003 -0.032333218 1.5033668e-38 322 267
0.00358732 0.68199998 -0.032285877 1.263694e-38 323 267
0.004783093 0.68199998 -0.032285877 9.7806821e-39 324 267
0.005978866 0.68199998 -0.032285877 1.0979224e-38 325 267
0.00717464 0.68199998 -0.032285877 1.2730951e-38 326 267
0.0083704125 0.68199998 -0.032285877 1.3744744e-38 327 267
0.0095381327 0.68000001 -0.032191198 1.429575e-38 328 267
0.010714619 0.67900002 -0.032143861 1.429575e-38 329 267
0.011905133 0.67900002 -0.032143861 1.4570877e-38 330 267
0.013095647 0.67900002 -0.032143861 1.4294288e-38 331 267
0.014307199 0.68000001 -0.032191198 1.438572e-38 332 267
0.015476674 0.67900002 -0.032143861 1.3187537e-38 333 267
0.016667187 0.67900002 -0.032143861 1.0976589e-38 334 267
0.017883999 0.68000001 -0.032191198 1.0884394e-38 335 267
0.019076265 0.68000001 -0.032191198 9.6029961e-39 336 267
0.020328145 0.68199998 -0.032285877 9.3260491e-39 337 267
0.021523919 0.68199998 -0.032285877 1.0061861e-38 338 267
0.022719691 0.68199998 -0.032285877 1.1905774e-38 339 267
0.023915464 0.68199998 -0.032285877 1.3465957e-38 340 267
0.025111238 0.68199998 -0.032285877 1.3465957e-38 341 267
0.026307013 0.68199998 -0.032285877 1.3464172e-38 342 267
0.027502786 0.68199998 -0.032285877 1.3464172e-38 343 267
0.028740639 0.68300003 -0.032333218 1.3371259e-38 344 267
0.029938167 0.68300003 -0.032333218 1.2725889e-38 345 267
0.031272452 0.68599999 -0.032475237 1.2078013e-38 346 267
0.032475237 0.68599999 -0.032475237 1.1340448e-38 347 267
0.033727121 0.68699998 -0.032522578 1.0325585e-38 348 267
0.03498251 0.68800002 -0.032569919 1.0694009e-38 349 267
0.036293998 0.69 -0.032664597 1.1154983e-38 350 267
0.037666857 0.69300002 -0.03280662 1.143193e-38 351 267
0.03888192 0.69300002 -0.03280662 1.1249684e-38 352 267
0.040154841 0.69400001 -0.032853961 1.1895054e-38 353 267
0.041371655 0.69400001 -0.032853961 1.36446e-38 354 267
0.042588469 0.69400001 -0.032853961 1.5212285e-38 355 267
0.043931518 0.69599998 -0.032948639 1.7605397e-38 356 267
0.045151837 0.69599998 -0.032948639 1.9080886e-38 357 267
-0.018409999 0.69999999 -0.034365334 1.4751676e-38 305 268
-0.017182667 0.69999999 -0.034365334 1.4291431e-38 306 268
-0.015886955 0.69700003 -0.034218054 1.3000692e-38 307 268
-0.01466488 0.69700003 -0.034218054 1.2260256e-38 308 268
-0.013384946 0.69400001 -0.034070771 1.0877321e-38 309 268
-0.012168133 0.69400001 -0.034070771 7.841002e-39 310 268
-0.010935539 0.69300002 -0.034021679 7.9331976e-39 311 268
-0.0096924258 0.69099998 -0.033923492 8.4856553e-39 312 268
-0.0084686 0.69 -0.0338744 9.5920029e-39 313 268
-0.0072377604 0.68800002 -0.033776212 9.5891316e-39 314 268
-0.0060314666 0.68800002 -0.033776212 7.745219e-39 315 268
-0.0048251734 0.68800002 -0.033776212 6.9241198e-39 316 268
-0.0036136196 0.68699998 -0.033727121 6.4635004e-39 317 268
-0.0024090798 0.68699998 -0.033727121 6.6529139e-39 318 268
-0.0012045399 0.68699998 -0.033727121 9.6028153e-39 319 268
0 0.68599999 -0.033678025 1.2729519e-38 320 268
0.00119928 0.68400002 -0.033579841 1.3374888e-38 321 268
0.0023950534 0.68300003 -0.033530746 1.4478343e-38 322 268
0.0035925799 0.68300003 -0.033530746 1.3280159e-38 323 268
0.0047901068 0.68300003 -0.033530746 1.0423533e-38 324 268
0.005978866 0.68199998 -0.03348165 1.1345848e-38 325 268
0.00717464 0.68199998 -0.03348165 1.2913544e-38 326 268
0.0083704125 0.68199998 -0.03348165 1.4112087e-38 327 268
0.0095381327 0.68000001 -0.033383466 1.466274e-38 328 268
0.0107304 0.68000001 -0.033383466 1.4478349e-38 329 268
0.011922667 0.68000001 -0.033383466 1.4203551e-38 330 268
0.013114933 0.68000001 -0.033383466 1.4296106e-38 331 268
0.014307199 0.68000001 -0.033383466 1.4570149e-38 332 268
0.015499466 0.68000001 -0.033383466 1.392478e-38 333 268
0.016691733 0.68000001 -0.033383466 1.2634729e-38 334 268
0.017883999 0.68000001 -0.033383466 1.2450338e-38 335 268
0.019132372 0.68199998 -0.03348165 1.1994026e-38 336 268
0.020328145 0.68199998 -0.03348165 1.190183e-38 337 268
0.021523919 0.68199998 -0.03348165 1.2177006e-38 338 268
0.022719691 0.68199998 -0.03348165 1.3191518e-38 339 268
0.023915464 0.68199998 -0.03348165 1.3924427e-38 340 268
0.02514806 0.68300003 -0.033530746 1.3832231e-38 341 268
0.026345588 0.68300003 -0.033530746 1.3556004e-38 342 268
0.027543113 0.68300003 -0.033530746 1.36482e-38 343 268
0.02878272 0.68400002 -0.033579841 1.3553852e-38 344 268
0.029982001 0.68400002 -0.033579841 1.2908483e-38 345 268
0.031318039 0.68699998 -0.033727121 1.0973467e-38 346 268
0.032522578 0.68699998 -0.033727121 1.0696879e-38 347 268
0.033776212 0.68800002 -0.033776212 1.0601814e-38 348 268
0.035084199 0.69 -0.0338744 1.08784e-38 349 268
0.036451802 0.69300002 -0.034021679 1.0881275e-38 350 268
0.037666857 0.69300002 -0.034021679 1.1065666e-38 351 268
0.038938027 0.69400001 -0.034070771 1.161811e-38 352 268
0.040154841 0.69400001 -0.034070771 1.1987252e-38 353 268
0.041490879 0.69599998 -0.034168959 1.3181827e-38 354 268
0.042711195 0.69599998 -0.034168959 1.5302326e-38 355 268
0.043931518 0.69599998 -0.034168959 1.7422085e-38 356 268
0.045151837 0.69599998 -0.034168959 1.8897215e-38 357 268
-0.018488899 0.70300001 -0.035745207 1.3737892e-38 305 269
-0.017256306 0.70300001 -0.035745207 1.4938604e-38 306 269
-0.015909746 0.69800001 -0.035490975 1.50308e-38 307 269
-0.01466488 0.69700003 -0.035440128 1.4105601e-38 308 269
-0.013423519 0.69599998 -0.035389278 1.1985101e-38 309 269
-0.0122032 0.69599998 -0.035389278 8.5767552e-39 310 269
-0.01095132 0.69400001 -0.035287585 7.7469945e-39 311 269
-0.0097204801 0.69300002 -0.035236739 8.3912919e-39 312 269
-0.008480873 0.69099998 -0.035135046 1.1710335e-38 313 269
-0.0072587994 0.69 -0.035084199 1.1155381e-38 314 269
-0.0060489997 0.69 -0.035084199 7.0062191e-39 315 269
-0.0048251734 0.68800002 -0.03498251 4.3433736e-39 316 269
-0.0036188802 0.68800002 -0.03498251 4.251178e-39 317 269
-0.0024090798 0.68699998 -0.034931656 7.7517056e-39 318 269
-0.0012045399 0.68699998 -0.034931656 1.0240629e-38 319 269
0 0.68699998 -0.034931656 9.4094067e-39 320 269
0.0012027866 0.68599999 -0.034880809 8.5792859e-39 321 269
0.0023985601 0.68400002 -0.03477912 1.0974935e-38 322 269
0.0035925799 0.68300003 -0.034728274 1.2265673e-38 323 269
0.0047901068 0.68300003 -0.034728274 1.2357495e-38 324 269
0.0059876335 0.68300003 -0.034728274 1.2449692e-38 325 269
0.0071851597 0.68300003 -0.034728274 1.2635881e-38 326 269
0.0083826864 0.68300003 -0.034728274 1.3096859e-38 327 269
0.009566186 0.68199998 -0.034677424 1.3096137e-38 328 269
0.010761959 0.68199998 -0.034677424 1.2634799e-38 329 269
0.011957732 0.68199998 -0.034677424 1.236396e-38 330 269
0.013153506 0.68199998 -0.034677424 1.3193721e-38 331 269
0.01434928 0.68199998 -0.034677424 1.4110626e-38 332 269
0.015545053 0.68199998 -0.034677424 1.383368e-38 333 269
0.016740825 0.68199998 -0.034677424 1.392478e-38 334 269
0.017936599 0.68199998 -0.034677424 1.4109171e-38 335 269
0.019132372 0.68199998 -0.034677424 1.4019131e-38 336 269
0.020357953 0.68300003 -0.034728274 1.3926935e-38 337 269
0.02155548 0.68300003 -0.034728274 1.3741833e-38 338 269
0.022753006 0.68300003 -0.034728274 1.3741833e-38 339 269
0.023950534 0.68300003 -0.034728274 1.3648566e-38 340 269
0.02514806 0.68300003 -0.034728274 1.3648566e-38 341 269
0.02638416 0.68400002 -0.03477912 1.3923355e-38 342 269
0.027664091 0.68599999 -0.034880809 1.3923355e-38 343 269
0.02886688 0.68599999 -0.034880809 1.3553496e-38 344 269
0.030113498 0.68699998 -0.034931656 1.2815931e-38 345 269
0.031318039 0.68699998 -0.034931656 1.0053309e-38 346 269
0.032569919 0.68800002 -0.03498251 1.0145505e-38 347 269
0.0338744 0.69 -0.035084199 1.041922e-38 348 269
0.035135046 0.69099998 -0.035135046 1.0511416e-38 349 269
0.036451802 0.69300002 -0.035236739 1.0788359e-38 350 269
0.037721213 0.69400001 -0.035287585 1.1156782e-38 351 269
0.038938027 0.69400001 -0.035287585 1.161811e-38 352 269
0.040328421 0.69700003 -0.035440128 1.2355676e-38 353 269
0.041550495 0.69700003 -0.035440128 1.3091426e-38 354 269
0.042772565 0.69700003 -0.035440128 1.4843143e-38 355 269
0.043994639 0.69700003 -0.035440128 1.7604678e-38 356 269
0.045216713 0.69700003 -0.035440128 1.9080167e-38 357 269
-0.018488899 0.70300001 -0.036977798 1.4106317e-38 305 270
-0.017256306 0.70300001 -0.036977798 1.3926973e-38 306 270
-0.015955333 0.69999999 -0.036819998 1.4756373e-38 307 270
-0.014727999 0.69999999 -0.036819998 1.5305942e-38 308 270
-0.013462093 0.69800001 -0.0367148 1.3923007e-38 309 270
-0.012220734 0.69700003 -0.036662199 1.2536104e-38 310 270
-0.010982879 0.69599998 -0.036609598 1.0139377e-38 311 270
-0.0097345067 0.69400001 -0.036504399 1.0870475e-38 312 270
-0.0085054198 0.69300002 -0.036451802 1.5572452e-38 313 270
-0.0072693196 0.69099998 -0.036346599 1.2722705e-38 314 270
-0.0060489997 0.69 -0.036293998 7.4675531e-39 315 270
-0.0048251734 0.68800002 -0.0361888 4.3422918e-39 316 270
-0.0036188802 0.68800002 -0.0361888 4.6192375e-39 317 270
-0.0024090798 0.68699998 -0.036136195 1.0234514e-38 318 270
-0.0012045399 0.68699998 -0.036136195 1.2078426e-38 319 270
0 0.68699998 -0.036136195 1.0882021e-38 320 270
0.0012027866 0.68599999 -0.036083598 8.3923793e-39 321 270
0.0023985601 0.68400002 -0.035978399 7.2889296e-39 322 270
0.00359784 0.68400002 -0.035978399 8.2105258e-39 323 270
0.0047901068 0.68300003 -0.035925802 7.7545867e-39 324 270
0.0059876335 0.68300003 -0.035925802 7.5701955e-39 325 270
0.0071851597 0.68300003 -0.035925802 7.7527748e-39 326 270
0.0083826864 0.68300003 -0.035925802 8.0293631e-39 327 270
0.0095802136 0.68300003 -0.035925802 9.1295954e-39 328 270
0.01077774 0.68300003 -0.035925802 8.1154435e-39 329 270
0.011975267 0.68300003 -0.035925802 7.6742335e-39 330 270
0.013172794 0.68300003 -0.035925802 1.0808885e-38 331 270
0.014370319 0.68300003 -0.035925802 1.3925528e-38 332 270
0.015567848 0.68300003 -0.035925802 1.3925528e-38 333 270
0.016765373 0.68300003 -0.035925802 1.383368e-38 334 270
0.017962901 0.68300003 -0.035925802 1.3925876e-38 335 270
0.019160427 0.68300003 -0.035925802 1.3925876e-38 336 270
0.020357953 0.68300003 -0.035925802 1.3925876e-38 337 270
0.02155548 0.68300003 -0.035925802 1.3925157e-38 338 270
0.022753006 0.68300003 -0.035925802 1.3740764e-38 339 270
0.0239856 0.68400002 -0.035978399 1.4015553e-38 340 270
0.025184879 0.68400002 -0.035978399 1.4015553e-38 341 270
0.026461305 0.68599999 -0.036083598 1.3923355e-38 342 270
0.027664091 0.68599999 -0.036083598 1.3831159e-38 343 270
0.028908957 0.68699998 -0.036136195 1.3553496e-38 344 270
0.030113498 0.68699998 -0.036136195 1.2815931e-38 345 270
0.031363625 0.68800002 -0.0361888 9.9611161e-39 346 270
0.032664597 0.69 -0.036293998 9.8685618e-39 347 270
0.033923492 0.69099998 -0.036346599 1.0328104e-38 348 270
0.035236739 0.69300002 -0.036451802 1.0512135e-38 349 270
0.036504399 0.69400001 -0.036504399 1.0788356e-38 350 270
0.037829921 0.69599998 -0.036609598 1.1064584e-38 351 270
0.039106347 0.69700003 -0.036662199 1.1066372e-38 352 270
0.040386278 0.69800001 -0.0367148 1.2541142e-38 353 270
0.041610107 0.69800001 -0.0367148 1.3736433e-38 354 270
0.042833932 0.69800001 -0.0367148 1.4934617e-38 355 270
0.04405776 0.69800001 -0.0367148 1.7512118e-38 356 270
0.045281585 0.69800001 -0.0367148 1.9263476e-38 357 270
-0.018488899 0.70300001 -0.038210396 1.4659846e-38 305 271
-0.017256306 0.70300001 -0.038210396 1.3281606e-38 306 271
-0.015955333 0.69999999 -0.038047329 1.3465639e-38 307 271
-0.014727999 0.69999999 -0.038047329 1.493932e-38 308 271
-0.013462093 0.69800001 -0.037938625 1.5031516e-38 309 271
-0.012238266 0.69800001 -0.037938625 1.4750925e-38 310 271
-0.01099866 0.69700003 -0.037884273 1.1801025e-38 311 271
-0.0097345067 0.69400001 -0.037721213 1.087368e-38 312 271
-0.0085176928 0.69400001 -0.037721213 1.5298711e-38 313 271
-0.0072903596 0.69300002 -0.037666857 1.2360033e-38 314 271
-0.0060577663 0.69099998 -0.03755815 7.2896331e-39 315 271
-0.0048391996 0.69 -0.037503798 6.0929228e-39 316 271
-0.0036188802 0.68800002 -0.037395094 6.6460966e-39 317 271
-0.0024125867 0.68800002 -0.037395094 1.0421423e-38 318 271
-0.0012045399 0.68699998 -0.037340738 1.1896912e-38 319 271
0 0.68699998 -0.037340738 1.2078411e-38 320 271
0.0012045399 0.68699998 -0.037340738 1.0142303e-38 321 271
0.0023985601 0.68400002 -0.037177678 5.2631565e-39 322 271
0.00359784 0.68400002 -0.037177678 5.1709595e-39 323 271
0.0047971201 0.68400002 -0.037177678 4.4380902e-39 324 271
0.0059964 0.68400002 -0.037177678 4.2536989e-39 325 271
0.0071851597 0.68300003 -0.037123326 4.159683e-39 326 271
0.0083826864 0.68300003 -0.037123326 6.1879869e-39 327 271
0.0095802136 0.68300003 -0.037123326 7.7466834e-39 328 271
0.01077774 0.68300003 -0.037123326 4.3354451e-39 329 271
0.011975267 0.68300003 -0.037123326 6.1919287e-39 330 271
0.013172794 0.68300003 -0.037123326 1.1539277e-38 331 271
0.014370319 0.68300003 -0.037123326 1.3925891e-38 332 271
0.015567848 0.68300003 -0.037123326 1.3649664e-38 333 271
0.016765373 0.68300003 -0.037123326 1.4109191e-38 334 271
0.0179892 0.68400002 -0.037177678 1.4109191e-38 335 271
0.01918848 0.68400002 -0.037177678 1.3833677e-38 336 271
0.020387759 0.68400002 -0.037177678 1.3833677e-38 337 271
0.02158704 0.68400002 -0.037177678 1.3925157e-38 338 271
0.022786319 0.68400002 -0.037177678 1.383296e-38 339 271
0.024055731 0.68599999 -0.037286382 1.3924076e-38 340 271
0.025258519 0.68599999 -0.037286382 1.3924076e-38 341 271
0.026499879 0.68699998 -0.037340738 1.3923711e-38 342 271
0.027704418 0.68699998 -0.037340738 1.3831515e-38 343 271
0.028908957 0.68699998 -0.037340738 1.34613e-38 344 271
0.030157333 0.68800002 -0.037395094 1.2723735e-38 345 271
0.031363625 0.68800002 -0.037395094 9.8685646e-39 346 271
0.032664597 0.69 -0.037503798 9.4075864e-39 347 271
0.033923492 0.69099998 -0.03755815 1.0328467e-38 348 271
0.035236739 0.69300002 -0.037666857 1.0513217e-38 349 271
0.036609598 0.69599998 -0.037829921 1.0881272e-38 350 271
0.037884273 0.69700003 -0.037884273 1.0881272e-38 351 271
0.039162453 0.69800001 -0.037938625 1.1159284e-38 352 271
0.040386278 0.69800001 -0.037938625 1.2542218e-38 353 271
0.041729331 0.69999999 -0.038047329 1.4288523e-38 354 271
0.042956665 0.69999999 -0.038047329 1.5026088e-38 355 271
0.044183996 0.69999999 -0.038047329 1.732809e-38 356 271
-0.018515198 0.704 -0.039499093 1.4844959e-38 305 272
-0.017280852 0.704 -0.039499093 1.291391e-38 306 272
-0.016023712 0.70300001 -0.039442986 1.2453292e-38 307 272
-0.014727999 0.69999999 -0.039274666 1.2546554e-38 308 272
-0.013500666 0.69999999 -0.039274666 1.3284119e-38 309 272
-0.012238266 0.69800001 -0.039162453 1.4109524e-38 310 272
-0.01099866 0.69700003 -0.039106347 1.2910983e-38 311 272
-0.0097765867 0.69700003 -0.039106347 1.2997785e-38 312 272
-0.0085176928 0.69400001 -0.038938027 1.3089982e-38 313 272
-0.0072903596 0.69300002 -0.03888192 9.7835786e-39 314 272
-0.0060753003 0.69300002 -0.03888192 6.9255127e-39 315 272
-0.0048462129 0.69099998 -0.038769703 8.6729487e-39 316 272
-0.0036293997 0.69 -0.038713597 8.3045263e-39 317 272
-0.0024125867 0.68800002 -0.038601387 8.6725857e-39 318 272
-0.0012062934 0.68800002 -0.038601387 9.0410095e-39 319 272
0 0.68800002 -0.038601387 9.954687e-39 320 272
0.0012045399 0.68699998 -0.038545277 9.954687e-39 321 272
0.0024055731 0.68599999 -0.03848917 6.2762351e-39 322 272
0.00360836 0.68599999 -0.03848917 6.0000083e-39 323 272
0.0048111463 0.68599999 -0.03848917 5.5419168e-39 324 272
0.0059964 0.68400002 -0.038376961 5.6341125e-39 325 272
0.0071956799 0.68400002 -0.038376961 5.2653047e-39 326 272
0.0083949603 0.68400002 -0.038376961 8.5847061e-39 327 272
0.0095802136 0.68300003 -0.038320854 1.0875211e-38 328 272
0.01077774 0.68300003 -0.038320854 6.5423753e-39 329 272
0.0119928 0.68400002 -0.038376961 7.4751118e-39 330 272
0.01319208 0.68400002 -0.038376961 1.282246e-38 331 272
0.014370319 0.68300003 -0.038320854 1.4110638e-38 332 272
0.015567848 0.68300003 -0.038320854 1.3926247e-38 333 272
0.016789921 0.68400002 -0.038376961 1.3926595e-38 334 272
0.0179892 0.68400002 -0.038376961 1.3926595e-38 335 272
0.01918848 0.68400002 -0.038376961 1.3925876e-38 336 272
0.020447372 0.68599999 -0.03848917 1.383368e-38 337 272
0.021650158 0.68599999 -0.03848917 1.383296e-38 338 272
0.022852944 0.68599999 -0.03848917 1.383296e-38 339 272
0.024090799 0.68699998 -0.038545277 1.3924076e-38 340 272
0.025295338 0.68699998 -0.038545277 1.3924076e-38 341 272
0.026499879 0.68699998 -0.038545277 1.3831881e-38 342 272
0.027744746 0.68800002 -0.038601387 1.3831881e-38 343 272
0.028951041 0.68800002 -0.038601387 1.3185795e-38 344 272
0.030157333 0.68800002 -0.038601387 1.2540426e-38 345 272
0.031454802 0.69 -0.038713597 9.7756459e-39 346 272
0.032711938 0.69099998 -0.038769703 9.6834502e-39 347 272
0.034021679 0.69300002 -0.03888192 1.0421734e-38 348 272
0.035287585 0.69400001 -0.038938027 1.0606486e-38 349 272
0.036662199 0.69700003 -0.039106347 1.1249687e-38 350 272
0.037884273 0.69700003 -0.039106347 1.1434078e-38 351 272
0.039162453 0.69800001 -0.039162453 1.2261315e-38 352 272
0.040502001 0.69999999 -0.039274666 1.3736445e-38 353 272
0.041729331 0.69999999 -0.039274666 1.4104136e-38 354 272
0.042956665 0.69999999 -0.039274666 1.465731e-38 355 272
0.044183996 0.69999999 -0.039274666 1.7236973e-38 356 272
-0.018567799 0.70599997 -0.040849157 1.5028633e-38 305 273
-0.017329946 0.70599997 -0.040849157 1.3283771e-38 306 273
-0.016023712 0.70300001 -0.040675577 1.2546206e-38 307 273
-0.014749039 0.70099998 -0.040559858 1.1625674e-38 308 273
-0.013500666 0.69999999 -0.040502001 1.2178846e-38 309 273
-0.012238266 0.69800001 -0.040386278 1.3098263e-38 310 273
-0.01101444 0.69800001 -0.040386278 1.3467044e-38 311 273
-0.0097765867 0.69700003 -0.040328421 1.4477954e-38 312 273
-0.0085176928 0.69400001 -0.040154841 1.2726237e-38 313 273
-0.0072903596 0.69300002 -0.04009698 9.7813912e-39 314 273
-0.0060753003 0.69300002 -0.04009698 9.9657824e-39 315 273
-0.0048462129 0.69099998 -0.039981257 1.0700155e-38 316 273
-0.0036346598 0.69099998 -0.039981257 9.4094165e-39 317 273
-0.0024195998 0.69 -0.0399234 8.1176141e-39 318 273
-0.0012097999 0.69 -0.0399234 7.8406671e-39 319 273
0 0.68800002 -0.039807681 8.8526582e-39 320 273
0.0012062934 0.68800002 -0.039807681 9.3136364e-39 321 273
0.0024090798 0.68699998 -0.039749816 6.2762351e-39 322 273
0.0036136196 0.68699998 -0.039749816 5.9074525e-39 323 273
0.0048181596 0.68699998 -0.039749816 6.185131e-39 324 273
0.0060139326 0.68599999 -0.039691959 5.724513e-39 325 273
0.0072167199 0.68599999 -0.039691959 4.6242569e-39 326 273
0.0084195063 0.68599999 -0.039691959 8.2195277e-39 327 273
0.0095942402 0.68400002 -0.03957624 1.1065e-38 328 273
0.01079352 0.68400002 -0.03957624 5.9942406e-39 329 273
0.012027865 0.68599999 -0.039691959 7.6584268e-39 330 273
0.013230653 0.68599999 -0.039691959 1.2729547e-38 331 273
0.01439136 0.68400002 -0.03957624 1.4110641e-38 332 273
0.01559064 0.68400002 -0.03957624 1.4018087e-38 333 273
0.016789921 0.68400002 -0.03957624 1.4018074e-38 334 273
0.018041799 0.68599999 -0.039691959 1.4018074e-38 335 273
0.019244585 0.68599999 -0.039691959 1.4109188e-38 336 273
0.020477179 0.68699998 -0.039749816 1.383296e-38 337 273
0.021681719 0.68699998 -0.039749816 1.4016272e-38 338 273
0.022886258 0.68699998 -0.039749816 1.4016272e-38 339 273
0.024090799 0.68699998 -0.039749816 1.419994e-38 340 273
0.02533216 0.68800002 -0.039807681 1.4015909e-38 341 273
0.026538454 0.68800002 -0.039807681 1.3923711e-38 342 273
0.027744746 0.68800002 -0.039807681 1.3831515e-38 343 273
0.028951041 0.68800002 -0.039807681 1.318579e-38 344 273
0.030244999 0.69 -0.0399234 1.2448225e-38 345 273
0.031500384 0.69099998 -0.039981257 1.0789076e-38 346 273
0.032711938 0.69099998 -0.039981257 1.005151e-38 347 273
0.034021679 0.69300002 -0.04009698 1.0971671e-38 348 273
0.035287585 0.69400001 -0.040154841 1.1156064e-38 349 273
0.036662199 0.69700003 -0.040328421 1.125005e-38 350 273
0.037938625 0.69800001 -0.040386278 1.1526997e-38 351 273
0.039274666 0.69999999 -0.040502001 1.2537905e-38 352 273
0.040559858 0.70099998 -0.040559858 1.3183274e-38 353 273
0.041788943 0.70099998 -0.040559858 1.3460209e-38 354 273
0.043018032 0.70099998 -0.040559858 1.4197774e-38 355 273
-0.017329946 0.70599997 -0.042087011 1.3191576e-38 306 274
-0.016046507 0.704 -0.041967787 1.2730598e-38 307 274
-0.014791119 0.70300001 -0.041908171 1.2086297e-38 308 274
-0.013519952 0.70099998 -0.041788943 1.2363244e-38 309 274
-0.012273333 0.69999999 -0.041729331 1.2914964e-38 310 274
-0.01101444 0.69800001 -0.041610107 1.3468137e-38 311 274
-0.0097906133 0.69800001 -0.041610107 1.3745083e-38 312 274
-0.0085422397 0.69599998 -0.041490879 1.3560333e-38 313 274
-0.0073008798 0.69400001 -0.041371655 1.3098266e-38 314 274
-0.0060753003 0.69300002 -0.041312039 1.3282657e-38 315 274
-0.00486024 0.69300002 -0.041312039 1.4111708e-38 316 274
-0.0036451798 0.69300002 -0.041312039 1.3835481e-38 317 274
-0.0024231065 0.69099998 -0.041192811 1.3460247e-38 318 274
-0.0012097999 0.69 -0.041133199 1.2169508e-38 319 274
0 0.69 -0.041133199 9.4987283e-39 320 274
0.0012062934 0.68800002 -0.041013971 8.2079894e-39 321 274
0.0024125867 0.68800002 -0.041013971 6.824367e-39 322 274
0.0036136196 0.68699998 -0.040954359 6.3637489e-39 323 274
0.0048181596 0.68699998 -0.040954359 4.2522696e-39 324 274
0.0060226996 0.68699998 -0.040954359 3.7912915e-39 325 274
0.0072272392 0.68699998 -0.040954359 2.323329e-39 326 274
0.0084317802 0.68699998 -0.040954359 6.9331105e-39 327 274
0.0096363192 0.68699998 -0.040954359 1.0237032e-38 328 274
0.010840859 0.68699998 -0.040954359 4.9818809e-39 329 274
0.012045399 0.68699998 -0.040954359 7.0126861e-39 330 274
0.013230653 0.68599999 -0.040894743 1.2175641e-38 331 274
0.01443344 0.68599999 -0.040894743 1.3925525e-38 332 274
0.015636226 0.68599999 -0.040894743 1.4386502e-38 333 274
0.016839013 0.68599999 -0.040894743 1.4018077e-38 334 274
0.018041799 0.68599999 -0.040894743 1.3925523e-38 335 274
0.019272638 0.68699998 -0.040954359 1.4109194e-38 336 274
0.020477179 0.68699998 -0.040954359 1.3924804e-38 337 274
0.021681719 0.68699998 -0.040954359 1.4108475e-38 338 274
0.022919573 0.68800002 -0.041013971 1.4015919e-38 339 274
0.024125867 0.68800002 -0.041013971 1.4199584e-38 340 274
0.02533216 0.68800002 -0.041013971 1.4015553e-38 341 274
0.026615599 0.69 -0.041133199 1.3923358e-38 342 274
0.027825398 0.69 -0.041133199 1.3831162e-38 343 274
0.029035198 0.69 -0.041133199 1.3277991e-38 344 274
0.030288832 0.69099998 -0.041192811 1.2632622e-38 345 274
0.031591557 0.69300002 -0.041312039 1.1802505e-38 346 274
0.03280662 0.69300002 -0.041312039 1.1341527e-38 347 274
0.034070771 0.69400001 -0.041371655 1.0882344e-38 348 274
0.035389278 0.69599998 -0.041490879 1.0882344e-38 349 274
0.036662199 0.69700003 -0.041550495 1.1617388e-38 350 274
0.037938625 0.69800001 -0.041610107 1.198617e-38 351 274
0.039274666 0.69999999 -0.041729331 1.2263113e-38 352 274
0.040559858 0.70099998 -0.041788943 1.2263113e-38 353 274
0.041908171 0.70300001 -0.041908171 1.2079072e-38 354 274
0.043140765 0.70300001 -0.041908171 1.401518e-38 355 274
-0.017354494 0.70700002 -0.043386232 1.2729521e-38 306 275
-0.016092092 0.70599997 -0.043324865 1.2913913e-38 307 275
-0.014812159 0.704 -0.043202132 1.2270693e-38 308 275
-0.013558527 0.70300001 -0.043140765 1.2362888e-38 309 275
-0.012290866 0.70099998 -0.043018032 1.273202e-38 310 275
-0.01101444 0.69800001 -0.042833932 1.273202e-38 311 275
-0.0097906133 0.69800001 -0.042833932 1.3283029e-38 312 275
-0.0085545136 0.69700003 -0.042772565 1.3283029e-38 313 275
-0.0073219193 0.69599998 -0.042711195 1.3099335e-38 314 275
-0.0060840664 0.69400001 -0.042588469 1.3283727e-38 315 275
-0.00486024 0.69300002 -0.042527102 1.4019496e-38 316 275
-0.0036451798 0.69300002 -0.042527102 1.4111692e-38 317 275
-0.00243012 0.69300002 -0.042527102 1.4202837e-38 318 275
-0.0012115532 0.69099998 -0.042404365 1.374186e-38 319 275
0 0.69 -0.042342998 1.2819914e-38 320 275
0.0012097999 0.69 -0.042342998 1.180612e-38 321 275
0.0024195998 0.69 -0.042342998 1.0517562e-38 322 275
0.0036188802 0.68800002 -0.042220265 9.8721925e-39 323 275
0.0048251734 0.68800002 -0.042220265 8.3992401e-39 324 275
0.0060314666 0.68800002 -0.042220265 7.7538707e-39 325 275
0.0072377604 0.68800002 -0.042220265 6.2844789e-39 326 275
0.0084440531 0.68800002 -0.042220265 9.3272934e-39 327 275
0.0096503468 0.68800002 -0.042220265 1.1895802e-38 328 275
0.010856641 0.68800002 -0.042220265 8.9451817e-39 329 275
0.012062933 0.68800002 -0.042220265 1.0508545e-38 330 275
0.013249939 0.68699998 -0.042158898 1.3458446e-38 331 275
0.014454478 0.68699998 -0.042158898 1.3741133e-38 332 275
0.015659019 0.68699998 -0.042158898 1.4293948e-38 333 275
0.01686356 0.68699998 -0.042158898 1.3925523e-38 334 275
0.018068098 0.68699998 -0.042158898 1.3833327e-38 335 275
0.019300694 0.68800002 -0.042220265 1.374113e-38 336 275
0.020506985 0.68800002 -0.042220265 1.374113e-38 337 275
0.021713281 0.68800002 -0.042220265 1.3832963e-38 338 275
0.022919573 0.68800002 -0.042220265 1.3832963e-38 339 275
0.024195999 0.69 -0.042342998 1.3740764e-38 340 275
0.025405798 0.69 -0.042342998 1.3648569e-38 341 275
0.026615599 0.69 -0.042342998 1.3555651e-38 342 275
0.027865725 0.69099998 -0.042404365 1.3371259e-38 343 275
0.029077278 0.69099998 -0.042404365 1.2817733e-38 344 275
0.030288832 0.69099998 -0.042404365 1.2541145e-38 345 275
0.031591557 0.69300002 -0.042527102 1.1804659e-38 346 275
0.03280662 0.69300002 -0.042527102 1.1251485e-38 347 275
0.034070771 0.69400001 -0.042588469 1.0881622e-38 348 275
0.035440128 0.69700003 -0.042772565 1.1066372e-38 349 275
0.0367148 0.69800001 -0.042833932 1.1342602e-38 350 275
0.038047329 0.69999999 -0.042956665 1.1342602e-38 351 275
0.039274666 0.69999999 -0.042956665 1.0974895e-38 352 275
0.040675577 0.70300001 -0.043140765 1.1067091e-38 353 275
0.041967787 0.704 -0.043202132 1.2075835e-38 354 275
0.043202132 0.704 -0.043202132 1.493354e-38 355 275
-0.018594101 0.70700002 -0.044625837 1.2815937e-38 305 276
-0.017354494 0.70700002 -0.044625837 1.2820995e-38 306 276
-0.016114887 0.70700002 -0.044625837 1.2913191e-38 307 276
-0.014854239 0.70599997 -0.044562716 1.2361456e-38 308 276
-0.013558527 0.70300001 -0.04437336 1.2361456e-38 309 276
-0.012325933 0.70300001 -0.04437336 1.2822065e-38 310 276
-0.011045999 0.69999999 -0.044183996 1.2268891e-38 311 276
-0.0098186666 0.69999999 -0.044183996 1.1441263e-38 312 276
-0.0085667865 0.69800001 -0.04405776 1.1441263e-38 313 276
-0.00733244 0.69700003 -0.043994639 1.2454313e-38 314 276
-0.0061015999 0.69599998 -0.043931518 1.3099683e-38 315 276
-0.0048672534 0.69400001 -0.043805279 1.254761e-38 316 276
-0.0036504399 0.69400001 -0.043805279 1.1902241e-38 317 276
-0.00243012 0.69300002 -0.043742158 1.2362894e-38 318 276
-0.00121506 0.69300002 -0.043742158 1.2823513e-38 319 276
0 0.69099998 -0.043615919 1.4112453e-38 320 276
0.0012115532 0.69099998 -0.043615919 1.4665627e-38 321 276
0.0024231065 0.69099998 -0.043615919 1.4664905e-38 322 276
0.0036293997 0.69 -0.043552797 1.4572709e-38 323 276
0.0048391996 0.69 -0.043552797 1.4204286e-38 324 276
0.0060489997 0.69 -0.043552797 1.4111731e-38 325 276
0.0072587994 0.69 -0.043552797 1.3651828e-38 326 276
0.0084686 0.69 -0.043552797 1.3744025e-38 327 276
0.0096783992 0.69 -0.043552797 1.4108485e-38 328 276
0.010856641 0.68800002 -0.043426562 1.3463115e-38 329 276
0.012062933 0.68800002 -0.043426562 1.2729866e-38 330 276
0.013269227 0.68800002 -0.043426562 1.282242e-38 331 276
0.014475521 0.68800002 -0.043426562 1.3741857e-38 332 276
0.015681813 0.68800002 -0.043426562 1.4202834e-38 333 276
0.016888106 0.68800002 -0.043426562 1.3832607e-38 334 276
0.0180944 0.68800002 -0.043426562 1.355602e-38 335 276
0.019300694 0.68800002 -0.043426562 1.3187958e-38 336 276
0.020506985 0.68800002 -0.043426562 1.3095761e-38 337 276
0.021713281 0.68800002 -0.043426562 1.3463824e-38 338 276
0.022986198 0.69 -0.043552797 1.3648215e-38 339 276
0.024195999 0.69 -0.043552797 1.3740408e-38 340 276
0.025405798 0.69 -0.043552797 1.3463821e-38 341 276
