# .PCD v.7 - Point Cloud Data file format
FIELDS x y z rgb imX imY
SIZE 4 4 4 4 4 4
TYPE F F F F F F
COUNT 1 1 1 1 1 1
WIDTH 861
HEIGHT 1
VIEWPOINT 0 0 0 1 0 0 0
POINTS 861
DATA ascii
0.023122961 0.62800002 0.096896209 1.9544378e-38 341 152
0.024185479 0.62699997 0.096741915 1.9268511e-38 342 152
0.025284817 0.62699997 0.096741915 1.9361065e-38 343 152
0.026384158 0.62699997 0.096741915 1.9268514e-38 344 152
0.027395833 0.625 0.096433327 1.9268514e-38 345 152
0.02844608 0.62400001 0.09627904 1.9268514e-38 346 152
0.029540159 0.62400001 0.09627904 1.9268514e-38 347 152
0.030634239 0.62400001 0.09627904 1.8717858e-38 348 152
0.03172832 0.62400001 0.09627904 1.8717858e-38 349 152
0.016490098 0.62699997 0.095642567 1.9452908e-38 335 153
0.017617494 0.62800002 0.095795117 1.9544378e-38 336 153
0.018718587 0.62800002 0.095795117 1.9636573e-38 337 153
0.019819681 0.62800002 0.095795117 1.9636571e-38 338 153
0.020920772 0.62800002 0.095795117 1.9636571e-38 339 153
0.022021867 0.62800002 0.095795117 1.972805e-38 340 153
0.023086138 0.62699997 0.095642567 1.9635854e-38 341 153
0.024185479 0.62699997 0.095642567 1.9635854e-38 342 153
0.025284817 0.62699997 0.095642567 1.9635854e-38 343 153
0.0263 0.625 0.095337495 1.9360347e-38 344 153
0.027395833 0.625 0.095337495 1.9360347e-38 345 153
0.02844608 0.62400001 0.095184959 1.9268867e-38 346 153
0.029492822 0.62300003 0.095032424 1.9268867e-38 347 153
0.030585146 0.62300003 0.095032424 1.9268511e-38 348 153
0.031626627 0.62199998 0.094879873 1.9268511e-38 349 153
0.032717198 0.62199998 0.094879873 1.9175243e-38 350 153
0.033807773 0.62199998 0.094879873 1.9175243e-38 351 153
0.015390759 0.62699997 0.094543234 1.9361065e-38 334 154
0.016490098 0.62699997 0.094543234 1.9453261e-38 335 154
0.017589439 0.62699997 0.094543234 1.9361063e-38 336 154
0.018688779 0.62699997 0.094543234 1.9453258e-38 337 154
0.019788118 0.62699997 0.094543234 1.9728768e-38 338 154
0.020887459 0.62699997 0.094543234 1.9636571e-38 339 154
0.021986797 0.62699997 0.094543234 1.9636571e-38 340 154
0.023012498 0.625 0.094241664 1.9636571e-38 341 154
0.024108332 0.625 0.094241664 1.9361063e-38 342 154
0.025204165 0.625 0.094241664 1.9361063e-38 343 154
0.026257919 0.62400001 0.094090879 1.9544378e-38 344 154
0.027352 0.62400001 0.094090879 1.9360347e-38 345 154
0.028400492 0.62300003 0.093940094 1.9268867e-38 346 154
0.029492822 0.62300003 0.093940094 1.9268867e-38 347 154
0.030536054 0.62199998 0.093789294 1.9268867e-38 348 154
0.031626627 0.62199998 0.093789294 1.9361063e-38 349 154
0.032717198 0.62199998 0.093789294 1.9176315e-38 350 154
0.033807773 0.62199998 0.093789294 1.9176315e-38 351 154
0.034898344 0.62199998 0.093789294 1.8900457e-38 352 154
0.015390759 0.62699997 0.093443893 1.9453261e-38 334 155
0.016437499 0.625 0.093145832 1.9453261e-38 335 155
0.017533332 0.625 0.093145832 1.9453258e-38 336 155
0.018629165 0.625 0.093145832 1.9545455e-38 337 155
0.019724999 0.625 0.093145832 1.98206e-38 338 155
0.020820832 0.625 0.093145832 1.98206e-38 339 155
0.021916665 0.625 0.093145832 1.9636924e-38 340 155
0.022975679 0.62400001 0.092996798 1.9636924e-38 341 155
0.024031186 0.62300003 0.092847764 1.9453255e-38 342 155
0.025123514 0.62300003 0.092847764 1.936106e-38 343 155
0.026257919 0.62400001 0.092996798 1.9544375e-38 344 155
0.027352 0.62400001 0.092996798 1.9544375e-38 345 155
0.028400492 0.62300003 0.092847764 1.9544375e-38 346 155
0.029492822 0.62300003 0.092847764 1.9544375e-38 347 155
0.030536054 0.62199998 0.092698731 1.936106e-38 348 155
0.031626627 0.62199998 0.092698731 1.936106e-38 349 155
0.032717198 0.62199998 0.092698731 1.9360341e-38 350 155
0.033753417 0.62099999 0.092549697 1.9360341e-38 351 155
0.034842238 0.62099999 0.092549697 1.9268148e-38 352 155
0.014177452 0.62199998 0.091608152 1.9636571e-38 333 156
0.01524348 0.62099999 0.091460876 1.9453258e-38 334 156
0.016279699 0.61900002 0.091166317 1.9453258e-38 335 156
0.017365014 0.61900002 0.091166317 1.9453258e-38 336 156
0.018539745 0.62199998 0.091608152 1.9545455e-38 337 156
0.019630319 0.62199998 0.091608152 1.9636926e-38 338 156
0.020754207 0.62300003 0.091755435 1.9729124e-38 339 156
0.021846535 0.62300003 0.091755435 1.9545811e-38 340 156
0.022902038 0.62199998 0.091608152 1.9453255e-38 341 156
0.023992613 0.62199998 0.091608152 1.9636926e-38 342 156
0.025083186 0.62199998 0.091608152 1.9636926e-38 343 156
0.02621584 0.62300003 0.091755435 1.9636926e-38 344 156
0.027308168 0.62300003 0.091755435 1.9636926e-38 345 156
0.028354904 0.62199998 0.091608152 1.9636926e-38 346 156
0.029445477 0.62199998 0.091608152 1.9636926e-38 347 156
0.030536054 0.62199998 0.091608152 1.9453611e-38 348 156
0.031626627 0.62199998 0.091608152 1.9453611e-38 349 156
0.032664597 0.62099999 0.091460876 1.9544728e-38 350 156
0.033753417 0.62099999 0.091460876 1.9360697e-38 351 156
0.034730028 0.61900002 0.091166317 1.9360347e-38 352 156
0.03581534 0.61900002 0.091166317 1.9175597e-38 353 156
0.011996306 0.62199998 0.090517581 1.9362512e-38 331 157
0.013065839 0.62099999 0.090372056 1.9545455e-38 332 157
0.014131867 0.62 0.090226531 1.9453258e-38 333 157
0.015194387 0.61900002 0.090081006 1.9453261e-38 334 157
0.016279699 0.61900002 0.090081006 1.9453261e-38 335 157
0.017365014 0.61900002 0.090081006 1.9453261e-38 336 157
0.018450327 0.61900002 0.090081006 1.9545458e-38 337 157
0.019567199 0.62 0.090226531 1.9545455e-38 338 157
0.020687578 0.62099999 0.090372056 1.9545455e-38 339 157
0.021776399 0.62099999 0.090372056 1.9545811e-38 340 157
0.022865219 0.62099999 0.090372056 1.9545811e-38 341 157
0.023954039 0.62099999 0.090372056 1.9636926e-38 342 157
0.02504286 0.62099999 0.090372056 1.9729124e-38 343 157
0.026173757 0.62199998 0.090517581 1.9911718e-38 344 157
0.027264331 0.62199998 0.090517581 1.9819164e-38 345 157
0.028354904 0.62199998 0.090517581 1.9636571e-38 346 157
0.029445477 0.62199998 0.090517581 1.9544375e-38 347 157
0.030536054 0.62199998 0.090517581 1.9728403e-38 348 157
0.031575777 0.62099999 0.090372056 1.9636208e-38 349 157
0.032664597 0.62099999 0.090372056 1.9636208e-38 350 157
0.033753417 0.62099999 0.090372056 1.9636208e-38 351 157
0.034730028 0.61900002 0.090081006 1.9636573e-38 352 157
0.03581534 0.61900002 0.090081006 1.8991204e-38 353 157
0.010905732 0.62199998 0.089427009 1.9549792e-38 330 158
0.01197702 0.62099999 0.089283235 1.9272847e-38 331 158
0.013065839 0.62099999 0.089283235 1.9455423e-38 332 158
0.014131867 0.62 0.089139462 1.9178836e-38 333 158
0.015194387 0.61900002 0.088995695 1.9453258e-38 334 158
0.016279699 0.61900002 0.088995695 1.9453258e-38 335 158
0.017336959 0.61799997 0.088851914 1.9728768e-38 336 158
0.018420519 0.61799997 0.088851914 1.9728768e-38 337 158
0.01953564 0.61900002 0.088995695 1.9545455e-38 338 158
0.020620953 0.61900002 0.088995695 1.9545455e-38 339 158
0.021741332 0.62 0.089139462 1.9545811e-38 340 158
0.0228284 0.62 0.089139462 1.9545811e-38 341 158
0.023915466 0.62 0.089139462 1.9821319e-38 342 158
0.025002534 0.62 0.089139462 1.9729124e-38 343 158
0.026131678 0.62099999 0.089283235 1.9728403e-38 344 158
0.027220499 0.62099999 0.089283235 1.9728403e-38 345 158
0.028309319 0.62099999 0.089283235 1.9728403e-38 346 158
0.02939814 0.62099999 0.089283235 1.9728403e-38 347 158
0.03048696 0.62099999 0.089283235 1.9636208e-38 348 158
0.031575777 0.62099999 0.089283235 1.9636208e-38 349 158
0.032664597 0.62099999 0.089283235 1.9635852e-38 350 158
0.033699065 0.62 0.089139462 1.9635852e-38 351 158
0.034786131 0.62 0.089139462 1.9360712e-38 352 158
0.035873201 0.62 0.089139462 1.8346562e-38 353 158
0.0098309405 0.62300003 0.088478461 1.7987894e-38 329 159
0.010905732 0.62199998 0.088336438 1.8632528e-38 330 159
0.01197702 0.62099999 0.088194415 1.9000951e-38 331 159
0.0130448 0.62 0.088052399 1.9827099e-38 332 159
0.014109073 0.61900002 0.087910376 1.9366121e-38 333 159
0.015194387 0.61900002 0.087910376 1.9823488e-38 334 159
0.016253399 0.61799997 0.087768354 1.9638738e-38 335 159
0.017336959 0.61799997 0.087768354 1.9913881e-38 336 159
0.018360905 0.616 0.087484315 1.9821685e-38 337 159
0.01944096 0.616 0.087484315 1.9637654e-38 338 159
0.020587638 0.61799997 0.087768354 1.9545458e-38 339 159
0.021671198 0.61799997 0.087768354 1.9545455e-38 340 159
0.022754759 0.61799997 0.087768354 1.9637651e-38 341 159
0.023838319 0.61799997 0.087768354 1.9637654e-38 342 159
0.024921879 0.61799997 0.087768354 1.9637654e-38 343 159
0.02604752 0.61900002 0.087910376 1.972877e-38 344 159
0.027088998 0.61799997 0.087768354 1.972877e-38 345 159
0.028172556 0.61799997 0.087768354 1.972877e-38 346 159
0.029256117 0.61799997 0.087768354 1.9636573e-38 347 159
0.030339677 0.61799997 0.087768354 1.9821322e-38 348 159
0.031423237 0.61799997 0.087768354 1.9821322e-38 349 159
0.032559399 0.61900002 0.087910376 1.9453261e-38 350 159
0.033590358 0.61799997 0.087768354 1.8900089e-38 351 159
0.034673918 0.61799997 0.087768354 1.807142e-38 352 159
0.0087526403 0.62400001 0.087526403 1.7065587e-38 328 160
0.0098309405 0.62300003 0.087386139 1.7341815e-38 329 160
0.010905732 0.62199998 0.087245859 1.7528714e-38 330 160
0.01197702 0.62099999 0.087105595 1.8450311e-38 331 160
0.0130448 0.62 0.08696533 1.946049e-38 332 160
0.014109073 0.61900002 0.086825065 1.9368295e-38 333 160
0.015169838 0.61799997 0.086684793 1.9183528e-38 334 160
0.016200799 0.616 0.086404264 1.8906941e-38 335 160
0.017280852 0.616 0.086404264 1.9365751e-38 336 160
0.018331099 0.61500001 0.086263999 1.9089165e-38 337 160
0.019409399 0.61500001 0.086263999 1.9456142e-38 338 160
0.020521011 0.616 0.086404264 1.908772e-38 339 160
0.021566 0.61500001 0.086263999 1.9178834e-38 340 160
0.0226443 0.61500001 0.086263999 1.9455779e-38 341 160
0.0237226 0.61500001 0.086263999 1.9822764e-38 342 160
0.0248009 0.61500001 0.086263999 1.9638373e-38 343 160
0.02583712 0.61400002 0.086123735 1.9638373e-38 344 160
0.026913667 0.61400002 0.086123735 1.9453981e-38 345 160
0.028081387 0.616 0.086404264 1.9362512e-38 346 160
0.029114097 0.61500001 0.086263999 1.9178119e-38 347 160
0.030192401 0.61500001 0.086263999 1.8993725e-38 348 160
0.031270701 0.61500001 0.086263999 1.8809335e-38 349 160
0.032401599 0.616 0.086404264 1.8533467e-38 350 160
0.033590358 0.61799997 0.086684793 1.7980293e-38 351 160
0.034561705 0.616 0.086404264 1.724346e-38 352 160
0.035641756 0.616 0.086404264 1.5952721e-38 353 160
0.0087386137 0.62300003 0.086293809 1.6973745e-38 328 161
0.0098151593 0.62199998 0.086155288 1.6973745e-38 329 161
0.010888199 0.62099999 0.086016774 1.679187e-38 330 161
0.011957733 0.62 0.08587826 1.7160654e-38 331 161
0.0130448 0.62 0.08587826 1.7804223e-38 332 161
0.014109073 0.61900002 0.085739754 1.8081168e-38 333 161
0.015120746 0.616 0.085324213 1.8725809e-38 334 161
0.016174501 0.61500001 0.085185699 1.8725809e-38 335 161
0.017252799 0.61500001 0.085185699 1.9460844e-38 336 161
0.018301293 0.61400002 0.085047185 1.9368289e-38 337 161
0.019377839 0.61400002 0.085047185 1.9827102e-38 338 161
0.020454386 0.61400002 0.085047185 1.9827102e-38 339 161
0.021530934 0.61400002 0.085047185 1.9918219e-38 340 161
0.022607479 0.61400002 0.085047185 1.9918219e-38 341 161
0.023684027 0.61400002 0.085047185 1.9824581e-38 342 161
0.024760574 0.61400002 0.085047185 1.9732386e-38 343 161
0.02583712 0.61400002 0.085047185 1.9640543e-38 344 161
0.026913667 0.61400002 0.085047185 1.9087369e-38 345 161
0.028035799 0.61500001 0.085185699 1.8902622e-38 346 161
0.029114097 0.61500001 0.085185699 1.853384e-38 347 161
0.030192401 0.61500001 0.085185699 1.7796994e-38 348 161
0.031270701 0.61500001 0.085185699 1.7428571e-38 349 161
0.032401599 0.616 0.085324213 1.6785002e-38 350 161
0.033481654 0.616 0.085324213 1.6231469e-38 351 161
0.034505598 0.61500001 0.085185699 1.558539e-38 352 161
0.035526041 0.61400002 0.085047185 1.5032575e-38 353 161
0.036602587 0.61400002 0.085047185 1.5216617e-38 354 161
0.0087386137 0.62300003 0.085201479 1.7249253e-38 328 162
0.0098151593 0.62199998 0.085064717 1.7249253e-38 329 162
0.010888199 0.62099999 0.084927954 1.6882991e-38 330 162
0.011957733 0.62 0.084791198 1.6975188e-38 331 162
0.0130448 0.62 0.084791198 1.7159222e-38 332 162
0.014109073 0.61900002 0.084654443 1.7159222e-38 333 162
0.015120746 0.616 0.084244154 1.752836e-38 334 162
0.016174501 0.61500001 0.084107399 1.7804947e-38 335 162
0.017252799 0.61500001 0.084107399 1.8355951e-38 336 162
0.018301293 0.61400002 0.083970644 1.8079722e-38 337 162
0.019377839 0.61400002 0.083970644 1.8538894e-38 338 162
0.020454386 0.61400002 0.083970644 1.8723644e-38 339 162
0.021530934 0.61400002 0.083970644 1.8815121e-38 340 162
0.022570658 0.61299998 0.083833873 1.8630371e-38 341 162
0.023645451 0.61299998 0.083833873 1.872112e-38 342 162
0.024760574 0.61400002 0.083970644 1.8628925e-38 343 162
0.02583712 0.61400002 0.083970644 1.8444168e-38 344 162
0.026913667 0.61400002 0.083970644 1.798319e-38 345 162
0.028035799 0.61500001 0.084107399 1.7614047e-38 346 162
0.029114097 0.61500001 0.084107399 1.733782e-38 347 162
0.030192401 0.61500001 0.084107399 1.6785368e-38 348 162
0.031270701 0.61500001 0.084107399 1.6508423e-38 349 162
0.032401599 0.616 0.084244154 1.6506986e-38 350 162
0.033481654 0.616 0.084244154 1.6045649e-38 351 162
0.034505598 0.61500001 0.084107399 1.5676872e-38 352 162
0.035526041 0.61400002 0.083970644 1.5399927e-38 353 162
0.036602587 0.61400002 0.083970644 1.5399214e-38 354 162
0.0087245861 0.62199998 0.083974138 1.706594e-38 328 163
0.0097993789 0.62099999 0.083839133 1.706594e-38 329 163
0.010888199 0.62099999 0.083839133 1.6974108e-38 330 163
0.011957733 0.62 0.083704136 1.6974108e-38 331 163
0.0130448 0.62 0.083704136 1.6698249e-38 332 163
0.014109073 0.61900002 0.083569124 1.6606054e-38 333 163
0.015120746 0.616 0.083164103 1.6514932e-38 334 163
0.016174501 0.61500001 0.083029099 1.6514932e-38 335 163
0.017224746 0.61400002 0.082894087 1.6974461e-38 336 163
0.018301293 0.61400002 0.082894087 1.6698234e-38 337 163
0.019377839 0.61400002 0.082894087 1.6788995e-38 338 163
0.020454386 0.61400002 0.082894087 1.6973745e-38 339 163
0.021530934 0.61400002 0.082894087 1.7065943e-38 340 163
0.022570658 0.61299998 0.082759075 1.6973389e-38 341 163
0.023645451 0.61299998 0.082759075 1.7063421e-38 342 163
0.024760574 0.61400002 0.082894087 1.6879028e-38 343 163
0.02583712 0.61400002 0.082894087 1.6787183e-38 344 163
0.026913667 0.61400002 0.082894087 1.6418402e-38 345 163
0.027990215 0.61400002 0.082894087 1.5957419e-38 346 163
0.02906676 0.61400002 0.082894087 1.5773388e-38 347 163
0.030143308 0.61400002 0.082894087 1.5864138e-38 348 163
0.031219851 0.61400002 0.082894087 1.5771583e-38 349 163
0.032349002 0.61500001 0.083029099 1.5954536e-38 350 163
0.033481654 0.616 0.083164103 1.5769786e-38 351 163
0.034561705 0.616 0.083164103 1.5860182e-38 352 163
0.035526041 0.61400002 0.082894087 1.5583955e-38 353 163
0.036602587 0.61400002 0.082894087 1.5584324e-38 354 163
0.0087245861 0.62199998 0.082883567 1.715706e-38 328 164
0.0097993789 0.62099999 0.082750313 1.715706e-38 329 164
0.010870666 0.62 0.082617059 1.6881915e-38 330 164
0.011957733 0.62 0.082617059 1.6881915e-38 331 164
0.0130448 0.62 0.082617059 1.6697531e-38 332 164
0.014109073 0.61900002 0.082483813 1.6605335e-38 333 164
0.015120746 0.616 0.082084045 1.6698247e-38 334 164
0.016174501 0.61500001 0.081950799 1.6606051e-38 335 164
0.017224746 0.61400002 0.081817545 1.6973389e-38 336 164
0.018301293 0.61400002 0.081817545 1.6788998e-38 337 164
0.019377839 0.61400002 0.081817545 1.6512769e-38 338 164
0.020454386 0.61400002 0.081817545 1.6512769e-38 339 164
0.021530934 0.61400002 0.081817545 1.6237624e-38 340 164
0.022570658 0.61299998 0.081684284 1.6145429e-38 341 164
0.023645451 0.61299998 0.081684284 1.6419492e-38 342 164
0.024720244 0.61299998 0.081684284 1.6235461e-38 343 164
0.025795039 0.61299998 0.081684284 1.6234375e-38 344 164
0.026869832 0.61299998 0.081684284 1.6050344e-38 345 164
0.027990215 0.61400002 0.081817545 1.5957419e-38 346 164
0.02906676 0.61400002 0.081817545 1.5773388e-38 347 164
0.030143308 0.61400002 0.081817545 1.5956333e-38 348 164
0.031219851 0.61400002 0.081817545 1.5864138e-38 349 164
0.032349002 0.61500001 0.081950799 1.5954536e-38 350 164
0.033481654 0.616 0.082084045 1.586234e-38 351 164
0.034561705 0.616 0.082084045 1.5769421e-38 352 164
0.035583898 0.61500001 0.081950799 1.5584671e-38 353 164
0.036662199 0.61500001 0.081950799 1.5584321e-38 354 164
0.0087245861 0.62199998 0.081792995 1.6973392e-38 328 165
0.0097993789 0.62099999 0.0816615 1.6973392e-38 329 165
0.010870666 0.62 0.081529997 1.6605332e-38 330 165
0.011957733 0.62 0.081529997 1.6697528e-38 331 165
0.0130448 0.62 0.081529997 1.6512783e-38 332 165
0.014109073 0.61900002 0.081398502 1.6604979e-38 333 165
0.015120746 0.616 0.081004001 1.6422383e-38 334 165
0.016174501 0.61500001 0.080872498 1.6330187e-38 335 165
0.017224746 0.61400002 0.080741003 1.6696446e-38 336 165
0.018301293 0.61400002 0.080741003 1.6696446e-38 337 165
0.019377839 0.61400002 0.080741003 1.6696802e-38 338 165
0.020454386 0.61400002 0.080741003 1.6512769e-38 339 165
0.021530934 0.61400002 0.080741003 1.6328738e-38 340 165
0.022570658 0.61299998 0.080609493 1.6236543e-38 341 165
0.023645451 0.61299998 0.080609493 1.6235461e-38 342 165
0.024720244 0.61299998 0.080609493 1.6142906e-38 343 165
0.025795039 0.61299998 0.080609493 1.6234012e-38 344 165
0.026869832 0.61299998 0.080609493 1.6141816e-38 345 165
0.027990215 0.61400002 0.080741003 1.6049971e-38 346 165
0.02906676 0.61400002 0.080741003 1.5957417e-38 347 165
0.030143308 0.61400002 0.080741003 1.6139646e-38 348 165
0.031219851 0.61400002 0.080741003 1.604745e-38 349 165
0.032349002 0.61500001 0.080872498 1.5954533e-38 350 165
0.033427298 0.61500001 0.080872498 1.5862337e-38 351 165
0.034561705 0.616 0.081004001 1.6045285e-38 352 165
0.035641756 0.616 0.081004001 1.5584308e-38 353 165
0.036721811 0.616 0.081004001 1.5216252e-38 354 165
0.0087245861 0.62199998 0.080702424 1.6788281e-38 328 166
0.0097993789 0.62099999 0.080572672 1.6880477e-38 329 166
0.010888199 0.62099999 0.080572672 1.6789e-38 330 166
0.011957733 0.62 0.080442935 1.6789e-38 331 166
0.0130448 0.62 0.080442935 1.6513137e-38 332 166
0.014109073 0.61900002 0.080313183 1.6605332e-38 333 166
0.015169838 0.61799997 0.080183432 1.6697884e-38 334 166
0.016200799 0.616 0.079923943 1.6697884e-38 335 166
0.017252799 0.61500001 0.079794198 1.6788998e-38 336 166
0.018301293 0.61400002 0.079664454 1.6696802e-38 337 166
0.019377839 0.61400002 0.079664454 1.651349e-38 338 166
0.020454386 0.61400002 0.079664454 1.651349e-38 339 166
0.021530934 0.61400002 0.079664454 1.6328738e-38 340 166
0.022607479 0.61400002 0.079664454 1.6236543e-38 341 166
0.023684027 0.61400002 0.079664454 1.6235461e-38 342 166
0.024760574 0.61400002 0.079664454 1.6050709e-38 343 166
0.02583712 0.61400002 0.079664454 1.614146e-38 344 166
0.026913667 0.61400002 0.079664454 1.6049265e-38 345 166
0.027990215 0.61400002 0.079664454 1.6049615e-38 346 166
0.02906676 0.61400002 0.079664454 1.5957419e-38 347 166
0.030192401 0.61500001 0.079794198 1.5956333e-38 348 166
0.031270701 0.61500001 0.079794198 1.5864138e-38 349 166
0.032349002 0.61500001 0.079794198 1.6137845e-38 350 166
0.033427298 0.61500001 0.079794198 1.5861617e-38 351 166
0.034561705 0.616 0.079923943 1.5952368e-38 352 166
0.035641756 0.616 0.079923943 1.5583225e-38 353 166
0.0098151593 0.62199998 0.079611845 1.6696446e-38 329 167
0.010888199 0.62099999 0.079483859 1.6329824e-38 330 167
0.01197702 0.62099999 0.079483859 1.6329824e-38 331 167
0.013065839 0.62099999 0.079483859 1.6329468e-38 332 167
0.014131867 0.62 0.079355866 1.6329468e-38 333 167
0.015194387 0.61900002 0.079227872 1.6330543e-38 334 167
0.016200799 0.616 0.078843892 1.6330543e-38 335 167
0.017252799 0.61500001 0.078715898 1.6513853e-38 336 167
0.018331099 0.61500001 0.078715898 1.6329821e-38 337 167
0.019409399 0.61500001 0.078715898 1.6421293e-38 338 167
0.0204877 0.61500001 0.078715898 1.6421293e-38 339 167
0.021566 0.61500001 0.078715898 1.6420574e-38 340 167
0.022607479 0.61400002 0.078587912 1.6235824e-38 341 167
0.023684027 0.61400002 0.078587912 1.6326575e-38 342 167
0.024760574 0.61400002 0.078587912 1.6234378e-38 343 167
0.02583712 0.61400002 0.078587912 1.6049265e-38 344 167
0.026913667 0.61400002 0.078587912 1.6049265e-38 345 167
0.027990215 0.61400002 0.078587912 1.6049618e-38 346 167
0.029114097 0.61500001 0.078715898 1.5773032e-38 347 167
0.030241491 0.616 0.078843892 1.5863782e-38 348 167
0.031321548 0.616 0.078843892 1.5679391e-38 349 167
0.032401599 0.616 0.078843892 1.5862334e-38 350 167
0.033481654 0.616 0.078843892 1.5585746e-38 351 167
0.034673918 0.61799997 0.079099871 1.5768693e-38 352 167
0.035757478 0.61799997 0.079099871 1.5215519e-38 353 167
0.036900654 0.61900002 0.079227872 1.5031856e-38 354 167
0.0098151593 0.62199998 0.078521274 1.6696446e-38 329 168
0.010905732 0.62199998 0.078521274 1.6512413e-38 330 168
0.011996306 0.62199998 0.078521274 1.6420218e-38 331 168
0.013086879 0.62199998 0.078521274 1.6328741e-38 332 168
0.01415466 0.62099999 0.078395031 1.6328741e-38 333 168
0.015194387 0.61900002 0.078142561 1.6328741e-38 334 168
0.016200799 0.616 0.077763841 1.6328741e-38 335 168
0.017252799 0.61500001 0.077637598 1.6328741e-38 336 168
0.018331099 0.61500001 0.077637598 1.6328741e-38 337 168
0.019409399 0.61500001 0.077637598 1.6420574e-38 338 168
0.0204877 0.61500001 0.077637598 1.6328019e-38 339 168
0.021566 0.61500001 0.077637598 1.6418417e-38 340 168
0.0226443 0.61500001 0.077637598 1.6326222e-38 341 168
0.0237226 0.61500001 0.077637598 1.6049991e-38 342 168
0.0248009 0.61500001 0.077637598 1.5957795e-38 343 168
0.025879199 0.61500001 0.077637598 1.5773757e-38 344 168
0.026957499 0.61500001 0.077637598 1.5681202e-38 345 168
0.028035799 0.61500001 0.077637598 1.586415e-38 346 168
0.029114097 0.61500001 0.077637598 1.5771955e-38 347 168
0.030241491 0.616 0.077763841 1.5862706e-38 348 168
0.031321548 0.616 0.077763841 1.5493923e-38 349 168
0.032506797 0.61799997 0.078016311 1.5218768e-38 350 168
0.033590358 0.61799997 0.078016311 1.4941823e-38 351 168
0.034730028 0.61900002 0.078142561 1.5400636e-38 352 168
0.03581534 0.61900002 0.078142561 1.4939658e-38 353 168
0.036900654 0.61900002 0.078142561 1.5307367e-38 354 168
0.038170062 0.62199998 0.078521274 1.6782498e-38 355 168
0.0098151593 0.62199998 0.077430703 1.6696084e-38 329 169
0.010905732 0.62199998 0.077430703 1.6512413e-38 330 169
0.011996306 0.62199998 0.077430703 1.6512413e-38 331 169
0.013086879 0.62199998 0.077430703 1.6145073e-38 332 169
0.01415466 0.62099999 0.077306218 1.5960682e-38 333 169
0.015194387 0.61900002 0.07705725 1.5960682e-38 334 169
0.016253399 0.61799997 0.076932758 1.5868486e-38 335 169
0.017280852 0.616 0.076683782 1.5960679e-38 336 169
0.018360905 0.616 0.076683782 1.5868483e-38 337 169
0.01944096 0.616 0.076683782 1.6143628e-38 338 169
0.020521011 0.616 0.076683782 1.6143628e-38 339 169
0.021601066 0.616 0.076683782 1.6050712e-38 340 169
0.022681119 0.616 0.076683782 1.6050712e-38 341 169
0.023761172 0.616 0.076683782 1.5866318e-38 342 169
0.024841227 0.616 0.076683782 1.5774123e-38 343 169
0.02592128 0.616 0.076683782 1.5773038e-38 344 169
0.027001332 0.616 0.076683782 1.5680482e-38 345 169
0.028081387 0.616 0.076683782 1.5588642e-38 346 169
0.029161438 0.616 0.076683782 1.5496447e-38 347 169
0.030339677 0.61799997 0.076932758 1.5494646e-38 348 169
0.031423237 0.61799997 0.076932758 1.5310614e-38 349 169
0.032559399 0.61900002 0.07705725 1.5401725e-38 350 169
0.033644713 0.61900002 0.07705725 1.5217333e-38 351 169
0.034786131 0.62 0.077181734 1.5216965e-38 352 169
0.035931058 0.62099999 0.077306218 1.5032572e-38 353 169
0.037019879 0.62099999 0.077306218 1.5307011e-38 354 169
0.038170062 0.62199998 0.077430703 1.659775e-38 355 169
0.0098309405 0.62300003 0.076462865 1.6696082e-38 329 170
0.010923267 0.62300003 0.076462865 1.651349e-38 330 170
0.011996306 0.62199998 0.076340124 1.651349e-38 331 170
0.013086879 0.62199998 0.076340124 1.6329819e-38 332 170
0.01415466 0.62099999 0.076217398 1.6237622e-38 333 170
0.015218933 0.62 0.076094665 1.5960316e-38 334 170
0.016279699 0.61900002 0.075971931 1.5775923e-38 335 170
0.017336959 0.61799997 0.075849198 1.586812e-38 336 170
0.018420519 0.61799997 0.075849198 1.586812e-38 337 170
0.019504078 0.61799997 0.075849198 1.6050709e-38 338 170
0.020587638 0.61799997 0.075849198 1.6050709e-38 339 170
0.021671198 0.61799997 0.075849198 1.6234022e-38 340 170
0.022754759 0.61799997 0.075849198 1.6049991e-38 341 170
0.023838319 0.61799997 0.075849198 1.5865597e-38 342 170
0.024841227 0.616 0.075603731 1.5773401e-38 343 170
0.02592128 0.616 0.075603731 1.5773035e-38 344 170
0.027088998 0.61799997 0.075849198 1.5588642e-38 345 170
0.028172556 0.61799997 0.075849198 1.5771589e-38 346 170
0.029256117 0.61799997 0.075849198 1.5679393e-38 347 170
0.030339677 0.61799997 0.075849198 1.5494643e-38 348 170
0.031423237 0.61799997 0.075849198 1.5310611e-38 349 170
0.032559399 0.61900002 0.075971931 1.5401362e-38 350 170
0.033699065 0.62 0.076094665 1.5309166e-38 351 170
0.034842238 0.62099999 0.076217398 1.5492113e-38 352 170
0.035931058 0.62099999 0.076217398 1.5307361e-38 353 170
0.037019879 0.62099999 0.076217398 1.5306295e-38 354 170
0.038170062 0.62199998 0.076340124 1.6504838e-38 355 170
0.0087666661 0.625 0.0756125 1.6329094e-38 328 171
0.0098624993 0.625 0.0756125 1.6513487e-38 329 171
0.010923267 0.62300003 0.075370543 1.6605682e-38 330 171
0.012015593 0.62300003 0.075370543 1.6697878e-38 331 171
0.013086879 0.62199998 0.075249553 1.6698597e-38 332 171
0.014177452 0.62199998 0.075249553 1.6791151e-38 333 171
0.015218933 0.62 0.075007595 1.6973745e-38 334 171
0.016279699 0.61900002 0.07488662 1.6788995e-38 335 171
0.017365014 0.61900002 0.07488662 1.6420571e-38 336 171
0.018420519 0.61799997 0.074765638 1.6143625e-38 337 171
0.019504078 0.61799997 0.074765638 1.6142906e-38 338 171
0.020587638 0.61799997 0.074765638 1.6142906e-38 339 171
0.021671198 0.61799997 0.074765638 1.6050709e-38 340 171
0.022754759 0.61799997 0.074765638 1.6050709e-38 341 171
0.023838319 0.61799997 0.074765638 1.577412e-38 342 171
0.024921879 0.61799997 0.074765638 1.5497893e-38 343 171
0.026005438 0.61799997 0.074765638 1.5773035e-38 344 171
0.027088998 0.61799997 0.074765638 1.5680838e-38 345 171
0.028172556 0.61799997 0.074765638 1.6047097e-38 346 171
0.029256117 0.61799997 0.074765638 1.5954901e-38 347 171
0.030339677 0.61799997 0.074765638 1.5586839e-38 348 171
0.031474087 0.61900002 0.07488662 1.5586839e-38 349 171
0.032559399 0.61900002 0.07488662 1.5585393e-38 350 171
0.033699065 0.62 0.075007595 1.5401362e-38 351 171
0.034842238 0.62099999 0.075128578 1.5400636e-38 352 171
0.035931058 0.62099999 0.075128578 1.4939658e-38 353 171
0.037019879 0.62099999 0.075128578 1.5214815e-38 354 171
0.038170062 0.62199998 0.075249553 1.595238e-38 355 171
0.0087666661 0.625 0.074516661 1.6052158e-38 328 172
0.0098624993 0.625 0.074516661 1.6513137e-38 329 172
0.010958333 0.625 0.074516661 1.6514206e-38 330 172
0.012015593 0.62300003 0.074278213 1.6698597e-38 331 172
0.01310792 0.62300003 0.074278213 1.6791151e-38 332 172
0.014177452 0.62199998 0.074158981 1.7159575e-38 333 172
0.01524348 0.62099999 0.074039757 1.7435799e-38 334 172
0.016306 0.62 0.073920533 1.7343603e-38 335 172
0.017365014 0.61900002 0.073801309 1.6973745e-38 336 172
0.018450327 0.61900002 0.073801309 1.6512767e-38 337 172
0.01953564 0.61900002 0.073801309 1.651169e-38 338 172
0.020620953 0.61900002 0.073801309 1.6419136e-38 339 172
0.021706266 0.61900002 0.073801309 1.6142909e-38 340 172
0.022791579 0.61900002 0.073801309 1.6142909e-38 341 172
0.023838319 0.61799997 0.073682077 1.6050709e-38 342 172
0.024921879 0.61799997 0.073682077 1.5774123e-38 343 172
0.026005438 0.61799997 0.073682077 1.6324054e-38 344 172
0.027088998 0.61799997 0.073682077 1.6324054e-38 345 172
0.028172556 0.61799997 0.073682077 1.6048896e-38 346 172
0.029256117 0.61799997 0.073682077 1.5956701e-38 347 172
0.030388774 0.61900002 0.073801309 1.5772658e-38 348 172
0.031474087 0.61900002 0.073801309 1.5496431e-38 349 172
0.032612 0.62 0.073920533 1.5769418e-38 350 172
0.033753417 0.62099999 0.074039757 1.5585027e-38 351 172
0.034842238 0.62099999 0.074039757 1.5675069e-38 352 172
0.035931058 0.62099999 0.074039757 1.5398841e-38 353 172
0.037079491 0.62199998 0.074158981 1.5214818e-38 354 172
0.038170062 0.62199998 0.074158981 1.5399211e-38 355 172
0.039323762 0.62300003 0.074278213 1.5681202e-38 356 172
0.0087947194 0.62699997 0.073655777 1.5314946e-38 328 173
0.0098624993 0.625 0.07342083 1.7158859e-38 329 173
0.010958333 0.625 0.07342083 1.7341815e-38 330 173
0.01203488 0.62400001 0.073303364 1.6973392e-38 331 173
0.01312896 0.62400001 0.073303364 1.6790795e-38 332 173
0.014200246 0.62300003 0.073185883 1.6790795e-38 333 173
0.015268027 0.62199998 0.07306841 1.6790795e-38 334 173
0.016332299 0.62099999 0.072950937 1.6790795e-38 335 173
0.017393066 0.62 0.072833464 1.6790798e-38 336 173
0.018450327 0.61900002 0.07271599 1.6606048e-38 337 173
0.01953564 0.61900002 0.07271599 1.6697881e-38 338 173
0.020620953 0.61900002 0.07271599 1.7066662e-38 339 173
0.021706266 0.61900002 0.07271599 1.7064142e-38 340 173
0.022791579 0.61900002 0.07271599 1.6879391e-38 341 173
0.023876892 0.61900002 0.07271599 1.6603883e-38 342 173
0.024962207 0.61900002 0.07271599 1.6419492e-38 343 173
0.02604752 0.61900002 0.07271599 1.614326e-38 344 173
0.027132833 0.61900002 0.07271599 1.5958867e-38 345 173
0.028218146 0.61900002 0.07271599 1.5866303e-38 346 173
0.029303461 0.61900002 0.07271599 1.5774107e-38 347 173
0.030388774 0.61900002 0.07271599 1.5772302e-38 348 173
0.03152493 0.62 0.072833464 1.5496075e-38 349 173
0.032612 0.62 0.072833464 1.5769065e-38 350 173
0.033753417 0.62099999 0.072950937 1.5584674e-38 351 173
0.034842238 0.62099999 0.072950937 1.5675069e-38 352 173
0.035988916 0.62199998 0.07306841 1.5859819e-38 353 173
0.037079491 0.62199998 0.07306841 1.5122617e-38 354 173
0.038170062 0.62199998 0.07306841 1.4201021e-38 355 173
0.039323762 0.62300003 0.073185883 1.4483734e-38 356 173
0.0087947194 0.62699997 0.072556436 1.209315e-38 328 174
0.009894059 0.62699997 0.072556436 1.5135966e-38 329 174
0.010993399 0.62699997 0.072556436 1.7158872e-38 330 174
0.012054166 0.625 0.072324999 1.6974841e-38 331 174
0.01312896 0.62400001 0.072209284 1.660713e-38 332 174
0.01422304 0.62400001 0.072209284 1.6514934e-38 333 174
0.015292573 0.62300003 0.072093561 1.6698603e-38 334 174
0.016358599 0.62199998 0.071977831 1.6698603e-38 335 174
0.017421119 0.62099999 0.071862116 1.6697881e-38 336 174
0.018480133 0.62 0.071746401 1.6697881e-38 337 174
0.019567199 0.62 0.071746401 1.6973742e-38 338 174
0.020620953 0.61900002 0.071630679 1.7065938e-38 339 174
0.021706266 0.61900002 0.071630679 1.7065214e-38 340 174
0.022791579 0.61900002 0.071630679 1.6604236e-38 341 174
0.023876892 0.61900002 0.071630679 1.6603517e-38 342 174
0.024962207 0.61900002 0.071630679 1.6511322e-38 343 174
0.02604752 0.61900002 0.071630679 1.650952e-38 344 174
0.027132833 0.61900002 0.071630679 1.6417324e-38 345 174
0.028218146 0.61900002 0.071630679 1.6141092e-38 346 174
0.029303461 0.61900002 0.071630679 1.6048896e-38 347 174
0.030388774 0.61900002 0.071630679 1.6230759e-38 348 174
0.03152493 0.62 0.071746401 1.5954533e-38 349 174
0.032612 0.62 0.071746401 1.6045285e-38 350 174
0.033753417 0.62099999 0.071862116 1.5860535e-38 351 174
0.034842238 0.62099999 0.071862116 1.6043484e-38 352 174
0.035988916 0.62199998 0.071977831 1.5490311e-38 353 174
0.037079491 0.62199998 0.071977831 1.3926226e-38 354 174
0.038231432 0.62300003 0.072093561 1.2820237e-38 355 174
0.039323762 0.62300003 0.072093561 1.4298254e-38 356 174
0.0099098403 0.62800002 0.071571067 1.0625191e-38 329 175
0.010993399 0.62699997 0.071457095 1.5039454e-38 330 175
0.012092739 0.62699997 0.071457095 1.6422388e-38 331 175
0.01312896 0.62400001 0.071115203 1.725142e-38 332 175
0.014200246 0.62300003 0.071001239 1.7343616e-38 333 175
0.015292573 0.62300003 0.071001239 1.7251055e-38 334 175
0.016358599 0.62199998 0.070887268 1.7066662e-38 335 175
0.017421119 0.62099999 0.070773296 1.697411e-38 336 175
0.018509939 0.62099999 0.070773296 1.697411e-38 337 175
0.019598758 0.62099999 0.070773296 1.6881912e-38 338 175
0.020654265 0.62 0.070659332 1.6697881e-38 339 175
0.021741332 0.62 0.070659332 1.6696799e-38 340 175
0.0228284 0.62 0.070659332 1.6512767e-38 341 175
0.023915466 0.62 0.070659332 1.6511688e-38 342 175
0.024962207 0.61900002 0.070545368 1.6235461e-38 343 175
0.02604752 0.61900002 0.070545368 1.6234012e-38 344 175
0.027132833 0.61900002 0.070545368 1.6234012e-38 345 175
0.028218146 0.61900002 0.070545368 1.6141811e-38 346 175
0.029303461 0.61900002 0.070545368 1.6141811e-38 347 175
0.030437866 0.62 0.070659332 1.6600621e-38 348 175
0.03152493 0.62 0.070659332 1.6508425e-38 349 175
0.032664597 0.62099999 0.070773296 1.6507337e-38 350 175
0.033753417 0.62099999 0.070773296 1.5677576e-38 351 175
0.034898344 0.62199998 0.070887268 1.5304475e-38 352 175
0.035988916 0.62199998 0.070887268 1.3276171e-38 353 175
0.037139107 0.62300003 0.071001239 9.9668488e-39 354 175
0.038231432 0.62300003 0.071001239 1.0704773e-38 355 175
0.012092739 0.62699997 0.070357755 1.2549441e-38 331 176
0.01315 0.625 0.070133328 1.4209688e-38 332 176
0.014200246 0.62300003 0.069908909 1.5500425e-38 333 176
0.015292573 0.62300003 0.069908909 1.6513855e-38 334 176
0.016358599 0.62199998 0.069796689 1.6698247e-38 335 176
0.017421119 0.62099999 0.069684476 1.6790442e-38 336 176
0.018509939 0.62099999 0.069684476 1.6975194e-38 337 176
0.019598758 0.62099999 0.069684476 1.7434367e-38 338 176
0.020687578 0.62099999 0.069684476 1.7065943e-38 339 176
0.021776399 0.62099999 0.069684476 1.7064861e-38 340 176
0.0228284 0.62 0.069572262 1.6788276e-38 341 176
0.023915466 0.62 0.069572262 1.6696432e-38 342 176
0.025002534 0.62 0.069572262 1.6512041e-38 343 176
0.026089599 0.62 0.069572262 1.6602073e-38 344 176
0.027176665 0.62 0.069572262 1.6509517e-38 345 176
0.028263735 0.62 0.069572262 1.6416958e-38 346 176
0.029350799 0.62 0.069572262 1.6140013e-38 347 176
0.030437866 0.62 0.069572262 1.6505907e-38 348 176
0.03152493 0.62 0.069572262 1.5583952e-38 349 176
0.032664597 0.62099999 0.069684476 1.5027888e-38 350 176
0.033753417 0.62099999 0.069684476 1.2815193e-38 351 176
0.034898344 0.62199998 0.069796689 1.0788684e-38 352 176
0.035988916 0.62199998 0.069796689 8.7603799e-39 353 176
0.01422304 0.62400001 0.068927035 1.0616579e-38 333 177
0.015292573 0.62300003 0.06881658 1.383911e-38 334 177
0.0163849 0.62300003 0.06881658 1.5037652e-38 335 177
0.017449172 0.62199998 0.06870611 1.5683374e-38 336 177
0.018539745 0.62199998 0.06870611 1.6328744e-38 337 177
0.019598758 0.62099999 0.068595663 1.7248534e-38 338 177
0.020687578 0.62099999 0.068595663 1.7156338e-38 339 177
0.021776399 0.62099999 0.068595663 1.7340001e-38 340 177
0.022865219 0.62099999 0.068595663 1.7063774e-38 341 177
0.023954039 0.62099999 0.068595663 1.6970492e-38 342 177
0.025002534 0.62 0.0684852 1.6694266e-38 343 177
0.026089599 0.62 0.0684852 1.6784296e-38 344 177
0.027176665 0.62 0.0684852 1.6507709e-38 345 177
0.028263735 0.62 0.0684852 1.641299e-38 346 177
0.029350799 0.62 0.0684852 1.5767621e-38 347 177
0.030437866 0.62 0.0684852 1.4752746e-38 348 177
0.03152493 0.62 0.0684852 1.3001029e-38 349 177
0.032664597 0.62099999 0.068595663 1.0695419e-38 350 177
0.01531712 0.62400001 0.067832954 8.7647562e-39 334 178
0.0163849 0.62300003 0.067724258 9.1335401e-39 335 178
0.017477227 0.62300003 0.067724258 9.8714582e-39 336 178
0.018569553 0.62300003 0.067724258 1.0885609e-38 337 178
0.019630319 0.62199998 0.067615546 1.162424e-38 338 178
0.020720892 0.62199998 0.067615546 1.2546557e-38 339 178
0.021811465 0.62199998 0.067615546 1.3281957e-38 340 178
0.022865219 0.62099999 0.067506835 1.3189761e-38 341 178
0.023954039 0.62099999 0.067506835 1.2912445e-38 342 178
0.02504286 0.62099999 0.067506835 1.2359273e-38 343 178
0.026131678 0.62099999 0.067506835 1.2448578e-38 344 178
0.027176665 0.62 0.067398131 1.1803208e-38 345 178
0.028263735 0.62 0.067398131 1.1155318e-38 346 178
0.029350799 0.62 0.067398131 9.8645793e-39 347 178
0.030437866 0.62 0.067398131 9.3096132e-39 348 178
0.03152493 0.62 0.067398131 8.7564394e-39 349 178
0.017477227 0.62300003 0.066631928 5.6304425e-39 336 179
0.018569553 0.62300003 0.066631928 6.8286269e-39 337 179
0.019630319 0.62199998 0.066524968 7.3839545e-39 338 179
0.020720892 0.62199998 0.066524968 8.3055506e-39 339 179
0.021811465 0.62199998 0.066524968 9.0424024e-39 340 179
0.022902038 0.62199998 0.066524968 9.1345981e-39 341 179
0.023954039 0.62099999 0.066418022 9.4100905e-39 342 179
0.02504286 0.62099999 0.066418022 8.7647211e-39 343 179
0.026131678 0.62099999 0.066418022 8.8550965e-39 344 179
0.027220499 0.62099999 0.066418022 7.6565533e-39 345 179
0.028309319 0.62099999 0.066418022 7.4692852e-39 346 179
0.029350799 0.62 0.066311061 6.3632963e-39 347 179
0.030437866 0.62 0.066311061 6.8232179e-39 348 179
0.019661881 0.62300003 0.065539598 1.0145855e-38 338 180
0.020754207 0.62300003 0.065539598 1.0145855e-38 339 180
0.021811465 0.62199998 0.065434396 9.4097374e-39 340 180
0.022902038 0.62199998 0.065434396 9.2253461e-39 341 180
0.023992613 0.62199998 0.065434396 9.1338666e-39 342 180
0.025083186 0.62199998 0.065434396 9.3182578e-39 343 180
0.026173757 0.62199998 0.065434396 9.7792234e-39 344 180
0.027220499 0.62099999 0.065329194 1.005581e-38 345 180
0.028309319 0.62099999 0.065329194 1.1433347e-38 346 180
0.02939814 0.62099999 0.065329194 1.2447859e-38 347 180
0.03048696 0.62099999 0.065329194 1.3000675e-38 348 180
0.020787518 0.62400001 0.06455072 1.3096111e-38 339 181
0.021846535 0.62300003 0.064447269 1.2268875e-38 340 181
0.022938859 0.62300003 0.064447269 1.217668e-38 341 181
0.023992613 0.62199998 0.064343818 1.2359629e-38 342 181
0.025083186 0.62199998 0.064343818 1.2359629e-38 343 181
0.026173757 0.62199998 0.064343818 1.2818449e-38 344 181
0.027264331 0.62199998 0.064343818 1.318759e-38 345 181
0.028354904 0.62199998 0.064343818 1.4015906e-38 346 181
0.029445477 0.62199998 0.064343818 1.4199937e-38 347 181
0.022938859 0.62300003 0.063354947 1.5587195e-38 341 182
0.024031186 0.62300003 0.063354947 1.5769786e-38 342 182
0.025123514 0.62300003 0.063354947 1.5769786e-38 343 182
0.02621584 0.62300003 0.063354947 1.595238e-38 344 182
0.027264331 0.62199998 0.063253254 1.6044577e-38 345 182
0.028354904 0.62199998 0.063253254 1.6137129e-38 346 182
-0.0023564799 0.67199999 -0.01413888 1.0154308e-38 318 252
-0.0011764866 0.671 -0.01411784 9.6936895e-39 319 252
0 0.671 -0.01411784 8.5880734e-39 320 252
0.053573098 0.67900002 -0.01428616 8.3100867e-39 365 252
0.054682959 0.67799997 -0.014265119 9.0426547e-39 366 252
0.055871718 0.67799997 -0.014265119 1.4297806e-38 367 252
-0.0023564799 0.67199999 -0.01531712 9.8816681e-39 318 253
-0.0011764866 0.671 -0.015294326 9.6972754e-39 319 253
0 0.671 -0.015294326 1.0154661e-38 320 253
0.0011764866 0.671 -0.015294326 9.6936839e-39 321 253
0.052074 0.67500001 -0.0153855 9.138013e-39 364 253
0.053257499 0.67500001 -0.0153855 8.4926436e-39 365 253
0.054441001 0.67500001 -0.0153855 8.858241e-39 366 253
0.055871718 0.67799997 -0.015453878 1.4850957e-38 367 253
-0.0023564799 0.67199999 -0.01649536 1.0432661e-38 318 254
-0.0011782399 0.67199999 -0.01649536 1.024791e-38 319 254
0 0.671 -0.016470812 9.9734784e-39 320 254
0.0011764866 0.671 -0.016470812 9.9734784e-39 321 254
0.0023529732 0.671 -0.016470812 9.2362861e-39 322 254
0.0046849065 0.66799998 -0.016397171 8.7771408e-39 324 254
0.0058473665 0.667 -0.016372627 9.1455632e-39 325 254
0.0070063197 0.66600001 -0.016348081 1.0155817e-38 326 254
0.0081740404 0.66600001 -0.016348081 1.0340208e-38 327 254
0.0092996797 0.66299999 -0.016274439 1.0154413e-38 328 254
0.01046214 0.66299999 -0.016274439 1.0061858e-38 329 254
0.011607066 0.662 -0.016249891 9.7856469e-39 330 254
0.012767773 0.662 -0.016249891 9.6934513e-39 331 254
0.01392848 0.662 -0.016249891 8.2222799e-39 332 254
0.015089186 0.662 -0.016249891 7.3925192e-39 333 254
0.016249891 0.662 -0.016249891 7.5747469e-39 334 254
0.017410601 0.662 -0.016249891 7.0215731e-39 335 254
0.018571306 0.662 -0.016249891 5.4592696e-39 336 254
0.019732011 0.662 -0.016249891 5.9198877e-39 337 254
0.020892721 0.662 -0.016249891 6.8411083e-39 338 254
0.022053426 0.662 -0.016249891 6.4723272e-39 339 254
0.023214132 0.662 -0.016249891 6.1964619e-39 340 254
0.047129598 0.67199999 -0.01649536 6.933231e-39 360 254
0.04830784 0.67199999 -0.01649536 7.1172622e-39 361 254
0.049486078 0.67199999 -0.01649536 7.8523105e-39 362 254
0.050664317 0.67199999 -0.01649536 8.0367017e-39 363 254
0.051996857 0.67400002 -0.016544454 8.5877259e-39 364 254
0.053178601 0.67400002 -0.016544454 8.1267492e-39 365 254
0.054441001 0.67500001 -0.016569 9.4085463e-39 366 254
0.0556245 0.67500001 -0.016569 1.567749e-38 367 254
-0.0023634934 0.67400002 -0.0177262 1.0340476e-38 318 255
-0.0011782399 0.67199999 -0.017673599 1.024828e-38 319 255
0 0.671 -0.0176473 9.7908836e-39 320 255
0.0011764866 0.671 -0.0176473 9.6986894e-39 321 255
0.0023529732 0.671 -0.0176473 9.6983306e-39 322 255
0.0035294599 0.671 -0.0176473 9.7908836e-39 323 255
0.0046778931 0.667 -0.0175421 1.024973e-38 324 255
0.0058473665 0.667 -0.0175421 1.024973e-38 325 255
0.0069852793 0.66399997 -0.0174632 1.0524933e-38 326 255
0.0081494926 0.66399997 -0.0174632 1.0524933e-38 327 255
0.0092996797 0.66299999 -0.017436899 1.0522466e-38 328 255
0.01046214 0.66299999 -0.017436899 1.0430271e-38 329 255
0.011607066 0.662 -0.017410601 1.079836e-38 330 255
0.012767773 0.662 -0.017410601 1.1351175e-38 331 255
0.01392848 0.662 -0.017410601 1.089129e-38 332 255
0.015089186 0.662 -0.017410601 1.0614704e-38 333 255
0.016249891 0.662 -0.017410601 1.1993323e-38 334 255
0.0173843 0.66100001 -0.0173843 1.1071366e-38 335 255
0.018543253 0.66100001 -0.0173843 8.5867534e-39 336 255
0.019702207 0.66100001 -0.0173843 8.8629802e-39 337 255
0.020892721 0.662 -0.017410601 8.6825266e-39 338 255
0.022053426 0.662 -0.017410601 8.9587533e-39 339 255
0.023214132 0.662 -0.017410601 9.6941505e-39 340 255
0.032499783 0.662 -0.017410601 8.4044137e-39 348 255
0.033609647 0.66100001 -0.0173843 8.4044137e-39 349 255
0.0347686 0.66100001 -0.0173843 8.3125684e-39 350 255
0.045951359 0.67199999 -0.017673599 6.7509852e-39 359 255
0.047129598 0.67199999 -0.017673599 6.9346562e-39 360 255
0.04830784 0.67199999 -0.017673599 7.1190446e-39 361 255
0.049486078 0.67199999 -0.017673599 7.8523077e-39 362 255
0.050664317 0.67199999 -0.017673599 8.0370577e-39 363 255
0.051996857 0.67400002 -0.0177262 8.4040577e-39 364 255
0.053178601 0.67400002 -0.0177262 8.3118621e-39 365 255
0.054441001 0.67500001 -0.0177525 9.8691685e-39 366 255
0.0556245 0.67500001 -0.0177525 1.595408e-38 367 255
-0.0023634934 0.67400002 -0.018907947 1.043338e-38 318 256
-0.0011782399 0.67199999 -0.018851839 1.0248629e-38 319 256
0 0.67199999 -0.018851839 9.8823603e-39 320 256
0.0011764866 0.671 -0.018823786 9.7901661e-39 321 256
0.0023529732 0.671 -0.018823786 1.0248985e-38 322 256
0.0035241998 0.67000002 -0.018795732 1.0433378e-38 323 256
0.0046778931 0.667 -0.018711573 1.1075544e-38 324 256
0.0058473665 0.667 -0.018711573 1.1536523e-38 325 256
0.0069852793 0.66399997 -0.018627413 1.2544975e-38 326 256
0.0081494926 0.66399997 -0.018627413 1.2176192e-38 327 256
0.0092996797 0.66299999 -0.018599359 1.1348617e-38 328 256
0.01046214 0.66299999 -0.018599359 1.1348617e-38 329 256
0.011607066 0.662 -0.018571306 1.1166038e-38 330 256
0.012767773 0.662 -0.018571306 1.1350429e-38 331 256
0.01392848 0.662 -0.018571306 1.0799429e-38 332 256
0.015089186 0.662 -0.018571306 1.0707233e-38 333 256
0.016249891 0.662 -0.018571306 1.1350097e-38 334 256
0.0173843 0.66100001 -0.018543253 1.0428501e-38 335 256
0.018543253 0.66100001 -0.018543253 7.668746e-39 336 256
0.019702207 0.66100001 -0.018543253 8.5903435e-39 337 256
0.020892721 0.662 -0.018571306 9.2360493e-39 338 256
0.022053426 0.662 -0.018571306 9.1438536e-39 339 256
0.023073865 0.65799999 -0.018459093 9.6026612e-39 340 256
0.02422756 0.65799999 -0.018459093 9.6948568e-39 341 256
0.025496973 0.66100001 -0.018543253 9.6945009e-39 342 256
0.026655925 0.66100001 -0.018543253 9.3260785e-39 343 256
0.02781488 0.66100001 -0.018543253 7.7597995e-39 344 256
0.028973831 0.66100001 -0.018543253 7.4832127e-39 345 256
0.030178372 0.662 -0.018571306 7.7604876e-39 346 256
0.031339079 0.662 -0.018571306 8.0370731e-39 347 256
0.032499783 0.662 -0.018571306 8.3129313e-39 348 256
0.033609647 0.66100001 -0.018543253 8.3129313e-39 349 256
0.0347686 0.66100001 -0.018543253 8.4965841e-39 350 256
0.035981905 0.662 -0.018571306 8.3125529e-39 351 256
0.037142612 0.662 -0.018571306 8.3111208e-39 352 256
0.043530006 0.671 -0.018823786 7.4849517e-39 357 256
0.044706494 0.671 -0.018823786 7.1186859e-39 358 256
0.045882981 0.671 -0.018823786 7.2108801e-39 359 256
0.047129598 0.67199999 -0.018851839 7.4860279e-39 360 256
0.04830784 0.67199999 -0.018851839 7.4860279e-39 361 256
0.049486078 0.67199999 -0.018851839 7.944862e-39 362 256
0.050664317 0.67199999 -0.018851839 8.1292533e-39 363 256
0.051996857 0.67400002 -0.018907947 8.6795698e-39 364 256
0.053178601 0.67400002 -0.018907947 8.5873728e-39 365 256
0.054360349 0.67400002 -0.018907947 1.0881525e-38 366 256
0.055542093 0.67400002 -0.018907947 1.668985e-38 367 256
-0.0047901068 0.68300003 -0.020357953 1.1167387e-38 316 257
-0.0035925799 0.68300003 -0.020357953 1.0798964e-38 317 257
-0.0023634934 0.67400002 -0.020089693 1.0616337e-38 318 257
-0.0011782399 0.67199999 -0.020030079 1.0340109e-38 319 257
0 0.67199999 -0.020030079 9.8820072e-39 320 257
0.0011764866 0.671 -0.020000271 1.006604e-38 321 257
0.0023529732 0.671 -0.020000271 1.0157535e-38 322 257
0.0035241998 0.67000002 -0.019970467 1.0434122e-38 323 257
0.0046849065 0.66799998 -0.019910853 1.1075921e-38 324 257
0.0058473665 0.667 -0.019881045 1.172129e-38 325 257
0.0070063197 0.66600001 -0.019851239 1.3004501e-38 326 257
0.0081740404 0.66600001 -0.019851239 1.2636079e-38 327 257
0.0092996797 0.66299999 -0.019761819 1.2084696e-38 328 257
0.01046214 0.66299999 -0.019761819 1.180811e-38 329 257
0.0116246 0.66299999 -0.019761819 1.1258161e-38 330 257
0.012787059 0.66299999 -0.019761819 1.1442192e-38 331 257
0.01392848 0.662 -0.019732011 1.1165981e-38 332 257
0.015089186 0.662 -0.019732011 1.1258176e-38 333 257
0.016249891 0.662 -0.019732011 1.0981612e-38 334 257
0.0173843 0.66100001 -0.019702207 1.0244047e-38 335 257
0.018543253 0.66100001 -0.019702207 8.5870617e-39 336 257
0.019702207 0.66100001 -0.019702207 9.6934093e-39 337 257
0.02086116 0.66100001 -0.019702207 1.0154394e-38 338 257
0.022020113 0.66100001 -0.019702207 9.7852518e-39 339 257
0.023073865 0.65799999 -0.019612785 9.2327968e-39 340 257
0.02422756 0.65799999 -0.019612785 9.5097439e-39 341 257
0.025419824 0.65899998 -0.019642593 9.7848888e-39 342 257
0.026655925 0.66100001 -0.019702207 9.5079418e-39 343 257
0.02781488 0.66100001 -0.019702207 8.1285667e-39 344 257
0.028973831 0.66100001 -0.019702207 7.6675885e-39 345 257
0.030178372 0.662 -0.019732011 8.2203671e-39 346 257
0.031339079 0.662 -0.019732011 8.4973141e-39 347 257
0.032499783 0.662 -0.019732011 8.6813256e-39 348 257
0.033660494 0.662 -0.019732011 8.6813256e-39 349 257
0.034821201 0.662 -0.019732011 9.049025e-39 350 257
0.035981905 0.662 -0.019732011 9.049025e-39 351 257
0.037142612 0.662 -0.019732011 9.3220259e-39 352 257
0.038419038 0.66399997 -0.019791625 8.768855e-39 353 257
0.039583251 0.66399997 -0.019791625 8.3086013e-39 354 257
0.040870197 0.66600001 -0.019851239 8.4929911e-39 355 257
0.042101037 0.667 -0.019881045 7.7615344e-39 356 257
0.043465134 0.67000002 -0.019970467 7.7615344e-39 357 257
0.044706494 0.671 -0.020000271 7.3027156e-39 358 257
0.045882981 0.671 -0.020000271 7.4867453e-39 359 257
0.047129598 0.67199999 -0.020030079 7.7611756e-39 360 257
0.04830784 0.67199999 -0.020030079 7.7611756e-39 361 257
0.049486078 0.67199999 -0.020030079 7.9448564e-39 362 257
0.050664317 0.67199999 -0.020030079 8.1296064e-39 363 257
