# .PCD v.7 - Point Cloud Data file format
FIELDS x y z rgb imX imY
SIZE 4 4 4 4 4 4
TYPE F F F F F F
COUNT 1 1 1 1 1 1
WIDTH 837
HEIGHT 1
VIEWPOINT 0 0 0 1 0 0 0
POINTS 837
DATA ascii
0.0011782399 0.67199999 0.0058911997 9.6754838e-39 321 235
0.0023634934 0.67400002 0.0059087332 9.3059979e-39 322 235
0.0035505001 0.67500001 0.0059174998 8.9372154e-39 323 235
0.0047339997 0.67500001 0.0059174998 8.4776791e-39 324 235
0.0059262668 0.676 0.0059262668 8.5698748e-39 325 235
0.0071325595 0.67799997 0.0059437994 8.4798273e-39 326 235
0.0083335936 0.67900002 0.0059525664 9.1251967e-39 327 235
0.0095381327 0.68000001 0.0059613334 9.4939624e-39 328 235
0.01077774 0.68300003 0.0059876335 8.203225e-39 329 235
0.0119928 0.68400002 0.0059964 7.6500485e-39 330 235
0.013230653 0.68599999 0.0060139326 7.6500485e-39 331 235
0.01443344 0.68599999 0.0060139326 7.0053979e-39 332 235
0.015659019 0.68699998 0.0060226996 7.3745406e-39 333 235
0.016888106 0.68800002 0.0060314666 1.2446748e-38 334 235
-0.044308487 0.68300003 0.0047901068 1.1801762e-38 283 236
-0.043047838 0.68199998 0.004783093 1.1802466e-38 284 236
-0.041852064 0.68199998 0.004783093 1.152588e-38 285 236
-0.040537067 0.68000001 0.0047690663 1.0237578e-38 286 236
-0.039344799 0.68000001 0.0047690663 7.6561007e-39 287 236
-0.038096428 0.67900002 0.0047620535 7.1093588e-39 288 236
-0.036851559 0.67799997 0.0047550397 7.3859415e-39 289 236
-0.035557602 0.676 0.0047410131 6.7441692e-39 290 236
-0.034372345 0.676 0.0047410131 6.7441692e-39 291 236
-0.033137999 0.67500001 0.0047339997 6.7430931e-39 292 236
-0.031954501 0.67500001 0.0047339997 6.7430931e-39 293 236
-0.030771 0.67500001 0.0047339997 6.7413092e-39 294 236
-0.029543666 0.67400002 0.0047269869 7.57143e-39 295 236
-0.02827776 0.67199999 0.0047129598 8.858283e-39 296 236
-0.027099518 0.67199999 0.0047129598 9.8724335e-39 297 236
-0.025882706 0.671 0.0047059464 1.069793e-38 298 236
-0.024706218 0.671 0.0047059464 9.4997456e-39 299 236
-0.023529733 0.671 0.0047059464 8.2079516e-39 300 236
-0.022353247 0.671 0.0047059464 7.4703852e-39 301 236
-0.021176759 0.671 0.0047059464 7.1023285e-39 302 236
-0.020000271 0.671 0.0047059464 7.1023285e-39 303 236
-0.018823786 0.671 0.0047059464 6.8275339e-39 304 236
-0.0176473 0.671 0.0047059464 7.0119252e-39 305 236
-0.016470812 0.671 0.0047059464 7.1044781e-39 306 236
-0.015294326 0.671 0.0047059464 7.1044781e-39 307 236
-0.01411784 0.671 0.0047059464 7.1044753e-39 308 236
-0.012941353 0.671 0.0047059464 7.3810608e-39 309 236
-0.011764866 0.671 0.0047059464 8.942623e-39 310 236
-0.01058838 0.671 0.0047059464 9.1270142e-39 311 236
-0.0094118929 0.671 0.0047059464 9.4028752e-39 312 236
-0.0082354061 0.671 0.0047059464 9.4028752e-39 313 236
-0.0070589199 0.671 0.0047059464 9.3117586e-39 314 236
-0.0058824331 0.671 0.0047059464 9.4039542e-39 315 236
-0.0047129598 0.67199999 0.0047129598 9.4043102e-39 316 236
-0.00353472 0.67199999 0.0047129598 9.3121145e-39 317 236
-0.0023564799 0.67199999 0.0047129598 9.8631205e-39 318 236
-0.0011782399 0.67199999 0.0047129598 1.0139349e-38 319 236
0 0.67199999 0.0047129598 1.0781478e-38 320 236
0.0011817467 0.67400002 0.0047269869 1.0136109e-38 321 236
0.0023634934 0.67400002 0.0047269869 9.2130792e-39 322 236
0.0035505001 0.67500001 0.0047339997 8.9361336e-39 323 236
0.0047410131 0.676 0.0047410131 8.5691559e-39 324 236
0.0059437994 0.67799997 0.0047550397 8.753187e-39 325 236
0.0071430802 0.67900002 0.0047620535 8.6634983e-39 326 236
0.0083458666 0.68000001 0.0047690663 9.3088677e-39 327 236
0.009566186 0.68199998 0.004783093 9.1255499e-39 328 236
0.01077774 0.68300003 0.0047901068 8.2957892e-39 329 236
0.0119928 0.68400002 0.0047971201 7.9255647e-39 330 236
0.013230653 0.68599999 0.0048111463 8.109956e-39 331 236
0.014454478 0.68699998 0.0048181596 7.9255591e-39 332 236
0.015681813 0.68800002 0.0048251734 9.0319053e-39 333 236
0.016888106 0.68800002 0.0048251734 1.2721903e-38 334 236
-0.04437336 0.68400002 0.00359784 1.0144046e-38 283 237
-0.043047838 0.68199998 0.00358732 1.0788687e-38 284 237
-0.041852064 0.68199998 0.00358732 1.1341502e-38 285 237
-0.040656291 0.68199998 0.00358732 1.1616942e-38 286 237
-0.039344799 0.68000001 0.0035767998 9.680834e-39 287 237
-0.038152531 0.68000001 0.0035767998 7.9383894e-39 288 237
-0.036851559 0.67799997 0.0035662798 7.477777e-39 289 237
-0.0356628 0.67799997 0.0035662798 7.1111525e-39 290 237
-0.034372345 0.676 0.0035557596 6.926764e-39 291 237
-0.033187091 0.676 0.0035557596 6.7427343e-39 292 237
-0.031954501 0.67500001 0.0035505001 6.8349285e-39 293 237
-0.030771 0.67500001 0.0035505001 7.200149e-39 294 237
-0.029543666 0.67400002 0.00354524 8.675279e-39 295 237
-0.02836192 0.67400002 0.00354524 1.0422027e-38 296 237
-0.027099518 0.67199999 0.00353472 1.0975201e-38 297 237
-0.025921278 0.67199999 0.00353472 1.1341502e-38 298 237
-0.024706218 0.671 0.0035294599 9.8667317e-39 299 237
-0.023529733 0.671 0.0035294599 7.8406096e-39 300 237
-0.022353247 0.671 0.0035294599 6.5498708e-39 301 237
-0.021208318 0.67199999 0.00353472 7.1923732e-39 302 237
-0.020000271 0.671 0.0035294599 7.1001775e-39 303 237
-0.018823786 0.671 0.0035294599 7.1001747e-39 304 237
-0.0176473 0.671 0.0035294599 7.1923704e-39 305 237
-0.016470812 0.671 0.0035294599 7.5597109e-39 306 237
-0.015294326 0.671 0.0035294599 7.9284921e-39 307 237
-0.01411784 0.671 0.0035294599 7.7462504e-39 308 237
-0.012941353 0.671 0.0035294599 8.2072285e-39 309 237
-0.011764866 0.671 0.0035294599 9.9542582e-39 310 237
-0.01058838 0.671 0.0035294599 9.9542582e-39 311 237
-0.0094118929 0.671 0.0035294599 9.5869008e-39 312 237
-0.0082354061 0.671 0.0035294599 9.7712906e-39 313 237
-0.0070589199 0.671 0.0035294599 9.4947079e-39 314 237
-0.0058824331 0.671 0.0035294599 9.2177623e-39 315 237
-0.0047129598 0.67199999 0.00353472 8.8489882e-39 316 237
-0.00353472 0.67199999 0.00353472 8.479847e-39 317 237
-0.0023564799 0.67199999 0.00353472 8.2950886e-39 318 237
-0.0011782399 0.67199999 0.00353472 8.2950886e-39 319 237
0 0.67400002 0.00354524 8.1099714e-39 320 237
0.0011817467 0.67400002 0.00354524 8.1099714e-39 321 237
0.0023669999 0.67500001 0.0035505001 8.1088994e-39 322 237
0.0035557596 0.676 0.0035557596 8.2010951e-39 323 237
0.0047410131 0.676 0.0035557596 8.3854863e-39 324 237
0.0059437994 0.67799997 0.0035662798 8.5698776e-39 325 237
0.0071430802 0.67900002 0.0035715401 8.8471735e-39 326 237
0.0083458666 0.68000001 0.0035767998 9.3999886e-39 327 237
0.009566186 0.68199998 0.00358732 9.3088649e-39 328 237
0.01077774 0.68300003 0.0035925799 8.5712999e-39 329 237
0.012027865 0.68599999 0.00360836 8.660976e-39 330 237
0.013249939 0.68699998 0.0036136196 9.2141484e-39 331 237
0.014475521 0.68800002 0.0036188802 9.5832882e-39 332 237
0.015727401 0.69 0.0036293997 1.0228658e-38 333 237
0.0169372 0.69 0.0036293997 1.2537158e-38 334 237
-0.044503104 0.68599999 0.0024055731 9.2220965e-39 283 238
-0.043110959 0.68300003 0.0023950534 1.0051494e-38 284 238
-0.041852064 0.68199998 0.0023915465 1.1342233e-38 285 238
-0.040656291 0.68199998 0.0023915465 1.2170507e-38 286 238
-0.039460517 0.68199998 0.0023915465 1.0695377e-38 287 238
-0.038152531 0.68000001 0.0023845332 9.2255563e-39 288 238
-0.036905911 0.67900002 0.0023810267 7.9348175e-39 289 238
-0.0356628 0.67799997 0.0023775198 6.9278402e-39 290 238
-0.034474038 0.67799997 0.0023775198 6.9278402e-39 291 238
-0.033187091 0.676 0.0023705065 6.9264053e-39 292 238
-0.032001842 0.676 0.0023705065 7.110435e-39 293 238
-0.030771 0.67500001 0.0023669999 7.3852745e-39 294 238
-0.029543666 0.67400002 0.0023634934 9.3213827e-39 295 238
-0.02836192 0.67400002 0.0023634934 1.1434754e-38 296 238
-0.027099518 0.67199999 0.0023564799 1.1434754e-38 297 238
-0.025921278 0.67199999 0.0023564799 1.1524451e-38 298 238
-0.024706218 0.671 0.0023529732 1.0233712e-38 299 238
-0.023529733 0.671 0.0023529732 8.1157546e-39 300 238
-0.022353247 0.671 0.0023529732 6.7328201e-39 301 238
-0.021208318 0.67199999 0.0023564799 7.2816947e-39 302 238
-0.020030079 0.67199999 0.0023564799 7.1894991e-39 303 238
-0.018851839 0.67199999 0.0023564799 7.0051106e-39 304 238
-0.0176473 0.671 0.0023529732 7.1895019e-39 305 238
-0.016470812 0.671 0.0023529732 7.1887802e-39 306 238
-0.015294326 0.671 0.0023529732 7.741954e-39 307 238
-0.01411784 0.671 0.0023529732 7.4693132e-39 308 238
-0.012941353 0.671 0.0023529732 7.9302913e-39 309 238
-0.011764866 0.671 0.0023529732 9.0337494e-39 310 238
-0.01058838 0.671 0.0023529732 9.125945e-39 311 238
-0.0094118929 0.671 0.0023529732 9.3092419e-39 312 238
-0.0082354061 0.671 0.0023529732 9.3092419e-39 313 238
-0.0070694401 0.67199999 0.0023564799 9.3985592e-39 314 238
-0.0058911997 0.67199999 0.0023564799 9.1223325e-39 315 238
-0.0047129598 0.67199999 0.0023564799 8.4773288e-39 316 238
-0.00353472 0.67199999 0.0023564799 8.0163507e-39 317 238
-0.0023634934 0.67400002 0.0023634934 7.6490129e-39 318 238
-0.0011817467 0.67400002 0.0023634934 7.7412085e-39 319 238
0 0.67500001 0.0023669999 7.2784325e-39 320 238
0.0011834999 0.67500001 0.0023669999 7.4631825e-39 321 238
0.0023669999 0.67500001 0.0023669999 7.4656978e-39 322 238
0.0035557596 0.676 0.0023705065 7.8344803e-39 323 238
0.0047550397 0.67799997 0.0023775198 8.4776819e-39 324 238
0.0059525664 0.67900002 0.0023810267 8.4776819e-39 325 238
0.0071535995 0.68000001 0.0023845332 8.6631452e-39 326 238
0.0083704125 0.68199998 0.0023915465 9.216319e-39 327 238
0.009566186 0.68199998 0.0023915465 9.4003417e-39 328 238
0.01079352 0.68400002 0.0023985601 9.1237548e-39 329 238
0.012027865 0.68599999 0.0024055731 9.2152316e-39 330 238
0.013269227 0.68800002 0.0024125867 9.860601e-39 331 238
0.014517599 0.69 0.0024195998 1.0228307e-38 332 238
0.015727401 0.69 0.0024195998 1.0320503e-38 333 238
0.0169372 0.69 0.0024195998 1.2444609e-38 334 238
-0.044503104 0.68599999 0.0012027866 8.3037402e-39 283 239
-0.043110959 0.68300003 0.0011975267 1.0511751e-38 284 239
-0.041913435 0.68300003 0.0011975267 1.1433347e-38 285 239
-0.040656291 0.68199998 0.0011957732 1.1986854e-38 286 239
-0.039460517 0.68199998 0.0011957732 1.1526236e-38 287 239
-0.038152531 0.68000001 0.0011922666 1.0604566e-38 288 239
-0.036905911 0.67900002 0.0011905134 8.6684575e-39 289 239
-0.035715401 0.67900002 0.0011905134 6.65341e-39 290 239
-0.034474038 0.67799997 0.0011887599 6.5612157e-39 291 239
-0.033187091 0.676 0.0011852533 6.8338524e-39 292 239
-0.032001842 0.676 0.0011852533 6.9260466e-39 293 239
-0.030771 0.67500001 0.0011834999 7.4749562e-39 294 239
-0.0295875 0.67500001 0.0011834999 9.5954557e-39 295 239
-0.02836192 0.67400002 0.0011817467 1.1342561e-38 296 239
-0.027180174 0.67400002 0.0011817467 1.1158528e-38 297 239
-0.025921278 0.67199999 0.0011782399 1.1065997e-38 298 239
-0.024743039 0.67199999 0.0011782399 9.7752577e-39 299 239
-0.023529733 0.671 0.0011764866 8.2079516e-39 300 239
-0.022353247 0.671 0.0011764866 6.7328201e-39 301 239
-0.021208318 0.67199999 0.0011782399 7.3745994e-39 302 239
-0.020030079 0.67199999 0.0011782399 7.3745994e-39 303 239
-0.018851839 0.67199999 0.0011782399 7.007612e-39 304 239
-0.017673599 0.67199999 0.0011782399 7.0998076e-39 305 239
-0.01649536 0.67199999 0.0011782399 7.2831198e-39 306 239
-0.01531712 0.67199999 0.0011782399 7.3753169e-39 307 239
-0.01413888 0.67199999 0.0011782399 7.4682342e-39 308 239
-0.012941353 0.671 0.0011764866 7.1920074e-39 309 239
-0.011764866 0.671 0.0011764866 7.0094084e-39 310 239
-0.010604159 0.67199999 0.0011782399 7.7469735e-39 311 239
-0.0094259195 0.67199999 0.0011782399 8.7585904e-39 312 239
-0.00824768 0.67199999 0.0011782399 8.6663948e-39 313 239
-0.0070694401 0.67199999 0.0011782399 9.2181182e-39 314 239
-0.0058911997 0.67199999 0.0011782399 9.4947051e-39 315 239
-0.0047129598 0.67199999 0.0011782399 9.8613325e-39 316 239
-0.00353472 0.67199999 0.0011782399 9.8613325e-39 317 239
-0.0023634934 0.67400002 0.0011817467 1.0138279e-38 318 239
-0.0011834999 0.67500001 0.0011834999 9.0319319e-39 319 239
0 0.67500001 0.0011834999 7.2852568e-39 320 239
0.0011834999 0.67500001 0.0011834999 6.5476918e-39 321 239
0.0023705065 0.676 0.0011852533 7.7415588e-39 322 239
0.0035662798 0.67799997 0.0011887599 8.0185059e-39 323 239
0.0047620535 0.67900002 0.0011905134 8.4773162e-39 324 239
0.0059613334 0.68000001 0.0011922666 8.5695118e-39 325 239
0.0071535995 0.68000001 0.0011922666 8.7528213e-39 326 239
0.0083704125 0.68199998 0.0011957732 9.3059951e-39 327 239
0.009566186 0.68199998 0.0011957732 9.4925401e-39 328 239
0.01079352 0.68400002 0.00119928 9.4925401e-39 329 239
0.012027865 0.68599999 0.0012027866 1.0504887e-38 330 239
0.013269227 0.68800002 0.0012062934 1.0597084e-38 331 239
0.014517599 0.69 0.0012097999 1.0229379e-38 332 239
0.015727401 0.69 0.0012097999 9.8605982e-39 333 239
0.0169372 0.69 0.0012097999 1.1984706e-38 334 239
0.0181733 0.69099998 0.0012115532 1.3459836e-38 335 239
-0.044567976 0.68699998 -0 6.7353355e-39 283 240
-0.043174081 0.68400002 -0 7.5690646e-39 284 240
-0.041913435 0.68300003 -0 8.5832165e-39 285 240
-0.040715907 0.68300003 -0 1.1250406e-38 286 240
-0.039460517 0.68199998 -0 1.1711386e-38 287 240
-0.038152531 0.68000001 -0 1.0974817e-38 288 240
-0.036960267 0.68000001 -0 9.1305441e-39 289 240
-0.035715401 0.67900002 -0 7.7540066e-39 290 240
-0.034474038 0.67799997 -0 7.3848653e-39 291 240
-0.033285279 0.67799997 -0 7.0168059e-39 292 240
-0.032001842 0.676 -0 7.0168059e-39 293 240
-0.030816587 0.676 -0 7.7526165e-39 294 240
-0.0295875 0.67500001 -0 9.3199422e-39 295 240
-0.028404001 0.67500001 -0 1.1158523e-38 296 240
-0.027180174 0.67400002 -0 1.1158523e-38 297 240
-0.025921278 0.67199999 -0 1.1523733e-38 298 240
-0.024743039 0.67199999 -0 1.0417387e-38 299 240
-0.023564799 0.67199999 -0 8.7593205e-39 300 240
-0.022386558 0.67199999 -0 7.4685817e-39 301 240
-0.021208318 0.67199999 -0 7.8348531e-39 302 240
-0.020030079 0.67199999 -0 7.6504618e-39 303 240
-0.018851839 0.67199999 -0 7.6511779e-39 304 240
-0.017673599 0.67199999 -0 7.6511779e-39 305 240
-0.01649536 0.67199999 -0 7.4678656e-39 306 240
-0.01531712 0.67199999 -0 7.4678656e-39 307 240
-0.01413888 0.67199999 -0 7.3771175e-39 308 240
-0.012960639 0.67199999 -0 7.1927263e-39 309 240
-0.011782399 0.67199999 -0 7.4682342e-39 310 240
-0.010604159 0.67199999 -0 8.2979948e-39 311 240
-0.0094259195 0.67199999 -0 1.0047897e-38 312 240
-0.00824768 0.67199999 -0 9.679116e-39 313 240
-0.0070694401 0.67199999 -0 9.2217154e-39 314 240
-0.0058911997 0.67199999 -0 9.2217154e-39 315 240
-0.0047129598 0.67199999 -0 9.4050136e-39 316 240
-0.00354524 0.67400002 -0 9.6812418e-39 317 240
-0.0023634934 0.67400002 -0 9.86454e-39 318 240
-0.0011834999 0.67500001 -0 9.3113677e-39 319 240
0 0.676 -0 8.1099588e-39 320 240
0.0011852533 0.676 -0 7.8330132e-39 321 240
0.0023775198 0.67799997 -0 7.741912e-39 322 240
0.0035662798 0.67799997 -0 8.018859e-39 323 240
0.0047620535 0.67900002 -0 8.6602725e-39 324 240
0.0059613334 0.68000001 -0 8.8450225e-39 325 240
0.00717464 0.68199998 -0 8.5709496e-39 326 240
0.0083704125 0.68199998 -0 9.0319291e-39 327 240
0.0095802136 0.68300003 -0 9.4943324e-39 328 240
0.01079352 0.68400002 -0 9.8631149e-39 329 240
0.012027865 0.68599999 -0 9.9538686e-39 330 240
0.0133078 0.69 -0 9.7691186e-39 331 240
0.014538639 0.69099998 -0 9.6762083e-39 332 240
0.015750192 0.69099998 -0 9.4914583e-39 333 240
0.016961746 0.69099998 -0 1.198434e-38 334 240
0.0181733 0.69099998 -0 1.3367275e-38 335 240
0.01944096 0.69300002 -0 1.3920814e-38 336 240
-0.046039023 0.69099998 -0.0012115532 6.6406189e-39 282 241
-0.044567976 0.68699998 -0.0012045399 3.4137719e-39 283 241
-0.043174081 0.68400002 -0.00119928 3.0449963e-39 284 241
-0.041974798 0.68400002 -0.00119928 5.8108652e-39 285 241
-0.040715907 0.68300003 -0.0011975267 8.117907e-39 286 241
-0.039460517 0.68199998 -0.0011957732 1.0883776e-38 287 241
-0.038264744 0.68199998 -0.0011957732 1.1709899e-38 288 241
-0.036960267 0.68000001 -0.0011922666 1.0603551e-38 289 241
-0.035767999 0.68000001 -0.0011922666 9.3181499e-39 290 241
-0.034524884 0.67900002 -0.0011905134 8.5802248e-39 291 241
-0.033285279 0.67799997 -0.0011887599 7.1090421e-39 292 241
-0.032001842 0.676 -0.0011852533 8.030997e-39 293 241
-0.030816587 0.676 -0.0011852533 9.4111037e-39 294 241
-0.0295875 0.67500001 -0.0011834999 1.0148669e-38 295 241
-0.028404001 0.67500001 -0.0011834999 1.1066344e-38 296 241
-0.027180174 0.67400002 -0.0011817467 1.1066344e-38 297 241
-0.025998428 0.67400002 -0.0011817467 1.1524098e-38 298 241
-0.024816679 0.67400002 -0.0011817467 1.0510305e-38 299 241
-0.023634933 0.67400002 -0.0011817467 9.3117754e-39 300 241
-0.022453187 0.67400002 -0.0011817467 8.0210366e-39 301 241
-0.021271439 0.67400002 -0.0011817467 7.3774707e-39 302 241
-0.020089693 0.67400002 -0.0011817467 7.3774707e-39 303 241
-0.018907947 0.67400002 -0.0011817467 7.560427e-39 304 241
-0.017673599 0.67199999 -0.0011782399 7.560427e-39 305 241
-0.01649536 0.67199999 -0.0011782399 7.5604298e-39 306 241
-0.01531712 0.67199999 -0.0011782399 7.4682342e-39 307 241
-0.01413888 0.67199999 -0.0011782399 7.3778336e-39 308 241
-0.012960639 0.67199999 -0.0011782399 7.3778336e-39 309 241
-0.011782399 0.67199999 -0.0011782399 7.8366468e-39 310 241
-0.010604159 0.67199999 -0.0011782399 8.6664088e-39 311 241
-0.0094259195 0.67199999 -0.0011782399 8.853307e-39 312 241
-0.00824768 0.67199999 -0.0011782399 8.668557e-39 313 241
-0.0070694401 0.67199999 -0.0011782399 9.1266485e-39 314 241
-0.0058911997 0.67199999 -0.0011782399 9.1266485e-39 315 241
-0.0047269869 0.67400002 -0.0011817467 9.4021564e-39 316 241
-0.00354524 0.67400002 -0.0011817467 9.494352e-39 317 241
-0.0023669999 0.67500001 -0.0011834999 9.4032256e-39 318 241
-0.0011852533 0.676 -0.0011852533 8.8504105e-39 319 241
0 0.676 -0.0011852533 7.742628e-39 320 241
0.0011852533 0.676 -0.0011852533 6.9132275e-39 321 241
0.0023775198 0.67799997 -0.0011887599 8.201451e-39 322 241
0.0035662798 0.67799997 -0.0011887599 8.4776791e-39 323 241
0.0047620535 0.67900002 -0.0011905134 8.7535402e-39 324 241
0.0059613334 0.68000001 -0.0011922666 8.7535402e-39 325 241
0.00717464 0.68199998 -0.0011957732 8.6645787e-39 326 241
0.0083704125 0.68199998 -0.0011957732 9.1251967e-39 327 241
0.0095802136 0.68300003 -0.0011975267 9.9542315e-39 328 241
0.01079352 0.68400002 -0.00119928 9.6780048e-39 329 241
0.012045399 0.68699998 -0.0012045399 9.8591647e-39 330 241
0.0133078 0.69 -0.0012097999 9.4907423e-39 331 241
0.014538639 0.69099998 -0.0012115532 9.1201619e-39 332 241
0.015750192 0.69099998 -0.0012115532 9.488943e-39 333 241
0.016961746 0.69099998 -0.0012115532 1.2167655e-38 334 241
0.0181733 0.69099998 -0.0012115532 1.3734981e-38 335 241
0.01944096 0.69300002 -0.00121506 1.4289601e-38 336 241
-0.046039023 0.69099998 -0.0024231065 6.5469855e-39 282 242
-0.044632856 0.68800002 -0.0024125867 3.5041696e-39 283 242
-0.043300316 0.68599999 -0.0024055731 2.5822203e-39 284 242
-0.041974798 0.68400002 -0.0023985601 3.9651548e-39 285 242
-0.040715907 0.68300003 -0.0023950534 5.9963285e-39 286 242
-0.039518382 0.68300003 -0.0023950534 1.0790501e-38 287 242
-0.038264744 0.68199998 -0.0023915465 1.1710996e-38 288 242
-0.036960267 0.68000001 -0.0023845332 1.1065627e-38 289 242
-0.035767999 0.68000001 -0.0023845332 1.0697892e-38 290 242
-0.034524884 0.67900002 -0.0023810267 1.0052523e-38 291 242
-0.033334374 0.67900002 -0.0023810267 9.5911789e-39 292 242
-0.03209652 0.67799997 -0.0023775198 1.0236548e-38 293 242
-0.030816587 0.676 -0.0023705065 1.0698271e-38 294 242
-0.029631332 0.676 -0.0023705065 1.0974497e-38 295 242
-0.028404001 0.67500001 -0.0023669999 1.1065991e-38 296 242
-0.027220501 0.67500001 -0.0023669999 1.0973794e-38 297 242
-0.026037 0.67500001 -0.0023669999 1.124787e-38 298 242
-0.0248535 0.67500001 -0.0023669999 1.0418109e-38 299 242
-0.023634933 0.67400002 -0.0023634934 9.7720305e-39 300 242
-0.022453187 0.67400002 -0.0023634934 9.2192155e-39 301 242
-0.021303 0.67500001 -0.0023669999 8.0228401e-39 302 242
-0.020119499 0.67500001 -0.0023669999 7.7458945e-39 303 242
-0.018935999 0.67500001 -0.0023669999 7.9284893e-39 304 242
-0.0177262 0.67400002 -0.0023634934 7.8362936e-39 305 242
-0.016544454 0.67400002 -0.0023634934 7.8362936e-39 306 242
-0.01531712 0.67199999 -0.0023564799 7.6522625e-39 307 242
-0.01413888 0.67199999 -0.0023564799 7.6529814e-39 308 242
-0.012960639 0.67199999 -0.0023564799 7.560427e-39 309 242
-0.011782399 0.67199999 -0.0023564799 7.7455301e-39 310 242
-0.010604159 0.67199999 -0.0023564799 7.9299228e-39 311 242
-0.0094259195 0.67199999 -0.0023564799 8.2057838e-39 312 242
-0.00824768 0.67199999 -0.0023564799 8.5745649e-39 313 242
-0.0070904801 0.67400002 -0.0023634934 8.6660417e-39 314 242
-0.0059087332 0.67400002 -0.0023634934 8.6660417e-39 315 242
-0.0047339997 0.67500001 -0.0023669999 9.0340997e-39 316 242
-0.0035505001 0.67500001 -0.0023669999 9.1262954e-39 317 242
-0.0023669999 0.67500001 -0.0023669999 9.4025067e-39 318 242
-0.0011852533 0.676 -0.0023705065 9.2181154e-39 319 242
0 0.676 -0.0023705065 8.9379216e-39 320 242
0.0011887599 0.67799997 -0.0023775198 8.9379216e-39 321 242
0.0023775198 0.67799997 -0.0023775198 8.7549723e-39 322 242
0.0035662798 0.67799997 -0.0023775198 8.6627767e-39 323 242
0.0047690663 0.68000001 -0.0023845332 8.753543e-39 324 242
0.005978866 0.68199998 -0.0023915465 8.753543e-39 325 242
0.00717464 0.68199998 -0.0023915465 8.3872814e-39 326 242
0.0083704125 0.68199998 -0.0023915465 8.9404552e-39 327 242
0.0095802136 0.68300003 -0.0023950534 9.8609695e-39 328 242
0.010825079 0.68599999 -0.0024055731 9.3999914e-39 329 242
0.012045399 0.68699998 -0.0024090798 9.2145253e-39 330 242
0.0133078 0.69 -0.0024195998 8.937937e-39 331 242
0.014538639 0.69099998 -0.0024231065 8.7535402e-39 332 242
0.015795778 0.69300002 -0.00243012 8.8457358e-39 333 242
0.01701084 0.69300002 -0.00243012 1.189107e-38 334 242
0.018225901 0.69300002 -0.00243012 1.3919374e-38 335 242
0.01944096 0.69300002 -0.00243012 1.4843496e-38 336 242
-0.046039023 0.69099998 -0.0036346598 6.5469855e-39 282 243
-0.0447626 0.69 -0.0036293997 4.149539e-39 283 243
-0.043363437 0.68699998 -0.0036136196 4.8810028e-39 284 243
-0.042158898 0.68699998 -0.0036136196 5.3416208e-39 285 243
-0.040894743 0.68599999 -0.00360836 4.9829024e-39 286 243
-0.039518382 0.68300003 -0.0035925799 1.0238053e-38 287 243
-0.038264744 0.68199998 -0.00358732 1.161881e-38 288 243
-0.037068974 0.68199998 -0.00358732 1.1158192e-38 289 243
-0.035767999 0.68000001 -0.0035767998 1.1525883e-38 290 243
-0.034575731 0.68000001 -0.0035767998 1.1433687e-38 291 243
-0.033334374 0.67900002 -0.0035715401 1.1431885e-38 292 243
-0.03209652 0.67799997 -0.0035662798 1.1524081e-38 293 243
-0.030907756 0.67799997 -0.0035662798 1.1341136e-38 294 243
-0.029631332 0.676 -0.0035557596 1.1248939e-38 295 243
-0.028446076 0.676 -0.0035557596 1.0973797e-38 296 243
-0.027220501 0.67500001 -0.0035505001 1.0973797e-38 297 243
-0.026037 0.67500001 -0.0035505001 1.133863e-38 298 243
-0.0248535 0.67500001 -0.0035505001 1.0693261e-38 299 243
-0.023669999 0.67500001 -0.0035505001 1.0415601e-38 300 243
-0.022486499 0.67500001 -0.0035505001 9.7702326e-39 301 243
-0.021303 0.67500001 -0.0035505001 8.5742118e-39 302 243
-0.020119499 0.67500001 -0.0035505001 8.2054307e-39 303 243
-0.018935999 0.67500001 -0.0035505001 8.112519e-39 304 243
-0.017778801 0.676 -0.0035557596 8.112519e-39 305 243
-0.016593546 0.676 -0.0035557596 8.020322e-39 306 243
-0.0153855 0.67500001 -0.0035505001 7.7433763e-39 307 243
-0.014202001 0.67500001 -0.0035505001 7.8348559e-39 308 243
-0.012999214 0.67400002 -0.00354524 8.018887e-39 309 243
-0.011782399 0.67199999 -0.00353472 8.1114358e-39 310 243
-0.010604159 0.67199999 -0.00353472 8.2036314e-39 311 243
-0.0094539737 0.67400002 -0.00354524 8.2961816e-39 312 243
-0.0082722269 0.67400002 -0.00354524 8.8493539e-39 313 243
-0.0071010003 0.67500001 -0.0035505001 8.8489882e-39 314 243
-0.0059174998 0.67500001 -0.0035505001 8.8489882e-39 315 243
-0.0047339997 0.67500001 -0.0035505001 9.2170477e-39 316 243
-0.0035557596 0.676 -0.0035557596 9.4932758e-39 317 243
-0.0023705065 0.676 -0.0035557596 9.5861777e-39 318 243
-0.0011852533 0.676 -0.0035557596 9.4939821e-39 319 243
0 0.67799997 -0.0035662798 9.4014165e-39 320 243
0.0011887599 0.67799997 -0.0035662798 9.4014165e-39 321 243
0.0023775198 0.67799997 -0.0035662798 9.0333542e-39 322 243
0.0035715401 0.67900002 -0.0035715401 8.5723761e-39 323 243
0.0047690663 0.68000001 -0.0035767998 8.7528241e-39 324 243
0.005978866 0.68199998 -0.00358732 8.6606285e-39 325 243
0.00717464 0.68199998 -0.00358732 8.4769603e-39 326 243
0.0083826864 0.68300003 -0.0035925799 9.1223297e-39 327 243
0.0095802136 0.68300003 -0.0035925799 9.3077929e-39 328 243
0.010825079 0.68599999 -0.00360836 9.2155973e-39 329 243
0.012062933 0.68800002 -0.0036188802 9.0308529e-39 330 243
0.013327086 0.69099998 -0.0036346598 8.8468204e-39 331 243
0.014580719 0.69300002 -0.0036451798 8.754622e-39 332 243
0.015818574 0.69400001 -0.0036504399 9.2156001e-39 333 243
0.017035386 0.69400001 -0.0036504399 1.1982188e-38 334 243
0.0182522 0.69400001 -0.0036504399 1.4194884e-38 335 243
0.019525118 0.69599998 -0.0036609597 1.5671455e-38 336 243
-0.046039023 0.69099998 -0.0048462129 7.0987132e-39 282 244
-0.0447626 0.69 -0.0048391996 4.0562574e-39 283 244
-0.043426562 0.68800002 -0.0048251734 4.5132895e-39 284 244
-0.042158898 0.68699998 -0.0048181596 5.619637e-39 285 244
-0.040894743 0.68599999 -0.0048111463 5.2569656e-39 286 244
-0.03957624 0.68400002 -0.0047971201 1.0512116e-38 287 244
-0.038264744 0.68199998 -0.004783093 1.1618447e-38 288 244
-0.037068974 0.68199998 -0.004783093 1.1341502e-38 289 244
-0.035767999 0.68000001 -0.0047690663 1.1434056e-38 290 244
-0.034575731 0.68000001 -0.0047690663 1.1434056e-38 291 244
-0.033383466 0.68000001 -0.0047690663 1.1341502e-38 292 244
-0.032143861 0.67900002 -0.0047620535 1.115747e-38 293 244
-0.030907756 0.67799997 -0.0047550397 1.115747e-38 294 244
-0.029631332 0.676 -0.0047410131 1.115747e-38 295 244
-0.028446076 0.676 -0.0047410131 1.1065273e-38 296 244
-0.027260827 0.676 -0.0047410131 1.115747e-38 297 244
-0.026075572 0.676 -0.0047410131 1.1155318e-38 298 244
-0.0248535 0.67500001 -0.0047339997 1.0694699e-38 299 244
-0.023669999 0.67500001 -0.0047339997 1.0232288e-38 300 244
-0.022486499 0.67500001 -0.0047339997 9.679116e-39 301 244
-0.021334561 0.676 -0.0047410131 8.7586017e-39 302 244
-0.020149305 0.676 -0.0047410131 8.4820134e-39 303 244
-0.018964052 0.676 -0.0047410131 8.2979794e-39 304 244
-0.017778801 0.676 -0.0047410131 8.2057838e-39 305 244
-0.016593546 0.676 -0.0047410131 8.1128693e-39 306 244
-0.015408293 0.676 -0.0047410131 8.0206723e-39 307 244
-0.014223038 0.676 -0.0047410131 8.0195933e-39 308 244
-0.012999214 0.67400002 -0.0047269869 8.2039845e-39 309 244
-0.011817466 0.67400002 -0.0047269869 8.4805728e-39 310 244
-0.01063572 0.67400002 -0.0047269869 8.3883772e-39 311 244
-0.0094539737 0.67400002 -0.0047269869 8.4809288e-39 312 244
-0.0082722269 0.67400002 -0.0047269869 9.6794719e-39 313 244
-0.0071010003 0.67500001 -0.0047339997 9.128089e-39 314 244
-0.0059174998 0.67500001 -0.0047339997 8.9436992e-39 315 244
-0.0047410131 0.676 -0.0047410131 9.4947051e-39 316 244
-0.0035557596 0.676 -0.0047410131 9.5869008e-39 317 244
-0.0023705065 0.676 -0.0047410131 9.7705662e-39 318 244
-0.0011887599 0.67799997 -0.0047550397 9.5861749e-39 319 244
0 0.67799997 -0.0047550397 9.5854532e-39 320 244
0.0011887599 0.67799997 -0.0047550397 9.3088649e-39 321 244
0.0023775198 0.67799997 -0.0047550397 9.2148784e-39 322 244
0.0035715401 0.67900002 -0.0047620535 8.8457358e-39 323 244
0.0047690663 0.68000001 -0.0047690663 8.7521052e-39 324 244
0.005978866 0.68199998 -0.004783093 8.9361364e-39 325 244
0.00717464 0.68199998 -0.004783093 8.6631424e-39 326 244
0.0083826864 0.68300003 -0.0047901068 8.9400894e-39 327 244
0.0095942402 0.68400002 -0.0047971201 9.0322851e-39 328 244
0.010825079 0.68599999 -0.0048111463 8.9400894e-39 329 244
0.012062933 0.68800002 -0.0048251734 8.6627921e-39 330 244
0.013327086 0.69099998 -0.0048462129 8.2943697e-39 331 244
0.014580719 0.69300002 -0.00486024 8.4769631e-39 332 244
0.015818574 0.69400001 -0.0048672534 9.1223325e-39 333 244
0.017035386 0.69400001 -0.0048672534 1.2074021e-38 334 244
0.018304799 0.69599998 -0.0048812795 1.4286357e-38 335 244
0.019637333 0.69999999 -0.0049093333 1.6405054e-38 336 244
-0.046039023 0.69099998 -0.0060577663 9.5829407e-39 282 245
-0.044827472 0.69099998 -0.0060577663 5.9869524e-39 283 245
-0.043426562 0.68800002 -0.0060314666 3.8715004e-39 284 245
-0.042158898 0.68699998 -0.0060226996 5.0696848e-39 285 245
-0.040894743 0.68599999 -0.0060139326 5.4399121e-39 286 245
-0.03957624 0.68400002 -0.0059964 1.0602866e-38 287 245
-0.038320854 0.68300003 -0.0059876335 1.14337e-38 288 245
-0.037068974 0.68199998 -0.005978866 1.1157473e-38 289 245
-0.035873197 0.68199998 -0.005978866 1.1432981e-38 290 245
-0.034575731 0.68000001 -0.0059613334 1.1432981e-38 291 245
-0.033383466 0.68000001 -0.0059613334 1.1341502e-38 292 245
-0.032143861 0.67900002 -0.0059525664 1.115747e-38 293 245
-0.030907756 0.67799997 -0.0059437994 1.115747e-38 294 245
-0.029718997 0.67799997 -0.0059437994 1.115747e-38 295 245
-0.028446076 0.676 -0.0059262668 1.1340783e-38 296 245
-0.027260827 0.676 -0.0059262668 1.1248586e-38 297 245
-0.026075572 0.676 -0.0059262668 1.1431182e-38 298 245
-0.024890319 0.676 -0.0059262668 1.0785812e-38 299 245
-0.023669999 0.67500001 -0.0059174998 1.0507798e-38 300 245
-0.022486499 0.67500001 -0.0059174998 9.8624283e-39 301 245
-0.021334561 0.676 -0.0059262668 9.0344655e-39 302 245
-0.020149305 0.676 -0.0059262668 8.6660417e-39 303 245
-0.018964052 0.676 -0.0059262668 8.2065027e-39 304 245
-0.017778801 0.676 -0.0059262668 7.9302759e-39 305 245
-0.016593546 0.676 -0.0059262668 7.9309948e-39 306 245
-0.015408293 0.676 -0.0059262668 7.8387991e-39 307 245
-0.014223038 0.676 -0.0059262668 8.2961788e-39 308 245
-0.0130185 0.67500001 -0.0059174998 8.4809288e-39 309 245
-0.011817466 0.67400002 -0.0059087332 8.4809288e-39 310 245
-0.01063572 0.67400002 -0.0059087332 8.3887331e-39 311 245
-0.0094679995 0.67500001 -0.0059174998 8.205781e-39 312 245
-0.0082844999 0.67500001 -0.0059174998 9.4965198e-39 313 245
-0.0071115191 0.676 -0.0059262668 1.0508504e-38 314 245
-0.0059262668 0.676 -0.0059262668 9.9553302e-39 315 245
-0.0047410131 0.676 -0.0059262668 9.8638408e-39 316 245
-0.0035557596 0.676 -0.0059262668 9.8638408e-39 317 245
-0.0023775198 0.67799997 -0.0059437994 1.004643e-38 318 245
-0.0011887599 0.67799997 -0.0059437994 9.6780076e-39 319 245
0 0.67799997 -0.0059437994 9.0322851e-39 320 245
0.0011887599 0.67799997 -0.0059437994 8.5709468e-39 321 245
0.0023810267 0.67900002 -0.0059525664 8.8453883e-39 322 245
0.0035715401 0.67900002 -0.0059525664 8.5691615e-39 323 245
0.0047690663 0.68000001 -0.0059613334 8.8446666e-39 324 245
0.005978866 0.68199998 -0.005978866 8.8446666e-39 325 245
0.00717464 0.68199998 -0.005978866 8.5709468e-39 326 245
0.0083826864 0.68300003 -0.0059876335 8.9400894e-39 327 245
0.0095942402 0.68400002 -0.0059964 8.9397335e-39 328 245
0.010825079 0.68599999 -0.0060139326 8.7553408e-39 329 245
0.012062933 0.68800002 -0.0060314666 8.201465e-39 330 245
0.0133078 0.69 -0.0060489997 7.7408456e-39 331 245
0.014580719 0.69300002 -0.0060753003 7.925227e-39 332 245
0.015864158 0.69599998 -0.0061015999 8.6627921e-39 333 245
0.017084479 0.69599998 -0.0061015999 1.2164766e-38 334 245
0.018304799 0.69599998 -0.0061015999 1.4377101e-38 335 245
0.019637333 0.69999999 -0.0061366665 1.6679831e-38 336 245
0.020983893 0.704 -0.0061717331 1.6587635e-38 337 245
0.022218239 0.704 -0.0061717331 1.6495437e-38 338 245
-0.044827472 0.69099998 -0.0072693196 9.2105596e-39 283 246
-0.043615919 0.69099998 -0.0072693196 5.438466e-39 284 246
-0.042158898 0.68699998 -0.0072272392 5.5306616e-39 285 246
-0.040954359 0.68699998 -0.0072272392 5.0718513e-39 286 246
-0.039691959 0.68599999 -0.0072167199 1.0419198e-38 287 246
-0.038376961 0.68400002 -0.0071956799 1.1525177e-38 288 246
-0.037123326 0.68300003 -0.0071851597 1.1340786e-38 289 246
-0.035873197 0.68199998 -0.00717464 1.1432981e-38 290 246
-0.034677424 0.68199998 -0.00717464 1.1432981e-38 291 246
-0.033383466 0.68000001 -0.0071535995 1.1432981e-38 292 246
-0.032191198 0.68000001 -0.0071535995 1.1340786e-38 293 246
-0.030953348 0.67900002 -0.0071430802 1.1157473e-38 294 246
-0.029718997 0.67799997 -0.0071325595 1.1157473e-38 295 246
-0.028446076 0.676 -0.0071115191 1.1340786e-38 296 246
-0.027260827 0.676 -0.0071115191 1.1340786e-38 297 246
-0.026075572 0.676 -0.0071115191 1.1156037e-38 298 246
-0.024890319 0.676 -0.0071115191 1.0695419e-38 299 246
-0.023669999 0.67500001 -0.0071010003 9.9557015e-39 300 246
-0.022486499 0.67500001 -0.0071010003 9.4947234e-39 301 246
-0.021334561 0.676 -0.0071115191 8.6656914e-39 302 246
-0.020149305 0.676 -0.0071115191 8.3887457e-39 303 246
-0.018964052 0.676 -0.0071115191 8.1132378e-39 304 246
-0.017778801 0.676 -0.0071115191 8.1132378e-39 305 246
-0.016593546 0.676 -0.0071115191 7.9299228e-39 306 246
-0.015408293 0.676 -0.0071115191 7.9299228e-39 307 246
-0.014223038 0.676 -0.0071115191 8.2958284e-39 308 246
-0.013037786 0.676 -0.0071115191 8.3880241e-39 309 246
-0.011835 0.67500001 -0.0071010003 8.3883772e-39 310 246
-0.0106515 0.67500001 -0.0071010003 8.2961816e-39 311 246
-0.0094679995 0.67500001 -0.0071010003 8.663525e-39 312 246
-0.0082844999 0.67500001 -0.0071010003 9.3088944e-39 313 246
-0.0071115191 0.676 -0.0071115191 9.4021592e-39 314 246
-0.0059262668 0.676 -0.0071115191 9.5865504e-39 315 246
-0.0047410131 0.676 -0.0071115191 9.8627674e-39 316 246
-0.0035662798 0.67799997 -0.0071325595 9.8627674e-39 317 246
-0.0023775198 0.67799997 -0.0071325595 1.0138633e-38 318 246
-0.0011887599 0.67799997 -0.0071325595 9.4007074e-39 319 246
0 0.67799997 -0.0071325595 7.4646048e-39 320 246
0.0011905134 0.67900002 -0.0071430802 7.5568018e-39 321 246
0.0023810267 0.67900002 -0.0071430802 8.5677238e-39 322 246
0.0035767998 0.68000001 -0.0071535995 8.7524738e-39 323 246
0.004783093 0.68199998 -0.00717464 8.5691559e-39 324 246
0.005978866 0.68199998 -0.00717464 8.5691559e-39 325 246
0.0071851597 0.68300003 -0.0071851597 8.8450225e-39 326 246
0.0083826864 0.68300003 -0.0071851597 9.2134449e-39 327 246
0.0096222926 0.68599999 -0.0072167199 8.8479036e-39 328 246
0.010840859 0.68699998 -0.0072272392 8.2025342e-39 329 246
0.012062933 0.68800002 -0.0072377604 7.92236e-39 330 246
0.0133078 0.69 -0.0072587994 7.6457731e-39 331 246
0.014580719 0.69300002 -0.0072903596 8.201451e-39 332 246
0.015864158 0.69599998 -0.0073219193 8.8468204e-39 333 246
0.017084479 0.69599998 -0.0073219193 1.1979652e-38 334 246
0.018331099 0.69700003 -0.00733244 1.4284542e-38 335 246
0.019637333 0.69999999 -0.0073639993 1.677238e-38 336 246
0.020954086 0.70300001 -0.0073955595 1.6587988e-38 337 246
0.022218239 0.704 -0.0074060797 1.6679102e-38 338 246
-0.046238903 0.69400001 -0.0085176928 1.3360087e-38 282 247
-0.045022093 0.69400001 -0.0085176928 1.2345577e-38 283 247
-0.043615919 0.69099998 -0.008480873 9.0319347e-39 284 247
-0.042342998 0.69 -0.0084686 7.3720533e-39 285 247
-0.040954359 0.68699998 -0.0084317802 4.7073819e-39 286 247
-0.039691959 0.68599999 -0.0084195063 9.1331323e-39 287 247
-0.038376961 0.68400002 -0.0083949603 1.0973446e-38 288 247
-0.037123326 0.68300003 -0.0083826864 1.1065643e-38 289 247
-0.035873197 0.68199998 -0.0083704125 1.1341507e-38 290 247
-0.034677424 0.68199998 -0.0083704125 1.1341507e-38 291 247
-0.033383466 0.68000001 -0.0083458666 1.1432981e-38 292 247
-0.032191198 0.68000001 -0.0083458666 1.1340786e-38 293 247
-0.030953348 0.67900002 -0.0083335936 1.1340786e-38 294 247
-0.029762832 0.67900002 -0.0083335936 1.1340786e-38 295 247
-0.028530238 0.67799997 -0.0083213197 1.1248589e-38 296 247
-0.027341479 0.67799997 -0.0083213197 1.1248589e-38 297 247
-0.026075572 0.676 -0.0082967728 1.1431185e-38 298 247
-0.024890319 0.676 -0.0082967728 1.0417034e-38 299 247
-0.023705067 0.676 -0.0082967728 9.129182e-39 300 247
-0.022519812 0.676 -0.0082967728 7.7462476e-39 301 247
-0.021397678 0.67799997 -0.0083213197 7.745177e-39 302 247
-0.020208918 0.67799997 -0.0083213197 7.560427e-39 303 247
-0.019020159 0.67799997 -0.0083213197 7.0097798e-39 304 247
-0.017778801 0.676 -0.0082967728 7.0097798e-39 305 247
-0.016593546 0.676 -0.0082967728 6.9186631e-39 306 247
-0.015408293 0.676 -0.0082967728 6.8261088e-39 307 247
-0.014223038 0.676 -0.0082967728 7.4682314e-39 308 247
-0.013037786 0.676 -0.0082967728 7.6529814e-39 309 247
-0.011852534 0.676 -0.0082967728 8.0203191e-39 310 247
-0.01066728 0.676 -0.0082967728 7.9281235e-39 311 247
-0.0094820261 0.676 -0.0082967728 8.1125162e-39 312 247
-0.0082967728 0.676 -0.0082967728 8.0203191e-39 313 247
-0.0071325595 0.67799997 -0.0083213197 8.3872968e-39 314 247
-0.0059437994 0.67799997 -0.0083213197 9.2170589e-39 315 247
-0.0047550397 0.67799997 -0.0083213197 9.5869064e-39 316 247
-0.0035662798 0.67799997 -0.0083213197 9.5869064e-39 317 247
-0.0023775198 0.67799997 -0.0083213197 9.8627646e-39 318 247
-0.0011887599 0.67799997 -0.0083213197 9.3095922e-39 319 247
0 0.67900002 -0.0083335936 8.3847604e-39 320 247
0.0011905134 0.67900002 -0.0083335936 7.9241424e-39 321 247
0.0023845332 0.68000001 -0.0083458666 8.0174227e-39 322 247
0.0035767998 0.68000001 -0.0083458666 8.2018153e-39 323 247
0.004783093 0.68199998 -0.0083704125 8.5691587e-39 324 247
0.0059876335 0.68300003 -0.0083826864 8.4769631e-39 325 247
0.0071851597 0.68300003 -0.0083826864 8.1117735e-39 326 247
0.0083949603 0.68400002 -0.0083949603 8.4801959e-39 327 247
0.0096222926 0.68599999 -0.0084195063 8.7549877e-39 328 247
0.010840859 0.68699998 -0.0084317802 7.925227e-39 329 247
0.012097999 0.69 -0.0084686 7.4617476e-39 330 247
0.0133078 0.69 -0.0084686 7.2777164e-39 331 247
0.014580719 0.69300002 -0.0085054198 7.8323125e-39 332 247
0.015864158 0.69599998 -0.0085422397 9.0308557e-39 333 247
0.017084479 0.69599998 -0.0085422397 1.216404e-38 334 247
0.0183574 0.69800001 -0.0085667865 1.4284539e-38 335 247
0.019637333 0.69999999 -0.0085913334 1.6680181e-38 336 247
0.020954086 0.70300001 -0.0086281532 1.6587985e-38 337 247
0.02218668 0.70300001 -0.0086281532 1.6495071e-38 338 247
-0.047660861 0.69700003 -0.0097765867 1.5551535e-38 281 248
-0.046238903 0.69400001 -0.0097345067 1.2530324e-38 282 248
-0.045022093 0.69400001 -0.0097345067 1.3083498e-38 283 248
-0.043742158 0.69300002 -0.0097204801 1.1890722e-38 284 248
-0.042404365 0.69099998 -0.0096924258 1.0599984e-38 285 248
-0.041133199 0.69 -0.0096783992 7.9353108e-39 286 248
-0.039691959 0.68599999 -0.0096222926 8.7650714e-39 287 248
-0.038376961 0.68400002 -0.0095942402 1.0695785e-38 288 248
-0.037177678 0.68400002 -0.0095942402 1.0972372e-38 289 248
-0.035925802 0.68300003 -0.0095802136 1.1341507e-38 290 248
-0.034677424 0.68199998 -0.009566186 1.1341507e-38 291 248
-0.03348165 0.68199998 -0.009566186 1.1157473e-38 292 248
-0.032191198 0.68000001 -0.0095381327 1.1157473e-38 293 248
-0.030998932 0.68000001 -0.0095381327 1.1340788e-38 294 248
-0.029762832 0.67900002 -0.009524107 1.1248233e-38 295 248
-0.028572321 0.67900002 -0.009524107 1.1248589e-38 296 248
-0.027341479 0.67799997 -0.0095100794 1.1248589e-38 297 248
-0.026152719 0.67799997 -0.0095100794 1.1339712e-38 298 248
-0.024890319 0.676 -0.0094820261 1.032556e-38 299 248
-0.023705067 0.676 -0.0094820261 8.8526036e-39 300 248
-0.022519812 0.676 -0.0094820261 6.6395497e-39 301 248
-0.021397678 0.67799997 -0.0095100794 7.740875e-39 302 248
-0.020208918 0.67799997 -0.0095100794 7.8330706e-39 303 248
-0.019020159 0.67799997 -0.0095100794 7.0991055e-39 304 248
-0.0178314 0.67799997 -0.0095100794 7.0991055e-39 305 248
-0.016642639 0.67799997 -0.0095100794 7.282415e-39 306 248
-0.015453878 0.67799997 -0.0095100794 7.282415e-39 307 248
-0.014265119 0.67799997 -0.0095100794 7.2827667e-39 308 248
-0.013076359 0.67799997 -0.0095100794 7.4675181e-39 309 248
-0.011887599 0.67799997 -0.0095100794 7.7433791e-39 310 248
-0.010698839 0.67799997 -0.0095100794 7.9277704e-39 311 248
-0.0095100794 0.67799997 -0.0095100794 8.1114358e-39 312 248
-0.0083213197 0.67799997 -0.0095100794 7.7426547e-39 313 248
-0.0071325595 0.67799997 -0.0095100794 8.2940166e-39 314 248
-0.0059437994 0.67799997 -0.0095100794 9.3078084e-39 315 248
-0.0047550397 0.67799997 -0.0095100794 9.6780202e-39 316 248
-0.0035662798 0.67799997 -0.0095100794 9.6780202e-39 317 248
-0.0023775198 0.67799997 -0.0095100794 9.6783733e-39 318 248
-0.0011905134 0.67900002 -0.009524107 9.1251995e-39 319 248
0 0.67900002 -0.009524107 8.4780351e-39 320 248
0.0011905134 0.67900002 -0.009524107 7.5560788e-39 321 248
0.0023845332 0.68000001 -0.0095381327 8.2925676e-39 322 248
0.0035767998 0.68000001 -0.0095381327 8.4769603e-39 323 248
0.004783093 0.68199998 -0.009566186 8.4776791e-39 324 248
0.0059876335 0.68300003 -0.0095802136 8.3854835e-39 325 248
0.0071851597 0.68300003 -0.0095802136 8.3865625e-39 326 248
0.0083949603 0.68400002 -0.0095942402 8.6627893e-39 327 248
0.0096222926 0.68599999 -0.0096222926 8.3865653e-39 328 248
0.010856641 0.68800002 -0.0096503468 7.7411959e-39 329 248
0.012115533 0.69099998 -0.0096924258 7.3709869e-39 330 248
0.013327086 0.69099998 -0.0096924258 7.2784325e-39 331 248
0.01460176 0.69400001 -0.0097345067 7.7393938e-39 332 248
0.015864158 0.69599998 -0.0097625591 8.937937e-39 333 248
0.017084479 0.69599998 -0.0097625591 1.2532823e-38 334 248
0.0183574 0.69800001 -0.0097906133 1.4376735e-38 335 248
0.019637333 0.69999999 -0.0098186666 1.6587985e-38 336 248
0.020864666 0.69999999 -0.0098186666 1.649579e-38 337 248
-0.048882935 0.69700003 -0.01099866 1.4082518e-38 280 249
-0.047660861 0.69700003 -0.01099866 1.4450941e-38 281 249
-0.046372157 0.69599998 -0.010982879 1.1516895e-38 282 249
-0.045151837 0.69599998 -0.010982879 1.1609091e-38 283 249
-0.043805279 0.69400001 -0.01095132 1.0879813e-38 284 249
-0.042404365 0.69099998 -0.01090398 1.1248235e-38 285 249
-0.041133199 0.69 -0.010888199 1.0236606e-38 286 249
-0.039749816 0.68699998 -0.010840859 1.0328801e-38 287 249
-0.03848917 0.68599999 -0.010825079 1.0880532e-38 288 249
-0.037177678 0.68400002 -0.01079352 1.115712e-38 289 249
-0.035925802 0.68300003 -0.01077774 1.1157117e-38 290 249
-0.034728274 0.68300003 -0.01077774 1.1157117e-38 291 249
-0.03348165 0.68199998 -0.010761959 1.1157473e-38 292 249
-0.032285877 0.68199998 -0.010761959 1.1157473e-38 293 249
-0.030998932 0.68000001 -0.0107304 1.1340786e-38 294 249
-0.029806666 0.68000001 -0.0107304 1.1340786e-38 295 249
-0.028572321 0.67900002 -0.010714619 1.1340786e-38 296 249
-0.027381808 0.67900002 -0.010714619 1.1248589e-38 297 249
-0.026152719 0.67799997 -0.010698839 1.1247517e-38 298 249
-0.024963958 0.67799997 -0.010698839 1.032556e-38 299 249
-0.023705067 0.676 -0.01066728 9.1281128e-39 300 249
-0.022519812 0.676 -0.01066728 7.6529814e-39 301 249
-0.021397678 0.67799997 -0.010698839 7.7423099e-39 302 249
-0.020208918 0.67799997 -0.010698839 7.4653629e-39 303 249
-0.019020159 0.67799997 -0.010698839 6.7313978e-39 304 249
-0.0178314 0.67799997 -0.010698839 6.7313978e-39 305 249
-0.016642639 0.67799997 -0.010698839 7.2827667e-39 306 249
-0.015453878 0.67799997 -0.010698839 7.5597137e-39 307 249
-0.014265119 0.67799997 -0.010698839 7.5607829e-39 308 249
-0.013076359 0.67799997 -0.010698839 7.5607829e-39 309 249
-0.011887599 0.67799997 -0.010698839 7.7433735e-39 310 249
-0.010698839 0.67799997 -0.010698839 7.9281235e-39 311 249
-0.0095100794 0.67799997 -0.010698839 8.6649627e-39 312 249
-0.0083213197 0.67799997 -0.010698839 9.3103321e-39 313 249
-0.0071430802 0.67900002 -0.010714619 9.4932758e-39 314 249
-0.0059525664 0.67900002 -0.010714619 9.7698627e-39 315 249
-0.0047620535 0.67900002 -0.010714619 1.004608e-38 316 249
-0.0035715401 0.67900002 -0.010714619 9.953884e-39 317 249
-0.0023810267 0.67900002 -0.010714619 9.8616828e-39 318 249
-0.0011905134 0.67900002 -0.010714619 9.4010634e-39 319 249
0 0.68000001 -0.0107304 8.569509e-39 320 249
0.0011922666 0.68000001 -0.0107304 7.831944e-39 321 249
0.0023845332 0.68000001 -0.0107304 8.2914928e-39 322 249
0.00358732 0.68199998 -0.010761959 8.5680783e-39 323 249
0.004783093 0.68199998 -0.010761959 8.4766072e-39 324 249
0.0059876335 0.68300003 -0.01077774 8.3844115e-39 325 249
0.0071956799 0.68400002 -0.01079352 8.2943669e-39 326 249
0.0084195063 0.68599999 -0.010825079 8.7553436e-39 327 249
0.0096363192 0.68699998 -0.010840859 8.4776791e-39 328 249
0.010856641 0.68800002 -0.010856641 7.9245054e-39 329 249
0.012115533 0.69099998 -0.01090398 7.3709813e-39 330 249
0.01336566 0.69300002 -0.010935539 7.2787856e-39 331 249
0.01460176 0.69400001 -0.01095132 7.3716903e-39 332 249
0.015864158 0.69599998 -0.010982879 8.3854835e-39 333 249
0.017084479 0.69599998 -0.010982879 1.3269309e-38 334 249
0.018331099 0.69700003 -0.01099866 1.4744797e-38 335 249
0.019637333 0.69999999 -0.011045999 1.6680181e-38 336 249
0.020864666 0.69999999 -0.011045999 1.649579e-38 337 249
-0.048882935 0.69700003 -0.012220734 1.5567369e-38 280 250
-0.047660861 0.69700003 -0.012220734 1.4829804e-38 281 250
-0.046238903 0.69400001 -0.012168133 1.096409e-38 282 250
-0.045022093 0.69400001 -0.012168133 9.9502967e-39 283 250
-0.043805279 0.69400001 -0.012168133 9.2203057e-39 284 250
-0.042404365 0.69099998 -0.012115533 1.0695434e-38 285 250
-0.041133199 0.69 -0.012097999 1.1617744e-38 286 250
-0.039749816 0.68699998 -0.012045399 1.1525548e-38 287 250
-0.03848917 0.68599999 -0.012027865 1.1250388e-38 288 250
-0.037177678 0.68400002 -0.0119928 1.1250388e-38 289 250
-0.035978399 0.68400002 -0.0119928 1.1432981e-38 290 250
-0.034728274 0.68300003 -0.011975267 1.1432981e-38 291 250
-0.03348165 0.68199998 -0.011957732 1.106492e-38 292 250
-0.032285877 0.68199998 -0.011957732 1.106492e-38 293 250
-0.030998932 0.68000001 -0.011922667 1.1157117e-38 294 250
-0.029806666 0.68000001 -0.011922667 1.1157117e-38 295 250
-0.028614398 0.68000001 -0.011922667 1.1340786e-38 296 250
-0.027381808 0.67900002 -0.011905133 1.1248589e-38 297 250
-0.026191294 0.67900002 -0.011905133 1.1247517e-38 298 250
-0.024963958 0.67799997 -0.011887599 1.032556e-38 299 250
-0.023775198 0.67799997 -0.011887599 9.2203057e-39 300 250
-0.022586439 0.67799997 -0.011887599 7.4685873e-39 301 250
-0.021429239 0.67900002 -0.011905133 7.1905683e-39 302 250
-0.020208918 0.67799997 -0.011887599 7.2831227e-39 303 250
-0.019020159 0.67799997 -0.011887599 7.3745994e-39 304 250
-0.0178314 0.67799997 -0.011887599 7.3745994e-39 305 250
-0.016642639 0.67799997 -0.011887599 7.7426547e-39 306 250
-0.015453878 0.67799997 -0.011887599 8.2958284e-39 307 250
-0.014265119 0.67799997 -0.011887599 8.0213925e-39 308 250
-0.013076359 0.67799997 -0.011887599 7.8366412e-39 309 250
-0.011887599 0.67799997 -0.011887599 8.0195933e-39 310 250
-0.010698839 0.67799997 -0.011887599 8.2039845e-39 311 250
-0.0095100794 0.67799997 -0.011887599 8.8489882e-39 312 250
-0.0083335936 0.67900002 -0.011905133 1.0047531e-38 313 250
-0.0071430802 0.67900002 -0.011905133 1.0138996e-38 314 250
-0.0059525664 0.67900002 -0.011905133 9.9549644e-39 315 250
-0.0047620535 0.67900002 -0.011905133 1.0046433e-38 316 250
-0.0035715401 0.67900002 -0.011905133 9.9542371e-39 317 250
-0.0023810267 0.67900002 -0.011905133 9.9535127e-39 318 250
-0.0011922666 0.68000001 -0.011922667 9.4928933e-39 319 250
0 0.68000001 -0.011922667 8.7528213e-39 320 250
0.0011957732 0.68199998 -0.011957732 8.1074519e-39 321 250
0.0023915465 0.68199998 -0.011957732 8.2000189e-39 322 250
0.00358732 0.68199998 -0.011957732 8.4766072e-39 323 250
0.0047901068 0.68300003 -0.011975267 8.4766072e-39 324 250
0.0059876335 0.68300003 -0.011975267 8.4766072e-39 325 250
0.0071956799 0.68400002 -0.0119928 8.2950858e-39 326 250
0.0084195063 0.68599999 -0.012027865 8.3872814e-39 327 250
0.0096503468 0.68800002 -0.012062933 8.3854807e-39 328 250
0.010888199 0.69 -0.012097999 7.8326657e-39 329 250
0.012150601 0.69300002 -0.012150601 7.5546495e-39 330 250
0.01336566 0.69300002 -0.012150601 7.5546495e-39 331 250
0.01460176 0.69400001 -0.012168133 7.4638803e-39 332 250
0.015864158 0.69599998 -0.0122032 8.3858366e-39 333 250
0.017084479 0.69599998 -0.0122032 1.327039e-38 334 250
