# .PCD v.7 - Point Cloud Data file format
FIELDS x y z rgb imX imY
SIZE 4 4 4 4 4 4
TYPE F F F F F F
COUNT 1 1 1 1 1 1
WIDTH 848
HEIGHT 1
VIEWPOINT 0 0 0 1 0 0 0
POINTS 848
DATA ascii
-0.0075743999 0.72000003 0.010099201 9.4232291e-39 314 232
-0.0063120001 0.72000003 0.010099201 9.4232291e-39 315 232
-0.0050496003 0.72000003 0.010099201 9.4243081e-39 316 232
-0.0037872 0.72000003 0.010099201 9.7930906e-39 317 232
-0.0025248001 0.72000003 0.010099201 9.7916935e-39 318 232
-0.0012624001 0.72000003 0.010099201 9.8842479e-39 319 232
0 0.71700001 0.01005712 9.6076806e-39 320 232
0.00125714 0.71700001 0.01005712 9.515485e-39 321 232
0.0025002533 0.713 0.010001013 9.5151291e-39 322 232
0.0037503797 0.713 0.010001013 9.6073247e-39 323 232
0.0063120001 0.72000003 0.010099201 9.6048136e-39 325 232
0.0075743999 0.72000003 0.010099201 9.1452577e-39 326 232
0.0088367993 0.72000003 0.010099201 8.3154971e-39 327 232
0.010099201 0.72000003 0.010099201 8.1332386e-39 328 232
0.011361601 0.72000003 0.010099201 8.3176298e-39 329 232
0.012659066 0.722 0.010127253 9.8802612e-39 330 232
0.013924973 0.722 0.010127253 9.9724568e-39 331 232
0.015190879 0.722 0.010127253 9.9738637e-39 332 232
0.016456785 0.722 0.010127253 9.5132443e-39 333 232
0.017747238 0.72299999 0.01014128 9.0551248e-39 334 232
0.0190675 0.72500002 0.010169334 8.8710937e-39 335 232
0.020338668 0.72500002 0.010169334 9.2370049e-39 336 232
0.021669446 0.727 0.010197386 8.9600593e-39 337 232
0.022944121 0.727 0.010197386 9.0508368e-39 338 232
0.024252106 0.72799999 0.010211413 8.5898601e-39 339 232
0.025528532 0.72799999 0.010211413 9.3256833e-39 340 232
0.026804959 0.72799999 0.010211413 1.0524227e-38 341 232
0.028158534 0.73000002 0.010239467 1.1347911e-38 342 232
0.029438468 0.73000002 0.010239467 1.0887293e-38 343 232
0.03076048 0.73100001 0.010253493 1.1349731e-38 344 232
0.032042164 0.73100001 0.010253493 1.2271689e-38 345 232
0.033323854 0.73100001 0.010253493 1.447542e-38 346 232
-0.030124018 0.74699998 0.0091681797 1.7331705e-38 297 233
-0.028775707 0.74599999 0.0091559067 1.6320091e-38 298 233
-0.027467718 0.74599999 0.0091559067 1.466057e-38 299 233
-0.026089599 0.74400002 0.0091313599 1.3742591e-38 300 233
-0.024718491 0.74199998 0.009106813 1.4019539e-38 301 233
-0.023291279 0.73799998 0.0090577193 1.3836589e-38 302 233
-0.021937706 0.736 0.0090331733 1.420537e-38 303 233
-0.020506985 0.73100001 0.0089718066 1.2823879e-38 304 233
-0.019225299 0.73100001 0.0089718066 1.153314e-38 305 233
-0.017919067 0.73000002 0.0089595336 1.1901556e-38 306 233
-0.016639132 0.73000002 0.0089595336 1.1993751e-38 307 233
-0.0153592 0.73000002 0.0089595336 1.2640177e-38 308 233
-0.014040692 0.72799999 0.0089349858 1.2179199e-38 309 233
-0.012746733 0.727 0.0089227129 1.1350127e-38 310 233
-0.01140894 0.72299999 0.0088736191 1.107318e-38 311 233
-0.01014128 0.72299999 0.0088736191 1.0707564e-38 312 233
-0.0088613462 0.722 0.0088613462 1.0338781e-38 313 233
-0.0075954394 0.722 0.0088613462 9.3314118e-39 314 233
-0.0063295332 0.722 0.0088613462 9.1466618e-39 315 233
-0.0050636264 0.722 0.0088613462 8.5063147e-39 316 233
-0.0037872 0.72000003 0.0088367993 8.3219234e-39 317 233
-0.0025248001 0.72000003 0.0088367993 8.7814344e-39 318 233
-0.0012624001 0.72000003 0.0088367993 8.4126519e-39 319 233
0 0.71700001 0.0087999795 8.3207982e-39 320 233
0.00125714 0.71700001 0.0087999795 8.3207982e-39 321 233
0.0025142799 0.71700001 0.0087999795 8.7803344e-39 322 233
0.0037714199 0.71700001 0.0087999795 8.7803344e-39 323 233
0.0050636264 0.722 0.0088613462 8.8710965e-39 324 233
0.0063120001 0.72000003 0.0088367993 8.6863465e-39 325 233
0.0075743999 0.72000003 0.0088367993 8.6863521e-39 326 233
0.0088367993 0.72000003 0.0088367993 7.9487927e-39 327 233
0.010099201 0.72000003 0.0088367993 7.8583921e-39 328 233
0.011361601 0.72000003 0.0088367993 8.5959515e-39 329 233
0.012659066 0.722 0.0088613462 1.006498e-38 330 233
0.013924973 0.722 0.0088613462 1.0157535e-38 331 233
0.015190879 0.722 0.0088613462 9.7894753e-39 332 233
0.016456785 0.722 0.0088613462 9.7894753e-39 333 233
0.017747238 0.72299999 0.0088736191 8.8700371e-39 334 233
0.0190675 0.72500002 0.0088981669 8.6856459e-39 335 233
0.020394772 0.727 0.0089227129 8.7753388e-39 336 233
0.021699252 0.72799999 0.0089349858 8.5909475e-39 337 233
0.022975679 0.72799999 0.0089349858 8.5891749e-39 338 233
0.024318734 0.73000002 0.0089595336 9.1423486e-39 339 233
0.025598666 0.73000002 0.0089595336 1.1254268e-38 340 233
0.026878599 0.73000002 0.0089595336 1.1899637e-38 341 233
0.028158534 0.73000002 0.0089595336 1.0979501e-38 342 233
0.029438468 0.73000002 0.0089595336 1.0702914e-38 343 233
0.030886721 0.73400003 0.0090086265 1.1166066e-38 344 233
0.032173667 0.73400003 0.0090086265 1.1995467e-38 345 233
0.033460613 0.73400003 0.0090086265 1.4475786e-38 346 233
-0.030204674 0.74900001 0.0078794798 1.7148037e-38 297 234
-0.028814279 0.74699998 0.0078584393 1.6043863e-38 298 234
-0.027504537 0.74699998 0.0078584393 1.4476178e-38 299 234
-0.026159734 0.74599999 0.0078479191 1.3742947e-38 300 234
-0.024618553 0.73900002 0.0077742799 1.4019536e-38 301 234
-0.023291279 0.73799998 0.0077637597 1.3929504e-38 302 234
-0.021937706 0.736 0.0077427197 1.4206451e-38 303 234
-0.020591147 0.73400003 0.0077216802 1.3193023e-38 304 234
-0.019277899 0.73299998 0.0077111595 1.2823882e-38 305 234
-0.017943613 0.73100001 0.00769012 1.2455102e-38 306 234
-0.016661927 0.73100001 0.00769012 1.2270711e-38 307 234
-0.0153592 0.73000002 0.0076795998 1.2455455e-38 308 234
-0.014079267 0.73000002 0.0076795998 1.2271064e-38 309 234
-0.012764266 0.72799999 0.0076585598 1.1534533e-38 310 234
-0.01147206 0.727 0.0076480396 1.0704773e-38 311 234
-0.010169334 0.72500002 0.0076270006 1.0156575e-38 312 234
-0.0088736191 0.72299999 0.0076059597 9.9721822e-39 313 234
-0.0076059597 0.72299999 0.0076059597 9.1460004e-39 314 234
-0.0063382997 0.72299999 0.0076059597 8.9616078e-39 315 234
-0.0050636264 0.722 0.0075954394 8.4109367e-39 316 234
-0.0037977197 0.722 0.0075954394 8.4109367e-39 317 234
-0.0025248001 0.72000003 0.0075743999 8.7804003e-39 318 234
-0.0012624001 0.72000003 0.0075743999 8.596009e-39 319 234
0 0.72000003 0.0075743999 8.5055692e-39 320 234
0.0012624001 0.72000003 0.0075743999 8.3211779e-39 321 234
0.0025248001 0.72000003 0.0075743999 8.5966634e-39 322 234
0.0037872 0.72000003 0.0075743999 8.5041104e-39 323 234
0.0050636264 0.722 0.0075954394 8.687064e-39 324 234
0.0063295332 0.722 0.0075954394 8.5026755e-39 325 234
0.0075954394 0.722 0.0075954394 8.4101225e-39 326 234
0.0088613462 0.722 0.0075954394 8.2260928e-39 327 234
0.010127253 0.722 0.0075954394 7.9513234e-39 328 234
0.01139316 0.722 0.0075954394 9.2420622e-39 329 234
0.012659066 0.722 0.0075954394 1.125888e-38 330 234
0.013924973 0.722 0.0075954394 1.0890456e-38 331 234
0.015211919 0.72299999 0.0076059597 9.8809647e-39 332 234
0.01647958 0.72299999 0.0076059597 9.3277909e-39 333 234
0.017796334 0.72500002 0.0076270006 9.2352295e-39 334 234
0.0190675 0.72500002 0.0076270006 8.9586412e-39 335 234
0.020394772 0.727 0.0076480396 8.7746199e-39 336 234
0.021699252 0.72799999 0.0076585598 8.498033e-39 337 234
0.023038799 0.73000002 0.0076795998 9.3235323e-39 338 234
0.024318734 0.73000002 0.0076795998 1.0891217e-38 339 234
0.025598666 0.73000002 0.0076795998 1.2726546e-38 340 234
0.026915418 0.73100001 0.00769012 1.2173731e-38 341 234
0.028197108 0.73100001 0.00769012 1.0245902e-38 342 234
0.029478792 0.73100001 0.00769012 1.0153706e-38 343 234
0.030970879 0.736 0.0077427197 1.0981331e-38 344 234
0.032261331 0.736 0.0077427197 1.0981331e-38 345 234
0.033779722 0.741 0.0077953199 1.4475789e-38 346 234
0.035078939 0.741 0.0077953199 1.6872876e-38 347 234
-0.03156 0.75 0.006575 1.779268e-38 296 235
-0.030244999 0.75 0.006575 1.7239507e-38 297 235
-0.028814279 0.74699998 0.0065486995 1.6134977e-38 298 235
-0.027504537 0.74699998 0.0065486995 1.4844238e-38 299 235
-0.026194798 0.74699998 0.0065486995 1.4109932e-38 300 235
-0.024618553 0.73900002 0.0064785667 1.457091e-38 301 235
-0.023291279 0.73799998 0.0064697997 1.429757e-38 302 235
-0.021937706 0.736 0.0064522666 1.4666353e-38 303 235
-0.020591147 0.73400003 0.006434733 1.2824608e-38 304 235
-0.019304199 0.73400003 0.006434733 1.2363628e-38 305 235
-0.017992707 0.73299998 0.0064259665 1.2179607e-38 306 235
-0.016707512 0.73299998 0.0064259665 1.190302e-38 307 235
-0.01538024 0.73100001 0.006408433 1.2179607e-38 308 235
-0.014098554 0.73100001 0.006408433 1.2087411e-38 309 235
-0.012799333 0.73000002 0.0063996664 1.1627102e-38 310 235
-0.01148784 0.72799999 0.0063821329 1.0889178e-38 311 235
-0.010197386 0.727 0.0063733663 1.1074586e-38 312 235
-0.0088981669 0.72500002 0.0063558333 1.0429217e-38 313 235
-0.0076059597 0.72299999 0.0063382997 9.6037696e-39 314 235
-0.0063382997 0.72299999 0.0063382997 9.2353472e-39 315 235
-0.0050706398 0.72299999 0.0063382997 8.7772361e-39 316 235
-0.0037977197 0.722 0.0063295332 8.9616274e-39 317 235
-0.0025318132 0.722 0.0063295332 9.0573627e-39 318 235
-0.0012659066 0.722 0.0063295332 9.0573627e-39 319 235
0 0.72000003 0.0063120001 9.2424154e-39 320 235
0.0012624001 0.72000003 0.0063120001 8.8732741e-39 321 235
0.0025318132 0.722 0.0063295332 9.1469589e-39 322 235
0.0037977197 0.722 0.0063295332 8.9625705e-39 323 235
0.0050636264 0.722 0.0063295332 8.3190045e-39 324 235
0.0063295332 0.722 0.0063295332 8.1346161e-39 325 235
0.0076059597 0.72299999 0.0063382997 7.8587508e-39 326 235
0.0088736191 0.72299999 0.0063382997 7.7665566e-39 327 235
0.01014128 0.72299999 0.0063382997 8.1360902e-39 328 235
0.01140894 0.72299999 0.0063382997 9.6108602e-39 329 235
0.012676599 0.72299999 0.0063382997 1.1533334e-38 330 235
0.01394426 0.72299999 0.0063382997 1.0795769e-38 331 235
0.015211919 0.72299999 0.0063382997 9.0515795e-39 332 235
0.016525166 0.72500002 0.0063558333 8.8671883e-39 333 235
0.017796334 0.72500002 0.0063558333 9.0504837e-39 334 235
0.019120099 0.727 0.0063733663 8.8660925e-39 335 235
0.020394772 0.727 0.0063733663 8.8650331e-39 336 235
0.021699252 0.72799999 0.0063821329 9.1419801e-39 337 235
0.023038799 0.73000002 0.0063996664 1.0978407e-38 338 235
0.024318734 0.73000002 0.0063996664 1.2084753e-38 339 235
0.025633732 0.73100001 0.006408433 1.2268095e-38 340 235
0.026915418 0.73100001 0.006408433 1.1530171e-38 341 235
0.028389972 0.736 0.0064522666 1.0705081e-38 342 235
0.029761078 0.73799998 0.0064697997 1.0889474e-38 343 235
0.031055039 0.73799998 0.0064697997 1.1528753e-38 344 235
0.032348998 0.73799998 0.0064697997 1.1251807e-38 345 235
0.033779722 0.741 0.0064960998 1.5763652e-38 346 235
0.035078939 0.741 0.0064960998 1.788451e-38 347 235
-0.03156 0.75 0.00526 1.7792324e-38 296 236
-0.030244999 0.75 0.00526 1.7331705e-38 297 236
-0.028891427 0.74900001 0.0052529867 1.6226819e-38 298 236
-0.027578179 0.74900001 0.0052529867 1.5120832e-38 299 236
-0.026264934 0.74900001 0.0052529867 1.4294328e-38 300 236
-0.024951685 0.74900001 0.0052529867 1.4570913e-38 301 236
-0.023291279 0.73799998 0.0051758396 1.4113899e-38 302 236
-0.021997318 0.73799998 0.0051758396 1.448268e-38 303 236
-0.020647252 0.736 0.005161813 1.2640217e-38 304 236
-0.019304199 0.73400003 0.0051477868 1.1257282e-38 305 236
-0.018017253 0.73400003 0.0051477868 1.1901582e-38 306 236
-0.016730307 0.73400003 0.0051477868 1.2085614e-38 307 236
-0.015422319 0.73299998 0.005140773 1.1994494e-38 308 236
-0.014137126 0.73299998 0.005140773 1.1994494e-38 309 236
-0.012816866 0.73100001 0.0051267464 1.1442727e-38 310 236
-0.011519399 0.73000002 0.0051197335 1.1166139e-38 311 236
-0.010211413 0.72799999 0.0051057064 1.1443404e-38 312 236
-0.0089227129 0.727 0.0050986931 1.0244862e-38 313 236
-0.0076270006 0.72500002 0.0050846669 9.4201252e-39 314 236
-0.0063558333 0.72500002 0.0050846669 9.1435397e-39 315 236
-0.0050706398 0.72299999 0.0050706398 9.0524007e-39 316 236
-0.0038029798 0.72299999 0.0050706398 9.5130187e-39 317 236
-0.0025353199 0.72299999 0.0050706398 9.701328e-39 318 236
-0.0012676599 0.72299999 0.0050706398 9.8853591e-39 319 236
0 0.72299999 0.0050706398 1.0070438e-38 320 236
0.0012676599 0.72299999 0.0050706398 9.425069e-39 321 236
0.0025353199 0.72299999 0.0050706398 9.5139772e-39 322 236
0.0038029798 0.72299999 0.0050706398 9.052999e-39 323 236
0.0050706398 0.72299999 0.0050706398 8.594511e-39 324 236
0.0063382997 0.72299999 0.0050706398 8.2260928e-39 325 236
0.0076059597 0.72299999 0.0050706398 7.5828856e-39 326 236
0.0088736191 0.72299999 0.0050706398 7.5828856e-39 327 236
0.01014128 0.72299999 0.0050706398 8.1357343e-39 328 236
0.01140894 0.72299999 0.0050706398 9.2420819e-39 329 236
0.012711667 0.72500002 0.0050846669 1.0338015e-38 330 236
0.013982833 0.72500002 0.0050846669 9.1394718e-39 331 236
0.015254001 0.72500002 0.0050846669 8.315434e-39 332 236
0.016570752 0.727 0.0050986931 8.500184e-39 333 236
0.017845426 0.727 0.0050986931 9.2334274e-39 334 236
0.019120099 0.727 0.0050986931 9.0490362e-39 335 236
0.020422826 0.72799999 0.0051057064 9.231687e-39 336 236
0.021699252 0.72799999 0.0051057064 1.0707176e-38 337 236
0.023038799 0.73000002 0.0051197335 1.2635079e-38 338 236
0.024418673 0.73299998 0.005140773 1.2265937e-38 339 236
0.025703866 0.73299998 0.005140773 1.1440126e-38 340 236
0.02709952 0.736 0.005161813 1.1071703e-38 341 236
0.028467119 0.73799998 0.0051758396 1.125683e-38 342 236
0.029801406 0.73900002 0.0051828534 1.1349025e-38 343 236
0.03109712 0.73900002 0.0051828534 1.1801759e-38 344 236
0.032392833 0.73900002 0.0051828534 1.1433337e-38 345 236
0.033688545 0.73900002 0.0051828534 1.6315752e-38 346 236
-0.030244999 0.75 0.003945 1.7148034e-38 297 237
-0.028929999 0.75 0.003945 1.5951311e-38 298 237
-0.027615 0.75 0.003945 1.4844603e-38 299 237
-0.0263 0.75 0.003945 1.4386523e-38 300 237
-0.024984999 0.75 0.003945 1.4755304e-38 301 237
-0.02363844 0.74900001 0.0039397399 1.4206451e-38 302 237
-0.022325192 0.74900001 0.0039397399 1.4574873e-38 303 237
-0.020731414 0.73900002 0.00388714 1.33767e-38 304 237
-0.019356798 0.736 0.0038713599 1.2178515e-38 305 237
-0.018066347 0.736 0.0038713599 1.1994494e-38 306 237
-0.016775893 0.736 0.0038713599 1.1717906e-38 307 237
-0.01544336 0.73400003 0.0038608401 1.1903017e-38 308 237
-0.014156413 0.73400003 0.0038608401 1.1718986e-38 309 237
-0.012851933 0.73299998 0.0038555798 1.13509e-38 310 237
-0.01153518 0.73100001 0.00384506 1.1904074e-38 311 237
-0.010211413 0.72799999 0.0038292799 1.273237e-38 312 237
-0.0089349858 0.72799999 0.0038292799 1.0519675e-38 313 237
-0.0076480396 0.727 0.0038240198 9.142486e-39 314 237
-0.0063733663 0.727 0.0038240198 9.142486e-39 315 237
-0.0050846669 0.72500002 0.0038135003 8.9598519e-39 316 237
-0.0038135003 0.72500002 0.0038135003 9.2364388e-39 317 237
-0.0025423334 0.72500002 0.0038135003 9.4233118e-39 318 237
-0.0012711667 0.72500002 0.0038135003 9.4233118e-39 319 237
0 0.72500002 0.0038135003 9.974315e-39 320 237
0.0012746733 0.727 0.0038240198 9.4211426e-39 321 237
0.0025493465 0.727 0.0038240198 9.5143583e-39 322 237
0.0038029798 0.72299999 0.0038029798 9.0530201e-39 323 237
0.0050706398 0.72299999 0.0038029798 8.501958e-39 324 237
0.0063382997 0.72299999 0.0038029798 8.0409869e-39 325 237
0.0076270006 0.72500002 0.0038135003 7.3992146e-39 326 237
0.0088981669 0.72500002 0.0038135003 7.3992146e-39 327 237
0.010169334 0.72500002 0.0038135003 7.5836325e-39 328 237
0.0114405 0.72500002 0.0038135003 7.7683839e-39 329 237
0.012711667 0.72500002 0.0038135003 8.0410233e-39 330 237
0.013982833 0.72500002 0.0038135003 7.8562733e-39 331 237
0.015296079 0.727 0.0038240198 8.9590041e-39 332 237
0.016570752 0.727 0.0038240198 9.1433968e-39 333 237
0.017845426 0.727 0.0038240198 9.2334428e-39 334 237
0.0191464 0.72799999 0.0038292799 9.2334428e-39 335 237
0.020422826 0.72799999 0.0038292799 1.0518854e-38 336 237
0.021758866 0.73000002 0.0038397999 1.1901788e-38 337 237
0.02307036 0.73100001 0.00384506 1.2176991e-38 338 237
0.024451986 0.73400003 0.0038608401 1.134723e-38 339 237
0.025809066 0.736 0.0038713599 1.1346506e-38 340 237
0.027173158 0.73799998 0.0038818798 1.1254309e-38 341 237
0.028505694 0.73900002 0.00388714 1.1435848e-38 342 237
0.029882059 0.741 0.0038976599 1.1528404e-38 343 237
0.03118128 0.741 0.0038976599 1.1434429e-38 344 237
0.032480497 0.741 0.0038976599 1.1710657e-38 345 237
0.033779722 0.741 0.0038976599 1.5948768e-38 346 237
-0.027615 0.75 0.00263 1.4936436e-38 299 238
-0.0263 0.75 0.00263 1.4294683e-38 300 238
-0.024984999 0.75 0.00263 1.4663106e-38 301 238
-0.023669999 0.75 0.00263 1.4297567e-38 302 238
-0.022325192 0.74900001 0.0026264933 1.4666709e-38 303 238
-0.020955838 0.74699998 0.0026194798 1.347033e-38 304 238
-0.0194357 0.73900002 0.0025914267 1.3101188e-38 305 238
-0.018115439 0.73799998 0.0025879198 1.2455471e-38 306 238
-0.016775893 0.736 0.0025809065 1.1533875e-38 307 238
-0.015485439 0.736 0.0025809065 1.1903017e-38 308 238
-0.014194986 0.736 0.0025809065 1.1903017e-38 309 238
-0.012869466 0.73400003 0.0025738934 1.1534578e-38 310 238
-0.011566739 0.73299998 0.0025703865 1.2732763e-38 311 238
-0.010239467 0.73000002 0.0025598668 1.3470308e-38 312 238
-0.0089595336 0.73000002 0.0025598668 1.0243461e-38 313 238
-0.0076585598 0.72799999 0.0025528532 8.9577416e-39 314 238
-0.0063821329 0.72799999 0.0025528532 9.0499372e-39 315 238
-0.0050986931 0.727 0.0025493465 8.6839867e-39 316 238
-0.0038240198 0.727 0.0025493465 8.6839867e-39 317 238
-0.0025528532 0.72799999 0.0025528532 8.5024499e-39 318 238
-0.0012764266 0.72799999 0.0025528532 8.5024499e-39 319 238
0 0.72799999 0.0025528532 8.9605386e-39 320 238
0.0012764266 0.72799999 0.0025528532 8.8683429e-39 321 238
0.0025528532 0.72799999 0.0025528532 9.1463115e-39 322 238
0.0038240198 0.727 0.0025493465 8.6853334e-39 323 238
0.0050846669 0.72500002 0.0025423334 8.5937991e-39 324 238
0.0063558333 0.72500002 0.0025423334 8.1328224e-39 325 238
0.0076270006 0.72500002 0.0025423334 7.3992146e-39 326 238
0.0088981669 0.72500002 0.0025423334 7.4914089e-39 327 238
0.010169334 0.72500002 0.0025423334 7.675084e-39 328 238
0.0114405 0.72500002 0.0025423334 7.3984972e-39 329 238
0.012746733 0.727 0.0025493465 7.5814689e-39 330 238
0.014021406 0.727 0.0025493465 7.9498913e-39 331 238
0.01531712 0.72799999 0.0025528532 9.4185446e-39 332 238
0.016593546 0.72799999 0.0025528532 9.4185446e-39 333 238
0.017869972 0.72799999 0.0025528532 9.0476293e-39 334 238
0.019199001 0.73000002 0.0025598668 9.6929987e-39 335 238
0.020478934 0.73000002 0.0025598668 1.1348637e-38 336 238
0.021848286 0.73299998 0.0025703865 1.2086202e-38 337 238
0.023165042 0.73400003 0.0025738934 1.2084445e-38 338 238
0.024518613 0.736 0.0025809065 1.1070293e-38 339 238
0.025879199 0.73799998 0.0025879198 1.0977394e-38 340 238
0.027209979 0.73900002 0.0025914267 1.0608253e-38 341 238
0.028582839 0.741 0.0025984398 1.0422087e-38 342 238
0.029922385 0.74199998 0.0026019465 1.0514284e-38 343 238
0.031223357 0.74199998 0.0026019465 1.1802136e-38 344 238
0.032524332 0.74199998 0.0026019465 1.2724091e-38 345 238
0.033825304 0.74199998 0.0026019465 1.5948765e-38 346 238
-0.02637013 0.75199997 0.0013185065 1.4845336e-38 300 239
-0.025051624 0.75199997 0.0013185065 1.4937532e-38 301 239
-0.023669999 0.75 0.001315 1.4389044e-38 302 239
-0.022355 0.75 0.001315 1.4757825e-38 303 239
-0.021011947 0.74900001 0.0013132467 1.3102271e-38 304 239
-0.019646099 0.74699998 0.0013097399 1.2640933e-38 305 239
-0.018139986 0.73900002 0.0012957134 1.1996292e-38 306 239
-0.016821479 0.73799998 0.0012939599 1.1719705e-38 307 239
-0.015485439 0.736 0.0012904532 1.1995213e-38 308 239
-0.014194986 0.736 0.0012904532 1.1903017e-38 309 239
-0.012869466 0.73400003 0.0012869467 1.1717534e-38 310 239
-0.011582521 0.73400003 0.0012869467 1.3193023e-38 311 239
-0.010253493 0.73100001 0.0012816866 1.3838743e-38 312 239
-0.0089595336 0.73000002 0.0012799334 1.0242755e-38 313 239
-0.0076795998 0.73000002 0.0012799334 8.7740762e-39 314 239
-0.0063996664 0.73000002 0.0012799334 8.9581073e-39 315 239
-0.0051057064 0.72799999 0.0012764266 8.6832847e-39 316 239
-0.0038292799 0.72799999 0.0012764266 8.5910876e-39 317 239
-0.0025528532 0.72799999 0.0012764266 8.5921414e-39 318 239
-0.0012764266 0.72799999 0.0012764266 8.684337e-39 319 239
0 0.72799999 0.0012764266 9.0513021e-39 320 239
0.0012764266 0.72799999 0.0012764266 8.9591064e-39 321 239
0.0025528532 0.72799999 0.0012764266 9.2367093e-39 322 239
0.0038292799 0.72799999 0.0012764266 8.7757311e-39 323 239
0.0050986931 0.727 0.0012746733 8.2253754e-39 324 239
0.0063733663 0.727 0.0012746733 8.1331811e-39 325 239
0.0076585598 0.72799999 0.0012764266 7.2159024e-39 326 239
0.0089349858 0.72799999 0.0012764266 7.2159024e-39 327 239
0.010211413 0.72799999 0.0012764266 7.3992146e-39 328 239
0.01148784 0.72799999 0.0012764266 7.3992146e-39 329 239
0.012764266 0.72799999 0.0012764266 8.2250362e-39 330 239
0.014040692 0.72799999 0.0012764266 8.6860144e-39 331 239
0.0153592 0.73000002 0.0012799334 9.3267399e-39 332 239
0.016639132 0.73000002 0.0012799334 9.3267399e-39 333 239
0.017919067 0.73000002 0.0012799334 1.0060762e-38 334 239
0.019225299 0.73100001 0.0012816866 1.0983079e-38 335 239
0.020563092 0.73299998 0.0012851933 1.1992972e-38 336 239
0.021937706 0.736 0.0012904532 1.2269558e-38 337 239
0.023228159 0.736 0.0012904532 1.2084837e-38 338 239
0.024585238 0.73799998 0.0012939599 9.4111625e-39 339 239
0.025914267 0.73900002 0.0012957134 8.4877937e-39 340 239
0.027283618 0.741 0.0012992199 7.8424243e-39 341 239
0.028621411 0.74199998 0.0013009732 7.2960875e-39 342 239
0.029922385 0.74199998 0.0013009732 8.9559689e-39 343 239
0.031223357 0.74199998 0.0013009732 1.2539704e-38 344 239
0.032612 0.74400002 0.00130448 1.3000681e-38 345 239
-0.026440267 0.75400001 -0 1.4110655e-38 300 240
-0.025118252 0.75400001 -0 1.4387242e-38 301 240
-0.023733119 0.75199997 -0 1.4114255e-38 302 240
-0.022414612 0.75199997 -0 1.4574873e-38 303 240
-0.021096105 0.75199997 -0 1.2733484e-38 304 240
-0.0196987 0.74900001 -0 1.1995919e-38 305 240
-0.018336359 0.74699998 -0 1.1811901e-38 306 240
-0.016844273 0.73900002 -0 1.1627509e-38 307 240
-0.015527519 0.73799998 -0 1.2085614e-38 308 240
-0.014233559 0.73799998 -0 1.1809385e-38 309 240
-0.012904533 0.736 -0 1.1532793e-38 310 240
-0.01161408 0.736 -0 1.3376705e-38 311 240
-0.010295574 0.73400003 -0 1.3932025e-38 312 240
-0.0089963535 0.73299998 -0 1.0059808e-38 313 240
-0.00769012 0.73100001 -0 9.4172932e-39 314 240
-0.006408433 0.73100001 -0 9.1407063e-39 315 240
-0.0051197335 0.73000002 -0 8.7744027e-39 316 240
-0.0038397999 0.73000002 -0 8.7744027e-39 317 240
-0.0025598668 0.73000002 -0 8.7754593e-39 318 240
-0.0012799334 0.73000002 -0 8.5910694e-39 319 240
0 0.73000002 -0 8.8665549e-39 320 240
0.0012799334 0.73000002 -0 8.5903267e-39 321 240
0.0025598668 0.73000002 -0 8.3183487e-39 322 240
0.0038397999 0.73000002 -0 7.9495676e-39 323 240
0.0051197335 0.73000002 -0 7.9505863e-39 324 240
0.0063996664 0.73000002 -0 7.7658391e-39 325 240
0.0076795998 0.73000002 -0 7.4914089e-39 326 240
0.0089595336 0.73000002 -0 7.676156e-39 327 240
0.010239467 0.73000002 -0 8.0417044e-39 328 240
0.011519399 0.73000002 -0 8.503037e-39 329 240
0.012799333 0.73000002 -0 1.024614e-38 330 240
0.014098554 0.73100001 -0 1.0153945e-38 331 240
0.01538024 0.73100001 -0 9.4164314e-39 332 240
0.016661927 0.73100001 -0 9.8774096e-39 333 240
0.017943613 0.73100001 -0 1.1532693e-38 334 240
0.019304199 0.73400003 -0 1.2178063e-38 335 240
0.020591147 0.73400003 -0 1.2543294e-38 336 240
0.021997318 0.73799998 -0 1.263549e-38 337 240
0.023322839 0.73900002 -0 1.2909944e-38 338 240
0.024618553 0.73900002 -0 9.7752927e-39 339 240
0.025984399 0.741 -0 7.0130588e-39 340 240
0.027320439 0.74199998 -0 7.1974501e-39 341 240
0.028621411 0.74199998 -0 8.6714857e-39 342 240
0.029922385 0.74199998 -0 1.069979e-38 343 240
0.031223357 0.74199998 -0 1.2723017e-38 344 240
-0.02637013 0.75199997 -0.0013185065 1.3374885e-38 300 241
-0.025051624 0.75199997 -0.0013185065 1.4205005e-38 301 241
-0.023733119 0.75199997 -0.0013185065 1.4299362e-38 302 241
-0.022414612 0.75199997 -0.0013185065 1.4484112e-38 303 241
-0.021096105 0.75199997 -0.0013185065 1.2365428e-38 304 241
-0.019724999 0.75 -0.001315 1.1074689e-38 305 241
-0.018385453 0.74900001 -0.0013132467 1.1901948e-38 306 241
-0.016889861 0.741 -0.0012992199 1.1809752e-38 307 241
-0.01559064 0.741 -0.0012992199 1.2177812e-38 308 241
-0.014252847 0.73900002 -0.0012957134 1.1809029e-38 309 241
-0.012939599 0.73799998 -0.0012939599 1.1257285e-38 310 241
-0.01161408 0.736 -0.0012904532 1.3008642e-38 311 241
-0.010323626 0.736 -0.0012904532 1.3563601e-38 312 241
-0.0090086265 0.73400003 -0.0012869467 1.0428951e-38 313 241
-0.0077111595 0.73299998 -0.0012851933 9.9683132e-39 314 241
-0.0064259665 0.73299998 -0.0012851933 9.5998894e-39 315 241
-0.0051267464 0.73100001 -0.0012816866 8.9580919e-39 316 241
-0.00384506 0.73100001 -0.0012816866 8.7736992e-39 317 241
-0.0025633732 0.73100001 -0.0012816866 8.6832847e-39 318 241
-0.0012816866 0.73100001 -0.0012816866 8.498892e-39 319 241
0 0.73100001 -0.0012816866 8.6828951e-39 320 241
0.0012816866 0.73100001 -0.0012816866 8.4981451e-39 321 241
0.0025633732 0.73100001 -0.0012816866 8.5016638e-39 322 241
0.00384506 0.73100001 -0.0012816866 8.1328827e-39 323 241
0.0051267464 0.73100001 -0.0012816866 7.6743652e-39 324 241
0.006408433 0.73100001 -0.0012816866 7.6743652e-39 325 241
0.00769012 0.73100001 -0.0012816866 7.6750995e-39 326 241
0.0089963535 0.73299998 -0.0012851933 8.3204689e-39 327 241
0.010281546 0.73299998 -0.0012851933 1.0157221e-38 328 241
0.011566739 0.73299998 -0.0012851933 1.0894786e-38 329 241
0.012851933 0.73299998 -0.0012851933 1.0889769e-38 330 241
0.014137126 0.73299998 -0.0012851933 1.02444e-38 331 241
0.015422319 0.73299998 -0.0012851933 9.878546e-39 332 241
0.016707512 0.73299998 -0.0012851933 1.0800501e-38 333 241
0.018017253 0.73400003 -0.0012869467 1.1990471e-38 334 241
0.019356798 0.736 -0.0012904532 1.1345102e-38 335 241
0.020703359 0.73799998 -0.0012939599 1.1435164e-38 336 241
0.022027127 0.73900002 -0.0012957134 1.171211e-38 337 241
0.023385961 0.741 -0.0012992199 1.2078394e-38 338 241
0.024685178 0.741 -0.0012992199 9.4047208e-39 339 241
0.026019465 0.74199998 -0.0013009732 6.4623891e-39 340 241
0.027320439 0.74199998 -0.0013009732 7.9375192e-39 341 241
0.028621411 0.74199998 -0.0013009732 1.0790171e-38 342 241
0.029922385 0.74199998 -0.0013009732 1.1896518e-38 343 241
0.031223357 0.74199998 -0.0013009732 1.2538258e-38 344 241
-0.025051624 0.75199997 -0.0026370131 1.4019536e-38 301 242
-0.023733119 0.75199997 -0.0026370131 1.448268e-38 302 242
-0.022414612 0.75199997 -0.0026370131 1.4759269e-38 303 242
-0.021096105 0.75199997 -0.0026370131 1.2272523e-38 304 242
-0.019724999 0.75 -0.00263 1.0705556e-38 305 242
-0.018385453 0.74900001 -0.0026264933 1.1259098e-38 306 242
-0.017072206 0.74900001 -0.0026264933 1.1351295e-38 307 242
-0.015653761 0.74400002 -0.00260896 1.1994141e-38 308 242
-0.01429142 0.741 -0.0025984398 1.1717553e-38 309 242
-0.012957133 0.73900002 -0.0025914267 1.1164733e-38 310 242
-0.01166142 0.73900002 -0.0025914267 1.2824613e-38 311 242
-0.010351679 0.73799998 -0.0025879198 1.3655798e-38 312 242
-0.0090577193 0.73799998 -0.0025879198 1.2272862e-38 313 242
-0.0077427197 0.736 -0.0025809065 1.1901187e-38 314 242
-0.0064522666 0.736 -0.0025809065 1.1255818e-38 315 242
-0.0051477868 0.73400003 -0.0025738934 9.9690166e-39 316 242
-0.0038608401 0.73400003 -0.0025738934 9.5083972e-39 317 242
-0.0025703865 0.73299998 -0.0025703865 9.1421132e-39 318 242
-0.0012851933 0.73299998 -0.0025703865 8.7733307e-39 319 242
0 0.73299998 -0.0025703865 8.0364509e-39 320 242
0.0012851933 0.73299998 -0.0025703865 8.5896247e-39 321 242
0.0025703865 0.73299998 -0.0025703865 9.2360058e-39 322 242
0.0038608401 0.73400003 -0.0025738934 8.682832e-39 323 242
0.0051477868 0.73400003 -0.0025738934 8.406929e-39 324 242
0.006434733 0.73400003 -0.0025738934 8.406929e-39 325 242
0.0077216802 0.73400003 -0.0025738934 7.9484872e-39 326 242
0.0090086265 0.73400003 -0.0025738934 9.7923998e-39 327 242
0.010295574 0.73400003 -0.0025738934 1.1903195e-38 328 242
0.011582521 0.73400003 -0.0025738934 1.1350022e-38 329 242
0.012869466 0.73400003 -0.0025738934 1.0336611e-38 330 242
0.014156413 0.73400003 -0.0025738934 1.0428806e-38 331 242
0.01544336 0.73400003 -0.0025738934 1.0520709e-38 332 242
0.016775893 0.736 -0.0025809065 1.0612906e-38 333 242
0.018066347 0.736 -0.0025809065 7.8492486e-39 334 242
0.019409399 0.73799998 -0.0025879198 8.4024224e-39 335 242
0.020731414 0.73900002 -0.0025914267 1.0238441e-38 336 242
0.02208674 0.741 -0.0025984398 9.7774633e-39 337 242
0.023385961 0.741 -0.0025984398 8.9491474e-39 338 242
0.024685178 0.741 -0.0025984398 7.6584086e-39 339 242
0.026019465 0.74199998 -0.0026019465 7.4754495e-39 340 242
0.027320439 0.74199998 -0.0026019465 1.0149123e-38 341 242
0.028621411 0.74199998 -0.0026019465 1.2079097e-38 342 242
0.029922385 0.74199998 -0.0026019465 1.226313e-38 343 242
-0.023733119 0.75199997 -0.0039555198 1.3193744e-38 302 243
-0.022414612 0.75199997 -0.0039555198 1.4299731e-38 303 243
-0.021096105 0.75199997 -0.0039555198 1.2642017e-38 304 243
-0.0197776 0.75199997 -0.0039555198 1.1259083e-38 305 243
-0.018409999 0.75 -0.003945 1.1719708e-38 306 243
-0.017095 0.75 -0.003945 1.1627153e-38 307 243
-0.01575896 0.74900001 -0.0039397399 1.1811903e-38 308 243
-0.014407139 0.74699998 -0.0039292197 1.1534958e-38 309 243
-0.013009733 0.74199998 -0.0039029196 1.107362e-38 310 243
-0.01169298 0.741 -0.0038976599 1.2640585e-38 311 243
-0.010393759 0.741 -0.0038976599 1.3562892e-38 312 243
-0.0090945391 0.741 -0.0038976599 1.3286305e-38 313 243
-0.0077742799 0.73900002 -0.00388714 1.402026e-38 314 243
-0.0064785667 0.73900002 -0.00388714 1.3098305e-38 315 243
-0.0051758396 0.73799998 -0.0038818798 1.2270693e-38 316 243
-0.0038713599 0.736 -0.0038713599 1.1533128e-38 317 243
-0.0025809065 0.736 -0.0038713599 1.0613666e-38 318 243
-0.0012869467 0.73400003 -0.0038608401 1.0060852e-38 319 243
0 0.73400003 -0.0038608401 8.128683e-39 320 243
0.0012869467 0.73400003 -0.0038608401 8.7740524e-39 321 243
0.0025738934 0.73400003 -0.0038608401 1.0431019e-38 322 243
0.0038608401 0.73400003 -0.0038608401 9.3246716e-39 323 243
0.0051477868 0.73400003 -0.0038608401 7.8530938e-39 324 243
0.0064522666 0.736 -0.0038713599 7.6687025e-39 325 243
0.0077427197 0.736 -0.0038713599 7.5782824e-39 326 243
0.0090331733 0.736 -0.0038713599 9.7909775e-39 327 243
0.010323626 0.736 -0.0038713599 1.1258192e-38 328 243
0.01161408 0.736 -0.0038713599 1.0336595e-38 329 243
0.012939599 0.73799998 -0.0038818798 9.8767313e-39 330 243
0.014233559 0.73799998 -0.0038818798 1.0798327e-38 331 243
0.015527519 0.73799998 -0.0038818798 1.1623486e-38 332 243
0.016844273 0.73900002 -0.00388714 9.963965e-39 333 243
0.018139986 0.73900002 -0.00388714 4.2583232e-39 334 243
0.019488299 0.741 -0.0038976599 6.1944315e-39 335 243
0.020815572 0.74199998 -0.0039029196 9.2253854e-39 336 243
0.022116546 0.74199998 -0.0039029196 8.3956233e-39 337 243
0.023417519 0.74199998 -0.0039029196 7.3825448e-39 338 243
0.024718491 0.74199998 -0.0039029196 8.0279142e-39 339 243
0.026019465 0.74199998 -0.0039029196 1.0052971e-38 340 243
0.027394081 0.74400002 -0.0039134403 1.134371e-38 341 243
0.02869856 0.74400002 -0.0039134403 1.2078742e-38 342 243
-0.02379624 0.75400001 -0.0052880533 1.2087043e-38 302 244
-0.022474226 0.75400001 -0.0052880533 1.3377782e-38 303 244
-0.021152213 0.75400001 -0.0052880533 1.3560378e-38 304 244
-0.0198565 0.755 -0.0052950666 1.3007204e-38 305 244
-0.018508185 0.75400001 -0.0052880533 1.2179244e-38 306 244
-0.017095 0.75 -0.00526 1.1810103e-38 307 244
-0.01575896 0.74900001 -0.0052529867 1.2087414e-38 308 244
-0.014407139 0.74699998 -0.0052389596 1.153424e-38 309 244
-0.013079867 0.74599999 -0.0052319462 1.0338215e-38 310 244
-0.011740319 0.74400002 -0.0052179201 1.1997737e-38 311 244
-0.010407786 0.74199998 -0.0052038929 1.35611e-38 312 244
-0.009106813 0.74199998 -0.0052038929 1.2823176e-38 313 244
-0.0077953199 0.741 -0.0051968796 1.3100472e-38 314 244
-0.0064960998 0.741 -0.0051968796 1.3100472e-38 315 244
-0.0051828534 0.73900002 -0.0051828534 1.3191939e-38 316 244
-0.0038818798 0.73799998 -0.0051758396 1.3007908e-38 317 244
-0.0025879198 0.73799998 -0.0051758396 1.273202e-38 318 244
-0.0012904532 0.736 -0.005161813 1.2547629e-38 319 244
0 0.736 -0.005161813 1.1441634e-38 320 244
0.0012904532 0.736 -0.005161813 1.1349439e-38 321 244
0.0025809065 0.736 -0.005161813 1.1994437e-38 322 244
0.0038713599 0.736 -0.005161813 1.1072479e-38 323 244
0.005161813 0.736 -0.005161813 8.8637102e-39 324 244
0.0064697997 0.73799998 -0.0051758396 8.7715132e-39 325 244
0.0077637597 0.73799998 -0.0051758396 1.005934e-38 326 244
0.0090577193 0.73799998 -0.0051758396 1.0796905e-38 327 244
0.010351679 0.73799998 -0.0051758396 9.0519901e-39 328 244
0.011645639 0.73799998 -0.0051758396 8.222228e-39 329 244
0.012957133 0.73900002 -0.0051828534 9.1431348e-39 330 244
0.014252847 0.73900002 -0.0051828534 1.07101e-38 331 244
0.01554856 0.73900002 -0.0051828534 1.3186509e-38 332 244
0.016889861 0.741 -0.0051968796 1.0881978e-38 333 244
0.018189078 0.741 -0.0051968796 5.726622e-39 334 244
0.019488299 0.741 -0.0051968796 7.0170021e-39 335 244
0.020815572 0.74199998 -0.0052038929 8.8555295e-39 336 244
0.022116546 0.74199998 -0.0052038929 8.7633338e-39 337 244
0.023417519 0.74199998 -0.0052038929 9.591277e-39 338 244
0.024718491 0.74199998 -0.0052038929 1.1066047e-38 339 244
0.026019465 0.74199998 -0.0052038929 1.1341545e-38 340 244
0.027320439 0.74199998 -0.0052038929 1.1433742e-38 341 244
0.029547172 0.76599997 -0.0053722127 1.1526291e-38 342 244
0.030890226 0.76599997 -0.0053722127 1.1341898e-38 343 244
0.032233275 0.76599997 -0.0053722127 1.2078722e-38 344 244
-0.023827799 0.755 -0.0066188332 1.1532424e-38 302 245
-0.022504034 0.755 -0.0066188332 1.2730966e-38 303 245
-0.021180267 0.755 -0.0066188332 1.3744046e-38 304 245
-0.0198565 0.755 -0.0066188332 1.4389415e-38 305 245
-0.018508185 0.75400001 -0.0066100666 1.2454752e-38 306 245
-0.017140586 0.75199997 -0.0065925326 1.1809383e-38 307 245
-0.01578 0.75 -0.006575 1.1902664e-38 308 245
-0.014445714 0.74900001 -0.0065662335 1.134949e-38 309 245
-0.013097399 0.74699998 -0.0065486995 1.0338213e-38 310 245
-0.011771879 0.74599999 -0.0065399334 1.208993e-38 311 245
-0.010463892 0.74599999 -0.0065399334 1.35611e-38 312 245
-0.0091313599 0.74400002 -0.0065223998 1.2177806e-38 313 245
-0.0078268806 0.74400002 -0.0065223998 1.1994847e-38 314 245
-0.0065048663 0.74199998 -0.0065048663 1.2363628e-38 315 245
-0.0051968796 0.741 -0.0064960998 1.3098671e-38 316 245
-0.0038976599 0.741 -0.0064960998 1.3283421e-38 317 245
-0.0025914267 0.73900002 -0.0064785667 1.3559998e-38 318 245
-0.0012957134 0.73900002 -0.0064785667 1.3375967e-38 319 245
0 0.73900002 -0.0064785667 1.2730595e-38 320 245
0.0012939599 0.73799998 -0.0064697997 1.2914985e-38 321 245
0.0025879198 0.73799998 -0.0064697997 1.3835143e-38 322 245
0.0038818798 0.73799998 -0.0064697997 1.2821351e-38 323 245
0.0051758396 0.73799998 -0.0064697997 9.1414294e-39 324 245
0.0064697997 0.73799998 -0.0064697997 9.5102119e-39 325 245
0.0077637597 0.73799998 -0.0064697997 1.2636915e-38 326 245
0.0090699932 0.73900002 -0.0064785667 1.2083741e-38 327 245
0.010365707 0.73900002 -0.0064785667 9.6952267e-39 328 245
0.01169298 0.741 -0.0064960998 8.5888792e-39 329 245
0.0129922 0.741 -0.0064960998 9.8789117e-39 330 245
0.01429142 0.741 -0.0064960998 1.1354401e-38 331 245
0.015611678 0.74199998 -0.0065048663 1.3370903e-38 332 245
0.016912652 0.74199998 -0.0065048663 1.1434794e-38 333 245
0.018213626 0.74199998 -0.0065048663 6.6467776e-39 334 245
0.0195146 0.74199998 -0.0065048663 7.0155601e-39 335 245
0.02087168 0.74400002 -0.0065223998 8.2108789e-39 336 245
0.022176161 0.74400002 -0.0065223998 9.1328366e-39 337 245
0.023480639 0.74400002 -0.0065223998 1.1158597e-38 338 245
0.02478512 0.74400002 -0.0065223998 1.1435543e-38 339 245
0.026861066 0.76599997 -0.0067152665 1.125078e-38 340 245
0.028204117 0.76599997 -0.0067152665 1.1434811e-38 341 245
0.029547172 0.76599997 -0.0067152665 1.1251502e-38 342 245
0.030890226 0.76599997 -0.0067152665 1.1159306e-38 343 245
0.032233275 0.76599997 -0.0067152665 1.2815212e-38 344 245
-0.024269639 0.76899999 -0.0080898795 1.2085228e-38 302 246
-0.022921326 0.76899999 -0.0080898795 1.2085228e-38 303 246
-0.021573013 0.76899999 -0.0080898795 1.2362191e-38 304 246
-0.0199617 0.759 -0.0079846792 1.3468179e-38 305 246
-0.018532733 0.755 -0.0079425992 1.2270008e-38 306 246
-0.017208965 0.755 -0.0079425992 1.1440247e-38 307 246
-0.015822079 0.75199997 -0.0079110395 1.1258374e-38 308 246
-0.014465 0.75 -0.00789 1.1166178e-38 309 246
-0.013132467 0.74900001 -0.0078794798 1.0981784e-38 310 246
-0.01181922 0.74900001 -0.0078794798 1.2549469e-38 311 246
-0.010477919 0.74699998 -0.0078584393 1.3192684e-38 312 246
-0.0091681797 0.74699998 -0.0078584393 1.0519011e-38 313 246
-0.0078479191 0.74599999 -0.0078479191 1.0336415e-38 314 246
-0.0065399334 0.74599999 -0.0078479191 1.0889588e-38 315 246
-0.0052179201 0.74400002 -0.0078268806 1.1440597e-38 316 246
-0.0039029196 0.74199998 -0.0078058392 1.1532793e-38 317 246
-0.0025984398 0.741 -0.0077953199 1.1350197e-38 318 246
-0.0012992199 0.741 -0.0077953199 1.1534588e-38 319 246
0 0.741 -0.0077953199 1.1993045e-38 320 246
0.0012992199 0.741 -0.0077953199 1.2362188e-38 321 246
0.0025984398 0.741 -0.0077953199 1.346673e-38 322 246
0.0038976599 0.741 -0.0077953199 1.3098308e-38 323 246
0.0051968796 0.741 -0.0077953199 9.7871701e-39 324 246
0.0064960998 0.741 -0.0077953199 1.0155954e-38 325 246
0.0077953199 0.741 -0.0077953199 1.3189755e-38 326 246
0.0090945391 0.741 -0.0077953199 1.3189755e-38 327 246
0.010393759 0.741 -0.0077953199 1.2637991e-38 328 246
0.01170876 0.74199998 -0.0078058392 1.24536e-38 329 246
0.013009733 0.74199998 -0.0078058392 1.2914221e-38 330 246
0.014310705 0.74199998 -0.0078058392 1.2822025e-38 331 246
0.015611678 0.74199998 -0.0078058392 1.2728054e-38 332 246
0.016958239 0.74400002 -0.0078268806 1.1252924e-38 333 246
0.018311813 0.74599999 -0.0078479191 7.5705164e-39 334 246
0.019619798 0.74599999 -0.0078479191 9.0452863e-39 335 246
0.020927785 0.74599999 -0.0078479191 1.0792338e-38 336 246
0.022235774 0.74599999 -0.0078479191 1.1345512e-38 337 246
0.02565828 0.81300002 -0.0085527599 1.1436259e-38 338 246
0.025518013 0.76599997 -0.0080583189 1.0975641e-38 339 246
0.026861066 0.76599997 -0.0080583189 1.1250427e-38 340 246
0.028204117 0.76599997 -0.0080583189 1.1434817e-38 341 246
0.029547172 0.76599997 -0.0080583189 1.1068184e-38 342 246
0.030890226 0.76599997 -0.0080583189 1.1068184e-38 343 246
0.032233275 0.76599997 -0.0080583189 1.3552404e-38 344 246
-0.024206521 0.76700002 -0.0094136465 1.3096856e-38 302 247
-0.022861714 0.76700002 -0.0094136465 1.2543683e-38 303 247
-0.021516906 0.76700002 -0.0094136465 1.2360035e-38 304 247
-0.0200406 0.76200002 -0.0093522798 1.2728818e-38 305 247
-0.01863092 0.759 -0.00931546 1.1166181e-38 306 247
-0.017254554 0.75700003 -0.0092909131 1.033642e-38 307 247
-0.015885198 0.755 -0.0092663663 1.0890317e-38 308 247
-0.014503572 0.75199997 -0.0092295464 1.0798122e-38 309 247
-0.013185065 0.75199997 -0.0092295464 1.0798475e-38 310 247
-0.011835 0.75 -0.0092049995 1.1997018e-38 311 247
-0.010505973 0.74900001 -0.0091927266 1.2548039e-38 312 247
-0.0091927266 0.74900001 -0.0091927266 9.5055834e-39 313 247
-0.0078584393 0.74699998 -0.0091681797 9.4144696e-39 314 247
-0.0065486995 0.74699998 -0.0091681797 1.005948e-38 315 247
-0.0052389596 0.74699998 -0.0091681797 1.0610841e-38 316 247
-0.0039239596 0.74599999 -0.0091559067 1.0979622e-38 317 247
-0.00260896 0.74400002 -0.0091313599 1.0796307e-38 318 247
-0.0013009732 0.74199998 -0.009106813 1.0888502e-38 319 247
0 0.74199998 -0.009106813 1.0981773e-38 320 247
0.00130448 0.74400002 -0.0091313599 1.1719339e-38 321 247
0.0026019465 0.74199998 -0.009106813 1.3559651e-38 322 247
0.0039029196 0.74199998 -0.009106813 1.3006478e-38 323 247
0.0052038929 0.74199998 -0.009106813 9.6946214e-39 324 247
0.0065048663 0.74199998 -0.009106813 1.0432186e-38 325 247
0.0078058392 0.74199998 -0.009106813 1.3374166e-38 326 247
0.009106813 0.74199998 -0.009106813 1.3189774e-38 327 247
0.010407786 0.74199998 -0.009106813 1.3374519e-38 328 247
0.011740319 0.74400002 -0.0091313599 1.3190127e-38 329 247
0.0130448 0.74400002 -0.0091313599 1.3373426e-38 330 247
0.014387853 0.74599999 -0.0091559067 1.3004645e-38 331 247
0.015695838 0.74599999 -0.0091559067 1.2359273e-38 332 247
0.017003827 0.74599999 -0.0091559067 1.1529511e-38 333 247
0.018311813 0.74599999 -0.0091559067 1.079124e-38 334 247
0.019646099 0.74699998 -0.0091681797 1.0883794e-38 335 247
0.020955838 0.74699998 -0.0091681797 1.0701568e-38 336 247
0.02423282 0.81300002 -0.0099782199 1.0701568e-38 337 247
0.024206521 0.76700002 -0.0094136465 1.0975641e-38 338 247
0.025518013 0.76599997 -0.0094013726 1.0790889e-38 339 247
0.026861066 0.76599997 -0.0094013726 1.0699773e-38 340 247
0.028204117 0.76599997 -0.0094013726 1.1160751e-38 341 247
0.029547172 0.76599997 -0.0094013726 1.1712104e-38 342 247
0.030890226 0.76599997 -0.0094013726 1.1804659e-38 343 247
-0.024206521 0.76700002 -0.010758453 1.3558182e-38 302 248
-0.022861714 0.76700002 -0.010758453 1.3558182e-38 303 248
-0.021516906 0.76700002 -0.010758453 1.3096872e-38 304 248
-0.020093199 0.764 -0.010716373 1.2543698e-38 305 248
-0.01870456 0.76200002 -0.01068832 1.006091e-38 306 248
-0.017300138 0.759 -0.01064624 1.0245301e-38 307 248
-0.015885198 0.755 -0.010590133 1.0705206e-38 308 248
-0.014542146 0.75400001 -0.010576107 1.0889238e-38 309 248
-0.013220133 0.75400001 -0.010576107 1.0613726e-38 310 248
-0.011866559 0.75199997 -0.010548052 1.1536042e-38 311 248
-0.01052 0.75 -0.01052 1.1903746e-38 312 248
-0.0091927266 0.74900001 -0.010505973 8.8609301e-39 313 248
-0.0078794798 0.74900001 -0.010505973 9.0435291e-39 314 248
-0.0065662335 0.74900001 -0.010505973 9.5048674e-39 315 248
-0.0052529867 0.74900001 -0.010505973 9.6878237e-39 316 248
-0.0039292197 0.74699998 -0.010477919 9.780378e-39 317 248
-0.0026194798 0.74699998 -0.010477919 9.2300755e-39 318 248
-0.0013097399 0.74699998 -0.010477919 9.5984993e-39 319 248
0 0.74599999 -0.010463892 9.970509e-39 320 248
0.0013079866 0.74599999 -0.010463892 1.1169052e-38 321 248
0.00260896 0.74400002 -0.01043584 1.3192667e-38 322 248
0.0039134403 0.74400002 -0.01043584 1.2455102e-38 323 248
0.0052179201 0.74400002 -0.01043584 9.601351e-39 324 248
0.0065223998 0.74400002 -0.01043584 1.0799894e-38 325 248
0.0078268806 0.74400002 -0.01043584 1.3282692e-38 326 248
0.0091313599 0.74400002 -0.01043584 1.2729519e-38 327 248
0.010463892 0.74599999 -0.010463892 1.2729866e-38 328 248
0.011771879 0.74599999 -0.010463892 1.282242e-38 329 248
0.013097399 0.74699998 -0.010477919 1.3005011e-38 330 248
0.014407139 0.74699998 -0.010477919 1.2820618e-38 331 248
0.015716879 0.74699998 -0.010477919 1.2176329e-38 332 248
0.017026618 0.74699998 -0.010477919 1.1438764e-38 333 248
0.018336359 0.74699998 -0.010477919 1.0882719e-38 334 248
0.019646099 0.74699998 -0.010477919 1.0698328e-38 335 248
0.020955838 0.74699998 -0.010477919 1.0423549e-38 336 248
0.022265578 0.74699998 -0.010477919 1.0516103e-38 337 248
0.024206521 0.76700002 -0.010758453 1.0975641e-38 338 248
0.025551327 0.76700002 -0.010758453 1.0606498e-38 339 248
0.026896132 0.76700002 -0.010758453 9.6895711e-39 340 248
0.030008299 0.815 -0.011431733 1.1348732e-38 341 248
0.031437267 0.815 -0.011431733 1.2541139e-38 342 248
0.032946885 0.81699997 -0.011459786 1.1987965e-38 343 248
0.034547675 0.82099998 -0.011515893 1.4105561e-38 344 248
-0.022921326 0.76899999 -0.012134819 1.3285894e-38 303 249
-0.021573013 0.76899999 -0.012134819 1.3742594e-38 304 249
-0.020145798 0.76599997 -0.012087479 1.3374172e-38 305 249
-0.018802745 0.76599997 -0.012087479 1.1440241e-38 306 249
-0.01736852 0.76200002 -0.01202436 1.0518644e-38 307 249
-0.015969358 0.759 -0.01197702 1.0245669e-38 308 249
-0.014600007 0.75700003 -0.01194546 1.0153474e-38 309 249
-0.013237666 0.755 -0.011913899 1.0244951e-38 310 249
-0.01189812 0.75400001 -0.01189812 1.1166547e-38 311 249
-0.010548052 0.75199997 -0.011866559 1.1719355e-38 312 249
-0.0092049995 0.75 -0.011835 9.5984965e-39 313 249
-0.00789 0.75 -0.011835 9.1378771e-39 314 249
-0.006575 0.75 -0.011835 9.1378771e-39 315 249
-0.00526 0.75 -0.011835 9.320839e-39 316 249
-0.0039397399 0.74900001 -0.01181922 9.1368079e-39 317 249
-0.0026264933 0.74900001 -0.01181922 9.0446095e-39 318 249
-0.0013132467 0.74900001 -0.01181922 9.3208362e-39 319 249
0 0.74900001 -0.01181922 1.0338215e-38 320 249
0.0013097399 0.74699998 -0.011787659 1.1444563e-38 321 249
0.0026159731 0.74599999 -0.011771879 1.3100474e-38 322 249
0.0039239596 0.74599999 -0.011771879 1.2178159e-38 323 249
0.0052319462 0.74599999 -0.011771879 9.4155234e-39 324 249
0.0065399334 0.74599999 -0.011771879 1.0706262e-38 325 249
0.0078479191 0.74599999 -0.011771879 1.2730244e-38 326 249
0.0091681797 0.74699998 -0.011787659 1.2453658e-38 327 249
0.010477919 0.74699998 -0.011787659 1.2269612e-38 328 249
0.01181922 0.74900001 -0.01181922 1.2269612e-38 329 249
0.013132467 0.74900001 -0.01181922 1.2268172e-38 330 249
0.014445714 0.74900001 -0.01181922 1.2175976e-38 331 249
0.01575896 0.74900001 -0.01181922 1.1530607e-38 332 249
0.017026618 0.74699998 -0.011787659 1.1161823e-38 333 249
0.018336359 0.74699998 -0.011787659 9.5970223e-39 334 249
0.0196987 0.74900001 -0.01181922 9.689218e-39 335 249
0.021011947 0.74900001 -0.01181922 9.9654475e-39 336 249
0.022921326 0.76899999 -0.012134819 1.0149839e-38 337 249
0.024269639 0.76899999 -0.012134819 9.9654475e-39 338 249
0.025551327 0.76700002 -0.01210326 8.0293393e-39 339 249
0.026896132 0.76700002 -0.01210326 7.1134941e-39 340 249
0.02824094 0.76700002 -0.01210326 8.5886256e-39 341 249
0.031437267 0.815 -0.0128607 1.097849e-38 342 249
0.032946885 0.81699997 -0.012892259 1.097849e-38 343 249
-0.021629119 0.77100003 -0.013518199 1.4020608e-38 304 250
-0.020172099 0.76700002 -0.013448066 1.4204999e-38 305 250
-0.018827293 0.76700002 -0.013448066 1.1900496e-38 306 250
-0.017459691 0.76599997 -0.013430533 1.0333531e-38 307 250
-0.01603248 0.76200002 -0.0133604 1.0060203e-38 308 250
-0.014677152 0.76099998 -0.013342866 1.0060203e-38 309 250
-0.013272733 0.75700003 -0.013272733 1.0060922e-38 310 250
-0.011913899 0.755 -0.013237666 1.0798487e-38 311 250
-0.010576107 0.75400001 -0.013220133 1.171828e-38 312 250
-0.0092049995 0.75 -0.01315 1.0150953e-38 313 250
-0.00789 0.75 -0.01315 9.7832437e-39 314 250
-0.0066100666 0.75400001 -0.013220133 9.3226243e-39 315 250
-0.0052740262 0.75199997 -0.013185065 9.5059365e-39 316 250
-0.003945 0.75 -0.01315 9.5059365e-39 317 250
-0.00263 0.75 -0.01315 9.5048617e-39 318 250
-0.001315 0.75 -0.01315 9.8736443e-39 319 250
0 0.75 -0.01315 1.0338213e-38 320 250
0.001315 0.75 -0.01315 1.1536756e-38 321 250
0.0026264933 0.74900001 -0.013132467 1.3008995e-38 322 250
0.0039397399 0.74900001 -0.013132467 1.1810452e-38 323 250
0.0052389596 0.74699998 -0.013097399 9.5995559e-39 324 250
0.0065486995 0.74699998 -0.013097399 1.0613708e-38 325 250
0.0078794798 0.74900001 -0.013132467 1.1902284e-38 326 250
0.0091927266 0.74900001 -0.013132467 1.1717534e-38 327 250
0.010505973 0.74900001 -0.013132467 1.1625695e-38 328 250
0.011835 0.75 -0.01315 1.1440945e-38 329 250
0.01315 0.75 -0.01315 1.1072521e-38 330 250
0.014465 0.75 -0.01315 1.0887771e-38 331 250
0.01578 0.75 -0.01315 1.0427149e-38 332 250
0.017072206 0.74900001 -0.013132467 1.0242757e-38 333 250
0.018385453 0.74900001 -0.013132467 9.1385651e-39 334 250
0.0198565 0.755 -0.013237666 9.5069875e-39 335 250
0.02137664 0.76200002 -0.0133604 9.5069875e-39 336 250
0.022921326 0.76899999 -0.013483133 9.4147919e-39 337 250
0.024269639 0.76899999 -0.013483133 8.2158956e-39 338 250
0.025617953 0.76899999 -0.013483133 6.4645387e-39 339 250
0.026896132 0.76700002 -0.013448066 5.3653742e-39 340 250
0.02824094 0.76700002 -0.013448066 6.4717218e-39 341 250
0.031591557 0.81900001 -0.0143598 9.5991425e-39 342 250
