# .PCD v.7 - Point Cloud Data file format
FIELDS x y z rgb imX imY
SIZE 4 4 4 4 4 4
TYPE F F F F F F
COUNT 1 1 1 1 1 1
WIDTH 831
HEIGHT 1
VIEWPOINT 0 0 0 1 0 0 0
POINTS 831
DATA ascii
0.028148014 0.69800001 -0.006119133 8.7564549e-39 343 245
0.029455997 0.69999999 -0.0061366665 9.9542371e-39 344 245
0.030683333 0.69999999 -0.0061366665 9.9542371e-39 345 245
0.031956252 0.70099998 -0.0061454331 7.0972586e-39 346 245
0.033280019 0.70300001 -0.0061629666 5.8990756e-39 347 245
0.034512613 0.70300001 -0.0061629666 1.0326283e-38 348 245
-0.029624319 0.704 -0.0074060797 1.4930653e-38 296 246
-0.028389972 0.704 -0.0074060797 1.2717958e-38 297 246
-0.027155625 0.704 -0.0074060797 9.4046899e-39 298 246
-0.025884461 0.70300001 -0.0073955595 8.4830938e-39 299 246
-0.024581732 0.70099998 -0.0073745195 9.4090087e-39 300 246
-0.023319334 0.69999999 -0.0073639993 1.0607552e-38 301 246
-0.022091998 0.69999999 -0.0073639993 1.1524826e-38 302 246
-0.020805053 0.69800001 -0.0073429602 1.1617022e-38 303 246
-0.019553173 0.69700003 -0.00733244 1.1985437e-38 304 246
-0.018304799 0.69599998 -0.0073219193 1.2261666e-38 305 246
-0.017035386 0.69400001 -0.0073008798 9.9567749e-39 306 246
-0.015795778 0.69300002 -0.0072903596 6.5455366e-39 307 246
-0.014580719 0.69300002 -0.0072903596 3.8715158e-39 308 246
-0.013327086 0.69099998 -0.0072693196 5.1622546e-39 309 246
-0.012097999 0.69 -0.0072587994 4.8878383e-39 310 246
-0.010888199 0.69 -0.0072587994 3.9655233e-39 311 246
-0.0096503468 0.68800002 -0.0072377604 3.6842729e-39 312 246
-0.0084317802 0.68699998 -0.0072272392 3.5920773e-39 313 246
-0.0072272392 0.68699998 -0.0072272392 3.1347061e-39 314 246
-0.0060226996 0.68699998 -0.0072272392 3.1347061e-39 315 246
-0.0048181596 0.68699998 -0.0072272392 2.6758831e-39 316 246
-0.0036136196 0.68699998 -0.0072272392 3.4134482e-39 317 246
-0.0024090798 0.68699998 -0.0072272392 4.5204978e-39 318 246
-0.0012027866 0.68599999 -0.0072167199 4.8889215e-39 319 246
0 0.68599999 -0.0072167199 4.5136636e-39 320 246
0.0012027866 0.68599999 -0.0072167199 4.236718e-39 321 246
0.0024055731 0.68599999 -0.0072167199 2.3063607e-39 322 246
0.00360836 0.68599999 -0.0072167199 4.2424689e-39 323 246
0.0048111463 0.68599999 -0.0072167199 7.9263257e-39 324 246
0.0060139326 0.68599999 -0.0072167199 4.607283e-39 325 246
0.0071956799 0.68400002 -0.0071956799 4.0512379e-39 326 246
0.0083949603 0.68400002 -0.0071956799 4.5122161e-39 327 246
0.0095942402 0.68400002 -0.0071956799 5.1615358e-39 328 246
0.01079352 0.68400002 -0.0071956799 7.558262e-39 329 246
0.012027865 0.68599999 -0.0072167199 8.6627949e-39 330 246
0.013230653 0.68599999 -0.0072167199 8.6627949e-39 331 246
0.014454478 0.68699998 -0.0072272392 4.5082448e-39 332 246
0.015659019 0.68699998 -0.0072272392 4.3242123e-39 333 246
0.01686356 0.68699998 -0.0072272392 5.9001854e-39 334 246
0.0180944 0.68800002 -0.0072377604 4.8860349e-39 335 246
0.019300694 0.68800002 -0.0072377604 4.3335856e-39 336 246
0.020566599 0.69 -0.0072587994 4.4257812e-39 337 246
0.021776399 0.69 -0.0072587994 5.3462956e-39 338 246
0.023019511 0.69099998 -0.0072693196 5.991665e-39 339 246
0.024336265 0.69400001 -0.0073008798 8.113235e-39 340 246
0.025663542 0.69700003 -0.00733244 9.1273856e-39 341 246
0.026924185 0.69800001 -0.0073429602 1.0503831e-38 342 246
0.028228667 0.69999999 -0.0073639993 1.0319799e-38 343 246
0.029455997 0.69999999 -0.0073639993 9.8634877e-39 344 246
0.030683333 0.69999999 -0.0073639993 9.4025095e-39 345 246
0.031956252 0.70099998 -0.0073745195 5.254432e-39 346 246
0.033280019 0.70300001 -0.0073955595 4.516867e-39 347 246
0.034512613 0.70300001 -0.0073955595 1.0783293e-38 348 246
-0.029624319 0.704 -0.0086404262 1.5297992e-38 296 247
-0.028389972 0.704 -0.0086404262 1.280835e-38 297 247
-0.027155625 0.704 -0.0086404262 8.9433516e-39 298 247
-0.02592128 0.704 -0.0086404262 8.0210366e-39 299 247
-0.024581732 0.70099998 -0.0086036054 7.5658206e-39 300 247
-0.023319334 0.69999999 -0.0085913334 9.6863215e-39 301 247
-0.022091998 0.69999999 -0.0085913334 1.0972737e-38 302 247
-0.020805053 0.69800001 -0.0085667865 1.1157489e-38 303 247
-0.019553173 0.69700003 -0.0085545136 1.14337e-38 304 247
-0.018304799 0.69599998 -0.0085422397 1.1341504e-38 305 247
-0.017035386 0.69400001 -0.0085176928 1.1246422e-38 306 247
-0.015818574 0.69400001 -0.0085176928 9.4025095e-39 307 247
-0.014580719 0.69300002 -0.0085054198 8.2025342e-39 308 247
-0.01336566 0.69300002 -0.0085054198 7.188741e-39 309 247
-0.012115533 0.69099998 -0.008480873 6.174959e-39 310 247
-0.010888199 0.69 -0.0084686 5.1608057e-39 311 247
-0.0096783992 0.69 -0.0084686 4.3310632e-39 312 247
-0.0084440531 0.68800002 -0.0084440531 3.7782482e-39 313 247
-0.0072272392 0.68699998 -0.0084317802 2.6758789e-39 314 247
-0.0060226996 0.68699998 -0.0084317802 2.6758789e-39 315 247
-0.0048181596 0.68699998 -0.0084317802 2.8635002e-39 316 247
-0.0036136196 0.68699998 -0.0084317802 4.6148584e-39 317 247
-0.0024090798 0.68699998 -0.0084317802 6.3546867e-39 318 247
-0.0012045399 0.68699998 -0.0084317802 5.8933485e-39 319 247
0 0.68699998 -0.0084317802 5.0650311e-39 320 247
0.0012045399 0.68699998 -0.0084317802 4.6966073e-39 321 247
0.0024090798 0.68699998 -0.0084317802 3.1353955e-39 322 247
0.0036136196 0.68699998 -0.0084317802 5.0715037e-39 323 247
0.0048111463 0.68599999 -0.0084195063 7.7412085e-39 324 247
0.0060139326 0.68599999 -0.0084195063 5.3444823e-39 325 247
0.0071956799 0.68400002 -0.0083949603 4.6991101e-39 326 247
0.0083949603 0.68400002 -0.0083949603 5.3444795e-39 327 247
0.0095942402 0.68400002 -0.0083949603 5.4406338e-39 328 247
0.01079352 0.68400002 -0.0083949603 5.8094163e-39 329 247
0.012027865 0.68599999 -0.0084195063 7.0983446e-39 330 247
0.013230653 0.68599999 -0.0084195063 7.5593214e-39 331 247
0.014454478 0.68699998 -0.0084317802 6.3557405e-39 332 247
0.015659019 0.68699998 -0.0084317802 5.3412299e-39 333 247
0.016888106 0.68800002 -0.0084440531 6.9135988e-39 334 247
0.0180944 0.68800002 -0.0084440531 6.7288489e-39 335 247
0.019300694 0.68800002 -0.0084440531 6.7270608e-39 336 247
0.020566599 0.69 -0.0084686 7.2802346e-39 337 247
0.021776399 0.69 -0.0084686 7.9259571e-39 338 247
0.023019511 0.69099998 -0.008480873 8.8475533e-39 339 247
0.024336265 0.69400001 -0.0085176928 9.5872539e-39 340 247
0.025663542 0.69700003 -0.0085545136 9.8638408e-39 341 247
0.026924185 0.69800001 -0.0085667865 9.8634708e-39 342 247
0.028228667 0.69999999 -0.0085913334 9.8634708e-39 343 247
0.029455997 0.69999999 -0.0085913334 9.5854588e-39 344 247
0.030727165 0.70099998 -0.0086036054 8.9400894e-39 345 247
0.031956252 0.70099998 -0.0086036054 4.6097815e-39 346 247
0.033280019 0.70300001 -0.0086281532 3.4112383e-39 347 247
0.034512613 0.70300001 -0.0086281532 1.07822e-38 348 247
-0.039812941 0.84100002 -0.011796427 1.6771301e-38 293 248
-0.03815604 0.83700001 -0.011740319 1.6587988e-38 294 248
-0.028470624 0.70599997 -0.0099028256 1.2715434e-38 297 248
-0.027232772 0.70599997 -0.0099028256 8.7575353e-39 298 248
-0.02592128 0.704 -0.0098747732 6.72923e-39 299 248
-0.024581732 0.70099998 -0.0098326923 6.1832631e-39 300 248
-0.023319334 0.69999999 -0.0098186666 8.7647407e-39 301 248
-0.022091998 0.69999999 -0.0098186666 1.0512485e-38 302 248
-0.020805053 0.69800001 -0.0097906133 1.0881628e-38 303 248
-0.019581227 0.69800001 -0.0097906133 1.1341507e-38 304 248
-0.018331099 0.69700003 -0.0097765867 1.1433703e-38 305 248
-0.017084479 0.69599998 -0.0097625591 1.1708845e-38 306 248
-0.015818574 0.69400001 -0.0097345067 1.1340062e-38 307 248
-0.01460176 0.69400001 -0.0097345067 1.1706327e-38 308 248
-0.01336566 0.69300002 -0.0097204801 1.1060957e-38 309 248
-0.012115533 0.69099998 -0.0096924258 1.0507784e-38 310 248
-0.010888199 0.69 -0.0096783992 9.9546113e-39 311 248
-0.0096783992 0.69 -0.0096783992 9.1252192e-39 312 248
-0.0084440531 0.68800002 -0.0096503468 8.3876527e-39 313 248
-0.0072377604 0.68800002 -0.0096503468 7.4685873e-39 314 248
-0.0060226996 0.68699998 -0.0096363192 7.0076092e-39 315 248
-0.0048181596 0.68699998 -0.0096363192 6.5513015e-39 316 248
-0.0036136196 0.68699998 -0.0096363192 7.0122783e-39 317 248
-0.0024090798 0.68699998 -0.0096363192 7.8287252e-39 318 248
-0.0012045399 0.68699998 -0.0096363192 6.445432e-39 319 248
0 0.68699998 -0.0096363192 5.1600966e-39 320 248
0.0012045399 0.68699998 -0.0096363192 5.2526524e-39 321 248
0.0024090798 0.68699998 -0.0096363192 3.783283e-39 322 248
0.0036136196 0.68699998 -0.0096363192 5.3506088e-39 323 248
0.0048181596 0.68699998 -0.0096363192 8.3865625e-39 324 248
0.0060139326 0.68599999 -0.0096222926 6.4504543e-39 325 248
0.0072167199 0.68599999 -0.0096222926 6.4515109e-39 326 248
0.0084195063 0.68599999 -0.0096222926 6.7277376e-39 327 248
0.0096222926 0.68599999 -0.0096222926 5.9022958e-39 328 248
0.010825079 0.68599999 -0.0096222926 5.2569263e-39 329 248
0.012045399 0.68699998 -0.0096363192 5.9883817e-39 330 248
0.013249939 0.68699998 -0.0096363192 6.2649672e-39 331 248
0.014454478 0.68699998 -0.0096363192 7.0922238e-39 332 248
0.015681813 0.68800002 -0.0096503468 9.213082e-39 333 248
0.016888106 0.68800002 -0.0096503468 9.9553302e-39 334 248
0.0180944 0.68800002 -0.0096503468 1.0047526e-38 335 248
0.019356798 0.69 -0.0096783992 1.0322671e-38 336 248
0.020566599 0.69 -0.0096783992 1.0322671e-38 337 248
0.021807959 0.69099998 -0.0096924258 1.0413787e-38 338 248
0.02308614 0.69300002 -0.0097204801 1.0045364e-38 339 248
0.024336265 0.69400001 -0.0097345067 9.3095978e-39 340 248
0.025700359 0.69800001 -0.0097906133 9.3095978e-39 341 248
0.026924185 0.69800001 -0.0097906133 9.4007102e-39 342 248
0.028228667 0.69999999 -0.0098186666 9.4007102e-39 343 248
0.029455997 0.69999999 -0.0098186666 8.5716754e-39 344 248
0.030727165 0.70099998 -0.0098326923 7.8341104e-39 345 248
0.032047424 0.70300001 -0.0098607466 3.7821816e-39 346 248
0.033280019 0.70300001 -0.0098607466 2.7683898e-39 347 248
0.034512613 0.70300001 -0.0098607466 1.0873674e-38 348 248
-0.03815604 0.83700001 -0.013207859 1.6679108e-38 294 249
-0.036688499 0.83700001 -0.013207859 1.6402522e-38 295 249
-0.035220962 0.83700001 -0.013207859 1.5205795e-38 296 249
-0.028510952 0.70700002 -0.011156459 1.280835e-38 297 249
-0.027232772 0.70599997 -0.011140679 9.3092755e-39 298 249
-0.025994917 0.70599997 -0.011140679 7.0043862e-39 299 249
-0.024686933 0.704 -0.011109119 4.7099435e-39 300 249
-0.023352645 0.70099998 -0.011061779 7.3836168e-39 301 249
-0.022091998 0.69999999 -0.011045999 9.4079423e-39 302 249
-0.020864666 0.69999999 -0.011045999 1.0237703e-38 303 249
-0.019581227 0.69800001 -0.01101444 1.097309e-38 304 249
-0.018331099 0.69700003 -0.01099866 1.0789059e-38 305 249
-0.017109027 0.69700003 -0.01099866 9.7767024e-39 306 249
-0.015864158 0.69599998 -0.010982879 9.2235287e-39 307 249
-0.01460176 0.69400001 -0.01095132 1.0785815e-38 308 249
-0.01336566 0.69300002 -0.010935539 1.1154599e-38 309 249
-0.012115533 0.69099998 -0.01090398 1.124787e-38 310 249
-0.010888199 0.69 -0.010888199 1.1155674e-38 311 249
-0.0096783992 0.69 -0.010888199 1.0694696e-38 312 249
-0.0084440531 0.68800002 -0.010856641 1.0510305e-38 313 249
-0.0072377604 0.68800002 -0.010856641 1.0232642e-38 314 249
-0.0060314666 0.68800002 -0.010856641 9.9556959e-39 315 249
-0.0048251734 0.68800002 -0.010856641 1.0047526e-38 316 249
-0.0036188802 0.68800002 -0.010856641 1.0416307e-38 317 249
-0.0024125867 0.68800002 -0.010856641 1.0413785e-38 318 249
-0.0012062934 0.68800002 -0.010856641 9.3077957e-39 319 249
0 0.68699998 -0.010840859 8.8497071e-39 320 249
0.0012045399 0.68699998 -0.010840859 8.8497071e-39 321 249
0.0024090798 0.68699998 -0.010840859 8.1139511e-39 322 249
0.0036136196 0.68699998 -0.010840859 8.4830938e-39 323 249
0.0048181596 0.68699998 -0.010840859 1.0413422e-38 324 249
0.0060226996 0.68699998 -0.010840859 9.5836596e-39 325 249
0.0072272392 0.68699998 -0.010840859 8.3847198e-39 326 249
0.0084317802 0.68699998 -0.010840859 8.4772742e-39 327 249
0.0096363192 0.68699998 -0.010840859 8.0206148e-39 328 249
0.010840859 0.68699998 -0.010840859 8.0206148e-39 329 249
0.012062933 0.68800002 -0.010856641 7.370226e-39 330 249
0.013269227 0.68800002 -0.010856641 6.0794871e-39 331 249
0.014475521 0.68800002 -0.010856641 6.7284677e-39 332 249
0.015681813 0.68800002 -0.010856641 8.8486071e-39 333 249
0.0169372 0.69 -0.010888199 9.032648e-39 334 249
0.018146999 0.69 -0.010888199 9.217398e-39 335 249
0.019356798 0.69 -0.010888199 9.1251995e-39 336 249
0.020566599 0.69 -0.010888199 8.9408083e-39 337 249
0.021807959 0.69099998 -0.01090398 8.756787e-39 338 249
0.02308614 0.69300002 -0.010935539 8.3880031e-39 339 249
0.024336265 0.69400001 -0.01095132 8.201465e-39 340 249
0.025700359 0.69800001 -0.01101444 8.201465e-39 341 249
0.026924185 0.69800001 -0.01101444 8.0195905e-39 342 249
0.028228667 0.69999999 -0.011045999 8.2039817e-39 343 249
0.029455997 0.69999999 -0.011045999 8.0195877e-39 344 249
0.030727165 0.70099998 -0.011061779 7.0979915e-39 345 249
0.032047424 0.70300001 -0.01109334 4.2424409e-39 346 249
0.033280019 0.70300001 -0.01109334 3.1360934e-39 347 249
0.034561705 0.704 -0.011109119 1.1150259e-38 348 249
0.035796054 0.704 -0.011109119 1.4377106e-38 349 249
0.037135597 0.70599997 -0.011140679 1.6954973e-38 350 249
-0.028510952 0.70700002 -0.012396066 1.2992744e-38 297 250
-0.027232772 0.70599997 -0.012378532 9.4032732e-39 298 250
-0.025994917 0.70599997 -0.012378532 6.9139912e-39 299 250
-0.024686933 0.704 -0.012343466 4.2507674e-39 300 250
-0.023352645 0.70099998 -0.012290866 6.1868757e-39 301 250
-0.022123558 0.70099998 -0.012290866 8.5796264e-39 302 250
-0.020864666 0.69999999 -0.012273333 9.7781696e-39 303 250
-0.019581227 0.69800001 -0.012238266 1.0421722e-38 304 250
-0.018331099 0.69700003 -0.012220734 1.0329526e-38 305 250
-0.017109027 0.69700003 -0.012220734 8.6714437e-39 306 250
-0.015864158 0.69599998 -0.0122032 7.1966737e-39 307 250
-0.01460176 0.69400001 -0.012168133 9.5872861e-39 308 250
-0.01336566 0.69300002 -0.012150601 1.0417406e-38 309 250
-0.012150601 0.69300002 -0.012150601 1.1155318e-38 310 250
-0.01090398 0.69099998 -0.012115533 1.1340068e-38 311 250
-0.0096783992 0.69 -0.012097999 1.1524101e-38 312 250
-0.0084686 0.69 -0.012097999 1.1708492e-38 313 250
-0.0072377604 0.68800002 -0.012062933 1.1523733e-38 314 250
-0.0060314666 0.68800002 -0.012062933 1.1154952e-38 315 250
-0.0048251734 0.68800002 -0.012062933 1.1060239e-38 316 250
-0.0036188802 0.68800002 -0.012062933 1.0322674e-38 317 250
-0.0024125867 0.68800002 -0.012062933 1.0693261e-38 318 250
-0.0012062934 0.68800002 -0.012062933 1.1431185e-38 319 250
0 0.68800002 -0.012062933 1.1430463e-38 320 250
0.0012045399 0.68699998 -0.012045399 1.1522659e-38 321 250
0.0024090798 0.68699998 -0.012045399 1.1338983e-38 322 250
0.0036136196 0.68699998 -0.012045399 1.1338983e-38 323 250
0.0048181596 0.68699998 -0.012045399 1.170523e-38 324 250
0.0060226996 0.68699998 -0.012045399 9.9535127e-39 325 250
0.0072272392 0.68699998 -0.012045399 8.2943248e-39 326 250
0.0084317802 0.68699998 -0.012045399 9.0318899e-39 327 250
0.0096503468 0.68800002 -0.012062933 9.5865098e-39 328 250
0.010856641 0.68800002 -0.012062933 1.0785052e-38 329 250
0.012062933 0.68800002 -0.012062933 9.5832882e-39 330 250
0.013269227 0.68800002 -0.012062933 7.64718e-39 331 250
0.014517599 0.69 -0.012097999 7.4645894e-39 332 250
0.015727401 0.69 -0.012097999 8.4783826e-39 333 250
0.0169372 0.69 -0.012097999 8.0174227e-39 334 250
0.018146999 0.69 -0.012097999 7.925227e-39 335 250
0.019356798 0.69 -0.012097999 7.188755e-39 336 250
0.020596405 0.69099998 -0.012115533 7.2809506e-39 337 250
0.021871079 0.69300002 -0.012150601 7.4653447e-39 338 250
0.023119451 0.69400001 -0.012168133 7.4653447e-39 339 250
0.0244064 0.69599998 -0.0122032 7.0958419e-39 340 250
0.025700359 0.69800001 -0.012238266 7.3724302e-39 341 250
0.026924185 0.69800001 -0.012238266 7.3753001e-39 342 250
0.028228667 0.69999999 -0.012273333 7.8362782e-39 343 250
0.029498078 0.70099998 -0.012290866 7.7444329e-39 344 250
0.030727165 0.70099998 -0.012290866 7.0068679e-39 345 250
0.032047424 0.70300001 -0.012325933 4.7934497e-39 346 250
0.03332736 0.704 -0.012343466 3.6871021e-39 347 250
0.034561705 0.704 -0.012343466 1.161016e-38 348 250
0.035897743 0.70599997 -0.012378532 1.4468583e-38 349 250
0.037135597 0.70599997 -0.012378532 1.6862777e-38 350 250
-0.031253166 0.713 -0.013751393 1.6402522e-38 295 251
-0.029876797 0.70999998 -0.013693533 1.4838092e-38 296 251
-0.028510952 0.70700002 -0.013635674 1.2809788e-38 297 251
-0.027232772 0.70599997 -0.013616386 9.4039865e-39 298 251
-0.025994917 0.70599997 -0.013616386 6.5462821e-39 299 251
-0.024686933 0.704 -0.013577812 4.2489654e-39 300 251
-0.023419274 0.70300001 -0.013558527 5.4475085e-39 301 251
-0.022123558 0.70099998 -0.013519952 7.9349759e-39 302 251
-0.020864666 0.69999999 -0.013500666 9.3179103e-39 303 251
-0.019581227 0.69800001 -0.013462093 1.0236972e-38 304 251
-0.0183574 0.69800001 -0.013462093 1.0236972e-38 305 251
-0.017109027 0.69700003 -0.013442807 9.2238958e-39 306 251
-0.015864158 0.69599998 -0.013423519 7.3803419e-39 307 251
-0.01460176 0.69400001 -0.013384946 6.8199809e-39 308 251
-0.01336566 0.69300002 -0.01336566 7.2806003e-39 309 251
-0.012150601 0.69300002 -0.01336566 7.83413e-39 310 251
-0.01090398 0.69099998 -0.013327086 8.5716951e-39 311 251
-0.0096924258 0.69099998 -0.013327086 9.3103321e-39 312 251
-0.0084686 0.69 -0.0133078 9.7713116e-39 313 251
-0.0072587994 0.69 -0.0133078 9.402162e-39 314 251
-0.0060489997 0.69 -0.0133078 8.5720426e-39 315 251
-0.0048391996 0.69 -0.0133078 7.6518842e-39 316 251
-0.0036188802 0.68800002 -0.013269227 7.6518842e-39 317 251
-0.0024125867 0.68800002 -0.013269227 8.3926932e-39 318 251
-0.0012062934 0.68800002 -0.013269227 9.5912364e-39 319 251
0 0.68800002 -0.013269227 1.087621e-38 320 251
0.0012062934 0.68800002 -0.013269227 1.1060602e-38 321 251
0.0024125867 0.68800002 -0.013269227 1.06007e-38 322 251
0.0036188802 0.68800002 -0.013269227 1.0508504e-38 323 251
0.0048251734 0.68800002 -0.013269227 1.0876548e-38 324 251
0.0060314666 0.68800002 -0.013269227 8.8482441e-39 325 251
0.0072377604 0.68800002 -0.013269227 7.1008207e-39 326 251
0.0084440531 0.68800002 -0.013269227 8.4837552e-39 327 251
0.0096503468 0.68800002 -0.013269227 1.0415194e-38 328 251
0.010888199 0.69 -0.0133078 1.0784336e-38 329 251
0.012097999 0.69 -0.0133078 9.4014109e-39 330 251
0.0133078 0.69 -0.0133078 7.9262808e-39 331 251
0.014580719 0.69300002 -0.01336566 7.7408148e-39 332 251
0.015750192 0.69099998 -0.013327086 8.109956e-39 333 251
0.016961746 0.69099998 -0.013327086 7.6489975e-39 334 251
0.0181733 0.69099998 -0.013327086 7.2798548e-39 335 251
0.019384852 0.69099998 -0.013327086 6.5433884e-39 336 251
0.020656019 0.69300002 -0.01336566 6.635584e-39 337 251
0.021902639 0.69400001 -0.013384946 6.820697e-39 338 251
0.023186078 0.69599998 -0.013423519 7.097644e-39 339 251
0.024441468 0.69700003 -0.013442807 6.8246472e-39 340 251
0.025700359 0.69800001 -0.013462093 7.1934297e-39 341 251
0.027001332 0.69999999 -0.013500666 7.3788902e-39 342 251
0.028228667 0.69999999 -0.013500666 7.5632815e-39 343 251
0.029498078 0.70099998 -0.013519952 7.5618395e-39 344 251
0.030814834 0.70300001 -0.013558527 6.6398846e-39 345 251
0.032047424 0.70300001 -0.013558527 4.9781941e-39 346 251
0.03332736 0.704 -0.013577812 4.055879e-39 347 251
0.034659892 0.70599997 -0.013616386 1.1887459e-38 348 251
0.035897743 0.70599997 -0.013616386 1.4468936e-38 349 251
0.037135597 0.70599997 -0.013616386 1.6863133e-38 350 251
-0.031253166 0.713 -0.015001519 1.6402522e-38 295 252
-0.029876797 0.70999998 -0.014938398 1.5113597e-38 296 252
-0.02855128 0.708 -0.01489632 1.3270043e-38 297 252
-0.027271347 0.70700002 -0.01487528 9.8642317e-39 298 252
-0.025994917 0.70599997 -0.014854239 7.1905585e-39 299 252
-0.024757065 0.70599997 -0.014854239 4.7996028e-39 300 252
-0.023419274 0.70300001 -0.014791119 5.998146e-39 301 252
-0.02218668 0.70300001 -0.014791119 7.8416928e-39 302 252
-0.020894472 0.70099998 -0.014749039 9.500854e-39 303 252
-0.019637333 0.69999999 -0.014727999 9.6859558e-39 304 252
-0.0183574 0.69800001 -0.01468592 9.5937587e-39 305 252
-0.017109027 0.69700003 -0.01466488 9.5912364e-39 306 252
-0.015886955 0.69700003 -0.01466488 8.2083019e-39 307 252
-0.014643839 0.69599998 -0.014643839 5.9923838e-39 308 252
-0.013384946 0.69400001 -0.01460176 5.0704289e-39 309 252
-0.012168133 0.69400001 -0.01460176 4.8871321e-39 310 252
-0.010935539 0.69300002 -0.014580719 5.5325015e-39 311 252
-0.0097204801 0.69300002 -0.014580719 7.005105e-39 312 252
-0.008480873 0.69099998 -0.014538639 7.2820507e-39 313 252
-0.0072693196 0.69099998 -0.014538639 7.0058085e-39 314 252
-0.0060489997 0.69 -0.014517599 6.7295803e-39 315 252
-0.0048391996 0.69 -0.014517599 6.4547913e-39 316 252
-0.0036188802 0.68800002 -0.014475521 6.8232151e-39 317 252
-0.0024125867 0.68800002 -0.014475521 7.5629353e-39 318 252
-0.0012062934 0.68800002 -0.014475521 8.5767271e-39 319 252
0 0.68800002 -0.014475521 9.6798223e-39 320 252
0.0012062934 0.68800002 -0.014475521 9.956049e-39 321 252
0.0024125867 0.68800002 -0.014475521 8.5767117e-39 322 252
0.0036188802 0.68800002 -0.014475521 8.392319e-39 323 252
0.0048251734 0.68800002 -0.014475521 1.0048229e-38 324 252
0.0060314666 0.68800002 -0.014475521 8.3887065e-39 325 252
0.0072377604 0.68800002 -0.014475521 6.917877e-39 326 252
0.0084440531 0.68800002 -0.014475521 8.8536265e-39 327 252
0.0096503468 0.68800002 -0.014475521 1.0691799e-38 328 252
0.010888199 0.69 -0.014517599 9.9542343e-39 329 252
0.012115533 0.69099998 -0.014538639 8.5730964e-39 330 252
0.013327086 0.69099998 -0.014538639 7.5593032e-39 331 252
0.014580719 0.69300002 -0.014580719 7.6500513e-39 332 252
0.015795778 0.69300002 -0.014580719 8.0188324e-39 333 252
0.01701084 0.69300002 -0.014580719 7.7426182e-39 334 252
0.018225901 0.69300002 -0.014580719 7.3738371e-39 335 252
0.01944096 0.69300002 -0.014580719 7.0961894e-39 336 252
0.020685827 0.69400001 -0.01460176 7.1887438e-39 337 252
0.021902639 0.69400001 -0.01460176 7.0979943e-39 338 252
0.023186078 0.69599998 -0.014643839 7.6511681e-39 339 252
0.024441468 0.69700003 -0.01466488 7.2866946e-39 340 252
0.025700359 0.69800001 -0.01468592 7.6554785e-39 341 252
0.027001332 0.69999999 -0.014727999 7.9316982e-39 342 252
0.028228667 0.69999999 -0.014727999 7.8391439e-39 343 252
0.029498078 0.70099998 -0.014749039 7.744786e-39 344 252
0.030814834 0.70300001 -0.014791119 7.1916123e-39 345 252
0.032093015 0.704 -0.014812159 5.8987028e-39 346 252
0.033422034 0.70599997 -0.014854239 5.2533334e-39 347 252
0.034659892 0.70599997 -0.014854239 1.2439182e-38 348 252
0.035897743 0.70599997 -0.014854239 1.4744432e-38 349 252
0.037135597 0.70599997 -0.014854239 1.6955682e-38 350 252
-0.032776814 0.71899998 -0.016388407 1.6495074e-38 294 253
-0.031384666 0.71600002 -0.016320027 1.6402877e-38 295 253
-0.03012928 0.71600002 -0.016320027 1.5298348e-38 296 253
-0.028631933 0.70999998 -0.016183265 1.3638467e-38 297 253
-0.027271347 0.70700002 -0.016114887 1.1335762e-38 298 253
-0.025994917 0.70599997 -0.016092092 9.2152624e-39 299 253
-0.024757065 0.70599997 -0.016092092 7.470032e-39 300 253
-0.023419274 0.70300001 -0.016023712 7.7469791e-39 301 253
-0.02218668 0.70300001 -0.016023712 9.1288317e-39 302 253
-0.020894472 0.70099998 -0.015978126 1.0143342e-38 303 253
-0.019637333 0.69999999 -0.015955333 9.5012044e-39 304 253
-0.0183574 0.69800001 -0.015909746 9.5937587e-39 305 253
-0.017133573 0.69800001 -0.015909746 9.7763493e-39 306 253
-0.015886955 0.69700003 -0.015886955 9.3157313e-39 307 253
-0.014643839 0.69599998 -0.015864158 8.3008689e-39 308 253
-0.013423519 0.69599998 -0.015864158 8.3008689e-39 309 253
-0.012168133 0.69400001 -0.015818574 8.0250079e-39 310 253
-0.01095132 0.69400001 -0.015818574 7.9324535e-39 311 253
-0.0097204801 0.69300002 -0.015795778 8.1146798e-39 312 253
-0.0085054198 0.69300002 -0.015795778 7.3771147e-39 313 253
-0.0072693196 0.69099998 -0.015750192 7.0065372e-39 314 253
-0.0060577663 0.69099998 -0.015750192 7.0065372e-39 315 253
-0.0048462129 0.69099998 -0.015750192 6.8246626e-39 316 253
-0.0036293997 0.69 -0.015727401 6.8246626e-39 317 253
-0.0024195998 0.69 -0.015727401 7.2842031e-39 318 253
-0.0012097999 0.69 -0.015727401 7.007256e-39 319 253
0 0.68800002 -0.015681813 7.0954916e-39 320 253
0.0012062934 0.68800002 -0.015681813 7.1876872e-39 321 253
0.0024125867 0.68800002 -0.015681813 6.5441143e-39 322 253
0.0036188802 0.68800002 -0.015681813 8.0188842e-39 323 253
0.0048251734 0.68800002 -0.015681813 8.0264092e-39 324 253
0.0060314666 0.68800002 -0.015681813 7.3810398e-39 325 253
0.0072377604 0.68800002 -0.015681813 8.0202757e-39 326 253
0.0084686 0.69 -0.015727401 8.6656451e-39 327 253
0.0096783992 0.69 -0.015727401 8.0199282e-39 328 253
0.01090398 0.69099998 -0.015750192 6.1760156e-39 329 253
0.012150601 0.69300002 -0.015795778 5.7161122e-39 330 253
0.01336566 0.69300002 -0.015795778 6.3614816e-39 331 253
0.014580719 0.69300002 -0.015795778 7.6497037e-39 332 253
0.015795778 0.69300002 -0.015795778 8.7556912e-39 333 253
0.01701084 0.69300002 -0.015795778 8.204688e-39 334 253
0.018225901 0.69300002 -0.015795778 8.1124924e-39 335 253
0.01944096 0.69300002 -0.015795778 8.0210226e-39 336 253
0.020685827 0.69400001 -0.015818574 7.8366313e-39 337 253
0.021965759 0.69599998 -0.015864158 7.3781685e-39 338 253
0.023219392 0.69700003 -0.015886955 7.654754e-39 339 253
0.024476532 0.69800001 -0.015909746 7.8391495e-39 340 253
0.025773998 0.69999999 -0.015955333 7.8391495e-39 341 253
0.027001332 0.69999999 -0.015955333 7.9302731e-39 342 253
0.028268991 0.70099998 -0.015978126 7.8380775e-39 343 253
0.029498078 0.70099998 -0.015978126 7.4692908e-39 344 253
0.030858666 0.704 -0.016046507 6.8239213e-39 345 253
0.032093015 0.704 -0.016046507 6.7284705e-39 346 253
0.033422034 0.70599997 -0.016092092 7.0046973e-39 347 253
0.034659892 0.70599997 -0.016092092 1.2899084e-38 348 253
0.035948593 0.70700002 -0.016114887 1.5112139e-38 349 253
0.037188202 0.70700002 -0.016114887 1.6863128e-38 350 253
-0.032776814 0.71899998 -0.017649053 1.6402877e-38 294 254
-0.031428497 0.71700001 -0.017599959 1.6218127e-38 295 254
-0.03012928 0.71600002 -0.017575413 1.5574575e-38 296 254
-0.028752912 0.713 -0.017501773 1.3915412e-38 297 254
-0.027387066 0.70999998 -0.017428132 1.0787264e-38 298 254
-0.02603174 0.70700002 -0.017354494 8.9433516e-39 299 254
-0.024757065 0.70599997 -0.017329946 8.7582569e-39 300 254
-0.023419274 0.70300001 -0.017256306 8.8504526e-39 301 254
-0.02218668 0.70300001 -0.017256306 8.762217e-39 302 254
-0.020954086 0.70300001 -0.017256306 9.2231952e-39 303 254
-0.019665385 0.70099998 -0.017207211 8.9505571e-39 304 254
-0.018409999 0.69999999 -0.017182667 9.0427528e-39 305 254
-0.017133573 0.69800001 -0.017133573 9.2264181e-39 306 254
-0.015909746 0.69800001 -0.017133573 9.2264181e-39 307 254
-0.01466488 0.69700003 -0.017109027 8.6710934e-39 308 254
-0.013423519 0.69599998 -0.017084479 8.6710934e-39 309 254
-0.0122032 0.69599998 -0.017084479 9.0398801e-39 310 254
-0.01095132 0.69400001 -0.017035386 8.9476831e-39 311 254
-0.0097204801 0.69300002 -0.01701084 9.0380682e-39 312 254
-0.0085054198 0.69300002 -0.01701084 8.5767299e-39 313 254
-0.0072903596 0.69300002 -0.01701084 7.8409628e-39 314 254
-0.0060577663 0.69099998 -0.016961746 7.5643773e-39 315 254
-0.0048462129 0.69099998 -0.016961746 7.5643773e-39 316 254
-0.0036293997 0.69 -0.0169372 7.7487671e-39 317 254
-0.0024195998 0.69 -0.0169372 8.2061495e-39 318 254
-0.0012097999 0.69 -0.0169372 7.7455301e-39 319 254
0 0.69 -0.0169372 8.0206863e-39 320 254
0.0012062934 0.68800002 -0.016888106 7.6522625e-39 321 254
0.0024125867 0.68800002 -0.016888106 6.3626055e-39 322 254
0.0036188802 0.68800002 -0.016888106 7.3771175e-39 323 254
0.0048251734 0.68800002 -0.016888106 7.5665185e-39 324 254
0.0060314666 0.68800002 -0.016888106 7.5665185e-39 325 254
0.0072587994 0.69 -0.0169372 8.4834175e-39 326 254
0.008480873 0.69099998 -0.016961746 7.8380481e-39 327 254
0.0096924258 0.69099998 -0.016961746 7.8355299e-39 328 254
0.010935539 0.69300002 -0.01701084 6.5447911e-39 329 254
0.012150601 0.69300002 -0.01701084 6.5458715e-39 330 254
0.01336566 0.69300002 -0.01701084 7.1912409e-39 331 254
0.014580719 0.69300002 -0.01701084 7.562543e-39 332 254
0.015795778 0.69300002 -0.01701084 8.3923036e-39 333 254
0.01701084 0.69300002 -0.01701084 8.1153636e-39 334 254
0.0182522 0.69400001 -0.017035386 8.1153636e-39 335 254
0.019469013 0.69400001 -0.017035386 7.9309794e-39 336 254
0.020745439 0.69599998 -0.017084479 7.746228e-39 337 254
0.02199732 0.69700003 -0.017109027 7.6544009e-39 338 254
0.023219392 0.69700003 -0.017109027 7.6544009e-39 339 254
0.024476532 0.69800001 -0.017133573 7.7462448e-39 340 254
0.025773998 0.69999999 -0.017182667 7.7462448e-39 341 254
0.027001332 0.69999999 -0.017182667 7.6540478e-39 342 254
0.028268991 0.70099998 -0.017207211 7.377821e-39 343 254
0.029498078 0.70099998 -0.017207211 7.1001551e-39 344 254
0.030858666 0.704 -0.017280852 6.5473415e-39 345 254
0.032184184 0.70599997 -0.017329946 6.5437247e-39 346 254
0.033422034 0.70599997 -0.017329946 7.6497135e-39 347 254
0.034708988 0.70700002 -0.017354494 1.3268946e-38 348 254
0.03599944 0.708 -0.017379038 1.5205054e-38 349 254
0.0372408 0.708 -0.017379038 1.6770932e-38 350 254
-0.0328224 0.72000003 -0.018935999 1.6402522e-38 294 255
-0.031428497 0.71700001 -0.018857099 1.621813e-38 295 255
-0.03012928 0.71600002 -0.0188308 1.5667126e-38 296 255
-0.028672259 0.71100003 -0.0186993 1.4191638e-38 297 255
-0.027387066 0.70999998 -0.018672999 1.0695066e-38 298 255
-0.026068559 0.708 -0.0186204 8.666762e-39 299 255
-0.024757065 0.70599997 -0.018567799 9.0337648e-39 300 255
-0.023519212 0.70599997 -0.018567799 9.2181561e-39 301 255
-0.022218239 0.704 -0.018515198 8.5796236e-39 302 255
-0.020954086 0.70300001 -0.018488899 9.0406018e-39 303 255
-0.019665385 0.70099998 -0.018436298 8.8580084e-39 304 255
-0.018409999 0.69999999 -0.018409999 8.765454e-39 305 255
-0.017133573 0.69800001 -0.0183574 8.8572867e-39 306 255
-0.015909746 0.69800001 -0.0183574 8.7650911e-39 307 255
-0.01466488 0.69700003 -0.018331099 8.4885e-39 308 255
-0.013442807 0.69700003 -0.018331099 8.4885e-39 309 255
-0.0122032 0.69599998 -0.018304799 8.4885e-39 310 255
-0.010982879 0.69599998 -0.018304799 8.5806956e-39 311 255
-0.0097345067 0.69400001 -0.0182522 8.5799739e-39 312 255
-0.0085176928 0.69400001 -0.0182522 8.3955827e-39 313 255
-0.0072903596 0.69300002 -0.018225901 8.3959358e-39 314 255
-0.0060753003 0.69300002 -0.018225901 8.3959358e-39 315 255
-0.00486024 0.69300002 -0.018225901 8.3962889e-39 316 255
-0.0036346598 0.69099998 -0.0181733 8.3037346e-39 317 255
-0.0024231065 0.69099998 -0.0181733 8.9469418e-39 318 255
-0.0012115532 0.69099998 -0.0181733 8.6703549e-39 319 255
0 0.69099998 -0.0181733 8.5788823e-39 320 255
0.0012097999 0.69 -0.018146999 7.4725348e-39 321 255
0.0024195998 0.69 -0.018146999 6.2725594e-39 322 255
0.0036293997 0.69 -0.018146999 7.2870701e-39 323 255
0.0048391996 0.69 -0.018146999 7.8420432e-39 324 255
0.0060577663 0.69099998 -0.0181733 8.2104655e-39 325 255
0.0072693196 0.69099998 -0.0181733 7.9338618e-39 326 255
0.008480873 0.69099998 -0.0181733 6.5509274e-39 327 255
0.0096924258 0.69099998 -0.0181733 7.28201e-39 328 255
0.010935539 0.69300002 -0.018225901 7.0972586e-39 329 255
0.012150601 0.69300002 -0.018225901 7.4689194e-39 330 255
0.01336566 0.69300002 -0.018225901 8.2064845e-39 331 255
0.014580719 0.69300002 -0.018225901 8.0235379e-39 332 255
0.015795778 0.69300002 -0.018225901 8.0235379e-39 333 255
0.017035386 0.69400001 -0.0182522 7.9309892e-39 334 255
0.0182522 0.69400001 -0.0182522 7.7465979e-39 335 255
0.019525118 0.69599998 -0.018304799 7.6540478e-39 336 255
0.020775247 0.69700003 -0.018331099 7.4700166e-39 337 255
0.02199732 0.69700003 -0.018331099 7.3774651e-39 338 255
0.023252707 0.69800001 -0.0183574 7.3774651e-39 339 255
0.024476532 0.69800001 -0.0183574 7.2859911e-39 340 255
0.025773998 0.69999999 -0.018409999 7.2859911e-39 341 255
0.027001332 0.69999999 -0.018409999 7.0104832e-39 342 255
0.028268991 0.70099998 -0.018436298 6.7338977e-39 343 255
0.029498078 0.70099998 -0.018436298 6.7320985e-39 344 255
0.030946331 0.70599997 -0.018567799 6.0867291e-39 345 255
0.032184184 0.70599997 -0.018567799 6.267135e-39 346 255
0.033469379 0.70700002 -0.018594101 7.281287e-39 347 255
0.034708988 0.70700002 -0.018594101 1.3454412e-38 348 255
0.03599944 0.708 -0.0186204 1.520577e-38 349 255
0.0372408 0.708 -0.0186204 1.6586542e-38 350 255
-0.0328224 0.72000003 -0.020198401 1.6402522e-38 294 256
-0.031428497 0.71700001 -0.020114239 1.621813e-38 295 256
-0.030045118 0.71399999 -0.020030079 1.5851518e-38 296 256
-0.028672259 0.71100003 -0.01994592 1.4560779e-38 297 256
-0.027387066 0.70999998 -0.019917866 1.2074756e-38 298 256
-0.026068559 0.708 -0.01986176 9.0323005e-39 299 256
-0.024757065 0.70599997 -0.019805651 8.297276e-39 300 256
-0.023519212 0.70599997 -0.019805651 9.3114279e-39 301 256
-0.022218239 0.704 -0.019749546 8.4881496e-39 302 256
-0.020983893 0.704 -0.019749546 8.7647379e-39 303 256
-0.019721493 0.70300001 -0.019721493 8.4899489e-39 304 256
-0.018409999 0.69999999 -0.019637333 8.3977519e-39 305 256
-0.017182667 0.69999999 -0.019637333 8.397033e-39 306 256
-0.015909746 0.69800001 -0.019581227 8.397033e-39 307 256
-0.01468592 0.69800001 -0.019581227 8.3970274e-39 308 256
-0.013442807 0.69700003 -0.019553173 8.3048318e-39 309 256
-0.0122032 0.69599998 -0.019525118 8.6721724e-39 310 256
-0.010982879 0.69599998 -0.019525118 8.6721724e-39 311 256
-0.0097625591 0.69599998 -0.019525118 8.6710906e-39 312 256
-0.0085176928 0.69400001 -0.019469013 8.6710906e-39 313 256
-0.0073008798 0.69400001 -0.019469013 8.6714465e-39 314 256
-0.0060840664 0.69400001 -0.019469013 8.4874154e-39 315 256
-0.00486024 0.69300002 -0.01944096 8.6707248e-39 316 256
-0.0036451798 0.69300002 -0.01944096 8.5785292e-39 317 256
-0.00243012 0.69300002 -0.01944096 8.6710808e-39 318 256
-0.00121506 0.69300002 -0.01944096 8.5785264e-39 319 256
0 0.69099998 -0.019384852 9.0369836e-39 320 256
0.0012115532 0.69099998 -0.019384852 8.5763642e-39 321 256
0.0024231065 0.69099998 -0.019384852 7.7480455e-39 322 256
0.0036346598 0.69099998 -0.019384852 7.6558498e-39 323 256
0.0048462129 0.69099998 -0.019384852 6.3687109e-39 324 256
0.0060753003 0.69300002 -0.01944096 6.5527421e-39 325 256
0.0072903596 0.69300002 -0.01944096 6.4619912e-39 326 256
0.0085054198 0.69300002 -0.01944096 3.5120912e-39 327 256
0.0097204801 0.69300002 -0.01944096 3.9687435e-39 328 256
0.01095132 0.69400001 -0.019469013 4.5219173e-39 329 256
0.012168133 0.69400001 -0.019469013 7.1015844e-39 330 256
0.013384946 0.69400001 -0.019469013 8.5767145e-39 331 256
0.01460176 0.69400001 -0.019469013 8.5745593e-39 332 256
0.015818574 0.69400001 -0.019469013 8.4823637e-39 333 256
0.017035386 0.69400001 -0.019469013 7.9302731e-39 334 256
0.018304799 0.69599998 -0.019525118 7.7458804e-39 335 256
0.019525118 0.69599998 -0.019525118 7.3781839e-39 336 256
0.020775247 0.69700003 -0.019553173 7.1019572e-39 337 256
0.02199732 0.69700003 -0.019553173 6.9179289e-39 338 256
0.023252707 0.69800001 -0.019581227 7.0104832e-39 339 256
0.024476532 0.69800001 -0.019581227 6.9172128e-39 340 256
0.025773998 0.69999999 -0.019637333 6.8250158e-39 341 256
0.027001332 0.69999999 -0.019637333 6.4569535e-39 342 256
0.028268991 0.70099998 -0.019665385 6.5491491e-39 343 256
0.029582238 0.70300001 -0.019721493 6.1807197e-39 344 256
0.030946331 0.70599997 -0.019805651 5.3509591e-39 345 256
0.032184184 0.70599997 -0.019805651 5.4384506e-39 346 256
0.033469379 0.70700002 -0.019833706 7.2823631e-39 347 256
0.034708988 0.70700002 -0.019833706 1.3638802e-38 348 256
0.03599944 0.708 -0.01986176 1.5298321e-38 349 256
0.0372408 0.708 -0.01986176 1.6586542e-38 350 256
-0.031296998 0.71399999 -0.021281958 1.621813e-38 295 257
-0.030045118 0.71399999 -0.021281958 1.5759319e-38 296 257
-0.028672259 0.71100003 -0.021192541 1.4929559e-38 297 257
-0.027387066 0.70999998 -0.021162732 1.3180375e-38 298 257
-0.026068559 0.708 -0.021103119 9.8613325e-39 299 257
-0.024757065 0.70599997 -0.021043506 7.9281235e-39 300 257
-0.023519212 0.70599997 -0.021043506 9.5872861e-39 301 257
-0.022218239 0.704 -0.020983893 8.8551315e-39 302 257
-0.020983893 0.704 -0.020983893 9.1320785e-39 303 257
-0.019721493 0.70300001 -0.020954086 8.5803453e-39 304 257
-0.018436298 0.70099998 -0.020894472 8.3037598e-39 305 257
-0.017182667 0.69999999 -0.020864666 8.2122858e-39 306 257
-0.015909746 0.69800001 -0.020805053 8.2122858e-39 307 257
-0.01468592 0.69800001 -0.020805053 8.3048346e-39 308 257
-0.013442807 0.69700003 -0.020775247 8.3048346e-39 309 257
-0.012220734 0.69700003 -0.020775247 8.487428e-39 310 257
-0.01099866 0.69700003 -0.020775247 8.3952323e-39 311 257
-0.0097625591 0.69599998 -0.020745439 8.3945135e-39 312 257
-0.0085176928 0.69400001 -0.020685827 8.3945135e-39 313 257
-0.0073008798 0.69400001 -0.020685827 8.1193657e-39 314 257
-0.0060840664 0.69400001 -0.020685827 7.9349731e-39 315 257
-0.0048672534 0.69400001 -0.020685827 8.0264498e-39 316 257
-0.0036451798 0.69300002 -0.020656019 7.9342542e-39 317 257
-0.00243012 0.69300002 -0.020656019 8.1175665e-39 318 257
-0.00121506 0.69300002 -0.020656019 8.1175665e-39 319 257
0 0.69300002 -0.020656019 8.1172007e-39 320 257
0.0012115532 0.69099998 -0.020596405 8.4859818e-39 321 257
0.0024231065 0.69099998 -0.020596405 8.30015e-39 322 257
0.0036451798 0.69300002 -0.020656019 7.0094112e-39 323 257
0.00486024 0.69300002 -0.020656019 4.7988769e-39 324 257
0.0060753003 0.69300002 -0.020656019 4.4304545e-39 325 257
0.0072903596 0.69300002 -0.020656019 4.9822018e-39 326 257
0.0085054198 0.69300002 -0.020656019 2.7691479e-39 327 257
0.0097204801 0.69300002 -0.020656019 2.1234156e-39 328 257
0.01095132 0.69400001 -0.020685827 2.491838e-39 329 257
0.012168133 0.69400001 -0.020685827 6.0874451e-39 330 257
0.013384946 0.69400001 -0.020685827 8.7614771e-39 331 257
0.01460176 0.69400001 -0.020685827 9.1262954e-39 332 257
0.015818574 0.69400001 -0.020685827 8.9419027e-39 333 257
0.017084479 0.69599998 -0.020745439 8.389452e-39 334 257
0.018304799 0.69599998 -0.020745439 8.0206695e-39 335 257
0.019525118 0.69599998 -0.020745439 8.0206723e-39 336 257
0.020775247 0.69700003 -0.020775247 7.8359223e-39 337 257
0.02199732 0.69700003 -0.020775247 7.2852694e-39 338 257
0.023252707 0.69800001 -0.020805053 7.1008782e-39 339 257
0.024546666 0.69999999 -0.020864666 6.8221431e-39 340 257
0.025773998 0.69999999 -0.020864666 6.3615237e-39 341 257
0.027039904 0.70099998 -0.020894472 6.4544354e-39 342 257
0.028349647 0.70300001 -0.020954086 7.1920018e-39 343 257
0.029624319 0.704 -0.020983893 7.0079595e-39 344 257
0.030946331 0.70599997 -0.021043506 5.9941677e-39 345 257
0.032229774 0.70700002 -0.021073313 6.7263153e-39 346 257
0.033516716 0.708 -0.021103119 8.6624235e-39 347 257
0.034758076 0.708 -0.021103119 1.3731e-38 348 257
0.03599944 0.708 -0.021103119 1.5297966e-38 349 257
0.0372408 0.708 -0.021103119 1.6493272e-38 350 257
-0.031296998 0.71399999 -0.022533838 1.6125934e-38 295 258
-0.030045118 0.71399999 -0.022533838 1.5666405e-38 296 258
-0.028672259 0.71100003 -0.022439159 1.5021035e-38 297 258
-0.027387066 0.70999998 -0.022407599 1.4100887e-38 298 258
-0.026068559 0.708 -0.022344479 1.170416e-38 299 258
-0.024757065 0.70599997 -0.022281358 8.3890961e-39 300 258
-0.023519212 0.70599997 -0.022281358 9.4036081e-39 301 258
-0.022218239 0.704 -0.022218239 9.2224721e-39 302 258
-0.020983893 0.704 -0.022218239 9.499059e-39 303 258
-0.019721493 0.70300001 -0.02218668 8.0289708e-39 304 258
-0.018436298 0.70099998 -0.022123558 7.6598281e-39 305 258
-0.017207211 0.70099998 -0.022123558 8.1186511e-39 306 258
-0.015955333 0.69999999 -0.022091998 8.3948792e-39 307 258
-0.01468592 0.69800001 -0.02202888 8.2115642e-39 308 258
-0.013462093 0.69800001 -0.02202888 8.2115642e-39 309 258
-0.012220734 0.69700003 -0.02199732 8.3941576e-39 310 258
-0.01099866 0.69700003 -0.02199732 8.3019605e-39 311 258
-0.0097625591 0.69599998 -0.021965759 8.0264526e-39 312 258
-0.0085422397 0.69599998 -0.021965759 8.3026808e-39 313 258
-0.0073008798 0.69400001 -0.021902639 7.9342542e-39 314 258
-0.0060840664 0.69400001 -0.021902639 7.8420586e-39 315 258
-0.0048672534 0.69400001 -0.021902639 7.9317361e-39 316 258
-0.0036451798 0.69300002 -0.021871079 8.0239331e-39 317 258
-0.00243012 0.69300002 -0.021871079 8.0239331e-39 318 258
-0.00121506 0.69300002 -0.021871079 8.0239331e-39 319 258
0 0.69300002 -0.021871079 7.7491441e-39 320 258
0.00121506 0.69300002 -0.021871079 7.1959703e-39 321 258
0.00243012 0.69300002 -0.021871079 5.9052315e-39 322 258
0.0036451798 0.69300002 -0.021871079 4.4301014e-39 323 258
0.00486024 0.69300002 -0.021871079 3.965173e-39 324 258
0.0060753003 0.69300002 -0.021871079 4.2421186e-39 325 258
0.0072903596 0.69300002 -0.021871079 4.4222079e-39 326 258
0.0085176928 0.69400001 -0.021902639 3.5924472e-39 327 258
0.0097345067 0.69400001 -0.021902639 2.8548752e-39 328 258
0.01095132 0.69400001 -0.021902639 2.3942572e-39 329 258
0.012168133 0.69400001 -0.021902639 5.349164e-39 330 258
0.013384946 0.69400001 -0.021902639 8.852598e-39 331 258
0.01460176 0.69400001 -0.021902639 1.0414866e-38 332 258
0.015818574 0.69400001 -0.021902639 1.0138279e-38 333 258
0.017084479 0.69599998 -0.021965759 9.6773013e-39 334 258
0.018304799 0.69599998 -0.021965759 9.3081587e-39 335 258
0.019553173 0.69700003 -0.02199732 8.2990486e-39 336 258
0.020775247 0.69700003 -0.02199732 7.9306262e-39 337 258
0.02202888 0.69800001 -0.02202888 7.377821e-39 338 258
0.023252707 0.69800001 -0.02202888 6.5480603e-39 339 258
0.024546666 0.69999999 -0.022091998 6.5426709e-39 340 258
0.025773998 0.69999999 -0.022091998 6.0816942e-39 341 258
0.027039904 0.70099998 -0.022123558 7.4656978e-39 342 258
0.028349647 0.70300001 -0.02218668 9.5861973e-39 343 258
0.029708479 0.70599997 -0.022281358 9.8634877e-39 344 258
0.030946331 0.70599997 -0.022281358 9.4025095e-39 345 258
0.032229774 0.70700002 -0.022312919 1.0227579e-38 346 258
0.033516716 0.708 -0.022344479 1.0688916e-38 347 258
0.034758076 0.708 -0.022344479 1.3546609e-38 348 258
0.03599944 0.708 -0.022344479 1.4929543e-38 349 258
-0.03012928 0.71600002 -0.023852346 1.5206855e-38 296 259
-0.028752912 0.713 -0.023752406 1.4929909e-38 297 259
-0.027425639 0.71100003 -0.023685781 1.4286707e-38 298 259
-0.026142199 0.70999998 -0.023652466 1.2627186e-38 299 259
-0.024792133 0.70700002 -0.023552528 9.9535281e-39 300 259
-0.023519212 0.70599997 -0.023519212 9.6773013e-39 301 259
-0.022218239 0.704 -0.023452586 9.6837879e-39 302 259
-0.020983893 0.704 -0.023452586 1.0513188e-38 303 259
-0.019721493 0.70300001 -0.023419274 8.4859818e-39 304 259
-0.018488899 0.70300001 -0.023419274 7.2874401e-39 305 259
-0.017207211 0.70099998 -0.023352645 8.5778257e-39 306 259
-0.015955333 0.69999999 -0.023319334 9.0388025e-39 307 259
-0.01468592 0.69800001 -0.023252707 8.7625729e-39 308 259
-0.013462093 0.69800001 -0.023252707 8.5778229e-39 309 259
-0.012220734 0.69700003 -0.023219392 8.3019605e-39 310 259
-0.01099866 0.69700003 -0.023219392 8.1175693e-39 311 259
-0.0097765867 0.69700003 -0.023219392 7.5672695e-39 312 259
-0.0085422397 0.69599998 -0.023186078 7.9360535e-39 313 259
-0.0073008798 0.69400001 -0.023119451 7.8413397e-39 314 259
-0.0060840664 0.69400001 -0.023119451 6.919382e-39 315 259
-0.0048672534 0.69400001 -0.023119451 5.8173546e-39 316 259
-0.0036504399 0.69400001 -0.023119451 6.6467552e-39 317 259
-0.0024336267 0.69400001 -0.023119451 7.9317361e-39 318 259
-0.00121506 0.69300002 -0.02308614 7.9317361e-39 319 259
0 0.69300002 -0.02308614 7.471481e-39 320 259
0.00121506 0.69300002 -0.02308614 6.7339159e-39 321 259
0.00243012 0.69300002 -0.02308614 5.3502626e-39 322 259
0.0036451798 0.69300002 -0.02308614 4.3357506e-39 323 259
0.00486024 0.69300002 -0.02308614 5.0690024e-39 324 259
0.0060753003 0.69300002 -0.02308614 4.6080243e-39 325 259
0.0072903596 0.69300002 -0.02308614 4.1470503e-39 326 259
0.0085176928 0.69400001 -0.023119451 3.5016809e-39 327 259
0.0097345067 0.69400001 -0.023119451 3.225087e-39 328 259
0.01095132 0.69400001 -0.023119451 2.487522e-39 329 259
0.012168133 0.69400001 -0.023119451 4.7949112e-39 330 259
0.013384946 0.69400001 -0.023119451 7.9299228e-39 331 259
0.01460176 0.69400001 -0.023119451 1.0231191e-38 332 259
0.015818574 0.69400001 -0.023119451 1.0415941e-38 333 259
0.017084479 0.69599998 -0.023186078 1.0413772e-38 334 259
0.018331099 0.69700003 -0.023219392 1.0137184e-38 335 259
0.019553173 0.69700003 -0.023219392 9.6780048e-39 336 259
0.020805053 0.69800001 -0.023252707 9.4936135e-39 337 259
0.02202888 0.69800001 -0.023252707 8.7574904e-39 338 259
0.023252707 0.69800001 -0.023252707 6.9139366e-39 339 259
0.024546666 0.69999999 -0.023319334 6.3568125e-39 340 259
0.025810819 0.70099998 -0.023352645 6.5412052e-39 341 259
0.027039904 0.70099998 -0.023352645 7.7415462e-39 342 259
0.028389972 0.704 -0.023452586 1.0323024e-38 343 259
0.029708479 0.70599997 -0.023519212 1.0967648e-38 344 259
0.030946331 0.70599997 -0.023519212 1.0967648e-38 345 259
0.032229774 0.70700002 -0.023552528 1.1243509e-38 346 259
0.033516716 0.708 -0.023585839 1.1520097e-38 347 259
0.034758076 0.708 -0.023585839 1.3086352e-38 348 259
0.03599944 0.708 -0.023585839 1.4469287e-38 349 259
-0.028752912 0.713 -0.025002534 1.373244e-38 297 260
-0.027425639 0.71100003 -0.024932399 1.2720456e-38 298 260
-0.026142199 0.70999998 -0.024897331 1.327363e-38 299 260
-0.024792133 0.70700002 -0.024792133 1.2533921e-38 300 260
-0.023519212 0.70599997 -0.024757065 1.1427213e-38 301 260
-0.022281358 0.70599997 -0.024757065 1.0330227e-38 302 260
-0.021043506 0.70599997 -0.024757065 1.1067792e-38 303 260
-0.019749546 0.704 -0.024686933 9.3114111e-39 304 260
-0.018488899 0.70300001 -0.024651866 7.0983572e-39 305 260
-0.017207211 0.70099998 -0.024581732 9.8660282e-39 306 260
-0.015955333 0.69999999 -0.024546666 1.0880179e-38 307 260
-0.014727999 0.69999999 -0.024546666 1.014334e-38 308 260
-0.013462093 0.69800001 -0.024476532 9.4979702e-39 309 260
-0.012238266 0.69800001 -0.024476532 8.0264498e-39 310 260
-0.01101444 0.69800001 -0.024476532 7.6576673e-39 311 260
-0.0097765867 0.69700003 -0.024441468 6.3683704e-39 312 260
-0.0085545136 0.69700003 -0.024441468 5.5386098e-39 313 260
-0.0073219193 0.69599998 -0.0244064 3.6993873e-39 314 260
-0.0060840664 0.69400001 -0.024336265 1.1563515e-41 315 260
-0.0048672534 0.69400001 -0.024336265 1.5842786e-39 316 260
-0.0036504399 0.69400001 -0.024336265 5.1799068e-39 317 260
-0.0024336267 0.69400001 -0.024336265 8.2997941e-39 318 260
-0.0012168133 0.69400001 -0.024336265 8.1154015e-39 319 260
0 0.69300002 -0.024301201 7.011572e-39 320 260
0.00121506 0.69300002 -0.024301201 6.0896157e-39 321 260
0.00243012 0.69300002 -0.024301201 5.9938272e-39 322 260
0.0036451798 0.69300002 -0.024301201 5.4410121e-39 323 260
0.00486024 0.69300002 -0.024301201 5.0718737e-39 324 260
0.0060753003 0.69300002 -0.024301201 4.6108955e-39 325 260
0.0072903596 0.69300002 -0.024301201 4.241034e-39 326 260
0.0085176928 0.69400001 -0.024336265 4.1488384e-39 327 260
0.0097345067 0.69400001 -0.024336265 4.5197789e-39 328 260
0.01095132 0.69400001 -0.024336265 5.6257677e-39 329 260
0.012168133 0.69400001 -0.024336265 5.7161515e-39 330 260
0.013384946 0.69400001 -0.024336265 7.0068903e-39 331 260
0.01460176 0.69400001 -0.024336265 9.5872693e-39 332 260
0.015864158 0.69599998 -0.0244064 1.0232639e-38 333 260
0.017084479 0.69599998 -0.0244064 1.0414138e-38 334 260
0.018331099 0.69700003 -0.024441468 1.0414138e-38 335 260
0.019581227 0.69800001 -0.024476532 9.9553147e-39 336 260
0.020805053 0.69800001 -0.024476532 1.0231542e-38 337 260
0.02202888 0.69800001 -0.024476532 1.0504168e-38 338 260
0.023319334 0.69999999 -0.024546666 9.582212e-39 339 260
0.024546666 0.69999999 -0.024546666 9.2141484e-39 340 260
0.025810819 0.70099998 -0.024581732 9.3063454e-39 341 260
0.027117053 0.70300001 -0.024651866 9.2184686e-39 342 260
0.028389972 0.704 -0.024686933 1.0140425e-38 343 260
0.029708479 0.70599997 -0.024757065 1.0783626e-38 344 260
0.030946331 0.70599997 -0.024757065 1.0968016e-38 345 260
