# .PCD v.7 - Point Cloud Data file format
FIELDS x y z rgb imX imY
SIZE 4 4 4 4 4 4
TYPE F F F F F F
COUNT 1 1 1 1 1 1
WIDTH 834
HEIGHT 1
VIEWPOINT 0 0 0 1 0 0 0
POINTS 834
DATA ascii
-0.01994592 0.71100003 -0.051111419 1.6227528e-38 304 281
-0.0186204 0.708 -0.050895758 1.4752039e-38 305 281
-0.017379038 0.708 -0.050895758 1.1900834e-38 306 281
-0.016046507 0.704 -0.050608214 1.1439856e-38 307 281
-0.014812159 0.704 -0.050608214 1.1351643e-38 308 281
-0.013500666 0.69999999 -0.050320663 1.1444197e-38 309 281
-0.012238266 0.69800001 -0.050176892 1.144456e-38 310 281
-0.01099866 0.69700003 -0.050105009 1.1536756e-38 311 281
-0.0097625591 0.69599998 -0.050033119 1.1905171e-38 312 281
-0.0085422397 0.69599998 -0.050033119 1.1905171e-38 313 281
-0.0073008798 0.69400001 -0.049889345 1.1997001e-38 314 281
-0.0060753003 0.69300002 -0.049817458 1.1997001e-38 315 281
-0.00486024 0.69300002 -0.049817458 1.1534222e-38 316 281
-0.0036346598 0.69099998 -0.049673684 1.1257635e-38 317 281
-0.0024195998 0.69 -0.049601797 1.0246004e-38 318 281
-0.0012097999 0.69 -0.049601797 9.784666e-39 319 281
0 0.68800002 -0.049458027 1.0155957e-38 320 281
0.0012062934 0.68800002 -0.049458027 1.13545e-38 321 281
0.0024125867 0.68800002 -0.049458027 1.2732721e-38 322 281
0.0036136196 0.68699998 -0.049386136 1.2640525e-38 323 281
0.0048181596 0.68699998 -0.049386136 1.3282655e-38 324 281
0.0060226996 0.68699998 -0.049386136 1.3282655e-38 325 281
0.0072167199 0.68599999 -0.049314249 1.2177401e-38 326 281
0.0084195063 0.68599999 -0.049314249 1.2177401e-38 327 281
0.0096222926 0.68599999 -0.049314249 1.2912057e-38 328 281
0.010840859 0.68699998 -0.049386136 1.2543275e-38 329 281
0.012045399 0.68699998 -0.049386136 1.2362846e-38 330 281
0.013249939 0.68699998 -0.049386136 1.1809673e-38 331 281
0.014454478 0.68699998 -0.049386136 8.1258509e-39 332 281
0.015659019 0.68699998 -0.049386136 7.9414597e-39 333 281
0.01686356 0.68699998 -0.049386136 9.0413458e-39 334 281
0.018068098 0.68699998 -0.049386136 9.1335429e-39 335 281
0.019272638 0.68699998 -0.049386136 9.2253854e-39 336 281
0.020477179 0.68699998 -0.049386136 9.5019709e-39 337 281
0.021681719 0.68699998 -0.049386136 9.2282552e-39 338 281
0.022886258 0.68699998 -0.049386136 9.2282552e-39 339 281
0.024125867 0.68800002 -0.049458027 9.5069903e-39 340 281
0.025405798 0.69 -0.049601797 1.0060164e-38 341 281
0.026615599 0.69 -0.049601797 1.070301e-38 342 281
0.027865725 0.69099998 -0.049673684 1.0795205e-38 343 281
0.029077278 0.69099998 -0.049673684 1.0885237e-38 344 281
0.0303765 0.69300002 -0.049817458 1.0700846e-38 345 281
0.031637147 0.69400001 -0.049889345 8.7636716e-39 346 281
0.032948639 0.69599998 -0.050033119 7.1037901e-39 347 281
0.034218054 0.69700003 -0.050105009 6.8297241e-39 348 281
0.035490975 0.69800001 -0.050176892 8.0282673e-39 349 281
0.036819998 0.69999999 -0.050320663 9.7788885e-39 350 281
0.038101684 0.70099998 -0.050392549 1.0608649e-38 351 281
0.039330769 0.70099998 -0.050392549 1.1437315e-38 352 281
0.040559858 0.70099998 -0.050392549 1.1529511e-38 353 281
-0.021341572 0.71600002 -0.052726239 1.7423532e-38 303 282
-0.020030079 0.71399999 -0.052578956 1.5860538e-38 304 282
-0.0186993 0.71100003 -0.052358042 1.4846387e-38 305 282
-0.017428132 0.70999998 -0.052284397 1.3925891e-38 306 282
-0.016114887 0.70700002 -0.05206348 1.3372717e-38 307 282
-0.014812159 0.704 -0.051842559 1.190337e-38 308 282
-0.013500666 0.69999999 -0.051547997 1.1627142e-38 309 282
-0.012238266 0.69800001 -0.051400717 1.0617676e-38 310 282
-0.01101444 0.69800001 -0.051400717 1.0801709e-38 311 282
-0.0097625591 0.69599998 -0.051253434 1.1537112e-38 312 282
-0.0085422397 0.69599998 -0.051253434 1.1721503e-38 313 282
-0.0073008798 0.69400001 -0.051106159 1.1905171e-38 314 282
-0.0060840664 0.69400001 -0.051106159 1.1905171e-38 315 282
-0.00486024 0.69300002 -0.051032521 1.1628936e-38 316 282
-0.0036451798 0.69300002 -0.051032521 1.1444545e-38 317 282
-0.0024231065 0.69099998 -0.050885238 1.0338916e-38 318 282
-0.0012097999 0.69 -0.050811596 9.6935466e-39 319 282
0 0.69 -0.050811596 1.0708052e-38 320 282
0.0012062934 0.68800002 -0.050664321 1.1445617e-38 321 282
0.0024125867 0.68800002 -0.050664321 1.2456506e-38 322 282
0.0036188802 0.68800002 -0.050664321 1.2733092e-38 323 282
0.0048181596 0.68699998 -0.050590675 1.3099358e-38 324 282
0.0060226996 0.68699998 -0.050590675 1.2177401e-38 325 282
0.0072272392 0.68699998 -0.050590675 1.0062297e-38 326 282
0.0084317802 0.68699998 -0.050590675 1.0707666e-38 327 282
0.0096363192 0.68699998 -0.050590675 1.1994057e-38 328 282
0.010840859 0.68699998 -0.050590675 1.171783e-38 329 282
0.012045399 0.68699998 -0.050590675 1.181184e-38 330 282
0.013249939 0.68699998 -0.050590675 1.1535254e-38 331 282
0.014454478 0.68699998 -0.050590675 9.6921018e-39 332 282
0.015681813 0.68800002 -0.050664321 9.1389281e-39 333 282
0.016888106 0.68800002 -0.050664321 9.50664e-39 334 282
0.0180944 0.68800002 -0.050664321 9.5988356e-39 335 282
0.019300694 0.68800002 -0.050664321 9.5062841e-39 336 282
0.020506985 0.68800002 -0.050664321 9.6910355e-39 337 282
0.021713281 0.68800002 -0.050664321 1.03346e-38 338 282
0.022919573 0.68800002 -0.050664321 1.03346e-38 339 282
0.024195999 0.69 -0.050811596 1.070301e-38 340 282
0.025405798 0.69 -0.050811596 1.0887761e-38 341 282
0.026654173 0.69099998 -0.050885238 1.0703366e-38 342 282
0.027865725 0.69099998 -0.050885238 1.061117e-38 343 282
0.029161438 0.69300002 -0.051032521 1.0426057e-38 344 282
0.030420333 0.69400001 -0.051106159 9.965079e-39 345 282
0.031637147 0.69400001 -0.051106159 8.7651037e-39 346 282
0.032948639 0.69599998 -0.051253434 8.1197343e-39 347 282
0.034267146 0.69800001 -0.051400717 9.0395326e-39 348 282
0.035592664 0.69999999 -0.051547997 9.9611287e-39 349 282
0.036872596 0.70099998 -0.051621638 1.0516451e-38 350 282
0.038210396 0.70300001 -0.051768921 1.1254016e-38 351 282
0.039442986 0.70300001 -0.051768921 1.2542221e-38 352 282
0.040733438 0.704 -0.051842559 1.2911004e-38 353 282
-0.020030079 0.71399999 -0.053830836 1.5492826e-38 304 283
-0.0186993 0.71100003 -0.053604662 1.5124402e-38 305 283
-0.017428132 0.70999998 -0.053529263 1.494147e-38 306 283
-0.016114887 0.70700002 -0.053303085 1.5034024e-38 307 283
-0.014854239 0.70599997 -0.053227689 1.3100822e-38 308 283
-0.013519952 0.70099998 -0.052850723 1.208667e-38 309 283
-0.012273333 0.69999999 -0.052775331 1.0341087e-38 310 283
-0.01101444 0.69800001 -0.052624546 1.0617673e-38 311 283
-0.0097765867 0.69700003 -0.052549154 1.1811901e-38 312 283
-0.0085545136 0.69700003 -0.052549154 1.1719705e-38 313 283
-0.0073219193 0.69599998 -0.052473757 1.1169049e-38 314 283
-0.0060840664 0.69400001 -0.052322973 1.1076854e-38 315 283
-0.0048672534 0.69400001 -0.052322973 1.0893542e-38 316 283
-0.0036451798 0.69300002 -0.05224758 1.1261964e-38 317 283
-0.0024231065 0.69099998 -0.052096792 1.0799547e-38 318 283
-0.0012115532 0.69099998 -0.052096792 1.0522961e-38 319 283
0 0.69 -0.052021399 1.1351632e-38 320 283
0.0012062934 0.68800002 -0.051870614 1.1812251e-38 321 283
0.0024125867 0.68800002 -0.051870614 1.2548352e-38 322 283
0.0036188802 0.68800002 -0.051870614 1.2732742e-38 323 283
0.0048251734 0.68800002 -0.051870614 1.2915673e-38 324 283
0.0060314666 0.68800002 -0.051870614 1.1624934e-38 325 283
0.0072377604 0.68800002 -0.051870614 9.9707991e-39 326 283
0.0084317802 0.68699998 -0.051795214 1.0523973e-38 327 283
0.0096363192 0.68699998 -0.051795214 1.1443057e-38 328 283
0.010856641 0.68800002 -0.051870614 1.1627449e-38 329 283
0.012062933 0.68800002 -0.051870614 1.1443802e-38 330 283
0.013269227 0.68800002 -0.051870614 1.1443802e-38 331 283
0.014475521 0.68800002 -0.051870614 1.0889925e-38 332 283
0.015681813 0.68800002 -0.051870614 1.0889925e-38 333 283
0.016888106 0.68800002 -0.051870614 1.0981767e-38 334 283
0.0180944 0.68800002 -0.051870614 1.1074323e-38 335 283
0.019356798 0.69 -0.052021399 1.1072887e-38 336 283
0.020566599 0.69 -0.052021399 1.0888856e-38 337 283
0.021776399 0.69 -0.052021399 1.1072521e-38 338 283
0.022986198 0.69 -0.052021399 1.1072521e-38 339 283
0.024231065 0.69099998 -0.052096792 1.1163991e-38 340 283
0.025442619 0.69099998 -0.052096792 1.0887405e-38 341 283
0.02673132 0.69300002 -0.05224758 1.0428224e-38 342 283
0.027946379 0.69300002 -0.05224758 1.0151638e-38 343 283
0.029203519 0.69400001 -0.052322973 9.7821353e-39 344 283
0.030420333 0.69400001 -0.052322973 9.5051897e-39 345 283
0.031728316 0.69599998 -0.052473757 8.8573021e-39 346 283
0.03299598 0.69700003 -0.052549154 8.9494977e-39 347 283
0.034267146 0.69800001 -0.052624546 1.0605776e-38 348 283
0.035592664 0.69999999 -0.052775331 1.1712123e-38 349 283
0.036872596 0.70099998 -0.052850723 1.2358195e-38 350 283
0.038210396 0.70300001 -0.053001512 1.3095761e-38 351 283
0.039442986 0.70300001 -0.053001512 1.3924064e-38 352 283
0.040733438 0.704 -0.053076904 1.3739314e-38 353 283
0.041967787 0.704 -0.053076904 1.373965e-38 354 283
-0.018778199 0.71399999 -0.05508272 1.4019128e-38 305 284
-0.017428132 0.70999998 -0.054774132 1.4943623e-38 306 284
-0.01613768 0.708 -0.054619838 1.5312047e-38 307 284
-0.01487528 0.70700002 -0.054542694 1.4020255e-38 308 284
-0.013519952 0.70099998 -0.054079808 1.2084146e-38 309 284
-0.012273333 0.69999999 -0.054002665 8.9559872e-39 310 284
-0.01101444 0.69800001 -0.053848371 8.8634328e-39 311 284
-0.0097906133 0.69800001 -0.053848371 9.5963315e-39 312 284
-0.0085545136 0.69700003 -0.053771228 8.3977883e-39 313 284
-0.0073219193 0.69599998 -0.053694077 7.1210793e-39 314 284
-0.0060840664 0.69400001 -0.053539783 8.8724361e-39 315 284
-0.0048672534 0.69400001 -0.053539783 1.0524046e-38 316 284
-0.0036451798 0.69300002 -0.053462639 1.0800991e-38 317 284
-0.00243012 0.69300002 -0.053462639 1.0890667e-38 318 284
-0.0012115532 0.69099998 -0.053308345 1.0521884e-38 319 284
0 0.69099998 -0.053308345 8.6797702e-39 320 284
0.0012097999 0.69 -0.053231198 8.3106276e-39 321 284
0.0024195998 0.69 -0.053231198 9.3215271e-39 322 284
0.0036188802 0.68800002 -0.053076908 9.7821451e-39 323 284
0.0048251734 0.68800002 -0.053076908 9.2303782e-39 324 284
0.0060314666 0.68800002 -0.053076908 7.9399981e-39 325 284
0.0072377604 0.68800002 -0.053076908 8.3134442e-39 326 284
0.0084440531 0.68800002 -0.053076908 1.0618336e-38 327 284
0.0096503468 0.68800002 -0.053076908 1.1718944e-38 328 284
0.010856641 0.68800002 -0.053076908 1.1626749e-38 329 284
0.012097999 0.69 -0.053231198 1.1167588e-38 330 284
0.0133078 0.69 -0.053231198 1.1075392e-38 331 284
0.014517599 0.69 -0.053231198 1.0890646e-38 332 284
0.015727401 0.69 -0.053231198 1.0706257e-38 333 284
0.0169372 0.69 -0.053231198 1.0890293e-38 334 284
0.018146999 0.69 -0.053231198 1.0706262e-38 335 284
0.019356798 0.69 -0.053231198 1.0797379e-38 336 284
0.020566599 0.69 -0.053231198 1.0612629e-38 337 284
0.021807959 0.69099998 -0.053308345 1.0612985e-38 338 284
0.023019511 0.69099998 -0.053308345 1.0428954e-38 339 284
0.024301201 0.69300002 -0.053462639 1.0520066e-38 340 284
0.02551626 0.69300002 -0.053462639 1.042787e-38 341 284
0.02673132 0.69300002 -0.053462639 1.0059808e-38 342 284
0.027986705 0.69400001 -0.053539783 9.6913844e-39 343 284
0.029203519 0.69400001 -0.053539783 8.9545354e-39 344 284
0.030420333 0.69400001 -0.053539783 8.2169704e-39 345 284
0.031728316 0.69599998 -0.053694077 7.1988598e-39 346 284
0.03299598 0.69700003 -0.053771228 7.383251e-39 347 284
0.034267146 0.69800001 -0.053848371 7.1066571e-39 348 284
0.035592664 0.69999999 -0.054002665 9.6881348e-39 349 284
0.036872596 0.70099998 -0.054079808 1.3002124e-38 350 284
0.038210396 0.70300001 -0.054234106 1.3831884e-38 351 284
0.039442986 0.70300001 -0.054234106 1.3924414e-38 352 284
0.040733438 0.704 -0.054311249 1.337124e-38 353 284
0.041967787 0.704 -0.054311249 1.3280464e-38 354 284
-0.017428132 0.70999998 -0.056018997 1.429897e-38 306 285
-0.01613768 0.708 -0.055861197 1.5129091e-38 307 285
-0.01487528 0.70700002 -0.055782299 1.4388301e-38 308 285
-0.013558527 0.70300001 -0.0554667 1.2267443e-38 309 285
-0.012290866 0.70099998 -0.055308893 7.9407436e-39 310 285
-0.011045999 0.69999999 -0.055229999 6.2808621e-39 311 285
-0.0098186666 0.69999999 -0.055229999 5.1749097e-39 312 285
-0.0085667865 0.69800001 -0.0550722 3.7919753e-39 313 285
-0.00733244 0.69700003 -0.054993302 6.0064599e-39 314 285
-0.0061015999 0.69599998 -0.054914396 1.06166e-38 315 285
-0.0048672534 0.69400001 -0.054756597 1.1442395e-38 316 285
-0.0036504399 0.69400001 -0.054756597 1.1073614e-38 317 285
-0.00243012 0.69300002 -0.054677699 1.0153821e-38 318 285
-0.00121506 0.69300002 -0.054677699 9.6932019e-39 319 285
0 0.69099998 -0.054519895 5.8249525e-39 320 285
0.0012115532 0.69099998 -0.054519895 4.7182448e-39 321 285
0.0024231065 0.69099998 -0.054519895 5.8209994e-39 322 285
0.0036293997 0.69 -0.054440998 6.097945e-39 323 285
0.0048391996 0.69 -0.054440998 5.5440398e-39 324 285
0.0060489997 0.69 -0.054440998 3.9770742e-39 325 285
0.0072587994 0.69 -0.054440998 3.8027373e-39 326 285
0.0084686 0.69 -0.054440998 9.2422794e-39 327 285
0.0096783992 0.69 -0.054440998 1.2638049e-38 328 285
0.010888199 0.69 -0.054440998 1.2268906e-38 329 285
0.012115533 0.69099998 -0.054519895 1.1442027e-38 330 285
0.013327086 0.69099998 -0.054519895 1.1349831e-38 331 285
0.014538639 0.69099998 -0.054519895 1.0889572e-38 332 285
0.015750192 0.69099998 -0.054519895 1.0889572e-38 333 285
0.016961746 0.69099998 -0.054519895 1.0430035e-38 334 285
0.0181733 0.69099998 -0.054519895 1.0246004e-38 335 285
0.019384852 0.69099998 -0.054519895 1.0154172e-38 336 285
0.020596405 0.69099998 -0.054519895 9.8779449e-39 337 285
0.021871079 0.69300002 -0.054677699 9.9690601e-39 338 285
0.02308614 0.69300002 -0.054677699 9.7846688e-39 339 285
0.024301201 0.69300002 -0.054677699 9.7846688e-39 340 285
0.02551626 0.69300002 -0.054677699 9.4158877e-39 341 285
0.026769891 0.69400001 -0.054756597 9.4155234e-39 342 285
0.027986705 0.69400001 -0.054756597 9.322969e-39 343 285
0.029203519 0.69400001 -0.054756597 8.8623398e-39 344 285
0.030507999 0.69599998 -0.054914396 7.3875698e-39 345 285
0.03177391 0.69700003 -0.054993302 6.3690893e-39 346 285
0.033043321 0.69800001 -0.0550722 6.1850582e-39 347 285
0.034365334 0.69999999 -0.055229999 5.8126589e-39 348 285
0.035643511 0.70099998 -0.055308893 8.6707248e-39 349 285
0.036977798 0.70300001 -0.0554667 1.3462004e-38 350 285
0.038264744 0.704 -0.055545598 1.3831147e-38 351 285
0.039499093 0.704 -0.055545598 1.3372663e-38 352 285
0.040733438 0.704 -0.055545598 1.2542902e-38 353 285
0.041967787 0.704 -0.055545598 1.3188256e-38 354 285
0.043202132 0.704 -0.055545598 1.6599494e-38 355 285
-0.017428132 0.70999998 -0.057263866 1.2457916e-38 306 286
-0.016114887 0.70700002 -0.057021905 1.3748655e-38 307 286
-0.01487528 0.70700002 -0.057021905 1.5034024e-38 308 286
-0.013577812 0.704 -0.056779943 1.3743285e-38 309 286
-0.012325933 0.70300001 -0.056699295 1.1161467e-38 310 286
-0.011061779 0.70099998 -0.056537982 7.0130238e-39 311 286
-0.0098186666 0.69999999 -0.056457333 2.7839316e-39 312 286
-0.0085913334 0.69999999 -0.056457333 3.0608787e-39 313 286
-0.0073429602 0.69800001 -0.056296028 7.0173748e-39 314 286
-0.0061103669 0.69700003 -0.056215372 1.2917895e-38 315 286
-0.0048812795 0.69599998 -0.056134716 1.3096872e-38 316 286
-0.0036504399 0.69400001 -0.055973411 1.1529906e-38 317 286
-0.0024336267 0.69400001 -0.055973411 7.3937005e-39 318 286
-0.00121506 0.69300002 -0.055892758 7.2093093e-39 319 286
0 0.69300002 -0.055892758 5.6387564e-39 320 286
0.0012115532 0.69099998 -0.055731449 5.1777782e-39 321 286
0.0024231065 0.69099998 -0.055731449 5.2660292e-39 322 286
0.0036346598 0.69099998 -0.055731449 4.3440743e-39 323 286
0.0048462129 0.69099998 -0.055731449 2.6863662e-39 324 286
0.0060577663 0.69099998 -0.055731449 9.3464926e-40 325 286
0.0072693196 0.69099998 -0.055731449 2.4538137e-41 326 286
0.008480873 0.69099998 -0.055731449 6.9428117e-39 327 286
0.0096924258 0.69099998 -0.055731449 1.3466012e-38 328 286
0.01090398 0.69099998 -0.055731449 1.3834793e-38 329 286
0.012115533 0.69099998 -0.055731449 1.3097222e-38 330 286
0.01336566 0.69300002 -0.055892758 1.2451853e-38 331 286
0.014580719 0.69300002 -0.055892758 1.0155604e-38 332 286
0.015795778 0.69300002 -0.055892758 9.6942655e-39 333 286
0.01701084 0.69300002 -0.055892758 9.5106029e-39 334 286
0.018225901 0.69300002 -0.055892758 9.3262116e-39 335 286
0.01944096 0.69300002 -0.055892758 9.6013566e-39 336 286
0.020656019 0.69300002 -0.055892758 9.6935522e-39 337 286
0.021871079 0.69300002 -0.055892758 9.5084365e-39 338 286
0.02308614 0.69300002 -0.055892758 8.7708714e-39 339 286
0.024301201 0.69300002 -0.055892758 7.9425527e-39 340 286
0.02551626 0.69300002 -0.055892758 7.75816e-39 341 286
0.026769891 0.69400001 -0.055973411 8.8627139e-39 342 286
0.027986705 0.69400001 -0.055973411 8.8627139e-39 343 286
0.029287677 0.69599998 -0.056134716 8.4935587e-39 344 286
0.030551834 0.69700003 -0.056215372 7.571601e-39 345 286
0.03177391 0.69700003 -0.056215372 7.4714838e-39 346 286
0.033043321 0.69800001 -0.056296028 7.8399062e-39 347 286
0.034365334 0.69999999 -0.056457333 9.4086556e-39 348 286
0.035745207 0.70300001 -0.056699295 1.1437318e-38 349 286
0.036977798 0.70300001 -0.056699295 1.3830419e-38 350 286
0.038264744 0.704 -0.056779943 1.3737865e-38 351 286
0.039611302 0.70599997 -0.056941248 1.2269537e-38 352 286
0.040849157 0.70599997 -0.056941248 1.1439776e-38 353 286
0.042087011 0.70599997 -0.056941248 1.3005294e-38 354 286
0.043324865 0.70599997 -0.056941248 1.6877152e-38 355 286
-0.017354494 0.70700002 -0.05826151 1.1350097e-38 306 287
-0.016114887 0.70700002 -0.05826151 1.2733032e-38 307 287
-0.01487528 0.70700002 -0.05826151 1.4115658e-38 308 287
-0.013577812 0.704 -0.058014292 1.448444e-38 309 287
-0.012343466 0.704 -0.058014292 1.392516e-38 310 287
-0.011061779 0.70099998 -0.057767071 1.1159289e-38 311 287
-0.0098326923 0.70099998 -0.057767071 6.4602325e-39 312 287
-0.0085913334 0.69999999 -0.05768466 3.9713093e-39 313 287
-0.0073429602 0.69800001 -0.057519849 5.0827113e-39 314 287
-0.006119133 0.69800001 -0.057519849 1.1813352e-38 315 287
-0.0048882933 0.69700003 -0.05743745 1.4202498e-38 316 287
-0.0036609597 0.69599998 -0.057355035 1.2451139e-38 317 287
-0.0024336267 0.69400001 -0.057190225 1.0702297e-38 318 287
-0.0012168133 0.69400001 -0.057190225 9.3190033e-39 319 287
0 0.69300002 -0.057107817 8.028989e-39 320 287
0.00121506 0.69300002 -0.057107817 7.2914239e-39 321 287
0.00243012 0.69300002 -0.057107817 6.5542345e-39 322 287
0.0036451798 0.69300002 -0.057107817 5.3556927e-39 323 287
0.00486024 0.69300002 -0.057107817 4.1575334e-39 324 287
0.0060753003 0.69300002 -0.057107817 3.6043597e-39 325 287
0.0072903596 0.69300002 -0.057107817 3.9081514e-40 326 287
0.0085054198 0.69300002 -0.057107817 6.1991398e-39 327 287
0.0097204801 0.69300002 -0.057107817 1.171969e-38 328 287
0.010935539 0.69300002 -0.057107817 1.3471405e-38 329 287
0.012150601 0.69300002 -0.057107817 1.4111004e-38 330 287
0.01336566 0.69300002 -0.057107817 1.3281604e-38 331 287
0.014580719 0.69300002 -0.057107817 1.2453642e-38 332 287
0.015795778 0.69300002 -0.057107817 1.1992304e-38 333 287
0.01701084 0.69300002 -0.057107817 1.1348382e-38 334 287
0.018225901 0.69300002 -0.057107817 1.0979601e-38 335 287
0.01944096 0.69300002 -0.057107817 1.042787e-38 336 287
0.020656019 0.69300002 -0.057107817 9.782501e-39 337 287
0.021902639 0.69400001 -0.057190225 8.9545382e-39 338 287
0.023119451 0.69400001 -0.057190225 7.8481921e-39 339 287
0.024336265 0.69400001 -0.057190225 6.7429165e-39 340 287
0.025553079 0.69400001 -0.057190225 9.1400029e-39 341 287
0.026769891 0.69400001 -0.057190225 1.0977436e-38 342 287
0.028067358 0.69599998 -0.057355035 1.1346218e-38 343 287
0.02932976 0.69700003 -0.05743745 1.1621358e-38 344 287
0.030551834 0.69700003 -0.05743745 1.1436965e-38 345 287
0.031819493 0.69800001 -0.057519849 1.0330619e-38 346 287
0.033137999 0.69999999 -0.05768466 1.0054031e-38 347 287
0.034365334 0.69999999 -0.05768466 1.2080884e-38 348 287
0.035745207 0.70300001 -0.057931885 1.3003199e-38 349 287
0.036977798 0.70300001 -0.057931885 1.2637616e-38 350 287
0.038264744 0.704 -0.058014292 1.1900051e-38 351 287
0.039611302 0.70599997 -0.058179103 1.0246605e-38 352 287
0.040849157 0.70599997 -0.058179103 1.0891975e-38 353 287
0.042087011 0.70599997 -0.058179103 1.4935279e-38 354 287
-0.016114887 0.70700002 -0.059501119 1.1531229e-38 307 288
-0.01487528 0.70700002 -0.059501119 1.172285e-38 308 288
-0.013616386 0.70599997 -0.059416957 1.3382371e-38 309 288
-0.012343466 0.704 -0.059248637 1.5309166e-38 310 288
-0.01109334 0.70300001 -0.059164476 1.4018427e-38 311 288
-0.0098326923 0.70099998 -0.058996156 1.2079467e-38 312 288
-0.0086036054 0.70099998 -0.058996156 5.8101646e-39 313 288
-0.0073639993 0.69999999 -0.058911994 2.0467169e-39 314 288
-0.006119133 0.69800001 -0.058743682 8.500411e-39 315 288
-0.0048882933 0.69700003 -0.05865952 1.3097955e-38 316 288
-0.00366622 0.69700003 -0.05865952 1.3558932e-38 317 288
-0.0024406398 0.69599998 -0.058575355 1.3922307e-38 318 288
-0.0012168133 0.69400001 -0.058407038 1.2446818e-38 319 288
0 0.69400001 -0.058407038 1.0329915e-38 320 288
0.0012168133 0.69400001 -0.058407038 9.4079578e-39 321 288
0.0024336267 0.69400001 -0.058407038 8.5792859e-39 322 288
0.0036504399 0.69400001 -0.058407038 7.2885471e-39 323 288
0.0048672534 0.69400001 -0.058407038 6.6446294e-39 324 288
0.0060840664 0.69400001 -0.058407038 8.488542e-39 325 288
0.0073008798 0.69400001 -0.058407038 8.8587693e-39 326 288
0.0085176928 0.69400001 -0.058407038 7.4754761e-39 327 288
0.0097204801 0.69300002 -0.058322877 9.3258431e-39 328 288
0.010935539 0.69300002 -0.058322877 1.255269e-38 329 288
0.012150601 0.69300002 -0.058322877 1.4387945e-38 330 288
0.01336566 0.69300002 -0.058322877 1.4111357e-38 331 288
0.014580719 0.69300002 -0.058322877 1.401844e-38 332 288
0.015795778 0.69300002 -0.058322877 1.3742213e-38 333 288
0.01701084 0.69300002 -0.058322877 1.3648584e-38 334 288
0.018225901 0.69300002 -0.058322877 1.3003215e-38 335 288
0.019469013 0.69400001 -0.058407038 1.1806836e-38 336 288
0.020685827 0.69400001 -0.058407038 9.5945014e-39 337 288
0.021902639 0.69400001 -0.058407038 6.6503677e-39 338 288
0.023119451 0.69400001 -0.058407038 6.5581721e-39 339 288
0.024336265 0.69400001 -0.058407038 7.1077375e-39 340 288
0.025553079 0.69400001 -0.058407038 1.0979954e-38 341 288
0.026847038 0.69599998 -0.058575355 1.3278354e-38 342 288
0.028107686 0.69700003 -0.05865952 1.4108475e-38 343 288
0.02932976 0.69700003 -0.05865952 1.4108472e-38 344 288
0.030595668 0.69800001 -0.058743682 1.4016275e-38 345 288
0.031910665 0.69999999 -0.058911994 1.3738964e-38 346 288
0.03318534 0.70099998 -0.058996156 1.3554571e-38 347 288
0.034414422 0.70099998 -0.058996156 1.3647467e-38 348 288
0.035745207 0.70300001 -0.059164476 1.337124e-38 349 288
0.037030395 0.704 -0.059248637 1.1627026e-38 350 288
0.038373452 0.70599997 -0.059416957 1.0428123e-38 351 288
0.039611302 0.70599997 -0.059416957 9.418993e-39 352 288
0.040849157 0.70599997 -0.059416957 1.2184862e-38 353 288
-0.01487528 0.70700002 -0.060740728 1.0433139e-38 308 289
-0.013616386 0.70599997 -0.060654808 1.2093019e-38 309 289
-0.012343466 0.704 -0.060482983 1.3288396e-38 310 289
-0.011109119 0.704 -0.060482983 1.3749374e-38 311 289
-0.0098607466 0.70300001 -0.06039707 1.438685e-38 312 289
-0.0086281532 0.70300001 -0.06039707 1.1897569e-38 313 289
-0.0073745195 0.70099998 -0.060225245 7.4714964e-39 314 289
-0.0061366665 0.69999999 -0.060139328 7.4714964e-39 315 289
-0.0048953067 0.69800001 -0.059967503 8.4989733e-39 316 289
-0.0036714801 0.69800001 -0.059967503 1.1357036e-38 317 289
-0.0024441467 0.69700003 -0.05988159 1.4200333e-38 318 289
-0.0012203199 0.69599998 -0.059795678 1.3370572e-38 319 289
0 0.69599998 -0.059795678 1.1804322e-38 320 289
0.0012203199 0.69599998 -0.059795678 1.0697975e-38 321 289
0.0024336267 0.69400001 -0.059623852 9.5019527e-39 322 289
0.0036504399 0.69400001 -0.059623852 8.6721906e-39 323 289
0.0048672534 0.69400001 -0.059623852 7.6573394e-39 324 289
0.0060840664 0.69400001 -0.059623852 7.6573394e-39 325 289
0.0073008798 0.69400001 -0.059623852 7.754221e-39 326 289
0.0085176928 0.69400001 -0.059623852 6.7397089e-39 327 289
0.0097345067 0.69400001 -0.059623852 9.5034002e-39 328 289
0.01095132 0.69400001 -0.059623852 1.3559648e-38 329 289
0.012168133 0.69400001 -0.059623852 1.4388664e-38 330 289
0.013384946 0.69400001 -0.059623852 1.3928045e-38 331 289
0.01460176 0.69400001 -0.059623852 1.4018793e-38 332 289
0.015818574 0.69400001 -0.059623852 1.4018793e-38 333 289
0.017035386 0.69400001 -0.059623852 1.4017721e-38 334 289
0.0182522 0.69400001 -0.059623852 1.3741133e-38 335 289
0.019469013 0.69400001 -0.059623852 1.318724e-38 336 289
0.020685827 0.69400001 -0.059623852 1.2172729e-38 337 289
0.021902639 0.69400001 -0.059623852 1.0148747e-38 338 289
0.023186078 0.69599998 -0.059795678 9.687769e-39 339 289
0.0244064 0.69599998 -0.059795678 9.8707156e-39 340 289
0.025626717 0.69599998 -0.059795678 1.2267443e-38 341 289
0.026885614 0.69700003 -0.05988159 1.3738964e-38 342 289
0.028148014 0.69800001 -0.059967503 1.419994e-38 343 289
0.029371841 0.69800001 -0.059967503 1.4016625e-38 344 289
0.030683333 0.69999999 -0.060139328 1.4016625e-38 345 289
0.031910665 0.69999999 -0.060139328 1.364855e-38 346 289
0.03318534 0.70099998 -0.060225245 1.3279408e-38 347 289
0.034414422 0.70099998 -0.060225245 1.2270261e-38 348 289
0.035745207 0.70300001 -0.06039707 1.1624892e-38 349 289
0.037030395 0.704 -0.060482983 9.8803187e-39 350 289
0.038373452 0.70599997 -0.060654808 9.695926e-39 351 289
0.039611302 0.70599997 -0.060654808 1.1534095e-38 352 289
0.040849157 0.70599997 -0.060654808 1.4484715e-38 353 289
-0.01489632 0.708 -0.062068 1.1073782e-38 308 290
-0.013635674 0.70700002 -0.061980337 1.1350728e-38 309 290
-0.012378532 0.70599997 -0.061892662 1.0712606e-38 310 290
-0.011140679 0.70599997 -0.061892662 1.209554e-38 311 290
-0.0098747732 0.704 -0.061717331 1.439115e-38 312 290
-0.0086281532 0.70300001 -0.061629668 1.4298955e-38 313 290
-0.0073955595 0.70300001 -0.061629668 1.1988714e-38 314 290
-0.0061366665 0.69999999 -0.061366666 6.2725847e-39 315 290
-0.0049093333 0.69999999 -0.061366666 3.8070533e-39 316 290
-0.0036714801 0.69800001 -0.061191335 8.1402465e-39 317 290
-0.0024476533 0.69800001 -0.061191335 1.2635884e-38 318 290
-0.0012220733 0.69700003 -0.061103668 1.3004308e-38 319 290
0 0.69700003 -0.061103668 1.1990514e-38 320 290
0.0012220733 0.69700003 -0.061103668 1.1529178e-38 321 290
0.0024441467 0.69700003 -0.061103668 1.1067836e-38 322 290
0.00366622 0.69700003 -0.061103668 1.0606498e-38 323 290
0.0048812795 0.69599998 -0.061015997 9.3168551e-39 324 290
0.0061015999 0.69599998 -0.061015997 7.8417237e-39 325 290
0.0073219193 0.69599998 -0.061015997 5.7273619e-39 326 290
0.0085422397 0.69599998 -0.061015997 5.450775e-39 327 290
0.0097345067 0.69400001 -0.060840666 8.3037906e-39 328 290
0.01095132 0.69400001 -0.060840666 1.2452954e-38 329 290
0.012168133 0.69400001 -0.060840666 1.3744025e-38 330 290
0.013384946 0.69400001 -0.060840666 1.4020611e-38 331 290
0.01460176 0.69400001 -0.060840666 1.4111354e-38 332 290
0.015818574 0.69400001 -0.060840666 1.3927323e-38 333 290
0.017035386 0.69400001 -0.060840666 1.4110989e-38 334 290
0.0182522 0.69400001 -0.060840666 1.3926597e-38 335 290
0.019469013 0.69400001 -0.060840666 1.4109188e-38 336 290
0.020745439 0.69599998 -0.061015997 1.383296e-38 337 290
0.021965759 0.69599998 -0.061015997 1.3832957e-38 338 290
0.023186078 0.69599998 -0.061015997 1.3832957e-38 339 290
0.024441468 0.69700003 -0.061103668 1.4015906e-38 340 290
0.025663542 0.69700003 -0.061103668 1.4015906e-38 341 290
0.026885614 0.69700003 -0.061103668 1.383331e-38 342 290
0.028148014 0.69800001 -0.061191335 1.3741115e-38 343 290
0.029455997 0.69999999 -0.061366666 1.3465601e-38 344 290
0.030683333 0.69999999 -0.061366666 1.3373405e-38 345 290
0.031956252 0.70099998 -0.06145433 1.3006028e-38 346 290
0.03318534 0.70099998 -0.06145433 1.2360659e-38 347 290
0.034414422 0.70099998 -0.06145433 1.033986e-38 348 290
0.035745207 0.70300001 -0.061629668 9.8785222e-39 349 290
0.037030395 0.704 -0.061717331 9.2353024e-39 350 290
0.038373452 0.70599997 -0.061892662 1.0802987e-38 351 290
0.039611302 0.70599997 -0.061892662 1.4479345e-38 352 290
0.040849157 0.70599997 -0.061892662 1.6230702e-38 353 290
-0.013635674 0.70700002 -0.063219935 1.2634993e-38 309 291
-0.012378532 0.70599997 -0.063130513 1.0525649e-38 310 291
-0.011140679 0.70599997 -0.063130513 1.1355409e-38 311 291
-0.0098747732 0.704 -0.062951677 1.1724275e-38 312 291
-0.0086404262 0.704 -0.062951677 1.2277448e-38 313 291
-0.0074060797 0.704 -0.062951677 1.2364651e-38 314 291
-0.0061454331 0.70099998 -0.062683418 9.690978e-39 315 291
-0.0049093333 0.69999999 -0.062593997 8.7722741e-39 316 291
-0.0036819996 0.69999999 -0.062593997 1.0063013e-38 317 291
-0.0024476533 0.69800001 -0.062415157 1.116255e-38 318 291
-0.0012238267 0.69800001 -0.062415157 1.1991951e-38 319 291
0 0.69800001 -0.062415157 1.0887408e-38 320 291
0.0012220733 0.69700003 -0.062325738 1.1163635e-38 321 291
0.0024441467 0.69700003 -0.062325738 1.27252e-38 322 291
0.00366622 0.69700003 -0.062325738 1.2264222e-38 323 291
0.0048882933 0.69700003 -0.062325738 1.0792691e-38 324 291
0.0061103669 0.69700003 -0.062325738 1.0700496e-38 325 291
0.00733244 0.69700003 -0.062325738 1.0330287e-38 326 291
0.0085545136 0.69700003 -0.062325738 9.3161349e-39 327 291
0.0097625591 0.69599998 -0.062236317 7.292517e-39 328 291
0.010982879 0.69599998 -0.062236317 8.214832e-39 329 291
0.0122032 0.69599998 -0.062236317 1.0706259e-38 330 291
0.013384946 0.69400001 -0.06205748 1.1996998e-38 331 291
0.01460176 0.69400001 -0.06205748 1.374186e-38 332 291
0.015864158 0.69599998 -0.062236317 1.4110641e-38 333 291
0.017084479 0.69599998 -0.062236317 1.4110273e-38 334 291
0.018304799 0.69599998 -0.062236317 1.4018077e-38 335 291
0.019525118 0.69599998 -0.062236317 1.3926597e-38 336 291
0.020775247 0.69700003 -0.062325738 1.3742566e-38 337 291
0.02199732 0.69700003 -0.062325738 1.3742561e-38 338 291
0.023219392 0.69700003 -0.062325738 1.3650365e-38 339 291
0.024441468 0.69700003 -0.062325738 1.3925507e-38 340 291
0.025700359 0.69800001 -0.062415157 1.3925507e-38 341 291
0.026924185 0.69800001 -0.062415157 1.3649266e-38 342 291
0.028148014 0.69800001 -0.062415157 1.3372678e-38 343 291
0.029455997 0.69999999 -0.062593997 1.2637613e-38 344 291
0.030683333 0.69999999 -0.062593997 1.2269189e-38 345 291
0.031956252 0.70099998 -0.062683418 1.0892331e-38 346 291
0.033280019 0.70300001 -0.062862262 1.0615385e-38 347 291
0.034512613 0.70300001 -0.062862262 9.3285672e-39 348 291
0.035796054 0.704 -0.062951677 9.4211216e-39 349 291
0.037030395 0.704 -0.062951677 1.1350782e-38 350 291
0.038373452 0.70599997 -0.063130513 1.3840064e-38 351 291
0.039611302 0.70599997 -0.063130513 1.7054727e-38 352 291
0.040849157 0.70599997 -0.063130513 1.7054727e-38 353 291
-0.012378532 0.70599997 -0.064368367 1.1902084e-38 310 292
-0.011140679 0.70599997 -0.064368367 1.1902084e-38 311 292
-0.0099028256 0.70599997 -0.064368367 1.015939e-38 312 292
-0.0086404262 0.704 -0.064186029 1.0896955e-38 313 292
-0.0074060797 0.704 -0.064186029 1.1540584e-38 314 292
-0.0061629666 0.70300001 -0.064094849 1.1171802e-38 315 292
-0.0049163462 0.70099998 -0.063912503 1.144484e-38 316 292
-0.0036819996 0.69999999 -0.063821331 1.1167893e-38 317 292
-0.0024546667 0.69999999 -0.063821331 1.1166489e-38 318 292
-0.0012238267 0.69800001 -0.063638985 1.1350882e-38 319 292
0 0.69800001 -0.063638985 1.0430023e-38 320 292
0.0012238267 0.69800001 -0.063638985 1.0337827e-38 321 292
0.0024476533 0.69800001 -0.063638985 1.2912468e-38 322 292
0.0036714801 0.69800001 -0.063638985 1.2543685e-38 323 292
0.0048953067 0.69800001 -0.063638985 1.0794845e-38 324 292
0.006119133 0.69800001 -0.063638985 1.1255465e-38 325 292
0.0073429602 0.69800001 -0.063638985 1.2358575e-38 326 292
0.0085545136 0.69700003 -0.06354782 1.1436259e-38 327 292
0.0097765867 0.69700003 -0.06354782 9.4122766e-39 328 292
0.01099866 0.69700003 -0.06354782 8.3059304e-39 329 292
0.012220734 0.69700003 -0.06354782 8.9559717e-39 330 292
0.013423519 0.69599998 -0.063456632 1.0707329e-38 331 292
0.014643839 0.69599998 -0.063456632 1.3189405e-38 332 292
0.015864158 0.69599998 -0.063456632 1.411136e-38 333 292
0.017084479 0.69599998 -0.063456632 1.3927323e-38 334 292
0.018304799 0.69599998 -0.063456632 1.3927323e-38 335 292
0.019553173 0.69700003 -0.06354782 1.4110991e-38 336 292
0.020775247 0.69700003 -0.06354782 1.4018796e-38 337 292
0.02199732 0.69700003 -0.06354782 1.3651084e-38 338 292
0.023252707 0.69800001 -0.063638985 1.3651084e-38 339 292
0.024476532 0.69800001 -0.063638985 1.3467395e-38 340 292
0.025700359 0.69800001 -0.063638985 1.3098614e-38 341 292
0.027001332 0.69999999 -0.063821331 1.2547568e-38 342 292
0.028228667 0.69999999 -0.063821331 1.1994395e-38 343 292
0.029455997 0.69999999 -0.063821331 1.1350417e-38 344 292
0.030727165 0.70099998 -0.063912503 1.0981274e-38 345 292
0.031956252 0.70099998 -0.063912503 9.8820815e-39 346 292
0.033280019 0.70300001 -0.064094849 9.6973301e-39 347 292
0.034512613 0.70300001 -0.064094849 9.8781382e-39 348 292
0.035796054 0.704 -0.064186029 1.1076681e-38 349 292
0.037135597 0.70599997 -0.064368367 1.4386426e-38 350 292
0.038373452 0.70599997 -0.064368367 1.6138143e-38 351 292
0.039611302 0.70599997 -0.064368367 1.7607916e-38 352 292
0.040849157 0.70599997 -0.064368367 1.714694e-38 353 292
-0.012378532 0.70599997 -0.065606222 1.5307246e-38 310 293
-0.011140679 0.70599997 -0.065606222 1.3739921e-38 311 293
-0.0099028256 0.70599997 -0.065606222 1.0708595e-38 312 293
-0.0086404262 0.704 -0.065420374 1.0985182e-38 313 293
-0.0074060797 0.704 -0.065420374 1.0618593e-38 314 293
-0.0061629666 0.70300001 -0.065327443 1.089518e-38 315 293
-0.0049163462 0.70099998 -0.065141588 1.0528234e-38 316 293
-0.0036819996 0.69999999 -0.065048665 1.0804461e-38 317 293
-0.0024546667 0.69999999 -0.065048665 1.1355509e-38 318 293
-0.0012273333 0.69999999 -0.065048665 1.1816487e-38 319 293
0 0.69999999 -0.065048665 1.1815068e-38 320 293
0.0012238267 0.69800001 -0.06486281 1.1169698e-38 321 293
0.0024476533 0.69800001 -0.06486281 1.2272103e-38 322 293
0.0036714801 0.69800001 -0.06486281 1.1995155e-38 323 293
0.0048953067 0.69800001 -0.06486281 1.162638e-38 324 293
0.006119133 0.69800001 -0.06486281 1.162638e-38 325 293
0.0073429602 0.69800001 -0.06486281 1.1901891e-38 326 293
0.0085667865 0.69800001 -0.06486281 1.1901891e-38 327 293
0.0097906133 0.69800001 -0.06486281 1.2177036e-38 328 293
0.01101444 0.69800001 -0.06486281 1.1807893e-38 329 293
0.012220734 0.69700003 -0.064769886 1.097993e-38 330 293
0.013442807 0.69700003 -0.064769886 1.1256518e-38 331 293
0.01466488 0.69700003 -0.064769886 1.2823124e-38 332 293
0.015886955 0.69700003 -0.064769886 1.3560689e-38 333 293
0.017109027 0.69700003 -0.064769886 1.3834386e-38 334 293
0.018331099 0.69700003 -0.064769886 1.3834386e-38 335 293
0.019553173 0.69700003 -0.064769886 1.3283358e-38 336 293
0.020805053 0.69800001 -0.06486281 1.2914574e-38 337 293
0.02202888 0.69800001 -0.06486281 1.2638695e-38 338 293
0.023252707 0.69800001 -0.06486281 1.2362108e-38 339 293
0.024476532 0.69800001 -0.06486281 1.1261849e-38 340 293
0.025773998 0.69999999 -0.065048665 1.061648e-38 341 293
0.027001332 0.69999999 -0.065048665 9.974315e-39 342 293
0.028228667 0.69999999 -0.065048665 9.7899237e-39 343 293
0.029498078 0.70099998 -0.065141588 9.7895327e-39 344 293
0.030727165 0.70099998 -0.065141588 9.6973357e-39 345 293
0.032047424 0.70300001 -0.065327443 9.7891796e-39 346 293
0.03332736 0.704 -0.065420374 1.0434549e-38 347 293
0.034561705 0.704 -0.065420374 1.3282222e-38 348 293
0.035897743 0.70599997 -0.065606222 1.4480765e-38 349 293
0.037135597 0.70599997 -0.065606222 1.7328793e-38 350 293
0.038373452 0.70599997 -0.065606222 1.7236597e-38 351 293
0.039611302 0.70599997 -0.065606222 1.631898e-38 352 293
-0.0099028256 0.70599997 -0.066844068 1.4663284e-38 312 294
-0.0086404262 0.704 -0.066654719 1.3280349e-38 313 294
-0.0074060797 0.704 -0.066654719 1.1537262e-38 314 294
-0.0061717331 0.704 -0.066654719 1.135323e-38 315 294
-0.0049303733 0.70300001 -0.066560037 1.0068638e-38 316 294
-0.0036872597 0.70099998 -0.066370681 1.0253388e-38 317 294
-0.0024581731 0.70099998 -0.066370681 1.089553e-38 318 294
-0.0012290865 0.70099998 -0.066370681 1.1264312e-38 319 294
0 0.69999999 -0.066275999 1.1355823e-38 320 294
0.0012273333 0.69999999 -0.066275999 1.1355823e-38 321 294
0.0024546667 0.69999999 -0.066275999 1.126295e-38 322 294
0.0036819996 0.69999999 -0.066275999 1.126295e-38 323 294
0.0049093333 0.69999999 -0.066275999 1.1170414e-38 324 294
0.0061366665 0.69999999 -0.066275999 1.126261e-38 325 294
0.0073429602 0.69800001 -0.066086642 1.1170061e-38 326 294
0.0085667865 0.69800001 -0.066086642 1.1262257e-38 327 294
0.0097906133 0.69800001 -0.066086642 1.1905464e-38 328 294
0.01101444 0.69800001 -0.066086642 1.1720714e-38 329 294
0.012238266 0.69800001 -0.066086642 1.1627435e-38 330 294
0.013442807 0.69700003 -0.06599196 1.135049e-38 331 294
0.01466488 0.69700003 -0.06599196 1.1720351e-38 332 294
0.015909746 0.69800001 -0.066086642 1.236572e-38 333 294
0.017133573 0.69800001 -0.066086642 1.2457173e-38 334 294
0.0183574 0.69800001 -0.066086642 1.2088392e-38 335 294
0.019581227 0.69800001 -0.066086642 1.1905771e-38 336 294
0.020805053 0.69800001 -0.066086642 1.1629543e-38 337 294
0.02202888 0.69800001 -0.066086642 1.1538748e-38 338 294
0.023252707 0.69800001 -0.066086642 1.0801183e-38 339 294
0.024546666 0.69999999 -0.066275999 1.043488e-38 340 294
0.025773998 0.69999999 -0.066275999 9.9742617e-39 341 294
0.027039904 0.70099998 -0.066370681 9.5154219e-39 342 294
0.028268991 0.70099998 -0.066370681 9.4232263e-39 343 294
0.029498078 0.70099998 -0.066370681 9.9731757e-39 344 294
0.030814834 0.70300001 -0.066560037 1.0526349e-38 345 294
0.032093015 0.704 -0.066654719 1.20869e-38 346 294
0.033422034 0.70599997 -0.066844068 1.3377639e-38 347 294
0.03599944 0.708 -0.067033432 1.6135285e-38 349 294
0.0372408 0.708 -0.067033432 1.7235891e-38 350 294
-0.0086649731 0.70599997 -0.06808193 1.6225299e-38 313 295
-0.0074060797 0.704 -0.067889065 1.4480735e-38 314 295
-0.0061717331 0.704 -0.067889065 1.3374028e-38 315 295
-0.0049373866 0.704 -0.067889065 1.1169931e-38 316 295
-0.0036977797 0.70300001 -0.067792632 1.1169931e-38 317 295
-0.0024581731 0.70099998 -0.067599766 1.0619278e-38 318 295
-0.0012290865 0.70099998 -0.067599766 1.0619278e-38 319 295
0 0.70099998 -0.067599766 1.0618587e-38 320 295
0.0012273333 0.69999999 -0.067503333 1.0434196e-38 321 295
0.0024546667 0.69999999 -0.067503333 9.7924446e-39 322 295
0.0036819996 0.69999999 -0.067503333 1.0161227e-38 323 295
0.0049093333 0.69999999 -0.067503333 1.0436386e-38 324 295
0.0061366665 0.69999999 -0.067503333 1.0436386e-38 325 295
0.0073639993 0.69999999 -0.067503333 1.0344912e-38 326 295
0.0085667865 0.69800001 -0.06731046 1.0344912e-38 327 295
0.0097906133 0.69800001 -0.06731046 1.0527506e-38 328 295
0.01101444 0.69800001 -0.06731046 1.0619701e-38 329 295
0.012238266 0.69800001 -0.06731046 1.080193e-38 330 295
0.013462093 0.69800001 -0.06731046 1.0709735e-38 331 295
0.01468592 0.69800001 -0.06731046 1.0159076e-38 332 295
0.015909746 0.69800001 -0.06731046 9.9746849e-39 333 295
0.017133573 0.69800001 -0.06731046 9.8828228e-39 334 295
0.0183574 0.69800001 -0.06731046 9.6984315e-39 335 295
0.019637333 0.69999999 -0.067503333 1.0159022e-38 336 295
0.020805053 0.69800001 -0.06731046 1.0435248e-38 337 295
0.02202888 0.69800001 -0.06731046 1.0436302e-38 338 295
0.023319334 0.69999999 -0.067503333 9.883487e-39 339 295
0.024546666 0.69999999 -0.067503333 9.9753169e-39 340 295
0.025810819 0.70099998 -0.067599766 9.9753169e-39 341 295
0.027039904 0.70099998 -0.067599766 1.0249772e-38 342 295
0.028268991 0.70099998 -0.067599766 1.071039e-38 343 295
0.029624319 0.704 -0.067889065 1.2273445e-38 344 295
0.030858666 0.704 -0.067889065 1.3471988e-38 345 295
0.032229774 0.70700002 -0.068178371 1.5401304e-38 346 295
-0.0086649731 0.70599997 -0.069319785 1.7698299e-38 313 296
-0.0074060797 0.704 -0.06912341 1.6871737e-38 314 296
-0.0061717331 0.704 -0.06912341 1.6226368e-38 315 296
-0.0049373866 0.704 -0.06912341 1.5490196e-38 316 296
-0.0036977797 0.70300001 -0.069025226 1.4567881e-38 317 296
-0.0024651866 0.70300001 -0.069025226 1.2364157e-38 318 296
-0.0012325933 0.70300001 -0.069025226 1.190318e-38 319 296
0 0.70099998 -0.068828844 1.062e-38 320 296
0.0012290865 0.70099998 -0.068828844 1.0343053e-38 321 296
0.0024546667 0.69999999 -0.068730667 9.7924026e-39 322 296
0.0036819996 0.69999999 -0.068730667 1.0068991e-38 323 296
0.0049093333 0.69999999 -0.068730667 1.0437053e-38 324 296
0.0061366665 0.69999999 -0.068730667 1.0437053e-38 325 296
0.0073639993 0.69999999 -0.068730667 1.0068988e-38 326 296
0.0085913334 0.69999999 -0.068730667 1.0068988e-38 327 296
0.0098186666 0.69999999 -0.068730667 9.9764281e-39 328 296
0.011045999 0.69999999 -0.068730667 1.0068624e-38 329 296
0.012273333 0.69999999 -0.068730667 1.0343055e-38 330 296
0.013500666 0.69999999 -0.068730667 1.0159024e-38 331 296
0.014727999 0.69999999 -0.068730667 9.6994853e-39 332 296
0.015955333 0.69999999 -0.068730667 9.6072897e-39 333 296
0.017182667 0.69999999 -0.068730667 9.6079931e-39 334 296
0.018409999 0.69999999 -0.068730667 9.6079931e-39 335 296
0.019637333 0.69999999 -0.068730667 1.0251545e-38 336 296
0.020864666 0.69999999 -0.068730667 1.0251545e-38 337 296
0.022091998 0.69999999 -0.068730667 1.0802195e-38 338 296
0.023319334 0.69999999 -0.068730667 1.0802195e-38 339 296
0.024546666 0.69999999 -0.068730667 1.0986612e-38 340 296
0.025810819 0.70099998 -0.068828844 1.144759e-38 341 296
-0.0061892662 0.70599997 -0.070557632 1.8343671e-38 315 297
-0.0049373866 0.704 -0.070357755 1.7147629e-38 316 297
-0.0037030398 0.704 -0.070357755 1.585689e-38 317 297
-0.0024651866 0.70300001 -0.070257813 1.4017622e-38 318 297
-0.0012325933 0.70300001 -0.070257813 1.3280057e-38 319 297
0 0.70099998 -0.070057929 1.2642931e-38 320 297
0.0012290865 0.70099998 -0.070057929 1.2274148e-38 321 297
0.0024546667 0.69999999 -0.069957994 1.2090461e-38 322 297
0.0036819996 0.69999999 -0.069957994 1.1813514e-38 323 297
0.0049093333 0.69999999 -0.069957994 1.1171021e-38 324 297
0.0061366665 0.69999999 -0.069957994 1.0986631e-38 325 297
0.0073639993 0.69999999 -0.069957994 1.0436329e-38 326 297
0.0085913334 0.69999999 -0.069957994 1.0620719e-38 327 297
0.0098186666 0.69999999 -0.069957994 1.1078807e-38 328 297
0.011045999 0.69999999 -0.069957994 1.0986612e-38 329 297
0.012273333 0.69999999 -0.069957994 1.0618195e-38 330 297
0.013500666 0.69999999 -0.069957994 1.0618195e-38 331 297
0.014727999 0.69999999 -0.069957994 1.0618198e-38 332 297
0.015955333 0.69999999 -0.069957994 1.0526002e-38 333 297
0.017182667 0.69999999 -0.069957994 1.0617479e-38 334 297
0.018409999 0.69999999 -0.069957994 1.0985903e-38 335 297
0.019637333 0.69999999 -0.069957994 1.153729e-38 336 297
0.020864666 0.69999999 -0.069957994 1.1813516e-38 337 297
0.022091998 0.69999999 -0.069957994 1.2547864e-38 338 297
-0.0049514128 0.70599997 -0.071795486 1.6134583e-38 316 298
-0.0037030398 0.704 -0.071592107 1.512079e-38 317 298
-0.0024686933 0.704 -0.071592107 1.4937099e-38 318 298
-0.0012343467 0.704 -0.071592107 1.5582468e-38 319 298
0 0.70300001 -0.071490414 1.6140659e-38 320 298
0.0012325933 0.70300001 -0.071490414 1.6232854e-38 321 298
0.0024581731 0.70099998 -0.071287021 1.6781339e-38 322 298
0.0036819996 0.69999999 -0.071185328 1.4568644e-38 323 298
0.0049093333 0.69999999 -0.071185328 1.0890866e-38 324 298
0.0061366665 0.69999999 -0.071185328 1.0245497e-38 325 298
0.0073745195 0.70099998 -0.071287021 9.4225551e-39 326 298
0.0085913334 0.69999999 -0.071185328 1.1266108e-38 327 298
0.0098186666 0.69999999 -0.071185328 1.3283628e-38 328 298
0.011045999 0.69999999 -0.071185328 1.3375824e-38 329 298
0.012273333 0.69999999 -0.071185328 1.2915217e-38 330 298
0.013500666 0.69999999 -0.071185328 1.2915217e-38 331 298
0.014727999 0.69999999 -0.071185328 1.2731552e-38 332 298
0.015955333 0.69999999 -0.071185328 1.2731552e-38 333 298
0.017182667 0.69999999 -0.071185328 1.3007067e-38 334 298
0.018409999 0.69999999 -0.071185328 1.3191458e-38 335 298
0.019637333 0.69999999 -0.071185328 1.3375139e-38 336 298
-0.0049514128 0.70599997 -0.07303334 1.6039519e-38 316 299
-0.0036872597 0.70099998 -0.072516106 1.5394149e-38 317 299
-0.0024581731 0.70099998 -0.072516106 1.5671808e-38 318 299
-0.0012343467 0.704 -0.072826453 1.733169e-38 319 299
0 0.704 -0.072826453 1.7792659e-38 320 299
0.0012343467 0.704 -0.072826453 1.7885214e-38 321 299
0.0024651866 0.70300001 -0.072723009 1.7793012e-38 322 299
0.0036872597 0.70099998 -0.072516106 1.5396285e-38 323 299
0.0049163462 0.70099998 -0.072516106 1.23549e-38 324 299
0.0061454331 0.70099998 -0.072516106 1.1340746e-38 325 299
0.0074060797 0.704 -0.072826453 9.5979892e-39 326 299
0.0086281532 0.70300001 -0.072723009 1.3931544e-38 327 299
0.0098326923 0.70099998 -0.072516106 1.6317123e-38 328 299
0.011061779 0.70099998 -0.072516106 1.5671753e-38 329 299
0.012290866 0.70099998 -0.072516106 1.4017664e-38 330 299
0.013519952 0.70099998 -0.072516106 1.3925468e-38 331 299
0.014749039 0.70099998 -0.072516106 1.4018032e-38 332 299
-0.0036872597 0.70099998 -0.073745191 1.5395231e-38 317 300
-0.0024581731 0.70099998 -0.073745191 1.5854039e-38 318 300
-0.0012343467 0.704 -0.07406079 1.5761484e-38 319 300
0 0.704 -0.07406079 1.5482727e-38 320 300
0.0012343467 0.704 -0.07406079 1.4191988e-38 321 300
0.0024686933 0.704 -0.07406079 1.2995245e-38 322 300
0.0037030398 0.704 -0.07406079 1.3179997e-38 323 300
0.0049373866 0.704 -0.07406079 1.3362587e-38 324 300
0.0061717331 0.704 -0.07406079 1.4376738e-38 325 300
0.0074271196 0.70599997 -0.074271195 1.5024973e-38 326 300
0.0086404262 0.704 -0.07406079 1.825182e-38 327 300
0.0098747732 0.704 -0.07406079 1.8890005e-38 328 300
0.011109119 0.704 -0.07406079 1.6861701e-38 329 300
0.012378532 0.70599997 -0.074271195 1.4567616e-38 330 300
0.013616386 0.70599997 -0.074271195 1.4383225e-38 331 300
0.0074271196 0.70599997 -0.075509049 1.7969128e-38 326 301
0.0086649731 0.70599997 -0.075509049 1.9904877e-38 327 301
0.0098747732 0.704 -0.075295143 1.7422803e-38 328 301
0.011109119 0.704 -0.075295143 1.4565099e-38 329 301
0.012396066 0.70700002 -0.07561601 1.4197407e-38 330 301
0.013635674 0.70700002 -0.07561601 1.4289604e-38 331 301
0.0087140659 0.70999998 -0.077181734 1.9814129e-38 327 302
0.0099589331 0.70999998 -0.077181734 1.6685219e-38 328 302
0.011203799 0.70999998 -0.077181734 1.4288493e-38 329 302
0.0087263398 0.71100003 -0.078537062 1.926636e-38 327 303
0.0099589331 0.70999998 -0.0784266 1.9353504e-38 328 303
0.011203799 0.70999998 -0.0784266 1.7693983e-38 329 303
0.0087263398 0.71100003 -0.079783678 1.871534e-38 327 304
0.0099729598 0.71100003 -0.079783678 2.1287114e-38 328 304
0.01121958 0.71100003 -0.079783678 1.8890027e-38 329 304
0.0124662 0.71100003 -0.079783678 1.5758972e-38 330 304
0.0087263398 0.71100003 -0.081030294 1.5855838e-38 327 305
0.0099729598 0.71100003 -0.081030294 1.7966272e-38 328 305
0.01121958 0.71100003 -0.081030294 1.6583337e-38 329 305
0.0124662 0.71100003 -0.081030294 1.4376753e-38 330 305
0.0099729598 0.71100003 -0.082276918 1.511143e-38 328 306
0.01121958 0.71100003 -0.082276918 1.4466061e-38 329 306
0.01005712 0.71700001 -0.091771215 1.0790131e-38 328 313
0.01131426 0.71700001 -0.091771215 1.2634044e-38 329 313
0.0076270006 0.72500002 -0.094066329 1.1528419e-38 326 314
0.0088981669 0.72500002 -0.094066329 1.2173789e-38 327 314
0.01005712 0.71700001 -0.093028352 1.3001029e-38 328 314
0.01131426 0.71700001 -0.093028352 1.318578e-38 329 314
0.012676599 0.72299999 -0.093806833 1.3276891e-38 330 314
0.01394426 0.72299999 -0.093806833 1.2447129e-38 331 314
0.015211919 0.72299999 -0.093806833 1.0975246e-38 332 314
0.01647958 0.72299999 -0.093806833 1.235818e-38 333 314
0.017796334 0.72500002 -0.094066329 1.3926595e-38 334 314
0.01014128 0.72299999 -0.095074497 1.4293932e-38 328 315
