# .PCD v.7 - Point Cloud Data file format
FIELDS x y z rgb imX imY
SIZE 4 4 4 4 4 4
TYPE F F F F F F
COUNT 1 1 1 1 1 1
WIDTH 832
HEIGHT 1
VIEWPOINT 0 0 0 1 0 0 0
POINTS 832
DATA ascii
0 0.68199998 0.0023915465 9.2238566e-39 320 238
0.0011957732 0.68199998 0.0023915465 8.9476284e-39 321 238
0.0023915465 0.68199998 0.0023915465 9.3156865e-39 322 238
0.00358732 0.68199998 0.0023915465 9.4078821e-39 323 238
0.004783093 0.68199998 0.0023915465 1.0049298e-38 324 238
0.005978866 0.68199998 0.0023915465 1.0141853e-38 325 238
0.00717464 0.68199998 0.0023915465 1.0417714e-38 326 238
0.0083704125 0.68199998 0.0023915465 1.0141128e-38 327 238
0.009566186 0.68199998 0.0023915465 1.0048933e-38 328 238
0.01077774 0.68300003 0.0023950534 1.0417714e-38 329 238
0.011975267 0.68300003 0.0023950534 1.0415926e-38 330 238
0.013172794 0.68300003 0.0023950534 9.4936107e-39 331 238
0.014370319 0.68300003 0.0023950534 7.4664013e-39 332 238
0.015567848 0.68300003 0.0023950534 7.189813e-39 333 238
0.016765373 0.68300003 0.0023950534 7.4671229e-39 334 238
0.0179892 0.68400002 0.0023985601 8.3890806e-39 335 238
0.01918848 0.68400002 0.0023985601 1.0691081e-38 336 238
0.020387759 0.68400002 0.0023985601 1.0598885e-38 337 238
0.021650158 0.68599999 0.0024055731 1.0414138e-38 338 238
0.022886258 0.68699998 0.0024090798 9.4925401e-39 339 238
0.024090799 0.68699998 0.0024090798 8.5713237e-39 340 238
0.02533216 0.68800002 0.0024125867 8.6635193e-39 341 238
0.026538454 0.68800002 0.0024125867 9.2166917e-39 342 238
0.027825398 0.69 0.0024195998 8.0181499e-39 343 238
0.029035198 0.69 0.0024195998 8.1142888e-39 344 238
0.030420333 0.69400001 0.0024336267 9.4050276e-39 345 238
0.03177391 0.69700003 0.0024441467 1.0781478e-38 346 238
0.033043321 0.69800001 0.0024476533 1.0873674e-38 347 238
0.034267146 0.69800001 0.0024476533 1.1982541e-38 348 238
0.035490975 0.69800001 0.0024476533 1.3457672e-38 349 238
-0.02932976 0.69700003 0.0012220733 1.2814837e-38 296 239
-0.028107686 0.69700003 0.0012220733 1.2169467e-38 297 239
-0.026885614 0.69700003 0.0012220733 1.2261297e-38 298 239
-0.025626717 0.69599998 0.0012203199 1.2353493e-38 299 239
-0.0244064 0.69599998 0.0012203199 1.1985432e-38 300 239
-0.023119451 0.69400001 0.0012168133 1.1985432e-38 301 239
-0.021902639 0.69400001 0.0012168133 1.1893958e-38 302 239
-0.020685827 0.69400001 0.0012168133 1.1893958e-38 303 239
-0.01944096 0.69300002 0.00121506 1.2352415e-38 304 239
-0.0181733 0.69099998 0.0012115532 1.06007e-38 305 239
-0.0169372 0.69 0.0012097999 5.4348786e-39 306 239
-0.015681813 0.68800002 0.0012062934 3.8671942e-39 307 239
-0.014454478 0.68699998 0.0012045399 7.6515338e-39 308 239
-0.013230653 0.68599999 0.0012027866 1.0048622e-38 309 239
-0.0119928 0.68400002 0.00119928 1.2353864e-38 310 239
-0.01079352 0.68400002 0.00119928 1.097093e-38 311 239
-0.0095942402 0.68400002 0.00119928 8.6703549e-39 312 239
-0.0083826864 0.68300003 0.0011975267 3.7839865e-39 313 239
-0.0071851597 0.68300003 0.0011975267 3.9647778e-39 314 239
-0.0059876335 0.68300003 0.0011975267 5.3477123e-39 315 239
-0.0047901068 0.68300003 0.0011975267 7.5686764e-39 316 239
-0.00358732 0.68199998 0.0011957732 9.4122303e-39 317 239
-0.0023915465 0.68199998 0.0011957732 9.8681694e-39 318 239
-0.0011957732 0.68199998 0.0011957732 8.9465732e-39 319 239
0 0.68199998 0.0011957732 8.6689073e-39 320 239
0.0011957732 0.68199998 0.0011957732 9.0376885e-39 321 239
0.0023950534 0.68300003 0.0011975267 1.0050753e-38 322 239
0.0035925799 0.68300003 0.0011975267 1.0603567e-38 323 239
0.004783093 0.68199998 0.0011957732 1.0511724e-38 324 239
0.005978866 0.68199998 0.0011957732 1.0235497e-38 325 239
0.00717464 0.68199998 0.0011957732 1.0694673e-38 326 239
0.0083704125 0.68199998 0.0011957732 1.0694673e-38 327 239
0.009566186 0.68199998 0.0011957732 1.0602119e-38 328 239
0.01077774 0.68300003 0.0011975267 1.097126e-38 329 239
0.011975267 0.68300003 0.0011975267 9.3110299e-39 330 239
0.013172794 0.68300003 0.0011975267 5.9001518e-39 331 239
0.014370319 0.68300003 0.0011975267 4.0472568e-39 332 239
0.015567848 0.68300003 0.0011975267 3.6781142e-39 333 239
0.016765373 0.68300003 0.0011975267 1.1157138e-41 334 239
0.0179892 0.68400002 0.00119928 2.8706622e-39 335 239
0.01918848 0.68400002 0.00119928 9.1266485e-39 336 239
0.020387759 0.68400002 0.00119928 9.5876252e-39 337 239
0.021650158 0.68599999 0.0012027866 9.949568e-39 338 239
0.022886258 0.68699998 0.0012045399 9.4885899e-39 339 239
0.024090799 0.68699998 0.0012045399 8.4773316e-39 340 239
0.02533216 0.68800002 0.0012062934 7.9241578e-39 341 239
0.026538454 0.68800002 0.0012062934 5.2551691e-39 342 239
0.027825398 0.69 0.0012097999 4.4257686e-39 343 239
0.029035198 0.69 0.0012097999 6.4576598e-39 344 239
0.030420333 0.69400001 0.0012168133 8.8543874e-39 345 239
0.031819493 0.69800001 0.0012238267 1.0871876e-38 346 239
0.033137999 0.69999999 0.0012273333 1.1148822e-38 347 239
0.034365334 0.69999999 0.0012273333 1.1981819e-38 348 239
0.035592664 0.69999999 0.0012273333 1.3364754e-38 349 239
-0.028107686 0.69700003 -0 1.2445691e-38 297 240
-0.026885614 0.69700003 -0 1.2812316e-38 298 240
-0.025663542 0.69700003 -0 1.2536089e-38 299 240
-0.0244064 0.69599998 -0 1.2260944e-38 300 240
-0.023119451 0.69400001 -0 1.2260944e-38 301 240
-0.021902639 0.69400001 -0 1.1986155e-38 302 240
-0.020685827 0.69400001 -0 1.1986155e-38 303 240
-0.01944096 0.69300002 -0 1.2446057e-38 304 240
-0.0181733 0.69099998 -0 1.2261666e-38 305 240
-0.016961746 0.69099998 -0 5.1608295e-39 306 240
-0.015681813 0.68800002 -0 3.1325256e-39 307 240
-0.014454478 0.68699998 -0 8.6649851e-39 308 240
-0.013230653 0.68599999 -0 1.0508898e-38 309 240
-0.012027865 0.68599999 -0 1.1430466e-38 310 240
-0.01079352 0.68400002 -0 1.0877292e-38 311 240
-0.0095942402 0.68400002 -0 7.7487643e-39 312 240
-0.0083826864 0.68300003 -0 2.3095823e-39 313 240
-0.0071851597 0.68300003 -0 8.3267397e-40 314 240
-0.0059876335 0.68300003 -0 2.3074439e-39 315 240
-0.0047901068 0.68300003 -0 7.6511779e-39 316 240
-0.0035925799 0.68300003 -0 1.1154971e-38 317 240
-0.0023950534 0.68300003 -0 1.0232995e-38 318 240
-0.00119928 0.68400002 -0 9.4028752e-39 319 240
0 0.68300003 -0 8.7567898e-39 320 240
0.0011975267 0.68300003 -0 9.5865504e-39 321 240
0.0023950534 0.68300003 -0 1.0234438e-38 322 240
0.0035925799 0.68300003 -0 1.0695416e-38 323 240
0.0047901068 0.68300003 -0 1.1062029e-38 324 240
0.005978866 0.68199998 -0 1.1062029e-38 325 240
0.00717464 0.68199998 -0 1.0877993e-38 326 240
0.0083704125 0.68199998 -0 1.0601406e-38 327 240
0.0095802136 0.68300003 -0 1.0784718e-38 328 240
0.01077774 0.68300003 -0 1.0876914e-38 329 240
0.011975267 0.68300003 -0 8.2039817e-39 330 240
0.013172794 0.68300003 -0 4.2395696e-39 331 240
0.014370319 0.68300003 -0 3.5953017e-39 332 240
0.015567848 0.68300003 -0 4.4250623e-39 333 240
0.016789921 0.68400002 -0 2.307081e-39 334 240
0.0179892 0.68400002 -0 2.767699e-39 335 240
0.01918848 0.68400002 -0 7.7433637e-39 336 240
0.020447372 0.68599999 -0 7.8355593e-39 337 240
0.021681719 0.68699998 -0 7.0043497e-39 338 240
0.022886258 0.68699998 -0 6.9117954e-39 339 240
0.024090799 0.68699998 -0 7.2777347e-39 340 240
0.02533216 0.68800002 -0 6.1713885e-39 341 240
0.026538454 0.68800002 -0 5.1594198e-39 342 240
0.027825398 0.69 -0 5.4360053e-39 343 240
0.029035198 0.69 -0 7.0083308e-39 344 240
0.030551834 0.69700003 -0 9.2210273e-39 345 240
0.031819493 0.69800001 -0 1.0781128e-38 346 240
0.033137999 0.69999999 -0 1.0965519e-38 347 240
0.034414422 0.70099998 -0 1.1982185e-38 348 240
-0.028148014 0.69800001 -0.0012238267 1.2630078e-38 297 241
-0.026924185 0.69800001 -0.0012238267 1.2536089e-38 298 241
-0.025700359 0.69800001 -0.0012238267 1.2628285e-38 299 241
-0.024441468 0.69700003 -0.0012220733 1.2169467e-38 300 241
-0.023186078 0.69599998 -0.0012203199 1.2169467e-38 301 241
-0.021965759 0.69599998 -0.0012203199 1.1710646e-38 302 241
-0.020685827 0.69400001 -0.0012168133 1.1710646e-38 303 241
-0.01944096 0.69300002 -0.00121506 1.1895404e-38 304 241
-0.018225901 0.69300002 -0.00121506 1.1618816e-38 305 241
-0.016961746 0.69099998 -0.0012115532 4.335382e-39 306 241
-0.015681813 0.68800002 -0.0012062934 2.9524476e-39 307 241
-0.014454478 0.68699998 -0.0012045399 7.2831227e-39 308 241
-0.013249939 0.68699998 -0.0012045399 6.1767765e-39 309 241
-0.012045399 0.68699998 -0.0012045399 6.1746115e-39 310 241
-0.010825079 0.68599999 -0.0012027866 7.4653503e-39 311 241
-0.0095942402 0.68400002 -0.00119928 6.6409944e-39 312 241
-0.0083949603 0.68400002 -0.00119928 3.5985387e-39 313 241
-0.0071851597 0.68300003 -0.0011975267 2.2141749e-39 314 241
-0.0059876335 0.68300003 -0.0011975267 2.675153e-39 315 241
-0.0047901068 0.68300003 -0.0011975267 7.9281389e-39 316 241
-0.0035925799 0.68300003 -0.0011975267 1.08784e-38 317 241
-0.0023950534 0.68300003 -0.0011975267 1.0508154e-38 318 241
-0.00119928 0.68400002 -0.00119928 9.4018061e-39 319 241
0 0.68300003 -0.0011975267 9.219563e-39 320 241
0.0011975267 0.68300003 -0.0011975267 9.8649324e-39 321 241
0.0023950534 0.68300003 -0.0011975267 1.0785444e-38 322 241
0.0035925799 0.68300003 -0.0011975267 1.0693248e-38 323 241
0.0047901068 0.68300003 -0.0011975267 1.0415938e-38 324 241
0.005978866 0.68199998 -0.0011957732 1.0600331e-38 325 241
0.00717464 0.68199998 -0.0011957732 1.1151703e-38 326 241
0.0083826864 0.68300003 -0.0011975267 9.7687683e-39 327 241
0.0095802136 0.68300003 -0.0011975267 8.9372154e-39 328 241
0.01077774 0.68300003 -0.0011975267 8.1074547e-39 329 241
0.011975267 0.68300003 -0.0011975267 5.6207062e-39 330 241
0.013172794 0.68300003 -0.0011975267 4.3299674e-39 331 241
0.014370319 0.68300003 -0.0011975267 4.334289e-39 332 241
0.01559064 0.68400002 -0.00119928 5.1640497e-39 333 241
0.016789921 0.68400002 -0.00119928 4.1495446e-39 334 241
0.0179892 0.68400002 -0.00119928 3.9651548e-39 335 241
0.019244585 0.68599999 -0.0012027866 5.8987505e-39 336 241
0.020477179 0.68699998 -0.0012045399 4.8842384e-39 337 241
0.021681719 0.68699998 -0.0012045399 3.6882134e-39 338 241
0.022886258 0.68699998 -0.0012045399 3.5960177e-39 339 241
0.024125867 0.68800002 -0.0012062934 5.5271065e-39 340 241
0.02533216 0.68800002 -0.0012062934 5.250521e-39 341 241
0.026538454 0.68800002 -0.0012062934 5.1630001e-39 342 241
0.027825398 0.69 -0.0012097999 5.6236181e-39 343 241
0.029035198 0.69 -0.0012097999 8.0188744e-39 344 241
0.030551834 0.69700003 -0.0012220733 9.9549826e-39 345 241
0.031819493 0.69800001 -0.0012238267 1.0688211e-38 346 241
0.03318534 0.70099998 -0.0012290865 1.1056992e-38 347 241
0.034414422 0.70099998 -0.0012290865 1.2167299e-38 348 241
-0.028268991 0.70099998 -0.0024581731 1.2998865e-38 297 242
-0.026924185 0.69800001 -0.0024476533 1.2812316e-38 298 242
-0.025700359 0.69800001 -0.0024476533 1.2628285e-38 299 242
-0.024441468 0.69700003 -0.0024441467 1.2444612e-38 300 242
-0.023219392 0.69700003 -0.0024441467 1.2444612e-38 301 242
-0.02199732 0.69700003 -0.0024441467 1.1986152e-38 302 242
-0.020745439 0.69599998 -0.0024406398 1.1893955e-38 303 242
-0.019469013 0.69400001 -0.0024336267 1.2078353e-38 304 242
-0.018225901 0.69300002 -0.00243012 1.1893602e-38 305 242
-0.016961746 0.69099998 -0.0024231065 4.4275777e-39 306 242
-0.015727401 0.69 -0.0024195998 2.8602506e-39 307 242
-0.014475521 0.68800002 -0.0024125867 6.2718462e-39 308 242
-0.013249939 0.68699998 -0.0024090798 5.7186724e-39 309 242
-0.012045399 0.68699998 -0.0024090798 5.1618987e-39 310 242
-0.010840859 0.68699998 -0.0024090798 4.9775074e-39 311 242
-0.0096363192 0.68699998 -0.0024090798 5.1633504e-39 312 242
-0.0084195063 0.68599999 -0.0024055731 4.1488384e-39 313 242
-0.0072167199 0.68599999 -0.0024055731 3.502397e-39 314 242
-0.0059964 0.68400002 -0.0023985601 3.9633737e-39 315 242
-0.0047971201 0.68400002 -0.0023985601 5.901284e-39 316 242
-0.00360836 0.68599999 -0.0024055731 7.4686097e-39 317 242
-0.0024055731 0.68599999 -0.0024055731 7.8380901e-39 318 242
-0.00119928 0.68400002 -0.0023985601 7.3774707e-39 319 242
0 0.68400002 -0.0023985601 7.8337545e-39 320 242
0.0011975267 0.68300003 -0.0023950534 7.6493632e-39 321 242
0.0023950534 0.68300003 -0.0023950534 7.5564459e-39 322 242
0.0035925799 0.68300003 -0.0023950534 7.3720533e-39 323 242
0.0047901068 0.68300003 -0.0023950534 5.7204451e-39 324 242
0.0059876335 0.68300003 -0.0023950534 6.5502057e-39 325 242
0.0071851597 0.68300003 -0.0023950534 8.9375811e-39 326 242
0.0083826864 0.68300003 -0.0023950534 7.462451e-39 327 242
0.0095802136 0.68300003 -0.0023950534 6.3586272e-39 328 242
0.01077774 0.68300003 -0.0023950534 5.7132578e-39 329 242
0.011975267 0.68300003 -0.0023950534 5.3448452e-39 330 242
0.01319208 0.68400002 -0.0023985601 5.2526496e-39 331 242
0.01439136 0.68400002 -0.0023985601 4.6097969e-39 332 242
0.01559064 0.68400002 -0.0023985601 4.2413745e-39 333 242
0.016839013 0.68599999 -0.0024055731 4.5132923e-39 334 242
0.018041799 0.68599999 -0.0024055731 5.1586617e-39 335 242
0.019272638 0.68699998 -0.0024090798 5.6225265e-39 336 242
0.020477179 0.68699998 -0.0024090798 5.6225265e-39 337 242
0.021713281 0.68800002 -0.0024125867 5.4359899e-39 338 242
0.022919573 0.68800002 -0.0024125867 4.8828161e-39 339 242
0.024125867 0.68800002 -0.0024125867 4.6083928e-39 340 242
0.02533216 0.68800002 -0.0024125867 4.7927855e-39 341 242
0.026538454 0.68800002 -0.0024125867 4.7045373e-39 342 242
0.027825398 0.69 -0.0024195998 5.5342966e-39 343 242
0.029035198 0.69 -0.0024195998 8.0188744e-39 344 242
0.030595668 0.69800001 -0.0024476533 9.5862001e-39 345 242
0.031910665 0.69999999 -0.0024546667 1.050454e-38 346 242
0.033280019 0.70300001 -0.0024651866 1.0781128e-38 347 242
0.034512613 0.70300001 -0.0024651866 1.198399e-38 348 242
-0.028268991 0.70099998 -0.0036872597 1.336729e-38 297 243
-0.027001332 0.69999999 -0.0036819996 1.2720849e-38 298 243
-0.025773998 0.69999999 -0.0036819996 1.2536457e-38 299 243
-0.024476532 0.69800001 -0.0036714801 1.216947e-38 300 243
-0.023219392 0.69700003 -0.00366622 1.1985437e-38 301 243
-0.02199732 0.69700003 -0.00366622 1.1893958e-38 302 243
-0.020745439 0.69599998 -0.0036609597 1.1893958e-38 303 243
-0.019469013 0.69400001 -0.0036504399 1.2077997e-38 304 243
-0.018225901 0.69300002 -0.0036451798 1.1985802e-38 305 243
-0.01701084 0.69300002 -0.0036451798 4.5197761e-39 306 243
-0.015750192 0.69099998 -0.0036346598 3.1368416e-39 307 243
-0.014475521 0.68800002 -0.0036188802 6.2711399e-39 308 243
-0.013269227 0.68800002 -0.0036188802 6.1789443e-39 309 243
-0.012045399 0.68699998 -0.0036136196 5.8980414e-39 310 243
-0.010840859 0.68699998 -0.0036136196 4.3307157e-39 311 243
-0.0096363192 0.68699998 -0.0036136196 4.0548533e-39 312 243
-0.0084317802 0.68699998 -0.0036136196 4.1470503e-39 313 243
-0.0072167199 0.68599999 -0.00360836 3.7793398e-39 314 243
-0.0060139326 0.68599999 -0.00360836 4.1481223e-39 315 243
-0.0048111463 0.68599999 -0.00360836 4.2403179e-39 316 243
-0.00360836 0.68599999 -0.00360836 4.0559267e-39 317 243
-0.0024055731 0.68599999 -0.00360836 4.3386218e-39 318 243
-0.00119928 0.68400002 -0.00359784 4.9839912e-39 319 243
0 0.68400002 -0.00359784 4.0544749e-39 320 243
0.00119928 0.68400002 -0.00359784 2.9481274e-39 321 243
0.0023950534 0.68300003 -0.0035925799 3.1300047e-39 322 243
0.0035925799 0.68300003 -0.0035925799 3.7753741e-39 323 243
0.0047901068 0.68300003 -0.0035925799 2.1248379e-39 324 243
0.0059876335 0.68300003 -0.0035925799 2.5854559e-39 325 243
0.0071851597 0.68300003 -0.0035925799 4.6973234e-39 326 243
0.0083826864 0.68300003 -0.0035925799 5.3426928e-39 327 243
0.0095942402 0.68400002 -0.00359784 4.7009261e-39 328 243
0.01079352 0.68400002 -0.00359784 4.4239805e-39 329 243
0.0119928 0.68400002 -0.00359784 5.2533783e-39 330 243
0.01319208 0.68400002 -0.00359784 5.1611826e-39 331 243
0.01443344 0.68599999 -0.00360836 4.332138e-39 332 243
0.015636226 0.68599999 -0.00360836 3.6867686e-39 333 243
0.01686356 0.68699998 -0.0036136196 4.60369e-39 334 243
0.018068098 0.68699998 -0.0036136196 5.9866245e-39 335 243
0.019272638 0.68699998 -0.0036136196 5.4413596e-39 336 243
0.020477179 0.68699998 -0.0036136196 5.2569684e-39 337 243
0.021713281 0.68800002 -0.0036188802 5.4363374e-39 338 243
0.022919573 0.68800002 -0.0036188802 4.790968e-39 339 243
0.024125867 0.68800002 -0.0036188802 4.9739355e-39 340 243
0.025405798 0.69 -0.0036293997 5.1583268e-39 341 243
0.026615599 0.69 -0.0036293997 4.8882083e-39 342 243
0.027865725 0.69099998 -0.0036346598 5.6257733e-39 343 243
0.029371841 0.69800001 -0.0036714801 8.0181499e-39 344 243
0.030683333 0.69999999 -0.0036819996 9.4932786e-39 345 243
0.031910665 0.69999999 -0.0036819996 9.7680494e-39 346 243
0.033280019 0.70300001 -0.0036977797 1.0044635e-38 347 243
0.034512613 0.70300001 -0.0036977797 1.1707043e-38 348 243
-0.027039904 0.70099998 -0.0049163462 1.1708495e-38 298 244
-0.025773998 0.69999999 -0.0049093333 1.1708495e-38 299 244
-0.024476532 0.69800001 -0.0048953067 1.1892886e-38 300 244
-0.023252707 0.69800001 -0.0048953067 1.1892886e-38 301 244
-0.02202888 0.69800001 -0.0048953067 1.1893602e-38 302 244
-0.020775247 0.69700003 -0.0048882933 1.1893602e-38 303 244
-0.019469013 0.69400001 -0.0048672534 1.2077997e-38 304 244
-0.018225901 0.69300002 -0.00486024 1.1985802e-38 305 244
-0.01701084 0.69300002 -0.00486024 4.7960057e-39 306 244
-0.015750192 0.69099998 -0.0048462129 3.0446488e-39 307 244
-0.014517599 0.69 -0.0048391996 5.5321484e-39 308 244
-0.013269227 0.68800002 -0.0048251734 5.2555615e-39 309 244
-0.012062933 0.68800002 -0.0048251734 5.3452362e-39 310 244
-0.010840859 0.68699998 -0.0048181596 4.6076711e-39 311 244
-0.0096363192 0.68699998 -0.0048181596 4.1470503e-39 312 244
-0.0084317802 0.68699998 -0.0048181596 4.0548533e-39 313 244
-0.0072167199 0.68599999 -0.0048111463 3.6871442e-39 314 244
-0.0060139326 0.68599999 -0.0048111463 3.6871442e-39 315 244
-0.0048111463 0.68599999 -0.0048111463 4.2352803e-39 316 244
-0.0036136196 0.68699998 -0.0048181596 4.4193114e-39 317 244
-0.0024055731 0.68599999 -0.0048111463 5.7165172e-39 318 244
-0.0012027866 0.68599999 -0.0048111463 6.1774954e-39 319 244
0 0.68400002 -0.0047971201 4.7012905e-39 320 244
0.00119928 0.68400002 -0.0047971201 3.3183546e-39 321 244
0.0023950534 0.68300003 -0.0047901068 4.3281948e-39 322 244
0.0035925799 0.68300003 -0.0047901068 5.8033248e-39 323 244
0.0047901068 0.68300003 -0.0047901068 4.2431892e-39 324 244
0.0059876335 0.68300003 -0.0047901068 2.8602534e-39 325 244
0.0071851597 0.68300003 -0.0047901068 4.4210967e-39 326 244
0.0083949603 0.68400002 -0.0047971201 5.5274442e-39 327 244
0.0096222926 0.68599999 -0.0048111463 4.9764326e-39 328 244
0.01079352 0.68400002 -0.0047971201 4.79204e-39 329 244
0.0119928 0.68400002 -0.0047971201 5.7161515e-39 330 244
0.013230653 0.68599999 -0.0048111463 5.4395646e-39 331 244
0.01443344 0.68599999 -0.0048111463 4.789875e-39 332 244
0.015636226 0.68599999 -0.0048111463 4.2367026e-39 333 244
0.01686356 0.68699998 -0.0048181596 4.3306961e-39 334 244
0.018068098 0.68699998 -0.0048181596 5.344848e-39 335 244
0.019272638 0.68699998 -0.0048181596 5.4395618e-39 336 244
0.020477179 0.68699998 -0.0048181596 5.2551691e-39 337 244
0.021713281 0.68800002 -0.0048251734 5.3441418e-39 338 244
0.022919573 0.68800002 -0.0048251734 4.790968e-39 339 244
0.024125867 0.68800002 -0.0048251734 4.5129546e-39 340 244
0.025405798 0.69 -0.0048391996 4.697706e-39 341 244
0.026615599 0.69 -0.0048391996 5.5321288e-39 342 244
0.027986705 0.69400001 -0.0048672534 7.0994545e-39 343 244
0.029371841 0.69800001 -0.0048953067 9.0319347e-39 344 244
0.030683333 0.69999999 -0.0049093333 9.9535309e-39 345 244
0.031910665 0.69999999 -0.0049093333 9.2148784e-39 346 244
0.033280019 0.70300001 -0.0049303733 8.569509e-39 347 244
-0.028389972 0.704 -0.0061717331 1.2719757e-38 297 245
-0.027117053 0.70300001 -0.0061629666 1.0693264e-38 298 245
-0.025810819 0.70099998 -0.0061454331 1.1338633e-38 299 245
-0.024476532 0.69800001 -0.006119133 1.143335e-38 300 245
-0.023252707 0.69800001 -0.006119133 1.1617741e-38 301 245
-0.02202888 0.69800001 -0.006119133 1.1893605e-38 302 245
-0.020775247 0.69700003 -0.0061103669 1.1801409e-38 303 245
-0.019525118 0.69599998 -0.0061015999 1.2077997e-38 304 245
-0.0182522 0.69400001 -0.0060840664 1.2077997e-38 305 245
-0.01701084 0.69300002 -0.0060753003 5.533928e-39 306 245
-0.015750192 0.69099998 -0.0060577663 2.9524504e-39 307 245
-0.014517599 0.69 -0.0060489997 4.9782515e-39 308 245
-0.013269227 0.68800002 -0.0060314666 4.9782515e-39 309 245
-0.012062933 0.68800002 -0.0060314666 4.9786047e-39 310 245
-0.010840859 0.68699998 -0.0060226996 4.4254309e-39 311 245
-0.0096363192 0.68699998 -0.0060226996 4.5161818e-39 312 245
-0.0084317802 0.68699998 -0.0060226996 4.0552036e-39 313 245
-0.0072272392 0.68699998 -0.0060226996 3.8700935e-39 314 245
-0.0060139326 0.68599999 -0.0060139326 3.6853435e-39 315 245
-0.0048111463 0.68599999 -0.0060139326 3.8682914e-39 316 245
-0.0036136196 0.68699998 -0.0060226996 4.5136608e-39 317 245
-0.0024090798 0.68699998 -0.0060226996 5.9009127e-39 318 245
-0.0012045399 0.68699998 -0.0060226996 5.808717e-39 319 245
0 0.68599999 -0.0060139326 5.1608295e-39 320 245
0.0012027866 0.68599999 -0.0060139326 4.3310688e-39 321 245
0.0023985601 0.68400002 -0.0059964 4.9742704e-39 322 245
0.00359784 0.68400002 -0.0059964 6.4494005e-39 323 245
0.0047971201 0.68400002 -0.0059964 5.1644196e-39 324 245
0.0059876335 0.68300003 -0.0059876335 3.8736808e-39 325 245
0.0071851597 0.68300003 -0.0059876335 4.6991255e-39 326 245
0.0084195063 0.68599999 -0.0060139326 4.9757124e-39 327 245
0.0096222926 0.68599999 -0.0060139326 5.2526496e-39 328 245
0.010825079 0.68599999 -0.0060139326 5.898019e-39 329 245
0.012027865 0.68599999 -0.0060139326 5.7190199e-39 330 245
0.013230653 0.68599999 -0.0060139326 5.0736505e-39 331 245
0.014454478 0.68699998 -0.0060226996 5.7107397e-39 332 245
0.015659019 0.68699998 -0.0060226996 5.2497629e-39 333 245
0.01686356 0.68699998 -0.0060226996 4.8817049e-39 334 245
0.018068098 0.68699998 -0.0060226996 5.5270743e-39 335 245
0.019300694 0.68800002 -0.0060314666 4.4268546e-39 336 245
0.020506985 0.68800002 -0.0060314666 4.6112459e-39 337 245
0.021713281 0.68800002 -0.0060314666 5.3444977e-39 338 245
0.022986198 0.69 -0.0060489997 4.9757152e-39 339 245
0.024195999 0.69 -0.0060489997 4.6987752e-39 340 245
0.025442619 0.69099998 -0.0060577663 5.5285358e-39 341 245
0.026654173 0.69099998 -0.0060577663 7.0962105e-39 342 245
0.028107686 0.69700003 -0.0061103669 8.8479288e-39 343 245
0.029455997 0.69999999 -0.0061366665 9.6780202e-39 344 245
0.030683333 0.69999999 -0.0061366665 9.7702158e-39 345 245
0.031956252 0.70099998 -0.0061454331 7.0043441e-39 346 245
0.033280019 0.70300001 -0.0061629666 6.3589747e-39 347 245
0.034512613 0.70300001 -0.0061629666 1.1154955e-38 348 245
-0.029624319 0.704 -0.0074060797 1.4838457e-38 296 246
-0.028389972 0.704 -0.0074060797 1.225698e-38 297 246
-0.027155625 0.704 -0.0074060797 9.3099762e-39 298 246
-0.025884461 0.70300001 -0.0073955595 1.0047541e-38 299 246
-0.024546666 0.69999999 -0.0073639993 1.0144776e-38 300 246
-0.023252707 0.69800001 -0.0073429602 1.0882341e-38 301 246
-0.02202888 0.69800001 -0.0073429602 1.1525545e-38 302 246
-0.020775247 0.69700003 -0.00733244 1.1525545e-38 303 246
-0.019525118 0.69599998 -0.0073219193 1.1985802e-38 304 246
-0.018304799 0.69599998 -0.0073219193 1.2077997e-38 305 246
-0.017035386 0.69400001 -0.0073008798 6.5477072e-39 306 246
-0.015795778 0.69300002 -0.0072903596 3.9662296e-39 307 246
-0.014538639 0.69099998 -0.0072693196 3.1422451e-39 308 246
-0.0133078 0.69 -0.0072587994 3.2344421e-39 309 246
-0.012062933 0.68800002 -0.0072377604 4.7034597e-39 310 246
-0.010856641 0.68800002 -0.0072377604 3.5971135e-39 311 246
-0.0096503468 0.68800002 -0.0072377604 3.6846288e-39 312 246
-0.0084317802 0.68699998 -0.0072272392 4.1452482e-39 313 246
-0.0072272392 0.68699998 -0.0072272392 3.7782636e-39 314 246
-0.0060226996 0.68699998 -0.0072272392 3.7782636e-39 315 246
-0.0048181596 0.68699998 -0.0072272392 3.7800587e-39 316 246
-0.0036136196 0.68699998 -0.0072272392 3.7800587e-39 317 246
-0.0024090798 0.68699998 -0.0072272392 4.7934861e-39 318 246
-0.0012045399 0.68699998 -0.0072272392 5.3466599e-39 319 246
0 0.68699998 -0.0072272392 5.0686311e-39 320 246
0.0012027866 0.68599999 -0.0072167199 3.7778923e-39 321 246
0.0024055731 0.68599999 -0.0072167199 4.6984094e-39 322 246
0.00360836 0.68599999 -0.0072167199 6.6345176e-39 323 246
0.0048111463 0.68599999 -0.0072167199 5.8994665e-39 324 246
0.0060139326 0.68599999 -0.0072167199 3.778967e-39 325 246
0.0072167199 0.68599999 -0.0072167199 4.6065627e-39 326 246
0.0084195063 0.68599999 -0.0072167199 5.0671821e-39 327 246
0.0096222926 0.68599999 -0.0072167199 5.5321077e-39 328 246
0.010840859 0.68699998 -0.0072272392 6.3622271e-39 329 246
0.012045399 0.68699998 -0.0072272392 5.630413e-39 330 246
0.013249939 0.68699998 -0.0072272392 4.8010125e-39 331 246
0.014454478 0.68699998 -0.0072272392 5.3469962e-39 332 246
0.015659019 0.68699998 -0.0072272392 4.977855e-39 333 246
0.01686356 0.68699998 -0.0072272392 4.0559099e-39 334 246
0.0180944 0.68800002 -0.0072377604 3.4105405e-39 335 246
0.019300694 0.68800002 -0.0072377604 3.502397e-39 336 246
0.020506985 0.68800002 -0.0072377604 3.9633737e-39 337 246
0.021776399 0.69 -0.0072587994 5.0711478e-39 338 246
0.022986198 0.69 -0.0072587994 6.3618866e-39 339 246
0.024195999 0.69 -0.0072587994 8.4787764e-39 340 246
0.02551626 0.69300002 -0.0072903596 9.5851239e-39 341 246
0.026847038 0.69599998 -0.0073219193 1.0320518e-38 342 246
0.028148014 0.69800001 -0.0073429602 1.0412715e-38 343 246
0.029455997 0.69999999 -0.0073639993 9.495424e-39 344 246
0.030727165 0.70099998 -0.0073745195 8.8500546e-39 345 246
0.031956252 0.70099998 -0.0073745195 5.253353e-39 346 246
0.033280019 0.70300001 -0.0073955595 4.7001793e-39 347 246
0.034512613 0.70300001 -0.0073955595 1.1336821e-38 348 246
-0.029624319 0.704 -0.0086404262 1.4837736e-38 296 247
-0.028389972 0.704 -0.0086404262 1.1979671e-38 297 247
-0.027155625 0.704 -0.0086404262 8.6649823e-39 298 247
-0.025884461 0.70300001 -0.0086281532 8.6649823e-39 299 247
-0.024546666 0.69999999 -0.0085913334 8.5778285e-39 300 247
-0.023252707 0.69800001 -0.0085667865 1.023735e-38 301 247
-0.02202888 0.69800001 -0.0085667865 1.1249684e-38 302 247
-0.020805053 0.69800001 -0.0085667865 1.1249684e-38 303 247
-0.019553173 0.69700003 -0.0085545136 1.1618094e-38 304 247
-0.018304799 0.69599998 -0.0085422397 1.1986877e-38 305 247
-0.017035386 0.69400001 -0.0085176928 1.0232642e-38 306 247
-0.015795778 0.69300002 -0.0085054198 7.8355565e-39 307 247
-0.014580719 0.69300002 -0.0085054198 6.4526403e-39 308 247
-0.013327086 0.69099998 -0.008480873 5.7150753e-39 309 247
-0.012097999 0.69 -0.0084686 5.7140005e-39 310 247
-0.010856641 0.68800002 -0.0084440531 4.8842384e-39 311 247
-0.0096503468 0.68800002 -0.0084440531 3.6864183e-39 312 247
-0.0084440531 0.68800002 -0.0084440531 4.1473978e-39 313 247
-0.0072272392 0.68699998 -0.0084317802 4.6969703e-39 314 247
-0.0060226996 0.68699998 -0.0084317802 4.8817217e-39 315 247
-0.0048181596 0.68699998 -0.0084317802 5.2533783e-39 316 247
-0.0036136196 0.68699998 -0.0084317802 4.6080089e-39 317 247
-0.0024090798 0.68699998 -0.0084317802 4.6073026e-39 318 247
-0.0012045399 0.68699998 -0.0084317802 4.8838881e-39 319 247
0 0.68699998 -0.0084317802 4.6083746e-39 320 247
0.0012027866 0.68599999 -0.0084195063 3.9630052e-39 321 247
0.0024055731 0.68599999 -0.0084195063 4.8827881e-39 322 247
0.00360836 0.68599999 -0.0084195063 6.0816914e-39 323 247
0.0048111463 0.68599999 -0.0084195063 4.8892579e-39 324 247
0.0060139326 0.68599999 -0.0084195063 4.3360855e-39 325 247
0.0072167199 0.68599999 -0.0084195063 5.8047374e-39 326 247
0.0084195063 0.68599999 -0.0084195063 5.9887685e-39 327 247
0.0096222926 0.68599999 -0.0084195063 5.440631e-39 328 247
0.010840859 0.68699998 -0.0084317802 5.7175766e-39 329 247
0.012045399 0.68699998 -0.0084317802 5.9930873e-39 330 247
0.013249939 0.68699998 -0.0084317802 5.5321105e-39 331 247
0.014454478 0.68699998 -0.0084317802 6.8163655e-39 332 247
0.015659019 0.68699998 -0.0084317802 7.5539306e-39 333 247
0.016888106 0.68800002 -0.0084440531 5.8047472e-39 334 247
0.0180944 0.68800002 -0.0084440531 4.9749865e-39 335 247
0.019300694 0.68800002 -0.0084440531 5.6221706e-39 336 247
0.020506985 0.68800002 -0.0084440531 6.3597356e-39 337 247
0.021776399 0.69 -0.0084686 7.7412113e-39 338 247
0.022986198 0.69 -0.0084686 8.663169e-39 339 247
0.024231065 0.69099998 -0.008480873 9.6776545e-39 340 247
0.025626717 0.69599998 -0.0085422397 1.0046077e-38 341 247
0.026924185 0.69800001 -0.0085667865 9.8634708e-39 342 247
0.028148014 0.69800001 -0.0085667865 9.8634708e-39 343 247
0.029455997 0.69999999 -0.0085913334 9.2163162e-39 344 247
0.030727165 0.70099998 -0.0086036054 8.6631424e-39 345 247
0.031956252 0.70099998 -0.0086036054 4.5168698e-39 346 247
0.033280019 0.70300001 -0.0086281532 3.5023577e-39 347 247
0.034512613 0.70300001 -0.0086281532 1.1243901e-38 348 247
-0.029708479 0.70599997 -0.0099028256 1.5113602e-38 296 248
-0.028470624 0.70599997 -0.0099028256 1.1978952e-38 297 248
-0.027155625 0.704 -0.0098747732 7.9284865e-39 298 248
-0.02592128 0.704 -0.0098747732 7.8362908e-39 299 248
-0.024581732 0.70099998 -0.0098326923 7.0122979e-39 300 248
-0.023252707 0.69800001 -0.0097906133 9.3171886e-39 301 248
-0.02202888 0.69800001 -0.0097906133 1.0605037e-38 302 248
-0.020805053 0.69800001 -0.0097906133 1.0881625e-38 303 248
-0.019553173 0.69700003 -0.0097765867 1.1341151e-38 304 248
-0.018304799 0.69599998 -0.0097625591 1.1618097e-38 305 248
-0.017035386 0.69400001 -0.0097345067 1.152338e-38 306 248
-0.015795778 0.69300002 -0.0097204801 1.1154599e-38 307 248
-0.014580719 0.69300002 -0.0097204801 1.1245719e-38 308 248
-0.01336566 0.69300002 -0.0097204801 1.0784741e-38 309 248
-0.012115533 0.69099998 -0.0096924258 1.0047531e-38 310 248
-0.010888199 0.69 -0.0096783992 9.402162e-39 311 248
-0.0096503468 0.68800002 -0.0096503468 8.6649571e-39 312 248
-0.0084440531 0.68800002 -0.0096503468 8.2043377e-39 313 248
-0.0072272392 0.68699998 -0.0096363192 7.8319594e-39 314 248
-0.0060226996 0.68699998 -0.0096363192 7.3709813e-39 315 248
-0.0048181596 0.68699998 -0.0096363192 7.926676e-39 316 248
-0.0036136196 0.68699998 -0.0096363192 7.7422833e-39 317 248
-0.0024090798 0.68699998 -0.0096363192 5.528889e-39 318 248
-0.0012045399 0.68699998 -0.0096363192 4.7913239e-39 319 248
0 0.68699998 -0.0096363192 4.5179754e-39 320 248
0.0012045399 0.68699998 -0.0096363192 4.3335828e-39 321 248
0.0024090798 0.68699998 -0.0096363192 4.8881887e-39 322 248
0.0036136196 0.68699998 -0.0096363192 5.9945362e-39 323 248
0.0048111463 0.68599999 -0.0096222926 5.9938118e-39 324 248
0.0060139326 0.68599999 -0.0096222926 6.1782016e-39 325 248
0.0072167199 0.68599999 -0.0096222926 6.269649e-39 326 248
0.0084195063 0.68599999 -0.0096222926 5.6242795e-39 327 248
0.0096363192 0.68699998 -0.0096363192 5.4366457e-39 328 248
0.010840859 0.68699998 -0.0096363192 5.7135927e-39 329 248
0.012045399 0.68699998 -0.0096363192 5.9883971e-39 330 248
0.013249939 0.68699998 -0.0096363192 6.5415709e-39 331 248
0.014475521 0.68800002 -0.0096503468 8.1096183e-39 332 248
0.015681813 0.68800002 -0.0096503468 9.5851085e-39 333 248
0.016888106 0.68800002 -0.0096503468 9.494352e-39 334 248
0.0180944 0.68800002 -0.0096503468 9.7709375e-39 335 248
0.019356798 0.69 -0.0096783992 1.0414866e-38 336 248
0.020566599 0.69 -0.0096783992 1.0322671e-38 337 248
0.021776399 0.69 -0.0096783992 1.0230472e-38 338 248
0.023019511 0.69099998 -0.0096924258 1.004608e-38 339 248
0.024336265 0.69400001 -0.0097345067 9.4939821e-39 340 248
0.025663542 0.69700003 -0.0097765867 9.5861777e-39 341 248
0.026924185 0.69800001 -0.0097906133 9.7705662e-39 342 248
0.028228667 0.69999999 -0.0098186666 9.6783705e-39 343 248
0.029455997 0.69999999 -0.0098186666 8.3869283e-39 344 248
0.030727165 0.70099998 -0.0098326923 7.3731365e-39 345 248
0.031956252 0.70099998 -0.0098326923 3.6871161e-39 346 248
0.033280019 0.70300001 -0.0098607466 3.0417467e-39 347 248
0.034512613 0.70300001 -0.0098607466 1.1610163e-38 348 248
-0.029708479 0.70599997 -0.011140679 1.5204716e-38 296 249
-0.028470624 0.70599997 -0.011140679 1.2439207e-38 297 249
-0.027232772 0.70599997 -0.011140679 8.020322e-39 298 249
-0.02592128 0.704 -0.011109119 6.9136157e-39 299 249
-0.024581732 0.70099998 -0.011061779 5.723001e-39 300 249
-0.023319334 0.69999999 -0.011045999 8.3044787e-39 301 249
-0.022091998 0.69999999 -0.011045999 9.5937699e-39 302 249
-0.020805053 0.69800001 -0.01101444 1.0239139e-38 303 249
-0.019553173 0.69700003 -0.01099866 1.106529e-38 304 249
-0.018304799 0.69599998 -0.010982879 1.1157486e-38 305 249
-0.017035386 0.69400001 -0.01095132 8.6703619e-39 306 249
-0.015818574 0.69400001 -0.01095132 8.6703619e-39 307 249
-0.01460176 0.69400001 -0.01095132 1.0879457e-38 308 249
-0.01336566 0.69300002 -0.010935539 1.1340435e-38 309 249
-0.012115533 0.69099998 -0.01090398 1.1523731e-38 310 249
-0.010888199 0.69 -0.010888199 1.115495e-38 311 249
-0.0096783992 0.69 -0.010888199 1.087764e-38 312 249
-0.0084440531 0.68800002 -0.010856641 1.0785444e-38 313 249
-0.0072377604 0.68800002 -0.010856641 1.069073e-38 314 249
-0.0060226996 0.68699998 -0.010840859 1.0506339e-38 315 249
-0.0048181596 0.68699998 -0.010840859 1.0138642e-38 316 249
-0.0036136196 0.68699998 -0.010840859 9.9546113e-39 317 249
-0.0024090798 0.68699998 -0.010840859 9.2170645e-39 318 249
-0.0012045399 0.68699998 -0.010840859 8.3869437e-39 319 249
0 0.68699998 -0.010840859 8.4812945e-39 320 249
0.0012045399 0.68699998 -0.010840859 8.4812945e-39 321 249
0.0024090798 0.68699998 -0.010840859 8.8486323e-39 322 249
0.0036136196 0.68699998 -0.010840859 9.2174148e-39 323 249
0.0048181596 0.68699998 -0.010840859 9.2148812e-39 324 249
0.0060226996 0.68699998 -0.010840859 8.2003692e-39 325 249
0.0072272392 0.68699998 -0.010840859 8.0166618e-39 326 249
0.0084317802 0.68699998 -0.010840859 8.1088588e-39 327 249
0.0096363192 0.68699998 -0.010840859 7.9251934e-39 328 249
0.010840859 0.68699998 -0.010840859 7.6486051e-39 329 249
0.012045399 0.68699998 -0.010840859 6.6319519e-39 330 249
0.013249939 0.68699998 -0.010840859 6.6319519e-39 331 249
0.014475521 0.68800002 -0.010856641 8.5720258e-39 332 249
0.015681813 0.68800002 -0.010856641 9.770569e-39 333 249
0.0169372 0.69 -0.010888199 9.5851029e-39 334 249
0.018146999 0.69 -0.010888199 9.4929073e-39 335 249
0.019356798 0.69 -0.010888199 9.7680522e-39 336 249
0.020566599 0.69 -0.010888199 9.7680522e-39 337 249
0.021807959 0.69099998 -0.01090398 9.1251995e-39 338 249
0.02308614 0.69300002 -0.010935539 8.2032432e-39 339 249
0.0244064 0.69599998 -0.010982879 7.2841736e-39 340 249
0.025663542 0.69700003 -0.01099866 7.6533163e-39 341 249
0.026924185 0.69800001 -0.01101444 8.1132182e-39 342 249
0.028228667 0.69999999 -0.011045999 8.5741964e-39 343 249
0.029455997 0.69999999 -0.011045999 7.6511681e-39 344 249
0.030727165 0.70099998 -0.011061779 6.5448205e-39 345 249
0.031956252 0.70099998 -0.011061779 4.0562546e-39 346 249
0.033280019 0.70300001 -0.01109334 3.1342983e-39 347 249
0.034512613 0.70300001 -0.01109334 1.1702712e-38 348 249
-0.029708479 0.70599997 -0.012378532 1.5021048e-38 296 250
-0.028470624 0.70599997 -0.012378532 1.2624322e-38 297 250
-0.027232772 0.70599997 -0.012378532 8.4823903e-39 298 250
-0.02592128 0.704 -0.012343466 7.0072588e-39 299 250
-0.024686933 0.704 -0.012343466 5.7219346e-39 300 250
-0.023352645 0.70099998 -0.012290866 7.6580429e-39 301 250
-0.022091998 0.69999999 -0.012273333 8.8572895e-39 302 250
-0.020864666 0.69999999 -0.012273333 9.7788857e-39 303 250
-0.019553173 0.69700003 -0.012220734 1.0697232e-38 304 250
-0.018304799 0.69599998 -0.0122032 1.0697232e-38 305 250
-0.017084479 0.69599998 -0.0122032 6.5523917e-39 306 250
-0.015818574 0.69400001 -0.012168133 6.6445874e-39 307 250
-0.01460176 0.69400001 -0.012168133 9.8663939e-39 308 250
-0.01336566 0.69300002 -0.012150601 1.0696513e-38 309 250
-0.012150601 0.69300002 -0.012150601 1.1340062e-38 310 250
-0.01090398 0.69099998 -0.012115533 1.1524454e-38 311 250
-0.0096924258 0.69099998 -0.012115533 1.2167302e-38 312 250
-0.0084686 0.69 -0.012097999 1.1891075e-38 313 250
-0.0072377604 0.68800002 -0.012062933 1.1338621e-38 314 250
-0.0060314666 0.68800002 -0.012062933 1.1061674e-38 315 250
-0.0048251734 0.68800002 -0.012062933 1.0601416e-38 316 250
-0.0036136196 0.68699998 -0.012045399 1.069397e-38 317 250
-0.0024090798 0.68699998 -0.012045399 1.1154952e-38 318 250
-0.0012045399 0.68699998 -0.012045399 1.1523733e-38 319 250
0 0.68699998 -0.012045399 1.1431182e-38 320 250
0.0012045399 0.68699998 -0.012045399 1.1431182e-38 321 250
0.0024090798 0.68699998 -0.012045399 1.1338986e-38 322 250
0.0036136196 0.68699998 -0.012045399 1.1154955e-38 323 250
0.0048181596 0.68699998 -0.012045399 1.0876545e-38 324 250
0.0060226996 0.68699998 -0.012045399 8.0184792e-39 325 250
0.0072272392 0.68699998 -0.012045399 7.555685e-39 326 250
0.0084317802 0.68699998 -0.012045399 1.0044967e-38 327 250
0.0096363192 0.68699998 -0.012045399 1.096766e-38 328 250
0.010856641 0.68800002 -0.012062933 1.0599238e-38 329 250
0.012062933 0.68800002 -0.012062933 8.0152422e-39 330 250
0.013269227 0.68800002 -0.012062933 6.171331e-39 331 250
0.014517599 0.69 -0.012097999 7.7451364e-39 332 250
0.015727401 0.69 -0.012097999 8.1139189e-39 333 250
0.0169372 0.69 -0.012097999 7.8337545e-39 334 250
0.018146999 0.69 -0.012097999 7.5571676e-39 335 250
0.019356798 0.69 -0.012097999 7.7408456e-39 336 250
0.020596405 0.69099998 -0.012115533 8.1092694e-39 337 250
0.021871079 0.69300002 -0.012150601 7.833407e-39 338 250
0.02308614 0.69300002 -0.012150601 7.0036463e-39 339 250
0.0244064 0.69599998 -0.0122032 5.9023378e-39 340 250
0.025700359 0.69800001 -0.012238266 6.4555116e-39 341 250
0.026924185 0.69800001 -0.012238266 7.0086783e-39 342 250
0.028228667 0.69999999 -0.012273333 7.2856254e-39 343 250
0.029498078 0.70099998 -0.012290866 7.1905431e-39 344 250
0.030727165 0.70099998 -0.012290866 6.8214004e-39 345 250
0.031956252 0.70099998 -0.012290866 4.5157838e-39 346 250
0.033280019 0.70300001 -0.012325933 3.501992e-39 347 250
0.034561705 0.704 -0.012343466 1.2163334e-38 348 250
0.035796054 0.704 -0.012343466 1.4929203e-38 349 250
0.037135597 0.70599997 -0.012378532 1.6771298e-38 350 250
-0.029708479 0.70599997 -0.013616386 1.4838092e-38 296 251
-0.028470624 0.70599997 -0.013616386 1.2440645e-38 297 251
-0.027232772 0.70599997 -0.013616386 8.6660585e-39 298 251
-0.02592128 0.704 -0.013577812 6.9143415e-39 299 251
-0.024686933 0.704 -0.013577812 6.6381302e-39 300 251
-0.023352645 0.70099998 -0.013519952 8.3894884e-39 301 251
-0.022091998 0.69999999 -0.013500666 8.8554874e-39 302 251
-0.020864666 0.69999999 -0.013500666 9.6852495e-39 303 251
-0.019581227 0.69800001 -0.013462093 1.0329173e-38 304 251
-0.018331099 0.69700003 -0.013442807 1.0236977e-38 305 251
-0.017084479 0.69599998 -0.013423519 6.9215316e-39 306 251
-0.015864158 0.69599998 -0.013423519 6.0917695e-39 307 251
-0.01460176 0.69400001 -0.013384946 7.2845534e-39 308 251
-0.01336566 0.69300002 -0.01336566 7.6529758e-39 309 251
-0.012150601 0.69300002 -0.01336566 8.0217457e-39 310 251
-0.01090398 0.69099998 -0.013327086 9.1277331e-39 311 251
-0.0096924258 0.69099998 -0.013327086 1.0137206e-38 312 251
-0.0084686 0.69 -0.0133078 9.7680648e-39 313 251
-0.0072587994 0.69 -0.0133078 8.1143042e-39 314 251
-0.0060314666 0.68800002 -0.013269227 7.7458804e-39 315 251
-0.0048251734 0.68800002 -0.013269227 6.9204358e-39 316 251
-0.0036188802 0.68800002 -0.013269227 8.0264246e-39 317 251
-0.0024125867 0.68800002 -0.013269227 9.6819831e-39 318 251
-0.0012062934 0.68800002 -0.013269227 1.0419907e-38 319 251
0 0.68800002 -0.013269227 1.1061676e-38 320 251
0.0012045399 0.68699998 -0.013249939 1.0877645e-38 321 251
0.0024090798 0.68699998 -0.013249939 1.0692895e-38 322 251
0.0036136196 0.68699998 -0.013249939 1.0508504e-38 323 251
0.0048181596 0.68699998 -0.013249939 9.8663393e-39 324 251
0.0060226996 0.68699998 -0.013249939 6.915719e-39 325 251
0.0072272392 0.68699998 -0.013249939 7.9255465e-39 326 251
0.0084317802 0.68699998 -0.013249939 1.0783251e-38 327 251
0.0096503468 0.68800002 -0.013269227 1.0143302e-38 328 251
0.010856641 0.68800002 -0.013269227 1.0143302e-38 329 251
0.012062933 0.68800002 -0.013269227 8.7542464e-39 330 251
0.013269227 0.68800002 -0.013269227 6.6341071e-39 331 251
0.014517599 0.69 -0.0133078 7.3749119e-39 332 251
0.015727401 0.69 -0.0133078 7.7433343e-39 333 251
0.016961746 0.69099998 -0.013327086 5.8987252e-39 334 251
0.0181733 0.69099998 -0.013327086 5.9909209e-39 335 251
0.019384852 0.69099998 -0.013327086 6.6337848e-39 336 251
0.020656019 0.69300002 -0.01336566 6.8181774e-39 337 251
0.021902639 0.69400001 -0.013384946 6.8203438e-39 338 251
0.023119451 0.69400001 -0.013384946 6.9125395e-39 339 251
0.024441468 0.69700003 -0.013442807 6.4569535e-39 340 251
0.025700359 0.69800001 -0.013462093 6.6417035e-39 341 251
0.027001332 0.69999999 -0.013500666 7.2863442e-39 342 251
0.028228667 0.69999999 -0.013500666 7.4707355e-39 343 251
0.029498078 0.70099998 -0.013519952 7.1930612e-39 344 251
0.030727165 0.70099998 -0.013519952 6.4554948e-39 345 251
0.031956252 0.70099998 -0.013519952 4.4250245e-39 346 251
0.033280019 0.70300001 -0.013558527 3.6870993e-39 347 251
0.034561705 0.704 -0.013577812 1.2439555e-38 348 251
0.035897743 0.70599997 -0.013616386 1.5021033e-38 349 251
0.037135597 0.70599997 -0.013616386 1.6679102e-38 350 251
-0.030946331 0.70599997 -0.014854239 1.6310322e-38 295 252
-0.029708479 0.70599997 -0.014854239 1.4838805e-38 296 252
-0.028470624 0.70599997 -0.014854239 1.2534274e-38 297 252
-0.027232772 0.70599997 -0.014854239 9.1259478e-39 298 252
-0.02592128 0.704 -0.014812159 7.3738707e-39 299 252
-0.024686933 0.704 -0.014812159 5.9041483e-39 300 252
-0.023352645 0.70099998 -0.014749039 7.8402565e-39 301 252
-0.022123558 0.70099998 -0.014749039 8.8547658e-39 302 252
-0.020864666 0.69999999 -0.014727999 9.5923308e-39 303 252
-0.019581227 0.69800001 -0.01468592 9.6856026e-39 304 252
-0.0183574 0.69800001 -0.01468592 9.9618294e-39 305 252
-0.017109027 0.69700003 -0.01466488 8.5788781e-39 306 252
-0.015864158 0.69599998 -0.014643839 6.7349669e-39 307 252
-0.01460176 0.69400001 -0.01460176 5.8094191e-39 308 252
-0.013384946 0.69400001 -0.01460176 4.9796584e-39 309 252
-0.012150601 0.69300002 -0.014580719 4.4282965e-39 310 252
-0.01090398 0.69099998 -0.014538639 6.2722091e-39 311 252
-0.0096924258 0.69099998 -0.014538639 8.7542885e-39 312 252
-0.008480873 0.69099998 -0.014538639 7.5557453e-39 313 252
-0.0072693196 0.69099998 -0.014538639 5.4417282e-39 314 252
-0.0060489997 0.69 -0.014517599 5.6261208e-39 315 252
-0.0048391996 0.69 -0.014517599 6.2711371e-39 316 252
-0.0036188802 0.68800002 -0.014475521 7.5618759e-39 317 252
-0.0024125867 0.68800002 -0.014475521 8.5760083e-39 318 252
-0.0012062934 0.68800002 -0.014475521 9.129182e-39 319 252
0 0.68800002 -0.014475521 9.8649324e-39 320 252
0.0012062934 0.68800002 -0.014475521 9.6805411e-39 321 252
0.0024125867 0.68800002 -0.014475521 9.3121145e-39 322 252
0.0036188802 0.68800002 -0.014475521 9.1273646e-39 323 252
0.0048251734 0.68800002 -0.014475521 9.0362255e-39 324 252
0.0060314666 0.68800002 -0.014475521 7.0079216e-39 325 252
0.0072377604 0.68800002 -0.014475521 7.8376823e-39 326 252
0.0084440531 0.68800002 -0.014475521 9.8659862e-39 327 252
0.0096503468 0.68800002 -0.014475521 9.1302358e-39 328 252
0.010856641 0.68800002 -0.014475521 9.0380388e-39 329 252
0.012062933 0.68800002 -0.014475521 7.9273626e-39 330 252
0.0133078 0.69 -0.014517599 6.3596782e-39 331 252
0.014538639 0.69099998 -0.014538639 7.1930346e-39 332 252
0.015750192 0.69099998 -0.014538639 7.9305996e-39 333 252
0.01701084 0.69300002 -0.014580719 5.9012364e-39 334 252
0.018225901 0.69300002 -0.014580719 5.532814e-39 335 252
0.01944096 0.69300002 -0.014580719 6.5426653e-39 336 252
0.020656019 0.69300002 -0.014580719 7.0036435e-39 337 252
0.021902639 0.69400001 -0.01460176 7.0054427e-39 338 252
0.023186078 0.69599998 -0.014643839 7.4664195e-39 339 252
0.024441468 0.69700003 -0.01466488 7.0101119e-39 340 252
0.025700359 0.69800001 -0.01468592 7.4710886e-39 341 252
0.027001332 0.69999999 -0.014727999 7.7469524e-39 342 252
0.028228667 0.69999999 -0.014727999 7.470367e-39 343 252
0.029498078 0.70099998 -0.014749039 7.3763693e-39 344 252
0.030727165 0.70099998 -0.014749039 6.6388042e-39 345 252
0.032047424 0.70300001 -0.014791119 5.5288441e-39 346 252
0.03332736 0.704 -0.014812159 5.0682261e-39 347 252
0.034659892 0.70599997 -0.014854239 1.2623939e-38 348 252
0.035897743 0.70599997 -0.014854239 1.4836994e-38 349 252
0.037135597 0.70599997 -0.014854239 1.6679102e-38 350 252
-0.029708479 0.70599997 -0.016092092 1.5206871e-38 296 253
-0.028470624 0.70599997 -0.016092092 1.3270763e-38 297 253
-0.027232772 0.70599997 -0.016092092 1.0599277e-38 298 253
-0.02592128 0.704 -0.016046507 8.9397545e-39 299 253
-0.024686933 0.704 -0.016046507 7.3803545e-39 300 253
-0.023352645 0.70099998 -0.015978126 8.025724e-39 301 253
-0.022123558 0.70099998 -0.015978126 8.9480362e-39 302 253
-0.020894472 0.70099998 -0.015978126 9.6856026e-39 303 253
-0.019637333 0.69999999 -0.015955333 9.410808e-39 304 253
-0.0183574 0.69800001 -0.015909746 9.5033624e-39 305 253
-0.017109027 0.69700003 -0.015886955 1.0236606e-38 306 253
-0.015886955 0.69700003 -0.015886955 8.945867e-39 307 253
-0.014643839 0.69599998 -0.015864158 8.7589576e-39 308 253
-0.013384946 0.69400001 -0.015818574 8.666762e-39 309 253
-0.012168133 0.69400001 -0.015818574 8.1161049e-39 310 253
-0.010935539 0.69300002 -0.015795778 8.0239093e-39 311 253
-0.0097204801 0.69300002 -0.015795778 8.2054307e-39 312 253
-0.0085054198 0.69300002 -0.015795778 6.3615181e-39 313 253
-0.0072693196 0.69099998 -0.015750192 6.268619e-39 314 253
-0.0060577663 0.69099998 -0.015750192 6.6374015e-39 315 253
-0.0048391996 0.69 -0.015727401 6.4573249e-39 316 253
-0.0036293997 0.69 -0.015727401 6.8261088e-39 317 253
-0.0024125867 0.68800002 -0.015681813 6.5466352e-39 318 253
-0.0012062934 0.68800002 -0.015681813 5.9934614e-39 319 253
0 0.68800002 -0.015681813 6.3629614e-39 320 253
0.0012062934 0.68800002 -0.015681813 6.1785716e-39 321 253
0.0024125867 0.68800002 -0.015681813 6.0892472e-39 322 253
0.0036188802 0.68800002 -0.015681813 7.4721816e-39 323 253
0.0048251734 0.68800002 -0.015681813 8.9436767e-39 324 253
0.0060314666 0.68800002 -0.015681813 7.3767098e-39 325 253
0.0072377604 0.68800002 -0.015681813 8.2057292e-39 326 253
0.0084440531 0.68800002 -0.015681813 8.8510986e-39 327 253
0.0096503468 0.68800002 -0.015681813 7.7451195e-39 328 253
0.010856641 0.68800002 -0.015681813 6.2696307e-39 329 253
0.012062933 0.68800002 -0.015681813 5.9012055e-39 330 253
0.0133078 0.69 -0.015727401 6.7306061e-39 331 253
0.014538639 0.69099998 -0.015750192 8.3908589e-39 332 253
0.015750192 0.69099998 -0.015750192 8.4830545e-39 333 253
0.01701084 0.69300002 -0.015795778 7.3767224e-39 334 253
0.018225901 0.69300002 -0.015795778 7.2845268e-39 335 253
0.01944096 0.69300002 -0.015795778 6.7346012e-39 336 253
0.020685827 0.69400001 -0.015818574 7.1033823e-39 337 253
0.021965759 0.69599998 -0.015864158 7.3788902e-39 338 253
0.023219392 0.69700003 -0.015886955 7.4710858e-39 339 253
0.024476532 0.69800001 -0.015909746 7.7469524e-39 340 253
0.025700359 0.69800001 -0.015909746 7.7469524e-39 341 253
0.027001332 0.69999999 -0.015955333 7.8380775e-39 342 253
0.028268991 0.70099998 -0.015978126 7.6536848e-39 343 253
0.029498078 0.70099998 -0.015978126 7.1927053e-39 344 253
0.030814834 0.70300001 -0.016023712 6.6398902e-39 345 253
0.032093015 0.704 -0.016046507 6.2682112e-39 346 253
0.033422034 0.70599997 -0.016092092 6.4522423e-39 347 253
0.034659892 0.70599997 -0.016092092 1.2716491e-38 348 253
0.035897743 0.70599997 -0.016092092 1.4929187e-38 349 253
0.037135597 0.70599997 -0.016092092 1.6495427e-38 350 253
-0.031253166 0.713 -0.017501773 1.6310678e-38 295 254
-0.029876797 0.70999998 -0.017428132 1.5299783e-38 296 254
-0.028631933 0.70999998 -0.017428132 1.345587e-38 297 254
-0.027387066 0.70999998 -0.017428132 1.0327724e-38 298 254
-0.025994917 0.70599997 -0.017329946 8.5760083e-39 299 254
