# .PCD v.7 - Point Cloud Data file format
FIELDS x y z rgb imX imY
SIZE 4 4 4 4 4 4
TYPE F F F F F F
COUNT 1 1 1 1 1 1
WIDTH 842
HEIGHT 1
VIEWPOINT 0 0 0 1 0 0 0
POINTS 842
DATA ascii
0.0033032801 0.62800002 0.07597544 1.6423102e-38 323 171
0.0043973597 0.62699997 0.07585445 1.6606048e-38 324 171
0.0054791663 0.625 0.0756125 1.6329821e-38 325 171
0.006575 0.625 0.0756125 1.6420574e-38 326 171
0.0076708333 0.625 0.0756125 1.6328019e-38 327 171
0.0087666661 0.625 0.0756125 1.6602088e-38 328 171
0.0098467199 0.62400001 0.075491518 1.6325501e-38 329 171
0.0109408 0.62400001 0.075491518 1.6141107e-38 330 171
0.01203488 0.62400001 0.075491518 1.5956716e-38 331 171
0.01312896 0.62400001 0.075491518 1.6048543e-38 332 171
0.01422304 0.62400001 0.075491518 1.5956347e-38 333 171
0.015341667 0.625 0.0756125 1.5864857e-38 334 171
0.016490098 0.62699997 0.07585445 1.5680107e-38 335 171
0.017589439 0.62699997 0.07585445 1.577014e-38 336 171
0.018718587 0.62800002 0.07597544 1.577014e-38 337 171
0.019819681 0.62800002 0.07597544 1.6045282e-38 338 171
0.020954086 0.62900001 0.076096416 1.5860891e-38 339 171
0.022056932 0.62900001 0.076096416 1.5766902e-38 340 171
0.023196599 0.63 0.076217398 1.475239e-38 341 171
0.024339773 0.63099998 0.076338373 1.2917482e-38 342 171
0.025446124 0.63099998 0.076338373 1.3747601e-38 343 171
-0.0022162134 0.63200003 0.075351253 1.7067758e-38 318 172
-0.0011063532 0.63099998 0.075232022 1.7620573e-38 319 172
0 0.63099998 0.075232022 1.7160307e-38 320 172
0.0011045999 0.63 0.075112797 1.6883361e-38 321 172
0.0022056934 0.62900001 0.074993573 1.6608569e-38 322 172
0.0033032801 0.62800002 0.074874349 1.6240145e-38 323 172
0.0043973597 0.62699997 0.074755117 1.6697881e-38 324 172
0.0054966994 0.62699997 0.074755117 1.651349e-38 325 172
0.006575 0.625 0.074516661 1.6330175e-38 326 172
0.0076708333 0.625 0.074516661 1.6145782e-38 327 172
0.0087947194 0.62699997 0.074755117 1.6235461e-38 328 172
0.0098624993 0.625 0.074516661 1.6050709e-38 329 172
0.010958333 0.625 0.074516661 1.5866315e-38 330 172
0.012054166 0.625 0.074516661 1.577412e-38 331 172
0.01315 0.625 0.074516661 1.6048899e-38 332 172
0.014245833 0.625 0.074516661 1.6048899e-38 333 172
0.015390759 0.62699997 0.074755117 1.6140365e-38 334 172
0.016490098 0.62699997 0.074755117 1.5956333e-38 335 172
0.017589439 0.62699997 0.074755117 1.6230759e-38 336 172
0.018718587 0.62800002 0.074874349 1.6046728e-38 337 172
0.019819681 0.62800002 0.074874349 1.6413343e-38 338 172
0.020954086 0.62900001 0.074993573 1.5952365e-38 339 172
0.022127066 0.63099998 0.075232022 1.5122601e-38 340 172
0.023233417 0.63099998 0.075232022 1.2725874e-38 341 172
0.024339773 0.63099998 0.075232022 1.0708367e-38 342 172
0.025446124 0.63099998 0.075232022 1.3658626e-38 343 172
-0.0022162134 0.63200003 0.074243151 1.0712746e-38 318 173
-0.0011063532 0.63099998 0.07412567 1.357045e-38 319 173
0 0.63099998 0.07412567 1.6332358e-38 320 173
0.0011045999 0.63 0.074008197 1.6977727e-38 321 173
0.0022056934 0.62900001 0.073890723 1.7621282e-38 322 173
0.0033032801 0.62800002 0.07377325 1.7436531e-38 323 173
0.0043973597 0.62699997 0.073655777 1.7435799e-38 324 173
0.0054966994 0.62699997 0.073655777 1.7343603e-38 325 173
0.0065960395 0.62699997 0.073655777 1.7159572e-38 326 173
0.0076953797 0.62699997 0.073655777 1.6975541e-38 327 173
0.0087947194 0.62699997 0.073655777 1.7064859e-38 328 173
0.009894059 0.62699997 0.073655777 1.6788632e-38 329 173
0.010993399 0.62699997 0.073655777 1.6788632e-38 330 173
0.012092739 0.62699997 0.073655777 1.6604239e-38 331 173
0.013192079 0.62699997 0.073655777 1.6694268e-38 332 173
0.01429142 0.62699997 0.073655777 1.6694268e-38 333 173
0.015390759 0.62699997 0.073655777 1.6603142e-38 334 173
0.016490098 0.62699997 0.073655777 1.6419109e-38 335 173
0.017617494 0.62800002 0.07377325 1.678357e-38 336 173
0.018718587 0.62800002 0.07377325 1.5677223e-38 337 173
0.019819681 0.62800002 0.07377325 1.4661982e-38 338 173
0.020954086 0.62900001 0.073890723 1.2264536e-38 339 173
0.022127066 0.63099998 0.07412567 8.3055226e-39 340 173
0.023233417 0.63099998 0.07412567 6.8300324e-39 341 173
0.024339773 0.63099998 0.07412567 1.0893484e-38 342 173
-0.0011063532 0.63099998 0.073019318 1.0432171e-38 319 174
0 0.63099998 0.073019318 1.3193388e-38 320 174
0.0011045999 0.63 0.072903596 1.4761072e-38 321 174
0.0022056934 0.62900001 0.072787881 1.5960682e-38 322 174
0.0033032801 0.62800002 0.072672158 1.6606051e-38 323 174
0.0043973597 0.62699997 0.072556436 1.7066659e-38 324 174
0.0054966994 0.62699997 0.072556436 1.7251052e-38 325 174
0.0065960395 0.62699997 0.072556436 1.7434364e-38 326 174
0.0076953797 0.62699997 0.072556436 1.7434364e-38 327 174
0.0088087469 0.62800002 0.072672158 1.7341085e-38 328 174
0.009894059 0.62699997 0.072556436 1.7156335e-38 329 174
0.010993399 0.62699997 0.072556436 1.7247086e-38 330 174
0.012092739 0.62699997 0.072556436 1.7062694e-38 331 174
0.013192079 0.62699997 0.072556436 1.6785737e-38 332 174
0.01429142 0.62699997 0.072556436 1.632476e-38 333 174
0.015415306 0.62800002 0.072672158 1.6691369e-38 334 174
0.016516401 0.62800002 0.072672158 1.5769772e-38 335 174
0.017617494 0.62800002 0.072672158 1.4661976e-38 336 174
0.018718587 0.62800002 0.072672158 1.3555627e-38 337 174
0.019819681 0.62800002 0.072672158 1.1897905e-38 338 174
0.021054026 0.63200003 0.073135041 9.1320365e-39 339 174
0.022162134 0.63200003 0.073135041 5.6343801e-39 340 174
0.02327024 0.63200003 0.073135041 9.8757378e-39 341 174
0.0033032801 0.62800002 0.071571067 1.0523666e-38 323 175
0.0044043735 0.62800002 0.071571067 1.163073e-38 324 175
0.0054966994 0.62699997 0.071457095 1.2737437e-38 325 175
0.0065960395 0.62699997 0.071457095 1.4300081e-38 326 175
0.0076953797 0.62699997 0.071457095 1.4577028e-38 327 175
0.0088087469 0.62800002 0.071571067 1.4852168e-38 328 175
0.0099098403 0.62800002 0.071571067 1.4759971e-38 329 175
0.010993399 0.62699997 0.071457095 1.512622e-38 330 175
0.012092739 0.62699997 0.071457095 1.4573046e-38 331 175
0.013192079 0.62699997 0.071457095 1.374328e-38 332 175
0.014314214 0.62800002 0.071571067 1.2821322e-38 333 175
0.015415306 0.62800002 0.071571067 1.1990474e-38 334 175
0.016516401 0.62800002 0.071571067 1.0146561e-38 335 175
0.017617494 0.62800002 0.071571067 8.3930463e-39 336 175
0.018718587 0.62800002 0.071571067 8.116458e-39 337 175
0.019851239 0.62900001 0.071685031 7.4750529e-39 338 175
0.0055054668 0.62800002 0.070469975 9.1367757e-39 325 176
0.0065960395 0.62699997 0.070357755 1.0056571e-38 326 176
0.0076953797 0.62699997 0.070357755 1.0056571e-38 327 176
0.0088087469 0.62800002 0.070469975 1.0518969e-38 328 176
0.0099098403 0.62800002 0.070469975 1.070336e-38 329 176
0.011010934 0.62800002 0.070469975 1.1709939e-38 330 176
0.012112026 0.62800002 0.070469975 1.1340798e-38 331 176
0.01321312 0.62800002 0.070469975 1.0789059e-38 332 176
0.014314214 0.62800002 0.070469975 1.0696864e-38 333 176
0.015415306 0.62800002 0.070469975 9.7774213e-39 334 176
0.016516401 0.62800002 0.070469975 9.5011946e-39 335 176
0.017617494 0.62800002 0.070469975 9.3157271e-39 336 176
0.018718587 0.62800002 0.070469975 9.7767052e-39 337 176
0.0055054668 0.62800002 0.069368884 8.0296868e-39 325 177
0.0066065602 0.62800002 0.069368884 8.0289736e-39 326 177
0.0077076531 0.62800002 0.069368884 8.0289736e-39 327 177
0.0088087469 0.62800002 0.069368884 8.1215167e-39 328 177
0.0099098403 0.62800002 0.069368884 8.3981022e-39 329 177
0.011010934 0.62800002 0.069368884 8.8551161e-39 330 177
0.012112026 0.62800002 0.069368884 8.7629205e-39 331 177
0.01321312 0.62800002 0.069368884 9.03915e-39 332 177
0.014314214 0.62800002 0.069368884 9.7767151e-39 333 177
0.015415306 0.62800002 0.069368884 1.051464e-38 334 177
0.016516401 0.62800002 0.069368884 1.1436597e-38 335 177
0.017617494 0.62800002 0.069368884 1.2632972e-38 336 177
0.0066065602 0.62800002 0.068267785 1.3650731e-38 326 178
0.0077076531 0.62800002 0.068267785 1.3743285e-38 327 178
0.0088087469 0.62800002 0.068267785 1.3649285e-38 328 178
0.0099098403 0.62800002 0.068267785 1.3188308e-38 329 178
0.010993399 0.62699997 0.068159074 1.3098985e-38 330 178
0.012092739 0.62699997 0.068159074 1.3191181e-38 331 178
0.01321312 0.62800002 0.068267785 1.3283743e-38 332 178
0.014314214 0.62800002 0.068267785 1.3468493e-38 333 178
0.015439852 0.62900001 0.068376496 1.4386131e-38 334 178
0.010993399 0.62699997 0.067059733 1.5033655e-38 330 179
0.012092739 0.62699997 0.067059733 1.5309882e-38 331 179
0.0035136798 0.66799998 -0.0035136798 1.4847462e-38 323 243
0.0046849065 0.66799998 -0.0035136798 1.4847462e-38 324 243
0.0011747333 0.67000002 -0.0046989331 1.4570877e-38 321 244
0.0023494666 0.67000002 -0.0046989331 1.4847462e-38 322 244
0.0035136798 0.66799998 -0.0046849065 1.4939658e-38 323 244
0.0046849065 0.66799998 -0.0046849065 1.475599e-38 324 244
0.0058561331 0.66799998 -0.0046849065 1.4940021e-38 325 244
0.0093417596 0.66600001 -0.0046708798 1.4847462e-38 328 244
0.010477919 0.66399997 -0.0046568532 1.383331e-38 329 244
0.040656291 0.68199998 -0.004783093 9.5022035e-39 354 244
0.041852064 0.68199998 -0.004783093 1.0700747e-38 355 244
0.043047838 0.68199998 -0.004783093 1.4377804e-38 356 244
0.0011747333 0.67000002 -0.0058736666 1.4754192e-38 321 245
0.0023494666 0.67000002 -0.0058736666 1.4847109e-38 322 245
0.0035136798 0.66799998 -0.0058561331 1.4939305e-38 323 245
0.0046708798 0.66600001 -0.0058385995 1.4940023e-38 324 245
0.0058210664 0.66399997 -0.0058210664 1.5032219e-38 325 245
0.0069852793 0.66399997 -0.0058210664 1.484891e-38 326 245
0.0081494926 0.66399997 -0.0058210664 1.5033302e-38 327 245
0.0093137063 0.66399997 -0.0058210664 1.4754911e-38 328 245
0.010477919 0.66399997 -0.0058210664 1.3833313e-38 329 245
0.011642133 0.66399997 -0.0058210664 1.4107376e-38 330 245
0.039518382 0.68300003 -0.0059876335 8.5856394e-39 353 245
0.040656291 0.68199998 -0.005978866 1.0329115e-38 354 245
0.041852064 0.68199998 -0.005978866 1.1158876e-38 355 245
0.043047838 0.68199998 -0.005978866 1.5206849e-38 356 245
0.0023494666 0.67000002 -0.0070483997 1.5399561e-38 322 246
0.0035241998 0.67000002 -0.0070483997 1.5399561e-38 323 246
0.0046708798 0.66600001 -0.0070063197 1.5216245e-38 324 246
0.0058210664 0.66399997 -0.0069852793 1.5124049e-38 325 246
0.0069852793 0.66399997 -0.0069852793 1.5215168e-38 326 246
0.0081494926 0.66399997 -0.0069852793 1.5307364e-38 327 246
0.0093137063 0.66399997 -0.0069852793 1.4754911e-38 328 246
0.010477919 0.66399997 -0.0069852793 1.4109541e-38 329 246
0.011642133 0.66399997 -0.0069852793 1.4199572e-38 330 246
0.039518382 0.68300003 -0.0071851597 9.4121729e-39 353 246
0.040715907 0.68300003 -0.0071851597 1.0511005e-38 354 246
0.041913435 0.68300003 -0.0071851597 1.2170166e-38 355 246
0.043110959 0.68300003 -0.0071851597 1.6682355e-38 356 246
0.0011747333 0.67000002 -0.0082231332 1.4294288e-38 321 247
0.0023494666 0.67000002 -0.0082231332 1.4570879e-38 322 247
0.0035241998 0.67000002 -0.0082231332 1.5031856e-38 323 247
0.0046849065 0.66799998 -0.0081985854 1.5124049e-38 324 247
0.0058385995 0.66600001 -0.0081740404 1.4755266e-38 325 247
0.0070063197 0.66600001 -0.0081740404 1.4570152e-38 326 247
0.0081494926 0.66399997 -0.0081494926 1.4754543e-38 327 247
0.0093137063 0.66399997 -0.0081494926 1.4754548e-38 328 247
0.01050948 0.66600001 -0.0081740404 1.4109178e-38 329 247
0.011677199 0.66600001 -0.0081740404 1.3924783e-38 330 247
0.039518382 0.68300003 -0.0083826864 9.0434086e-39 353 247
0.040715907 0.68300003 -0.0083826864 1.041774e-38 354 247
0.041913435 0.68300003 -0.0083826864 1.2722271e-38 355 247
0.043110959 0.68300003 -0.0083826864 1.6960381e-38 356 247
0.0011747333 0.67000002 -0.0093978662 1.0795155e-38 321 248
0.0023494666 0.67000002 -0.0093978662 1.1164309e-38 322 248
0.0035241998 0.67000002 -0.0093978662 1.1624928e-38 323 248
0.0046989331 0.67000002 -0.0093978662 1.2268856e-38 324 248
0.0058385995 0.66600001 -0.0093417596 1.2453247e-38 325 248
0.0070063197 0.66600001 -0.0093417596 1.2913502e-38 326 248
0.0081740404 0.66600001 -0.0093417596 1.3097895e-38 327 248
0.0093417596 0.66600001 -0.0093417596 1.3832937e-38 328 248
0.01050948 0.66600001 -0.0093417596 1.3556352e-38 329 248
0.02101896 0.66600001 -0.0093417596 1.079656e-38 338 248
0.02218668 0.66600001 -0.0093417596 1.0243388e-38 339 248
0.040715907 0.68300003 -0.0095802136 1.0602848e-38 354 248
0.041913435 0.68300003 -0.0095802136 1.309213e-38 355 248
0.043110959 0.68300003 -0.0095802136 1.6960383e-38 356 248
0.0011712266 0.66799998 -0.01054104 7.5769133e-39 321 249
0.0023529732 0.671 -0.01058838 7.5783776e-39 322 249
0.0035294599 0.671 -0.01058838 7.6705733e-39 323 249
0.0047059464 0.671 -0.01058838 8.495655e-39 324 249
0.0058824331 0.671 -0.01058838 8.7718832e-39 325 249
0.0070589199 0.671 -0.01058838 9.3264891e-39 326 249
0.0082354061 0.671 -0.01058838 1.0432476e-38 327 249
0.019851239 0.66600001 -0.01050948 9.7827504e-39 337 249
0.02101896 0.66600001 -0.01050948 8.9561973e-39 338 249
0.02218668 0.66600001 -0.01050948 8.4952192e-39 339 249
0.023354398 0.66600001 -0.01050948 8.7703487e-39 340 249
0.039460517 0.68199998 -0.010761959 9.3185703e-39 353 249
0.040656291 0.68199998 -0.010761959 1.0694696e-38 354 249
0.041913435 0.68300003 -0.01077774 1.3460206e-38 355 249
0.043110959 0.68300003 -0.01077774 1.7144775e-38 356 249
-0.015567848 0.68300003 -0.011975267 1.144464e-38 307 250
-0.014370319 0.68300003 -0.011975267 1.1627977e-38 308 250
-0.01063572 0.67400002 -0.011817466 1.1167075e-38 311 250
-0.0094259195 0.67199999 -0.011782399 1.1075643e-38 312 250
-0.0082354061 0.671 -0.011764866 1.1167839e-38 313 250
-0.0070589199 0.671 -0.011764866 1.1260401e-38 314 250
-0.0058824331 0.671 -0.011764866 1.1629543e-38 315 250
-0.0047059464 0.671 -0.011764866 1.1627395e-38 316 250
-0.0035294599 0.671 -0.011764866 1.0428851e-38 317 250
0 0.66799998 -0.011712266 7.1173589e-39 320 250
0.0011712266 0.66799998 -0.011712266 7.3021088e-39 321 250
0.0023424532 0.66799998 -0.011712266 6.9358641e-39 322 250
0.0035294599 0.671 -0.011764866 6.4748859e-39 323 250
0.0047059464 0.671 -0.011764866 6.2865122e-39 324 250
0.0058824331 0.671 -0.011764866 5.7333384e-39 325 250
0.0070589199 0.671 -0.011764866 5.461771e-39 326 250
0.0081985854 0.66799998 -0.011712266 7.4900748e-39 327 250
0.0092716264 0.66100001 -0.011589534 8.8643717e-39 328 250
0.010399019 0.65899998 -0.011554466 7.7583828e-39 329 250
0.0175421 0.667 -0.011694733 7.1155049e-39 335 250
0.018711573 0.667 -0.011694733 8.3115286e-39 336 250
0.019851239 0.66600001 -0.011677199 8.4037242e-39 337 250
0.02101896 0.66600001 -0.011677199 8.0363668e-39 338 250
0.02218668 0.66600001 -0.011677199 7.7601401e-39 339 250
0.023354398 0.66600001 -0.011677199 8.2196665e-39 340 250
0.038264744 0.68199998 -0.011957732 1.0235495e-38 352 250
0.039460517 0.68199998 -0.011957732 1.0051102e-38 353 250
0.040656291 0.68199998 -0.011957732 1.0417387e-38 354 250
0.041852064 0.68199998 -0.011957732 1.3920461e-38 355 250
0.042921599 0.68000001 -0.011922667 1.7329886e-38 356 250
0.044113863 0.68000001 -0.011922667 1.9726971e-38 357 250
-0.017962901 0.68300003 -0.013172794 1.2176144e-38 305 251
-0.016765373 0.68300003 -0.013172794 1.1629034e-38 306 251
-0.015545053 0.68199998 -0.013153506 1.1536838e-38 307 251
-0.01434928 0.68199998 -0.013153506 1.17198e-38 308 251
-0.013114933 0.68000001 -0.013114933 1.17198e-38 309 251
-0.011835 0.67500001 -0.0130185 1.1626223e-38 310 251
-0.01063572 0.67400002 -0.012999214 1.1626223e-38 311 251
-0.0094259195 0.67199999 -0.012960639 1.1717382e-38 312 251
-0.0082354061 0.671 -0.012941353 1.1901773e-38 313 251
-0.0070589199 0.671 -0.012941353 1.1626643e-38 314 251
-0.0058824331 0.671 -0.012941353 1.1626643e-38 315 251
-0.0047059464 0.671 -0.012941353 1.0800498e-38 316 251
-0.0035294599 0.671 -0.012941353 1.0155129e-38 317 251
-0.0023494666 0.67000002 -0.012922067 8.8676339e-39 318 251
-0.0011712266 0.66799998 -0.012883492 8.9601882e-39 319 251
0 0.66799998 -0.012883492 8.9580345e-39 320 251
0.0011712266 0.66799998 -0.012883492 9.4190112e-39 321 251
0.0023389466 0.667 -0.012864206 9.6952492e-39 322 251
0.0035084197 0.667 -0.012864206 9.5108579e-39 323 251
0.0046778931 0.667 -0.012864206 9.0476895e-39 324 251
0.0058473665 0.667 -0.012864206 7.6647551e-39 325 251
0.0070168395 0.667 -0.012864206 7.0225904e-39 326 251
0.0081985854 0.66799998 -0.012883492 8.0367438e-39 327 251
0.0092716264 0.66100001 -0.012748486 7.5775565e-39 328 251
0.010399019 0.65899998 -0.012709912 6.7477958e-39 329 251
0.011554466 0.65899998 -0.012709912 6.8374747e-39 330 251
0.012709912 0.65899998 -0.012709912 6.653082e-39 331 251
0.013865359 0.65899998 -0.012709912 6.6516415e-39 332 251
0.01518036 0.66600001 -0.01284492 7.1126197e-39 333 251
0.016298985 0.66399997 -0.012806346 7.2991521e-39 334 251
0.0174632 0.66399997 -0.012806346 7.5760991e-39 335 251
0.018711573 0.667 -0.012864206 8.4955303e-39 336 251
0.019851239 0.66600001 -0.01284492 8.5877259e-39 337 251
0.02101896 0.66600001 -0.01284492 8.3122152e-39 338 251
0.022219993 0.667 -0.012864206 8.2200196e-39 339 251
0.023389466 0.667 -0.012864206 7.9445089e-39 340 251
0.036960267 0.68000001 -0.013114933 9.5986801e-39 351 251
0.038152531 0.68000001 -0.013114933 1.0328046e-38 352 251
0.039460517 0.68199998 -0.013153506 9.6826767e-39 353 251
0.040656291 0.68199998 -0.013153506 9.8652855e-39 354 251
0.041852064 0.68199998 -0.013153506 1.4382871e-38 355 251
0.042921599 0.68000001 -0.013114933 1.7790144e-38 356 251
0.044113863 0.68000001 -0.013114933 1.9726252e-38 357 251
-0.017962901 0.68300003 -0.014370319 1.1808086e-38 305 252
-0.016765373 0.68300003 -0.014370319 1.1902395e-38 306 252
-0.015545053 0.68199998 -0.01434928 1.2086788e-38 307 252
-0.01434928 0.68199998 -0.01434928 1.2176465e-38 308 252
-0.013114933 0.68000001 -0.014307199 1.2176465e-38 309 252
-0.011835 0.67500001 -0.014202001 1.1992469e-38 310 252
-0.0106515 0.67500001 -0.014202001 1.2268696e-38 311 252
-0.0094259195 0.67199999 -0.01413888 1.2269072e-38 312 252
-0.00824768 0.67199999 -0.01413888 1.2453104e-38 313 252
-0.0070694401 0.67199999 -0.01413888 1.2362359e-38 314 252
-0.0058911997 0.67199999 -0.01413888 1.2362359e-38 315 252
-0.0047059464 0.671 -0.01411784 1.1535139e-38 316 252
-0.0035294599 0.671 -0.01411784 1.0428791e-38 317 252
-0.0023494666 0.67000002 -0.014096799 1.0154017e-38 318 252
-0.0011712266 0.66799998 -0.014054719 1.0522801e-38 319 252
0 0.66799998 -0.014054719 1.0154763e-38 320 252
0.0011712266 0.66799998 -0.014054719 1.0154763e-38 321 252
0.0023389466 0.667 -0.014033679 9.7874476e-39 322 252
0.0035084197 0.667 -0.014033679 1.0155871e-38 323 252
0.0046778931 0.667 -0.014033679 1.0155126e-38 324 252
0.0058473665 0.667 -0.014033679 7.7583982e-39 325 252
0.0070168395 0.667 -0.014033679 6.4712187e-39 326 252
0.0081985854 0.66799998 -0.014054719 7.4850105e-39 327 252
0.0092716264 0.66100001 -0.01390744 7.2091313e-39 328 252
0.010399019 0.65899998 -0.013865359 6.2871736e-39 329 252
0.011554466 0.65899998 -0.013865359 6.653082e-39 330 252
0.012709912 0.65899998 -0.013865359 6.8374747e-39 331 252
0.014033679 0.667 -0.014033679 7.0207898e-39 332 252
0.01518036 0.66600001 -0.014012639 7.205181e-39 333 252
0.016298985 0.66399997 -0.013970559 7.6668598e-39 334 252
0.0174632 0.66399997 -0.013970559 7.8516098e-39 335 252
0.018711573 0.667 -0.014033679 8.4955247e-39 336 252
0.019881045 0.667 -0.014033679 8.588079e-39 337 252
0.021050518 0.667 -0.014033679 8.8635715e-39 338 252
0.022219993 0.667 -0.014033679 8.7713759e-39 339 252
0.023389466 0.667 -0.014033679 9.0457964e-39 340 252
0.02459576 0.66799998 -0.014054719 8.9536021e-39 341 252
0.025766984 0.66799998 -0.014054719 8.2189182e-39 342 252
0.027018867 0.67000002 -0.014096799 8.1263652e-39 343 252
0.036960267 0.68000001 -0.014307199 1.0332292e-38 351 252
0.038152531 0.68000001 -0.014307199 1.0420605e-38 352 252
0.039460517 0.68199998 -0.01434928 9.2224216e-39 353 252
0.040656291 0.68199998 -0.01434928 1.05989e-38 354 252
0.041913435 0.68300003 -0.014370319 1.5393074e-38 355 252
0.043110959 0.68300003 -0.014370319 1.7975256e-38 356 252
0.044308487 0.68300003 -0.014370319 1.954294e-38 357 252
-0.017962901 0.68300003 -0.015567848 1.319108e-38 305 253
-0.016765373 0.68300003 -0.015567848 1.3469094e-38 306 253
-0.015567848 0.68300003 -0.015567848 1.2547498e-38 307 253
-0.01434928 0.68199998 -0.015545053 1.2174356e-38 308 253
-0.013114933 0.68000001 -0.015499466 1.1989964e-38 309 253
-0.011852534 0.676 -0.015408293 1.1992464e-38 310 253
-0.0106515 0.67500001 -0.0153855 1.2361245e-38 311 253
-0.0094539737 0.67400002 -0.015362706 1.2545992e-38 312 253
-0.00824768 0.67199999 -0.01531712 1.3006611e-38 313 253
-0.0070694401 0.67199999 -0.01531712 1.355762e-38 314 253
-0.0058911997 0.67199999 -0.01531712 1.3649816e-38 315 253
-0.0047129598 0.67199999 -0.01531712 1.3465071e-38 316 253
-0.0035294599 0.671 -0.015294326 1.3004093e-38 317 253
-0.0023529732 0.671 -0.015294326 1.1901734e-38 318 253
-0.0011747333 0.67000002 -0.015271533 1.1716984e-38 319 253
0 0.66799998 -0.015225946 8.58957e-39 320 253
0.0011712266 0.66799998 -0.015225946 8.4048186e-39 321 253
0.0023424532 0.66799998 -0.015225946 8.3144405e-39 322 253
0.0035136798 0.66799998 -0.015225946 8.8676143e-39 323 253
0.0046849065 0.66799998 -0.015225946 9.2360058e-39 324 253
0.0058561331 0.66799998 -0.015225946 6.9314738e-39 325 253
0.0070273597 0.66799998 -0.015225946 6.8403263e-39 326 253
0.0081985854 0.66799998 -0.015225946 7.5782501e-39 327 253
0.0093557863 0.667 -0.015203152 7.3020108e-39 328 253
0.010525259 0.667 -0.015203152 6.4718914e-39 329 253
0.011694733 0.667 -0.015203152 6.8377984e-39 330 253
0.012864206 0.667 -0.015203152 7.1143811e-39 331 253
0.014033679 0.667 -0.015203152 6.7481307e-39 332 253
0.015203152 0.667 -0.015203152 6.7481307e-39 333 253
0.016348081 0.66600001 -0.01518036 7.4849671e-39 334 253
0.017515799 0.66600001 -0.01518036 7.7619127e-39 335 253
0.018711573 0.667 -0.015203152 8.4051115e-39 336 253
0.019881045 0.667 -0.015203152 8.5898629e-39 337 253
0.021050518 0.667 -0.015203152 9.0483327e-39 338 253
0.022219993 0.667 -0.015203152 9.1405284e-39 339 253
0.023389466 0.667 -0.015203152 9.047967e-39 340 253
0.02459576 0.66799998 -0.015225946 8.9557714e-39 341 253
0.025766984 0.66799998 -0.015225946 8.3136235e-39 342 253
0.027018867 0.67000002 -0.015271533 8.2214293e-39 343 253
0.028235679 0.671 -0.015294326 7.4874628e-39 344 253
0.029543666 0.67400002 -0.015362706 7.4874628e-39 345 253
0.030725412 0.67400002 -0.015362706 7.4874628e-39 346 253
0.031954501 0.67500001 -0.0153855 7.4874628e-39 347 253
0.033187091 0.676 -0.015408293 7.7619099e-39 348 253
0.034474038 0.67799997 -0.015453878 8.3150837e-39 349 253
0.035715401 0.67900002 -0.015476674 1.106664e-38 350 253
0.036905911 0.67900002 -0.015476674 1.1158835e-38 351 253
0.038152531 0.68000001 -0.015499466 1.0877996e-38 352 253
0.039344799 0.68000001 -0.015499466 9.8634849e-39 353 253
0.040715907 0.68300003 -0.015567848 1.1336468e-38 354 253
0.041913435 0.68300003 -0.015567848 1.5854054e-38 355 253
0.043110959 0.68300003 -0.015567848 1.8067454e-38 356 253
0.044308487 0.68300003 -0.015567848 1.9450388e-38 357 253
-0.0179892 0.68400002 -0.016789921 1.4019436e-38 305 254
-0.016765373 0.68300003 -0.016765373 1.4666257e-38 306 254
-0.015567848 0.68300003 -0.016765373 1.4113084e-38 307 254
-0.01434928 0.68199998 -0.016740825 1.3188564e-38 308 254
-0.013153506 0.68199998 -0.016740825 1.2174412e-38 309 254
-0.011905133 0.67900002 -0.016667187 1.1809888e-38 310 254
-0.01066728 0.676 -0.016593546 1.199428e-38 311 254
-0.0094539737 0.67400002 -0.016544454 1.2639608e-38 312 254
-0.00824768 0.67199999 -0.01649536 1.2916195e-38 313 254
-0.0070694401 0.67199999 -0.01649536 1.3559021e-38 314 254
-0.0058911997 0.67199999 -0.01649536 1.3559021e-38 315 254
-0.0047129598 0.67199999 -0.01649536 1.3557933e-38 316 254
-0.0035294599 0.671 -0.016470812 1.328135e-38 317 254
-0.0023529732 0.671 -0.016470812 1.2636722e-38 318 254
-0.0011712266 0.66799998 -0.016397171 1.2820753e-38 319 254
0 0.66799998 -0.016397171 9.3238434e-39 320 254
0.0011712266 0.66799998 -0.016397171 8.8628653e-39 321 254
0.0023424532 0.66799998 -0.016397171 9.1401962e-39 322 254
0.0035136798 0.66799998 -0.016397171 9.4167845e-39 323 254
0.0046849065 0.66799998 -0.016397171 1.0245801e-38 324 254
0.0058561331 0.66799998 -0.016397171 9.6929861e-39 325 254
0.0070273597 0.66799998 -0.016397171 9.2337806e-39 326 254
0.0081985854 0.66799998 -0.016397171 9.3259762e-39 327 254
0.0093698129 0.66799998 -0.016397171 9.2337806e-39 328 254
0.01054104 0.66799998 -0.016397171 9.0493893e-39 329 254
0.011712266 0.66799998 -0.016397171 9.1394297e-39 330 254
0.012864206 0.667 -0.016372627 8.863203e-39 331 254
0.014033679 0.667 -0.016372627 8.4962309e-39 332 254
0.015203152 0.667 -0.016372627 8.4962309e-39 333 254
0.016372627 0.667 -0.016372627 8.58913e-39 334 254
0.0175421 0.667 -0.016372627 8.866077e-39 335 254
0.018711573 0.667 -0.016372627 9.3252503e-39 336 254
0.019881045 0.667 -0.016372627 9.4174459e-39 337 254
0.021050518 0.667 -0.016372627 9.6004177e-39 338 254
0.022253305 0.66799998 -0.016397171 9.8766458e-39 339 254
0.023424532 0.66799998 -0.016397171 9.6911658e-39 340 254
0.024669399 0.67000002 -0.016446266 9.5989702e-39 341 254
0.025844134 0.67000002 -0.016446266 8.8646365e-39 342 254
0.027059194 0.671 -0.016470812 8.7724423e-39 343 254
0.028235679 0.671 -0.016470812 8.4976533e-39 344 254
0.029543666 0.67400002 -0.016544454 8.3136235e-39 345 254
0.030725412 0.67400002 -0.016544454 8.3132648e-39 346 254
0.031954501 0.67500001 -0.016569 8.3132648e-39 347 254
0.033187091 0.676 -0.016593546 8.0374206e-39 348 254
0.034474038 0.67799997 -0.016642639 8.5905944e-39 349 254
0.035715401 0.67900002 -0.016667187 1.1619462e-38 350 254
0.036905911 0.67900002 -0.016667187 1.1803854e-38 351 254
0.038152531 0.68000001 -0.016691733 1.0602497e-38 352 254
0.039460517 0.68199998 -0.016740825 9.8649324e-39 353 254
0.040715907 0.68300003 -0.016765373 1.1889286e-38 354 254
0.041913435 0.68300003 -0.016765373 1.5761502e-38 355 254
0.043110959 0.68300003 -0.016765373 1.7791943e-38 356 254
0.044503104 0.68599999 -0.016839013 1.9358909e-38 357 254
-0.019300694 0.68800002 -0.0180944 1.4386093e-38 304 255
-0.0179892 0.68400002 -0.0179892 1.5031462e-38 305 255
-0.016765373 0.68300003 -0.017962901 1.5677926e-38 306 255
-0.015567848 0.68300003 -0.017962901 1.5493535e-38 307 255
-0.014370319 0.68300003 -0.017962901 1.4848143e-38 308 255
-0.013153506 0.68199998 -0.017936599 1.3926187e-38 309 255
-0.011922667 0.68000001 -0.017883999 1.2640099e-38 310 255
-0.01066728 0.676 -0.017778801 1.3101077e-38 311 255
-0.0094679995 0.67500001 -0.0177525 1.3469499e-38 312 255
-0.0082722269 0.67400002 -0.0177262 1.3746446e-38 313 255
-0.0070904801 0.67400002 -0.0177262 1.4020493e-38 314 255
-0.0058911997 0.67199999 -0.017673599 1.3559515e-38 315 255
-0.0047129598 0.67199999 -0.017673599 1.3282502e-38 316 255
-0.00353472 0.67199999 -0.017673599 1.2913359e-38 317 255
-0.0023529732 0.671 -0.0176473 1.3005518e-38 318 255
-0.0011712266 0.66799998 -0.017568398 1.3097715e-38 319 255
0 0.66799998 -0.017568398 1.0702434e-38 320 255
0.0011712266 0.66799998 -0.017568398 1.0886465e-38 321 255
0.0023424532 0.66799998 -0.017568398 1.1533276e-38 322 255
0.0035136798 0.66799998 -0.017568398 1.1810223e-38 323 255
0.0046849065 0.66799998 -0.017568398 1.1810574e-38 324 255
0.0058561331 0.66799998 -0.017568398 1.1533985e-38 325 255
0.0070273597 0.66799998 -0.017568398 1.1443219e-38 326 255
0.0081985854 0.66799998 -0.017568398 1.1351023e-38 327 255
0.0093698129 0.66799998 -0.017568398 1.0982974e-38 328 255
0.01054104 0.66799998 -0.017568398 1.0890778e-38 329 255
0.011694733 0.667 -0.0175421 1.0705669e-38 330 255
0.012864206 0.667 -0.0175421 1.0336888e-38 331 255
0.014033679 0.667 -0.0175421 9.9699037e-39 332 255
0.015203152 0.667 -0.0175421 9.9699037e-39 333 255
0.016372627 0.667 -0.0175421 9.3274013e-39 334 255
0.0175421 0.667 -0.0175421 9.2352071e-39 335 255
0.018739626 0.66799998 -0.017568398 9.5092885e-39 336 255
0.019910853 0.66799998 -0.017568398 9.6018428e-39 337 255
0.021082079 0.66799998 -0.017568398 9.6926301e-39 338 255
0.022253305 0.66799998 -0.017568398 9.6926301e-39 339 255
0.023424532 0.66799998 -0.017568398 9.5082221e-39 340 255
0.024669399 0.67000002 -0.017620999 9.3238308e-39 341 255
0.025882706 0.671 -0.0176473 8.6820417e-39 342 255
0.027059194 0.671 -0.0176473 8.5898475e-39 343 255
0.02827776 0.67199999 -0.017673599 8.314341e-39 344 255
0.029543666 0.67400002 -0.0177262 8.314341e-39 345 255
0.030771 0.67500001 -0.0177525 8.3136235e-39 346 255
0.032001842 0.676 -0.017778801 8.2214293e-39 347 255
0.033187091 0.676 -0.017778801 7.8523133e-39 348 255
0.034474038 0.67799997 -0.0178314 8.6820739e-39 349 255
0.035715401 0.67900002 -0.017857701 1.2171926e-38 350 255
0.036905911 0.67900002 -0.017857701 1.2356678e-38 351 255
0.038264744 0.68199998 -0.017936599 1.1616647e-38 352 255
0.039460517 0.68199998 -0.017936599 1.0325908e-38 353 255
0.040715907 0.68300003 -0.017962901 1.1886766e-38 354 255
0.041974798 0.68400002 -0.0179892 1.5943733e-38 355 255
0.043300316 0.68599999 -0.018041799 1.7790863e-38 356 255
0.044503104 0.68599999 -0.018041799 1.935819e-38 357 255
-0.019272638 0.68699998 -0.019272638 1.5673973e-38 304 256
-0.018041799 0.68599999 -0.019244585 1.5858723e-38 305 256
-0.016789921 0.68400002 -0.01918848 1.521804e-38 306 256
-0.015567848 0.68300003 -0.019160427 1.4849257e-38 307 256
-0.014370319 0.68300003 -0.019160427 1.4297507e-38 308 256
-0.013153506 0.68199998 -0.019132372 1.3652138e-38 309 256
-0.011922667 0.68000001 -0.019076265 1.3007475e-38 310 256
-0.010714619 0.67900002 -0.019048214 1.374504e-38 311 256
-0.0094820261 0.676 -0.018964052 1.4021995e-38 312 256
-0.0082844999 0.67500001 -0.018935999 1.4114551e-38 313 256
-0.0070904801 0.67400002 -0.018907947 1.393015e-38 314 256
-0.0059087332 0.67400002 -0.018907947 1.3377335e-38 315 256
-0.0047129598 0.67199999 -0.018851839 1.2272369e-38 316 256
-0.00353472 0.67199999 -0.018851839 1.1903588e-38 317 256
-0.0023564799 0.67199999 -0.018851839 1.3192485e-38 318 256
-0.0011764866 0.671 -0.018823786 1.3376878e-38 319 256
0 0.671 -0.018823786 1.2545288e-38 320 256
0.0011747333 0.67000002 -0.018795732 1.1807365e-38 321 256
0.0023494666 0.67000002 -0.018795732 1.1902027e-38 322 256
0.0035241998 0.67000002 -0.018795732 1.1902027e-38 323 256
0.0046849065 0.66799998 -0.018739626 1.1627235e-38 324 256
0.0058561331 0.66799998 -0.018739626 1.1627235e-38 325 256
0.0070273597 0.66799998 -0.018739626 1.1627235e-38 326 256
0.0081985854 0.66799998 -0.018739626 1.1442488e-38 327 256
0.0093698129 0.66799998 -0.018739626 1.1166622e-38 328 256
0.01054104 0.66799998 -0.018739626 1.1074428e-38 329 256
0.011694733 0.667 -0.018711573 1.0521621e-38 330 256
0.012864206 0.667 -0.018711573 1.0336874e-38 331 256
0.014033679 0.667 -0.018711573 9.8780556e-39 332 256
0.015203152 0.667 -0.018711573 9.8780556e-39 333 256
0.016397171 0.66799998 -0.018739626 9.878773e-39 334 256
0.017568398 0.66799998 -0.018739626 9.7865788e-39 335 256
0.018739626 0.66799998 -0.018739626 9.876985e-39 336 256
0.019910853 0.66799998 -0.018739626 9.969182e-39 337 256
0.0211452 0.67000002 -0.018795732 9.6933336e-39 338 256
0.022319933 0.67000002 -0.018795732 9.6011366e-39 339 256
0.023494666 0.67000002 -0.018795732 9.3252503e-39 340 256
0.024706218 0.671 -0.018823786 9.049025e-39 341 256
0.025882706 0.671 -0.018823786 8.6824004e-39 342 256
0.027099518 0.67199999 -0.018851839 8.6824004e-39 343 256
0.02827776 0.67199999 -0.018851839 8.6813242e-39 344 256
0.029543666 0.67400002 -0.018907947 8.6813242e-39 345 256
0.030771 0.67500001 -0.018935999 8.58913e-39 346 256
0.032001842 0.676 -0.018964052 8.4047416e-39 347 256
0.033285279 0.67799997 -0.019020159 7.5760935e-39 348 256
0.034524884 0.67900002 -0.019048214 8.8668323e-39 349 256
0.035715401 0.67900002 -0.019048214 1.2633631e-38 350 256
0.037068974 0.68199998 -0.019132372 1.2541435e-38 351 256
0.038264744 0.68199998 -0.019132372 1.1434056e-38 352 256
0.039518382 0.68300003 -0.019160427 9.4979477e-39 353 256
0.040775519 0.68400002 -0.01918848 1.1425791e-38 354 256
0.041974798 0.68400002 -0.01918848 1.5943377e-38 355 256
0.043300316 0.68599999 -0.019244585 1.7974538e-38 356 256
0.044503104 0.68599999 -0.019244585 1.9633701e-38 357 256
-0.019272638 0.68699998 -0.020477179 1.5950933e-38 304 257
-0.018041799 0.68599999 -0.020447372 1.5582509e-38 305 257
-0.016789921 0.68400002 -0.020387759 1.3929099e-38 306 257
-0.01559064 0.68400002 -0.020387759 1.3099338e-38 307 257
-0.014370319 0.68300003 -0.020357953 1.2455748e-38 308 257
-0.013172794 0.68300003 -0.020357953 1.2271357e-38 309 257
-0.011957732 0.68199998 -0.020328145 1.227207e-38 310 257
-0.010714619 0.67900002 -0.020238725 1.291744e-38 311 257
-0.0094820261 0.676 -0.020149305 1.3286235e-38 312 257
-0.0082844999 0.67500001 -0.020119499 1.383905e-38 313 257
-0.0071010003 0.67500001 -0.020119499 1.3931248e-38 314 257
-0.0059087332 0.67400002 -0.020089693 1.3285879e-38 315 257
-0.0047269869 0.67400002 -0.020089693 1.1537386e-38 316 257
-0.00353472 0.67199999 -0.020030079 1.1813613e-38 317 257
-0.0023564799 0.67199999 -0.020030079 1.3839389e-38 318 257
-0.0011764866 0.671 -0.020000271 1.4023422e-38 319 257
0 0.671 -0.020000271 1.3560587e-38 320 257
0.0011747333 0.67000002 -0.019970467 1.2546795e-38 321 257
0.0023494666 0.67000002 -0.019970467 1.2453778e-38 322 257
0.0035241998 0.67000002 -0.019970467 1.2361582e-38 323 257
0.0046989331 0.67000002 -0.019970467 1.2179324e-38 324 257
0.0058736666 0.67000002 -0.019970467 1.1995294e-38 325 257
0.0070483997 0.67000002 -0.019970467 1.1811264e-38 326 257
0.0082231332 0.67000002 -0.019970467 1.1350652e-38 327 257
0.0093698129 0.66799998 -0.019910853 1.125774e-38 328 257
0.01054104 0.66799998 -0.019910853 1.0981516e-38 329 257
0.011712266 0.66799998 -0.019910853 1.0796411e-38 330 257
0.012883492 0.66799998 -0.019910853 1.0704216e-38 331 257
0.014054719 0.66799998 -0.019910853 1.0153921e-38 332 257
0.015225946 0.66799998 -0.019910853 1.0153921e-38 333 257
0.016397171 0.66799998 -0.019910853 9.6954608e-39 334 257
0.017568398 0.66799998 -0.019910853 9.6032665e-39 335 257
0.018795732 0.67000002 -0.019970467 9.6018316e-39 336 257
0.019970467 0.67000002 -0.019970467 9.7858613e-39 337 257
0.0211452 0.67000002 -0.019970467 9.4185249e-39 338 257
0.022353247 0.671 -0.020000271 9.1419381e-39 339 257
0.023529733 0.671 -0.020000271 8.8667889e-39 340 257
0.024706218 0.671 -0.020000271 8.7745947e-39 341 257
0.025882706 0.671 -0.020000271 8.6820417e-39 342 257
0.027099518 0.67199999 -0.020030079 8.6820417e-39 343 257
0.02836192 0.67400002 -0.020089693 8.956472e-39 344 257
0.029543666 0.67400002 -0.020089693 8.8642778e-39 345 257
0.030771 0.67500001 -0.020119499 8.6809655e-39 346 257
0.032001842 0.676 -0.020149305 8.4965771e-39 347 257
0.033285279 0.67799997 -0.020208918 7.4838965e-39 348 257
0.034524884 0.67900002 -0.020238725 9.0515823e-39 349 257
0.035767999 0.68000001 -0.020268533 1.2910224e-38 350 257
0.037068974 0.68199998 -0.020328145 1.2541082e-38 351 257
0.038320854 0.68300003 -0.020357953 1.1340786e-38 352 257
0.039518382 0.68300003 -0.020357953 9.6816229e-39 353 257
0.040894743 0.68599999 -0.020447372 1.1701289e-38 354 257
0.042097531 0.68599999 -0.020447372 1.6587297e-38 355 257
0.043300316 0.68599999 -0.020447372 1.8067451e-38 356 257
0.044503104 0.68599999 -0.020447372 1.954294e-38 357 257
-0.019272638 0.68699998 -0.021681719 1.4939658e-38 304 258
-0.018041799 0.68599999 -0.021650158 1.447868e-38 305 258
-0.016839013 0.68599999 -0.021650158 1.1073886e-38 306 258
-0.01559064 0.68400002 -0.02158704 9.8753426e-39 307 258
-0.01439136 0.68400002 -0.02158704 9.3242932e-39 308 258
-0.013172794 0.68300003 -0.02155548 9.4164889e-39 309 258
-0.011957732 0.68199998 -0.021523919 9.0509335e-39 310 258
-0.0107304 0.68000001 -0.0214608 9.1431292e-39 311 258
-0.0094820261 0.676 -0.021334561 9.2360661e-39 312 258
-0.0082967728 0.676 -0.021334561 9.8814355e-39 313 258
-0.0071010003 0.67500001 -0.021303 9.8814579e-39 314 258
-0.0059174998 0.67500001 -0.021303 9.8814579e-39 315 258
-0.0047339997 0.67500001 -0.021303 1.0157334e-38 316 258
-0.00354524 0.67400002 -0.021271439 1.0894901e-38 317 258
-0.0023564799 0.67199999 -0.021208318 1.3562106e-38 318 258
-0.0011782399 0.67199999 -0.021208318 1.3931248e-38 319 258
0 0.67199999 -0.021208318 1.4114171e-38 320 258
0.0011764866 0.671 -0.021176759 1.328477e-38 321 258
0.0023529732 0.671 -0.021176759 1.3466558e-38 322 258
0.0035294599 0.671 -0.021176759 1.2821189e-38 323 258
0.0047059464 0.671 -0.021176759 1.2178283e-38 324 258
0.0058736666 0.67000002 -0.0211452 1.1993533e-38 325 258
0.0070483997 0.67000002 -0.0211452 1.1351033e-38 326 258
0.0082231332 0.67000002 -0.0211452 1.079822e-38 327 258
0.0093978662 0.67000002 -0.0211452 1.1255603e-38 328 258
0.0105726 0.67000002 -0.0211452 1.1070853e-38 329 258
0.011712266 0.66799998 -0.021082079 1.0796415e-38 330 258
0.012883492 0.66799998 -0.021082079 1.0704219e-38 331 258
0.014096799 0.67000002 -0.0211452 9.9702498e-39 332 258
0.015271533 0.67000002 -0.0211452 9.9702498e-39 333 258
0.016446266 0.67000002 -0.0211452 9.6954608e-39 334 258
0.017620999 0.67000002 -0.0211452 9.6032665e-39 335 258
0.018795732 0.67000002 -0.0211452 9.6021903e-39 336 258
0.020000271 0.671 -0.021176759 9.5099961e-39 337 258
0.021176759 0.671 -0.021176759 9.1433716e-39 338 258
0.022353247 0.671 -0.021176759 8.8671476e-39 339 258
0.023529733 0.671 -0.021176759 8.7756709e-39 340 258
0.024743039 0.67199999 -0.021208318 8.5912824e-39 341 258
0.025921278 0.67199999 -0.021208318 8.7742359e-39 342 258
0.027180174 0.67400002 -0.021271439 8.7742359e-39 343 258
0.02836192 0.67400002 -0.021271439 9.2316296e-39 344 258
0.0295875 0.67500001 -0.021303 9.0472369e-39 345 258
0.030816587 0.676 -0.021334561 8.5887797e-39 346 258
0.03209652 0.67799997 -0.021397678 8.5887797e-39 347 258
0.033334374 0.67900002 -0.021429239 8.0352976e-39 348 258
0.034524884 0.67900002 -0.021429239 1.0063601e-38 349 258
0.035873197 0.68199998 -0.021523919 1.3371215e-38 350 258
0.037123326 0.68300003 -0.02155548 1.2264868e-38 351 258
0.038320854 0.68300003 -0.02155548 1.115604e-38 352 258
0.03957624 0.68400002 -0.02158704 1.0602866e-38 353 258
0.040894743 0.68599999 -0.021650158 1.3084226e-38 354 258
0.042097531 0.68599999 -0.021650158 1.6863889e-38 355 258
0.043300316 0.68599999 -0.021650158 1.7884858e-38 356 258
-0.021871079 0.69300002 -0.02308614 1.8714274e-38 302 259
-0.020596405 0.69099998 -0.023019511 1.6409024e-38 303 259
-0.019356798 0.69 -0.022986198 1.3834014e-38 304 259
-0.0180944 0.68800002 -0.022919573 1.3372675e-38 305 259
-0.01686356 0.68699998 -0.022886258 1.0886911e-38 306 259
-0.015636226 0.68599999 -0.022852944 8.3054329e-39 307 259
-0.01439136 0.68400002 -0.022786319 7.4849531e-39 308 259
-0.013172794 0.68300003 -0.022753006 7.9459312e-39 309 259
-0.011957732 0.68199998 -0.022719691 8.0392101e-39 310 259
-0.0107304 0.68000001 -0.022653066 7.9466543e-39 311 259
-0.009524107 0.67900002 -0.022619752 7.3034527e-39 312 259
-0.0083213197 0.67799997 -0.022586439 7.0268658e-39 313 259
-0.0071115191 0.676 -0.022519812 7.8534217e-39 314 259
-0.0059174998 0.67500001 -0.022486499 9.2363561e-39 315 259
-0.0047339997 0.67500001 -0.022486499 9.6966743e-39 316 259
-0.00354524 0.67400002 -0.022453187 1.0710828e-38 317 259
-0.0023634934 0.67400002 -0.022453187 1.1537405e-38 318 259
-0.0011817467 0.67400002 -0.022453187 1.2551196e-38 319 259
0 0.67199999 -0.022386558 1.4207478e-38 320 259
0.0011782399 0.67199999 -0.022386558 1.4207478e-38 321 259
0.0023564799 0.67199999 -0.022386558 1.3930841e-38 322 259
0.0035294599 0.671 -0.022353247 1.2916328e-38 323 259
0.0047059464 0.671 -0.022353247 1.2271255e-38 324 259
0.0058824331 0.671 -0.022353247 1.1625885e-38 325 259
0.0070589199 0.671 -0.022353247 1.1534037e-38 326 259
0.0082354061 0.671 -0.022353247 1.1073418e-38 327 259
0.0094118929 0.671 -0.022353247 1.1070898e-38 328 259
0.0105726 0.67000002 -0.022319933 1.0886506e-38 329 259
0.011747333 0.67000002 -0.022319933 1.0795343e-38 330 259
0.012922067 0.67000002 -0.022319933 1.0887897e-38 331 259
0.014096799 0.67000002 -0.022319933 1.0338668e-38 332 259
0.015294326 0.671 -0.022353247 1.0246474e-38 333 259
0.016470812 0.671 -0.022353247 9.7865788e-39 334 259
0.0176473 0.671 -0.022353247 9.7865788e-39 335 259
0.018823786 0.671 -0.022353247 9.3274013e-39 336 259
0.020000271 0.671 -0.022353247 9.2352071e-39 337 259
0.021176759 0.671 -0.022353247 9.1430129e-39 338 259
0.022386558 0.67199999 -0.022386558 9.0508186e-39 339 259
0.023564799 0.67199999 -0.022386558 8.7756709e-39 340 259
0.024743039 0.67199999 -0.022386558 8.7756709e-39 341 259
0.025998428 0.67400002 -0.022453187 9.5085612e-39 342 259
0.027220501 0.67500001 -0.022486499 9.5085612e-39 343 259
0.028404001 0.67500001 -0.022486499 9.323814e-39 344 259
0.029631332 0.676 -0.022519812 9.1394255e-39 345 259
0.030907756 0.67799997 -0.022586439 8.5887825e-39 346 259
0.032143861 0.67900002 -0.022619752 8.6809781e-39 347 259
0.033334374 0.67900002 -0.022619752 9.6912443e-39 348 259
0.034575731 0.68000001 -0.022653066 1.1627352e-38 349 259
0.035873197 0.68199998 -0.022719691 1.3922965e-38 350 259
0.037177678 0.68400002 -0.022786319 1.2540031e-38 351 259
0.038376961 0.68400002 -0.022786319 1.0513188e-38 352 259
0.039691959 0.68599999 -0.022852944 1.0789775e-38 353 259
0.040954359 0.68699998 -0.022886258 1.3089259e-38 354 259
0.042158898 0.68699998 -0.022886258 1.6039519e-38 355 259
0.043363437 0.68699998 -0.022886258 1.8067807e-38 356 259
-0.021871079 0.69300002 -0.024301201 1.8622794e-38 302 260
-0.020596405 0.69099998 -0.024231065 1.6502295e-38 303 260
-0.019384852 0.69099998 -0.024231065 1.2911704e-38 304 260
-0.0181733 0.69099998 -0.024231065 1.30039e-38 305 260
-0.016888106 0.68800002 -0.024125867 1.3285121e-38 306 260
-0.015659019 0.68699998 -0.024090799 1.1164263e-38 307 260
-0.01443344 0.68599999 -0.024055731 8.3111614e-39 308 260
-0.01319208 0.68400002 -0.0239856 8.5877497e-39 309 260
-0.011975267 0.68300003 -0.023950534 8.8679043e-39 310 260
-0.010761959 0.68199998 -0.023915464 8.8679043e-39 311 260
-0.009524107 0.67900002 -0.023810266 8.8675512e-39 312 260
-0.0083213197 0.67799997 -0.023775198 7.9459536e-39 313 260
-0.0071115191 0.676 -0.023705067 8.2261951e-39 314 260
-0.0059262668 0.676 -0.023705067 1.0807673e-38 315 260
-0.0047339997 0.67500001 -0.023669999 1.264086e-38 316 260
-0.0035505001 0.67500001 -0.023669999 1.2272076e-38 317 260
-0.0023669999 0.67500001 -0.023669999 6.1075481e-39 318 260
-0.0011817467 0.67400002 -0.023634933 5.1855904e-39 319 260
0 0.67400002 -0.023634933 7.9467902e-39 320 260
0.0011782399 0.67199999 -0.023564799 9.606313e-39 321 260
0.0023564799 0.67199999 -0.023564799 1.162995e-38 322 260
0.00353472 0.67199999 -0.023564799 1.2183124e-38 323 260
0.0047129598 0.67199999 -0.023564799 1.3652844e-38 324 260
0.0058824331 0.671 -0.023529733 1.374504e-38 325 260
0.0070589199 0.671 -0.023529733 1.4020547e-38 326 260
0.0082354061 0.671 -0.023529733 1.3928352e-38 327 260
0.0094118929 0.671 -0.023529733 1.3650308e-38 328 260
0.01058838 0.671 -0.023529733 1.2820546e-38 329 260
0.011764866 0.671 -0.023529733 1.1441123e-38 330 260
0.012941353 0.671 -0.023529733 1.0611361e-38 331 260
0.01411784 0.671 -0.023529733 9.9709672e-39 332 260
0.015294326 0.671 -0.023529733 9.878773e-39 333 260
0.016470812 0.671 -0.023529733 9.878773e-39 334 260
0.0176473 0.671 -0.023529733 9.6025491e-39 335 260
0.018823786 0.671 -0.023529733 9.3274013e-39 336 260
0.020030079 0.67199999 -0.023564799 9.1426541e-39 337 260
0.021208318 0.67199999 -0.023564799 8.8671476e-39 338 260
0.022386558 0.67199999 -0.023564799 8.8671476e-39 339 260
0.023564799 0.67199999 -0.023564799 9.3256076e-39 340 260
0.024816679 0.67400002 -0.023634933 9.4181606e-39 341 260
0.026037 0.67500001 -0.023669999 9.9691946e-39 342 260
0.027260827 0.676 -0.023705067 9.876999e-39 343 260
0.028446076 0.676 -0.023705067 9.4167453e-39 344 260
0.029631332 0.676 -0.023705067 9.0479642e-39 345 260
0.030907756 0.67799997 -0.023775198 8.2200196e-39 346 260
0.032143861 0.67900002 -0.023810266 8.7731934e-39 347 260
0.033383466 0.68000001 -0.023845334 1.1530863e-38 348 260
0.034677424 0.68199998 -0.023915464 1.2821602e-38 349 260
0.035925802 0.68300003 -0.023950534 1.4198124e-38 350 260
0.037177678 0.68400002 -0.0239856 1.2907385e-38 351 260
0.03848917 0.68599999 -0.024055731 1.1250754e-38 352 260
0.039691959 0.68599999 -0.024055731 1.1250754e-38 353 260
0.040954359 0.68699998 -0.024090799 1.2721921e-38 354 260
0.042158898 0.68699998 -0.024090799 1.5672541e-38 355 260
0.043363437 0.68699998 -0.024090799 1.8160006e-38 356 260
-0.021902639 0.69400001 -0.025553079 1.8899382e-38 302 261
-0.020656019 0.69300002 -0.02551626 1.6871079e-38 303 261
-0.01944096 0.69300002 -0.02551626 1.4015904e-38 304 261
-0.0181733 0.69099998 -0.025442619 1.3923708e-38 305 261
-0.0169372 0.69 -0.025405798 1.4755611e-38 306 261
-0.015681813 0.68800002 -0.02533216 1.3649622e-38 307 261
-0.014454478 0.68699998 -0.025295338 1.1439731e-38 308 261
-0.01319208 0.68400002 -0.025184879 1.0425939e-38 309 261
-0.011975267 0.68300003 -0.02514806 9.1426962e-39 310 261
-0.010761959 0.68199998 -0.025111238 8.9583035e-39 311 261
-0.0095381327 0.68000001 -0.025037598 8.8661317e-39 312 261
-0.0083335936 0.67900002 -0.025000781 9.6958924e-39 313 261
-0.0071325595 0.67799997 -0.024963958 1.089379e-38 314 261
-0.0059437994 0.67799997 -0.024963958 1.3014648e-38 315 261
-0.0047410131 0.676 -0.024890319 1.4206759e-38 316 261
-0.0035557596 0.676 -0.024890319 1.3469194e-38 317 261
-0.0023705065 0.676 -0.024890319 1.0152242e-38 318 261
-0.0011834999 0.67500001 -0.0248535 6.925395e-39 319 261
0 0.67400002 -0.024816679 5.5525162e-39 320 261
0.0011817467 0.67400002 -0.024816679 7.1202007e-39 321 261
0.0023564799 0.67199999 -0.024743039 9.0516944e-39 322 261
0.00353472 0.67199999 -0.024743039 1.0250238e-38 323 261
0.0047129598 0.67199999 -0.024743039 1.1721796e-38 324 261
0.0058911997 0.67199999 -0.024743039 1.2551196e-38 325 261
0.0070694401 0.67199999 -0.024743039 1.3470288e-38 326 261
0.0082354061 0.671 -0.024706218 1.3839071e-38 327 261
0.0094118929 0.671 -0.024706218 1.4479749e-38 328 261
0.01058838 0.671 -0.024706218 1.3742184e-38 329 261
0.011764866 0.671 -0.024706218 1.3373674e-38 330 261
0.012941353 0.671 -0.024706218 1.2175133e-38 331 261
0.01411784 0.671 -0.024706218 1.0980456e-38 332 261
0.01531712 0.67199999 -0.024743039 1.0427642e-38 333 261
0.016470812 0.671 -0.024706218 1.0153921e-38 334 261
0.0176473 0.671 -0.024706218 1.0061368e-38 335 261
0.018851839 0.67199999 -0.024743039 9.6025491e-39 336 261
0.020030079 0.67199999 -0.024743039 9.5103548e-39 337 261
0.021208318 0.67199999 -0.024743039 9.4181606e-39 338 261
0.022386558 0.67199999 -0.024743039 9.5103548e-39 339 261
0.023634933 0.67400002 -0.024816679 1.0060297e-38 340 261
0.024816679 0.67400002 -0.024816679 1.024469e-38 341 261
0.026037 0.67500001 -0.0248535 1.0702812e-38 342 261
0.027260827 0.676 -0.024890319 1.0426585e-38 343 261
0.028446076 0.676 -0.024890319 9.1416003e-39 344 261
0.029718997 0.67799997 -0.024963958 8.7728192e-39 345 261
0.030953348 0.67900002 -0.025000781 8.2196693e-39 346 261
0.032143861 0.67900002 -0.025000781 8.8650387e-39 347 261
0.033383466 0.68000001 -0.025037598 1.1900019e-38 348 261
0.034677424 0.68199998 -0.025111238 1.3006007e-38 349 261
0.035925802 0.68300003 -0.02514806 1.4014456e-38 350 261
0.037177678 0.68400002 -0.025184879 1.3092498e-38 351 261
0.03848917 0.68599999 -0.025258519 1.180249e-38 352 261
0.039691959 0.68599999 -0.025258519 1.1525901e-38 353 261
0.040954359 0.68699998 -0.025295338 1.2814837e-38 354 261
0.042220265 0.68800002 -0.02533216 1.567326e-38 355 261
0.043426562 0.68800002 -0.02533216 1.8068173e-38 356 261
-0.021902639 0.69400001 -0.026769891 1.9082695e-38 302 262
-0.020656019 0.69300002 -0.02673132 1.7239141e-38 303 262
-0.01944096 0.69300002 -0.02673132 1.4844591e-38 304 262
-0.018225901 0.69300002 -0.02673132 1.4291417e-38 305 262
-0.016961746 0.69099998 -0.026654173 1.4754194e-38 306 262
-0.015727401 0.69 -0.026615599 1.3924074e-38 307 262
-0.014475521 0.68800002 -0.026538454 1.3465581e-38 308 262
