# .PCD v.7 - Point Cloud Data file format
FIELDS x y z rgb imX imY
SIZE 4 4 4 4 4 4
TYPE F F F F F F
COUNT 1 1 1 1 1 1
WIDTH 840
HEIGHT 1
VIEWPOINT 0 0 0 1 0 0 0
POINTS 840
DATA ascii
0.0012203199 0.69599998 0.0048812795 1.1430441e-38 321 236
0.0024406398 0.69599998 0.0048812795 1.1429715e-38 322 236
0.0036609597 0.69599998 0.0048812795 1.1429715e-38 323 236
0.0048812795 0.69599998 0.0048812795 1.1612664e-38 324 236
0.0061103669 0.69700003 0.0048882933 1.1520468e-38 325 236
0.0073429602 0.69800001 0.0048953067 1.0601386e-38 326 236
0.0085667865 0.69800001 0.0048953067 1.0509191e-38 327 236
0.0097906133 0.69800001 0.0048953067 1.0968016e-38 328 236
0.011045999 0.69999999 0.0049093333 1.0783626e-38 329 236
0.012273333 0.69999999 0.0049093333 1.0691434e-38 330 236
0.013500666 0.69999999 0.0049093333 1.0783629e-38 331 236
0.014749039 0.70099998 0.0049163462 1.0321225e-38 332 236
0.015978126 0.70099998 0.0049163462 8.3851164e-39 333 236
0.017256306 0.70300001 0.0049303733 6.0809669e-39 334 236
0.018515198 0.704 0.0049373866 6.910729e-39 335 236
0.019749546 0.704 0.0049373866 6.3600916e-39 336 236
0.021043506 0.70599997 0.0049514128 5.8991134e-39 337 236
0.022312919 0.70700002 0.0049584266 5.7136502e-39 338 236
0.023585839 0.708 0.0049654399 5.252672e-39 339 236
0.024897331 0.70999998 0.0049794666 4.9771543e-39 340 236
0.026179021 0.71100003 0.0049864799 3.9633611e-39 341 236
0.02754136 0.71399999 0.0050075199 7.0936755e-39 342 236
0.028793238 0.71399999 0.0050075199 1.2071879e-38 343 236
-0.035003547 0.713 0.0037503797 1.161593e-38 292 237
-0.033658739 0.71100003 0.0037398601 8.7575058e-39 293 237
-0.032412119 0.71100003 0.0037398601 6.0831165e-39 294 237
-0.031121666 0.70999998 0.0037345996 5.2533558e-39 295 237
-0.029876797 0.70999998 0.0037345996 5.1604526e-39 296 237
-0.028631933 0.70999998 0.0037345996 5.805822e-39 297 237
-0.027387066 0.70999998 0.0037345996 4.5183314e-39 298 237
-0.026068559 0.708 0.00372408 4.610527e-39 299 237
-0.024792133 0.70700002 0.0037188199 4.7034415e-39 300 237
-0.023419274 0.70300001 0.0036977797 4.7956371e-39 301 237
-0.02218668 0.70300001 0.0036977797 5.528889e-39 302 237
-0.020954086 0.70300001 0.0036977797 5.3444977e-39 303 237
-0.019665385 0.70099998 0.0036872597 4.0624035e-39 304 237
-0.018409999 0.69999999 0.0036819996 3.7861767e-39 305 237
-0.017182667 0.69999999 0.0036819996 4.7981707e-39 306 237
-0.015909746 0.69800001 0.0036714801 6.0889095e-39 307 237
-0.01468592 0.69800001 0.0036714801 5.4435247e-39 308 237
-0.013462093 0.69800001 0.0036714801 5.351329e-39 309 237
-0.012238266 0.69800001 0.0036714801 7.1912773e-39 310 237
-0.01101444 0.69800001 0.0036714801 8.0210394e-39 311 237
-0.0097906133 0.69800001 0.0036714801 6.918282e-39 312 237
-0.0085545136 0.69700003 0.00366622 6.7342509e-39 313 237
-0.00733244 0.69700003 0.00366622 8.4798428e-39 314 237
-0.006119133 0.69800001 0.0036714801 8.4798428e-39 315 237
-0.0048953067 0.69800001 0.0036714801 7.467846e-39 316 237
-0.0036714801 0.69800001 0.0036714801 7.9288242e-39 317 237
-0.0024441467 0.69700003 0.00366622 9.0394877e-39 318 237
-0.0012220733 0.69700003 0.00366622 1.0145835e-38 319 237
0 0.69700003 0.00366622 1.1153503e-38 320 237
0.0012220733 0.69700003 0.00366622 1.1522286e-38 321 237
0.0024441467 0.69700003 0.00366622 1.1246772e-38 322 237
0.00366622 0.69700003 0.00366622 1.1154575e-38 323 237
0.0048882933 0.69700003 0.00366622 1.1337525e-38 324 237
0.0061103669 0.69700003 0.00366622 1.124497e-38 325 237
0.0073429602 0.69800001 0.0036714801 1.0968741e-38 326 237
0.0085667865 0.69800001 0.0036714801 1.0784348e-38 327 237
0.0098186666 0.69999999 0.0036819996 1.0967663e-38 328 237
0.011045999 0.69999999 0.0036819996 1.0967663e-38 329 237
0.012273333 0.69999999 0.0036819996 1.0783629e-38 330 237
0.013500666 0.69999999 0.0036819996 1.0783629e-38 331 237
0.014749039 0.70099998 0.0036872597 9.8616856e-39 332 237
0.016023712 0.70300001 0.0036977797 8.29472e-39 333 237
0.017256306 0.70300001 0.0036977797 5.9884126e-39 334 237
0.018515198 0.704 0.0037030398 6.910729e-39 335 237
0.019749546 0.704 0.0037030398 6.2678959e-39 336 237
0.021043506 0.70599997 0.0037135598 5.7147221e-39 337 237
0.022344479 0.708 0.00372408 5.4370619e-39 338 237
0.023652466 0.70999998 0.0037345996 5.252672e-39 339 237
0.024932399 0.71100003 0.0037398601 5.4384884e-39 340 237
0.026179021 0.71100003 0.0037398601 5.0697059e-39 341 237
0.02754136 0.71399999 0.0037556398 8.5691615e-39 342 237
0.028793238 0.71399999 0.0037556398 1.2348824e-38 343 237
0.03012928 0.71600002 0.00376616 1.4012291e-38 344 237
-0.035003547 0.713 0.0025002533 1.2814837e-38 292 238
-0.033753417 0.713 0.0025002533 1.1063478e-38 293 238
-0.032412119 0.71100003 0.0024932399 7.8326601e-39 294 238
-0.031121666 0.70999998 0.0024897333 5.2511824e-39 295 238
-0.029876797 0.70999998 0.0024897333 5.7132424e-39 296 238
-0.028631933 0.70999998 0.0024897333 6.3586118e-39 297 238
-0.027387066 0.70999998 0.0024897333 5.4388415e-39 298 238
-0.026068559 0.708 0.00248272 5.2544503e-39 299 238
-0.024827199 0.708 0.00248272 5.2548132e-39 300 238
-0.023519212 0.70599997 0.0024757064 6.1771296e-39 301 238
-0.022218239 0.704 0.0024686933 7.0926189e-39 302 238
-0.020954086 0.70300001 0.0024651866 5.5252918e-39 303 238
-0.019665385 0.70099998 0.0024581731 2.7684445e-39 304 238
-0.018436298 0.70099998 0.0024581731 2.8609988e-39 305 238
-0.017182667 0.69999999 0.0024546667 5.5350196e-39 306 238
-0.015955333 0.69999999 0.0024546667 6.4569745e-39 307 238
-0.014727999 0.69999999 0.0024546667 5.0722198e-39 308 238
-0.013500666 0.69999999 0.0024546667 3.5974499e-39 309 238
-0.012238266 0.69800001 0.0024476533 3.229403e-39 310 238
-0.01101444 0.69800001 0.0024476533 4.3357506e-39 311 238
-0.0097906133 0.69800001 0.0024476533 4.1502831e-39 312 238
-0.0085667865 0.69800001 0.0024476533 3.5049137e-39 313 238
-0.0073429602 0.69800001 0.0024476533 4.331415e-39 314 238
-0.006119133 0.69800001 0.0024476533 5.2537314e-39 315 238
-0.0048953067 0.69800001 0.0024476533 4.147374e-39 316 238
-0.0036714801 0.69800001 0.0024476533 3.5020046e-39 317 238
-0.0024441467 0.69700003 0.0024441467 7.0126286e-39 318 238
-0.0012220733 0.69700003 0.0024441467 9.9628888e-39 319 238
0 0.69800001 0.0024476533 1.1062029e-38 320 238
0.0012238267 0.69800001 0.0024476533 1.1154226e-38 321 238
0.0024476533 0.69800001 0.0024476533 1.1246056e-38 322 238
0.0036714801 0.69800001 0.0024476533 1.1246056e-38 323 238
0.0048953067 0.69800001 0.0024476533 1.1244973e-38 324 238
0.006119133 0.69800001 0.0024476533 1.1060942e-38 325 238
0.0073429602 0.69800001 0.0024476533 1.1152056e-38 326 238
0.0085913334 0.69999999 0.0024546667 1.0967663e-38 327 238
0.0098186666 0.69999999 0.0024546667 1.0967663e-38 328 238
0.011061779 0.70099998 0.0024581731 1.0783632e-38 329 238
0.012290866 0.70099998 0.0024581731 1.0874746e-38 330 238
0.013519952 0.70099998 0.0024581731 1.078255e-38 331 238
0.014791119 0.70300001 0.0024651866 9.8616828e-39 332 238
0.016023712 0.70300001 0.0024651866 8.2025216e-39 333 238
0.017280852 0.704 0.0024686933 5.9887685e-39 334 238
0.018515198 0.704 0.0024686933 6.8185306e-39 335 238
0.019805651 0.70599997 0.0024757064 5.8991134e-39 336 238
0.021073313 0.70700002 0.0024792133 5.6225265e-39 337 238
0.022344479 0.708 0.00248272 5.0682779e-39 338 238
0.023652466 0.70999998 0.0024897333 5.6214517e-39 339 238
0.024932399 0.71100003 0.0024932399 6.9114479e-39 340 238
0.026252659 0.713 0.0025002533 7.9256012e-39 341 238
0.02754136 0.71399999 0.0025037599 9.953884e-39 342 238
0.028793238 0.71399999 0.0025037599 1.2166581e-38 343 238
0.03012928 0.71600002 0.0025107733 1.3644587e-38 344 238
0.031384666 0.71600002 0.0025107733 1.4289957e-38 345 238
-0.035052639 0.71399999 0.00125188 1.3276176e-38 292 239
-0.033800758 0.71399999 0.00125188 1.216947e-38 293 239
-0.032548878 0.71399999 0.00125188 1.07822e-38 294 239
-0.031165501 0.71100003 0.00124662 7.8319412e-39 295 239
-0.029918881 0.71100003 0.00124662 6.6316015e-39 296 239
-0.028631933 0.70999998 0.0012448666 7.0003841e-39 297 239
-0.027387066 0.70999998 0.0012448666 5.2544503e-39 298 239
-0.026142199 0.70999998 0.0012448666 5.0697003e-39 299 239
-0.024827199 0.708 0.00124136 6.2678763e-39 300 239
-0.023519212 0.70599997 0.0012378532 9.4947234e-39 301 239
-0.022218239 0.704 0.0012343467 9.117676e-39 302 239
-0.020983893 0.704 0.0012343467 6.1677746e-39 303 239
-0.019721493 0.70300001 0.0012325933 2.5854853e-39 304 239
-0.018436298 0.70099998 0.0012290865 2.7695165e-39 305 239
-0.017182667 0.69999999 0.0012273333 7.2863695e-39 306 239
-0.015955333 0.69999999 0.0012273333 7.9317389e-39 307 239
-0.014727999 0.69999999 0.0012273333 7.2856352e-39 308 239
-0.013500666 0.69999999 0.0012273333 4.9811046e-39 309 239
-0.012238266 0.69800001 0.0012238267 2.3092446e-39 310 239
-0.01101444 0.69800001 0.0012238267 2.954614e-39 311 239
-0.0097906133 0.69800001 0.0012238267 4.2381684e-39 312 239
-0.0085667865 0.69800001 0.0012238267 3.4080489e-39 313 239
-0.0073429602 0.69800001 0.0012238267 3.2297561e-39 314 239
-0.006119133 0.69800001 0.0012238267 5.1658644e-39 315 239
-0.0048953067 0.69800001 0.0012238267 5.3423299e-39 316 239
-0.0036714801 0.69800001 0.0012238267 3.129276e-39 317 239
-0.0024476533 0.69800001 0.0012238267 6.917919e-39 318 239
-0.0012238267 0.69800001 0.0012238267 1.0513188e-38 319 239
0 0.69800001 0.0012238267 1.1244623e-38 320 239
0.0012238267 0.69800001 0.0012238267 1.1521211e-38 321 239
0.0024476533 0.69800001 0.0012238267 1.1246056e-38 322 239
0.0036714801 0.69800001 0.0012238267 1.1153859e-38 323 239
0.0048953067 0.69800001 0.0012238267 1.1244976e-38 324 239
0.0061366665 0.69999999 0.0012273333 1.1244976e-38 325 239
0.0073639993 0.69999999 0.0012273333 1.1059863e-38 326 239
0.0085913334 0.69999999 0.0012273333 1.1059863e-38 327 239
0.0098186666 0.69999999 0.0012273333 1.0966947e-38 328 239
0.011061779 0.70099998 0.0012290865 1.0966947e-38 329 239
0.012290866 0.70099998 0.0012290865 1.0874749e-38 330 239
0.013558527 0.70300001 0.0012325933 1.0966944e-38 331 239
0.014812159 0.704 0.0012343467 1.0046077e-38 332 239
0.016046507 0.704 0.0012343467 8.2025244e-39 333 239
0.017280852 0.704 0.0012343467 5.4355975e-39 334 239
0.018515198 0.704 0.0012343467 5.9884126e-39 335 239
0.019833706 0.70700002 0.0012396066 5.6207343e-39 336 239
0.021103119 0.708 0.00124136 5.1593974e-39 337 239
0.022407599 0.70999998 0.0012448666 4.8860405e-39 338 239
0.023685781 0.71100003 0.00124662 7.1905711e-39 339 239
0.025002534 0.713 0.0012501266 9.2170477e-39 340 239
0.026289478 0.71399999 0.00125188 9.8624171e-39 341 239
0.02754136 0.71399999 0.00125188 1.0965875e-38 342 239
0.028873893 0.71600002 0.0012553866 1.2532842e-38 343 239
0.03012928 0.71600002 0.0012553866 1.3091411e-38 344 239
0.031384666 0.71600002 0.0012553866 1.3920811e-38 345 239
0.032640055 0.71600002 0.0012553866 1.410341e-38 346 239
-0.035150826 0.71600002 -0 1.1802843e-38 292 240
-0.033800758 0.71399999 -0 1.1525896e-38 293 240
-0.032548878 0.71399999 -0 1.1614482e-38 294 240
-0.031253166 0.713 -0 1.0784362e-38 295 240
-0.030003037 0.713 -0 1.0503096e-38 296 240
-0.028752912 0.713 -0 9.488943e-39 297 240
-0.027425639 0.71100003 -0 6.7274111e-39 298 240
-0.026142199 0.70999998 -0 5.7132578e-39 299 240
-0.024827199 0.708 -0 5.7207954e-39 300 240
-0.023552528 0.70700002 -0 8.8554468e-39 301 240
-0.022218239 0.704 -0 9.3045756e-39 302 240
-0.020983893 0.704 -0 6.0777285e-39 303 240
-0.019721493 0.70300001 -0 3.7818733e-39 304 240
-0.018436298 0.70099998 -0 3.6896777e-39 305 240
-0.017207211 0.70099998 -0 6.2725847e-39 306 240
-0.015955333 0.69999999 -0 6.5491716e-39 307 240
-0.014727999 0.69999999 -0 6.6377504e-39 308 240
-0.013500666 0.69999999 -0 5.4392087e-39 309 240
-0.012273333 0.69999999 -0 2.7687822e-39 310 240
-0.011045999 0.69999999 -0 2.7687822e-39 311 240
-0.0097906133 0.69800001 -0 3.0443111e-39 312 240
-0.0085667865 0.69800001 -0 2.7677256e-39 313 240
-0.0073429602 0.69800001 -0 3.5999862e-39 314 240
-0.0061366665 0.69999999 -0 6.3658565e-39 315 240
-0.0049093333 0.69999999 -0 6.8178271e-39 316 240
-0.0036819996 0.69999999 -0 2.761218e-39 317 240
-0.0024476533 0.69800001 -0 7.0072406e-39 318 240
-0.0012238267 0.69800001 -0 1.0879457e-38 319 240
0 0.69800001 -0 1.0970558e-38 320 240
0.0012238267 0.69800001 -0 1.0878361e-38 321 240
0.0024476533 0.69800001 -0 1.12457e-38 322 240
0.0036819996 0.69999999 -0 1.12457e-38 323 240
0.0049093333 0.69999999 -0 1.1337169e-38 324 240
0.0061366665 0.69999999 -0 1.1060942e-38 325 240
0.0073639993 0.69999999 -0 1.1335371e-38 326 240
0.0085913334 0.69999999 -0 1.1059144e-38 327 240
0.0098326923 0.70099998 -0 1.1059144e-38 328 240
0.01109334 0.70300001 -0 1.0966947e-38 329 240
0.012325933 0.70300001 -0 1.0783629e-38 330 240
0.013577812 0.704 -0 1.0783629e-38 331 240
0.014812159 0.704 -0 9.9535155e-39 332 240
0.016046507 0.704 -0 8.3861898e-39 333 240
0.017280852 0.704 -0 5.5288637e-39 334 240
0.018567799 0.70599997 -0 5.990202e-39 335 240
0.019833706 0.70700002 -0 5.3462928e-39 336 240
0.021103119 0.708 -0 6.0838578e-39 337 240
0.022407599 0.70999998 -0 7.5564669e-39 338 240
0.023685781 0.71100003 -0 8.9394014e-39 339 240
0.025002534 0.713 -0 1.0322318e-38 340 240
0.026289478 0.71399999 -0 9.4925569e-39 341 240
0.02754136 0.71399999 -0 9.9549644e-39 342 240
0.028873893 0.71600002 -0 1.170668e-38 343 240
0.03012928 0.71600002 -0 1.3460192e-38 344 240
0.031384666 0.71600002 -0 1.4013366e-38 345 240
0.032640055 0.71600002 -0 1.3737502e-38 346 240
-0.038240198 0.727 -0.0012746733 1.4014456e-38 290 241
-0.03671129 0.722 -0.0012659066 1.3830063e-38 291 241
-0.035199918 0.71700001 -0.00125714 9.869254e-39 292 241
-0.03389544 0.71600002 -0.0012553866 8.946939e-39 293 241
-0.032640055 0.71600002 -0.0012553866 1.1338267e-38 294 241
-0.031296998 0.71399999 -0.00125188 1.2352059e-38 295 241
-0.030045118 0.71399999 -0.00125188 1.3085661e-38 296 241
-0.028752912 0.713 -0.0012501266 1.1979315e-38 297 241
-0.027425639 0.71100003 -0.00124662 9.4914583e-39 298 241
-0.026142199 0.70999998 -0.0012448666 5.7114375e-39 299 241
-0.024827199 0.708 -0.00124136 4.2456485e-39 300 241
-0.023552528 0.70700002 -0.0012396066 8.3944532e-39 301 241
-0.022281358 0.70599997 -0.0012378532 8.4773316e-39 302 241
-0.021043506 0.70599997 -0.0012378532 5.8032996e-39 303 241
-0.019721493 0.70300001 -0.0012325933 4.8889272e-39 304 241
-0.018488899 0.70300001 -0.0012325933 5.2577097e-39 305 241
-0.017207211 0.70099998 -0.0012290865 5.1683825e-39 306 241
-0.015955333 0.69999999 -0.0012273333 4.3386218e-39 307 241
-0.014727999 0.69999999 -0.0012273333 5.1600994e-39 308 241
-0.013500666 0.69999999 -0.0012273333 5.8054688e-39 309 241
-0.012273333 0.69999999 -0.0012273333 4.4265015e-39 310 241
-0.011045999 0.69999999 -0.0012273333 3.8733277e-39 311 241
-0.0098186666 0.69999999 -0.0012273333 3.4127209e-39 312 241
-0.0085913334 0.69999999 -0.0012273333 3.1364941e-39 313 241
-0.0073639993 0.69999999 -0.0012273333 3.9662422e-39 314 241
-0.0061366665 0.69999999 -0.0012273333 6.6399154e-39 315 241
-0.0049093333 0.69999999 -0.0012273333 6.6334344e-39 316 241
-0.0036819996 0.69999999 -0.0012273333 2.761218e-39 317 241
-0.0024546667 0.69999999 -0.0012273333 7.1912745e-39 318 241
-0.0012273333 0.69999999 -0.0012273333 1.087946e-38 319 241
0 0.69999999 -0.0012273333 1.1060955e-38 320 241
0.0012273333 0.69999999 -0.0012273333 1.1245706e-38 321 241
0.0024546667 0.69999999 -0.0012273333 1.1246056e-38 322 241
0.0036819996 0.69999999 -0.0012273333 1.1246056e-38 323 241
0.0049093333 0.69999999 -0.0012273333 1.1337169e-38 324 241
0.0061366665 0.69999999 -0.0012273333 1.1244973e-38 325 241
0.0073639993 0.69999999 -0.0012273333 1.0968746e-38 326 241
0.0086036054 0.70099998 -0.0012290865 1.0876192e-38 327 241
0.0098326923 0.70099998 -0.0012290865 1.0783276e-38 328 241
0.01109334 0.70300001 -0.0012325933 1.0783276e-38 329 241
0.012325933 0.70300001 -0.0012325933 1.0874393e-38 330 241
0.013577812 0.704 -0.0012343467 1.0966947e-38 331 241
0.014812159 0.704 -0.0012343467 9.9535155e-39 332 241
0.016046507 0.704 -0.0012343467 8.4783854e-39 333 241
0.017280852 0.704 -0.0012343467 6.2678609e-39 334 241
0.018567799 0.70599997 -0.0012378532 7.2816541e-39 335 241
0.019833706 0.70700002 -0.0012396066 8.2965347e-39 336 241
0.021103119 0.708 -0.00124136 9.5872721e-39 337 241
0.022407599 0.70999998 -0.0012448666 1.0690733e-38 338 241
0.023752406 0.713 -0.0012501266 9.8606136e-39 339 241
0.025002534 0.713 -0.0012501266 9.2155973e-39 340 241
0.026289478 0.71399999 -0.00125188 8.2018041e-39 341 241
0.02754136 0.71399999 -0.00125188 7.8376977e-39 342 241
0.028873893 0.71600002 -0.0012553866 1.0788318e-38 343 241
0.03012928 0.71600002 -0.0012553866 1.3737502e-38 344 241
0.031384666 0.71600002 -0.0012553866 1.4382871e-38 345 241
0.032640055 0.71600002 -0.0012553866 1.4107726e-38 346 241
-0.039569225 0.72799999 -0.0025528532 1.4382871e-38 289 242
-0.038029801 0.72299999 -0.0025353199 1.4383234e-38 290 242
-0.036609601 0.72000003 -0.0025248001 1.4014812e-38 291 242
-0.035347197 0.72000003 -0.0025248001 1.0789057e-38 292 242
-0.03403746 0.71899998 -0.0025212932 8.668557e-39 293 242
-0.032685637 0.71700001 -0.0025142799 1.0695782e-38 294 242
-0.031384666 0.71600002 -0.0025107733 1.1433347e-38 295 242
-0.030045118 0.71399999 -0.0025037599 1.2536092e-38 296 242
-0.028752912 0.713 -0.0025002533 1.1613775e-38 297 242
-0.027425639 0.71100003 -0.0024932399 9.1287869e-39 298 242
-0.026142199 0.70999998 -0.0024897333 7.4696257e-39 299 242
-0.024827199 0.708 -0.00248272 7.5553347e-39 300 242
-0.023552528 0.70700002 -0.0024792133 9.3070503e-39 301 242
-0.022281358 0.70599997 -0.0024757064 7.1919808e-39 302 242
-0.021043506 0.70599997 -0.0024757064 5.901242e-39 303 242
-0.019805651 0.70599997 -0.0024757064 7.7433791e-39 304 242
-0.018488899 0.70300001 -0.0024651866 7.9277704e-39 305 242
-0.017256306 0.70300001 -0.0024651866 6.2668043e-39 306 242
-0.015955333 0.69999999 -0.0024546667 5.2526524e-39 307 242
-0.014727999 0.69999999 -0.0024546667 5.1600966e-39 308 242
-0.013500666 0.69999999 -0.0024546667 5.344848e-39 309 242
-0.012273333 0.69999999 -0.0024546667 3.9655261e-39 310 242
-0.011045999 0.69999999 -0.0024546667 3.504548e-39 311 242
-0.0098186666 0.69999999 -0.0024546667 2.7684347e-39 312 242
-0.0085913334 0.69999999 -0.0024546667 2.6758789e-39 313 242
-0.0073639993 0.69999999 -0.0024546667 3.507422e-39 314 242
-0.0061366665 0.69999999 -0.0024546667 6.0888997e-39 315 242
-0.0049093333 0.69999999 -0.0024546667 5.8991008e-39 316 242
-0.0036819996 0.69999999 -0.0024546667 2.3031111e-39 317 242
-0.0024546667 0.69999999 -0.0024546667 6.7302978e-39 318 242
-0.0012273333 0.69999999 -0.0024546667 1.023409e-38 319 242
0 0.69999999 -0.0024546667 1.078581e-38 320 242
0.0012273333 0.69999999 -0.0024546667 1.078581e-38 321 242
0.0024546667 0.69999999 -0.0024546667 1.1429013e-38 322 242
0.0036819996 0.69999999 -0.0024546667 1.1429013e-38 323 242
0.0049093333 0.69999999 -0.0024546667 1.1337169e-38 324 242
0.0061366665 0.69999999 -0.0024546667 1.1244973e-38 325 242
0.0073639993 0.69999999 -0.0024546667 1.1060942e-38 326 242
0.0086036054 0.70099998 -0.0024581731 1.0876192e-38 327 242
0.0098607466 0.70300001 -0.0024651866 1.0967309e-38 328 242
0.01109334 0.70300001 -0.0024651866 1.0783276e-38 329 242
0.012343466 0.704 -0.0024686933 1.0691434e-38 330 242
0.013577812 0.704 -0.0024686933 1.0599238e-38 331 242
0.014812159 0.704 -0.0024686933 1.0506321e-38 332 242
0.016046507 0.704 -0.0024686933 9.8609513e-39 333 242
0.017280852 0.704 -0.0024686933 9.583654e-39 334 242
0.018567799 0.70599997 -0.0024757064 9.6762083e-39 335 242
0.019833706 0.70700002 -0.0024792133 1.004643e-38 336 242
0.021162732 0.70999998 -0.0024897333 1.0323377e-38 337 242
0.022439159 0.71100003 -0.0024932399 1.0138983e-38 338 242
0.023752406 0.713 -0.0025002533 8.8482441e-39 339 242
0.025037598 0.71399999 -0.0025037599 8.5695118e-39 340 242
0.026289478 0.71399999 -0.0025037599 7.0940216e-39 341 242
0.02754136 0.71399999 -0.0025037599 7.4664041e-39 342 242
0.028793238 0.71399999 -0.0025037599 1.1338621e-38 343 242
0.030045118 0.71399999 -0.0025037599 1.3921896e-38 344 242
0.031296998 0.71399999 -0.0025037599 1.4567265e-38 345 242
-0.039243106 0.722 -0.0037977197 1.4660181e-38 289 243
-0.0379772 0.722 -0.0037977197 1.4844575e-38 290 243
-0.036609601 0.72000003 -0.0037872 1.475238e-38 291 243
-0.035347197 0.72000003 -0.0037872 1.2170552e-38 292 243
-0.03403746 0.71899998 -0.0037819401 1.051067e-38 293 243
-0.032685637 0.71700001 -0.0037714199 9.5923112e-39 294 243
-0.031384666 0.71600002 -0.00376616 9.9610937e-39 295 243
-0.03012928 0.71600002 -0.00376616 1.0787612e-38 296 243
-0.028793238 0.71399999 -0.0037556398 1.0142242e-38 297 243
-0.027425639 0.71100003 -0.0037398601 7.6587015e-39 298 243
-0.026142199 0.70999998 -0.0037345996 8.4884635e-39 299 243
-0.024897331 0.70999998 -0.0037345996 1.1060586e-38 300 243
-0.023585839 0.708 -0.00372408 8.9400866e-39 301 243
-0.022312919 0.70700002 -0.0037188199 6.3636621e-39 302 243
-0.021043506 0.70599997 -0.0037135598 6.8250003e-39 303 243
-0.019805651 0.70599997 -0.0037135598 1.0232288e-38 304 243
-0.018488899 0.70300001 -0.0036977797 1.0601071e-38 305 243
-0.017256306 0.70300001 -0.0036977797 8.6635193e-39 306 243
-0.015955333 0.69999999 -0.0036819996 7.1883879e-39 307 243
-0.014727999 0.69999999 -0.0036819996 5.622874e-39 308 243
-0.013500666 0.69999999 -0.0036819996 5.1622546e-39 309 243
-0.012273333 0.69999999 -0.0036819996 3.690384e-39 310 243
-0.011045999 0.69999999 -0.0036819996 3.2294058e-39 311 243
-0.0098186666 0.69999999 -0.0036819996 2.5847553e-39 312 243
-0.0085913334 0.69999999 -0.0036819996 2.5847553e-39 313 243
-0.0073639993 0.69999999 -0.0036819996 4.3339359e-39 314 243
-0.0061454331 0.70099998 -0.0036872597 6.6391868e-39 315 243
-0.0049093333 0.69999999 -0.0036819996 6.1756779e-39 316 243
-0.0036819996 0.69999999 -0.0036819996 2.9488308e-39 317 243
-0.0024546667 0.69999999 -0.0036819996 6.3629404e-39 318 243
-0.0012273333 0.69999999 -0.0036819996 9.129168e-39 319 243
0 0.69999999 -0.0036819996 1.0784368e-38 320 243
0.0012273333 0.69999999 -0.0036819996 1.1060955e-38 321 243
0.0024546667 0.69999999 -0.0036819996 1.1336818e-38 322 243
0.0036819996 0.69999999 -0.0036819996 1.1244623e-38 323 243
0.0049093333 0.69999999 -0.0036819996 1.1060586e-38 324 243
0.0061366665 0.69999999 -0.0036819996 1.1060586e-38 325 243
0.0073745195 0.70099998 -0.0036872597 1.0876195e-38 326 243
0.0086281532 0.70300001 -0.0036977797 1.0876195e-38 327 243
0.0098607466 0.70300001 -0.0036977797 1.0783996e-38 328 243
0.011109119 0.704 -0.0037030398 1.0691799e-38 329 243
0.012343466 0.704 -0.0037030398 1.0598882e-38 330 243
0.013577812 0.704 -0.0037030398 1.0598882e-38 331 243
0.014812159 0.704 -0.0037030398 1.050704e-38 332 243
0.016092092 0.70599997 -0.0037135598 1.050704e-38 333 243
0.017329946 0.70599997 -0.0037135598 1.0321575e-38 334 243
0.018594101 0.70700002 -0.0037188199 1.0321575e-38 335 243
0.01986176 0.708 -0.00372408 1.0323021e-38 336 243
0.021162732 0.70999998 -0.0037345996 1.0323021e-38 337 243
0.022439159 0.71100003 -0.0037398601 9.5854588e-39 338 243
0.023752406 0.713 -0.0037503797 8.2025244e-39 339 243
0.025037598 0.71399999 -0.0037556398 8.4748079e-39 340 243
0.026289478 0.71399999 -0.0037556398 7.6450472e-39 341 243
0.02754136 0.71399999 -0.0037556398 7.8344775e-39 342 243
0.028793238 0.71399999 -0.0037556398 1.1337911e-38 343 243
0.030045118 0.71399999 -0.0037556398 1.4197771e-38 344 243
0.031296998 0.71399999 -0.0037556398 1.5120086e-38 345 243
-0.0379772 0.722 -0.0050636264 1.5303398e-38 290 244
-0.036609601 0.72000003 -0.0050496003 1.548779e-38 291 244
-0.035347197 0.72000003 -0.0050496003 1.2907038e-38 292 244
-0.03403746 0.71899998 -0.0050425865 1.1616299e-38 293 244
-0.032685637 0.71700001 -0.0050285598 9.9592986e-39 294 244
-0.031384666 0.71600002 -0.0050215465 9.6823516e-39 295 244
-0.03012928 0.71600002 -0.0050215465 9.3150012e-39 296 244
-0.028793238 0.71399999 -0.0050075199 8.8540231e-39 297 244
-0.027425639 0.71100003 -0.0049864799 7.2902917e-39 298 244
-0.026142199 0.70999998 -0.0049794666 8.6732261e-39 299 244
-0.024897331 0.70999998 -0.0049794666 1.0882326e-38 300 244
-0.023585839 0.708 -0.0049654399 9.407194e-39 301 244
-0.022312919 0.70700002 -0.0049584266 7.6511625e-39 302 244
-0.021073313 0.70700002 -0.0049584266 7.5589655e-39 303 244
-0.019805651 0.70599997 -0.0049514128 1.0142242e-38 304 244
-0.018515198 0.704 -0.0049373866 1.0972003e-38 305 244
-0.017256306 0.70300001 -0.0049303733 1.0970924e-38 306 244
-0.015978126 0.70099998 -0.0049163462 1.0694696e-38 307 244
-0.014749039 0.70099998 -0.0049163462 1.0232286e-38 308 244
-0.013519952 0.70099998 -0.0049163462 9.6794719e-39 309 244
-0.012290866 0.70099998 -0.0049163462 9.2195812e-39 310 244
-0.011061779 0.70099998 -0.0049163462 8.7586045e-39 311 244
-0.0098326923 0.70099998 -0.0049163462 8.2061495e-39 312 244
-0.0086036054 0.70099998 -0.0049163462 7.8377272e-39 313 244
-0.0073745195 0.70099998 -0.0049163462 8.4816476e-39 314 244
-0.0061454331 0.70099998 -0.0049163462 9.4036039e-39 315 244
-0.0049163462 0.70099998 -0.0049163462 9.8606164e-39 316 244
-0.0036819996 0.69999999 -0.0049093333 8.2010951e-39 317 244
-0.0024546667 0.69999999 -0.0049093333 8.5749096e-39 318 244
-0.0012273333 0.69999999 -0.0049093333 9.5894217e-39 319 244
0 0.69999999 -0.0049093333 1.087764e-38 320 244
0.0012273333 0.69999999 -0.0049093333 1.1154226e-38 321 244
0.0024546667 0.69999999 -0.0049093333 1.1336816e-38 322 244
0.0036819996 0.69999999 -0.0049093333 1.1060589e-38 323 244
0.0049093333 0.69999999 -0.0049093333 1.096839e-38 324 244
0.0061454331 0.70099998 -0.0049163462 1.0876195e-38 325 244
0.0073745195 0.70099998 -0.0049163462 1.0783999e-38 326 244
0.0086281532 0.70300001 -0.0049303733 1.0783999e-38 327 244
0.0098607466 0.70300001 -0.0049303733 1.0691802e-38 328 244
0.011109119 0.704 -0.0049373866 1.0599607e-38 329 244
0.012343466 0.704 -0.0049373866 1.0506333e-38 330 244
0.013577812 0.704 -0.0049373866 1.0506333e-38 331 244
0.014812159 0.704 -0.0049373866 1.0138983e-38 332 244
0.016092092 0.70599997 -0.0049514128 9.6780048e-39 333 244
0.017329946 0.70599997 -0.0049514128 8.7556912e-39 334 244
0.018594101 0.70700002 -0.0049584266 8.6634955e-39 335 244
0.01986176 0.708 -0.0049654399 8.6631452e-39 336 244
0.021162732 0.70999998 -0.0049794666 8.5709496e-39 337 244
0.022439159 0.71100003 -0.0049864799 8.4791239e-39 338 244
0.023752406 0.713 -0.0050005065 8.202537e-39 339 244
0.025037598 0.71399999 -0.0050075199 8.0195877e-39 340 244
0.026363119 0.71600002 -0.0050215465 7.6511653e-39 341 244
0.027618507 0.71600002 -0.0050215465 8.1121392e-39 342 244
0.028873893 0.71600002 -0.0050215465 1.0878008e-38 343 244
0.03012928 0.71600002 -0.0050215465 1.4014459e-38 344 244
-0.038029801 0.72299999 -0.0063382997 1.5575306e-38 290 245
-0.03671129 0.722 -0.0063295332 1.6220676e-38 291 245
-0.035445385 0.722 -0.0063295332 1.3456619e-38 292 245
-0.034084801 0.72000003 -0.0063120001 1.2258076e-38 293 245
-0.032685637 0.71700001 -0.0062857 1.0236972e-38 294 245
-0.031428497 0.71700001 -0.0062857 9.2231783e-39 295 245
-0.03012928 0.71600002 -0.0062769335 8.0249925e-39 296 245
-0.028793238 0.71399999 -0.0062593995 8.3012192e-39 297 245
-0.027425639 0.71100003 -0.0062330998 7.4757718e-39 298 245
-0.026179021 0.71100003 -0.0062330998 8.3055324e-39 299 245
-0.024897331 0.70999998 -0.0062243328 9.5948279e-39 300 245
-0.023585839 0.708 -0.0062067998 9.5948279e-39 301 245
-0.022312919 0.70700002 -0.0061980332 8.4820008e-39 302 245
-0.021073313 0.70700002 -0.0061980332 7.1912619e-39 303 245
-0.019805651 0.70599997 -0.0061892662 9.0373353e-39 304 245
-0.018567799 0.70599997 -0.0061892662 9.8670974e-39 305 245
-0.017256306 0.70300001 -0.0061629666 1.0880529e-38 306 245
-0.015978126 0.70099998 -0.0061454331 1.1525898e-38 307 245
-0.014749039 0.70099998 -0.0061454331 1.1617726e-38 308 245
-0.013519952 0.70099998 -0.0061454331 1.1801757e-38 309 245
-0.012290866 0.70099998 -0.0061454331 1.1893236e-38 310 245
-0.011061779 0.70099998 -0.0061454331 1.1801041e-38 311 245
-0.0098326923 0.70099998 -0.0061454331 1.1526252e-38 312 245
-0.0086036054 0.70099998 -0.0061454331 1.1341502e-38 313 245
-0.0073745195 0.70099998 -0.0061454331 1.1340418e-38 314 245
-0.0061454331 0.70099998 -0.0061454331 1.1340418e-38 315 245
-0.0049163462 0.70099998 -0.0061454331 1.1889636e-38 316 245
-0.0036872597 0.70099998 -0.0061454331 1.1521214e-38 317 245
-0.0024581731 0.70099998 -0.0061454331 1.0511371e-38 318 245
-0.0012290865 0.70099998 -0.0061454331 1.0511371e-38 319 245
0 0.70099998 -0.0061454331 1.032734e-38 320 245
0.0012273333 0.69999999 -0.0061366665 1.0235144e-38 321 245
0.0024546667 0.69999999 -0.0061366665 1.0600334e-38 322 245
0.0036819996 0.69999999 -0.0061366665 1.0415941e-38 323 245
0.0049163462 0.70099998 -0.0061454331 1.032374e-38 324 245
0.0061454331 0.70099998 -0.0061454331 1.0415936e-38 325 245
0.0073745195 0.70099998 -0.0061454331 1.0508134e-38 326 245
0.0086281532 0.70300001 -0.0061629666 1.0323743e-38 327 245
0.0098747732 0.704 -0.0061717331 1.0047879e-38 328 245
0.011109119 0.704 -0.0061717331 1.0047879e-38 329 245
0.012343466 0.704 -0.0061717331 1.0139351e-38 330 245
0.013577812 0.704 -0.0061717331 9.9549616e-39 331 245
0.014854239 0.70599997 -0.0061892662 9.770569e-39 332 245
0.016092092 0.70599997 -0.0061892662 9.1251995e-39 333 245
0.017329946 0.70599997 -0.0061892662 8.3847661e-39 334 245
0.018594101 0.70700002 -0.0061980332 8.2000161e-39 335 245
0.01986176 0.708 -0.0062067998 7.648294e-39 336 245
0.021162732 0.70999998 -0.0062243328 7.9245208e-39 337 245
0.022502279 0.713 -0.0062506334 8.0188716e-39 338 245
0.02378572 0.71399999 -0.0062593995 8.2032629e-39 339 245
0.025107734 0.71600002 -0.0062769335 8.1139357e-39 340 245
0.026363119 0.71600002 -0.0062769335 8.0217387e-39 341 245
0.027618507 0.71600002 -0.0062769335 8.0217387e-39 342 245
0.028873893 0.71600002 -0.0062769335 1.0234794e-38 343 245
0.03012928 0.71600002 -0.0062769335 1.4472916e-38 344 245
-0.046145979 0.84899998 -0.0089314794 1.6568554e-38 289 246
-0.038240198 0.727 -0.0076480396 1.5658136e-38 290 246
-0.036762137 0.72299999 -0.0076059597 1.6119474e-38 291 246
-0.035494477 0.72299999 -0.0076059597 1.363741e-38 292 246
-0.034084801 0.72000003 -0.0075743999 1.2807649e-38 293 246
-0.032776814 0.71899998 -0.0075638802 1.0238772e-38 294 246
-0.031428497 0.71700001 -0.0075428397 9.0402304e-39 295 246
-0.03012928 0.71600002 -0.00753232 7.7502105e-39 296 246
-0.028793238 0.71399999 -0.0075112795 8.3033842e-39 297 246
-0.027502786 0.713 -0.0075007593 7.6608847e-39 298 246
-0.026179021 0.71100003 -0.0074797203 7.8452774e-39 299 246
-0.024897331 0.70999998 -0.0074691991 8.1161021e-39 300 246
-0.023585839 0.708 -0.0074481601 7.3785371e-39 301 246
-0.022312919 0.70700002 -0.0074376399 6.2729e-39 302 246
-0.021073313 0.70700002 -0.0074376399 6.4572912e-39 303 246
-0.019833706 0.70700002 -0.0074376399 8.3008535e-39 304 246
-0.018567799 0.70599997 -0.0074271196 8.6692759e-39 305 246
-0.017329946 0.70599997 -0.0074271196 7.104125e-39 306 246
-0.016023712 0.70300001 -0.0073955595 7.1963206e-39 307 246
-0.014749039 0.70099998 -0.0073745195 9.12738e-39 308 246
-0.013519952 0.70099998 -0.0073745195 1.0141892e-38 309 246
-0.012290866 0.70099998 -0.0073745195 9.9603706e-39 310 246
-0.011061779 0.70099998 -0.0073745195 8.9462201e-39 311 246
-0.0098326923 0.70099998 -0.0073745195 9.3139264e-39 312 246
-0.0086281532 0.70300001 -0.0073955595 1.051247e-38 313 246
-0.0073955595 0.70300001 -0.0073955595 1.0972725e-38 314 246
-0.0061629666 0.70300001 -0.0073955595 1.0880529e-38 315 246
-0.0049303733 0.70300001 -0.0073955595 1.0972359e-38 316 246
-0.0036872597 0.70099998 -0.0073745195 1.0880163e-38 317 246
-0.0024581731 0.70099998 -0.0073745195 1.0513539e-38 318 246
-0.0012290865 0.70099998 -0.0073745195 9.5919426e-39 319 246
0 0.70099998 -0.0073745195 1.0048245e-38 320 246
0.0012290865 0.70099998 -0.0073745195 8.8497015e-39 321 246
0.0024581731 0.70099998 -0.0073745195 7.8366313e-39 322 246
0.0036872597 0.70099998 -0.0073745195 7.4678502e-39 323 246
0.0049163462 0.70099998 -0.0073745195 8.0199436e-39 324 246
0.0061454331 0.70099998 -0.0073745195 8.665313e-39 325 246
0.0073955595 0.70300001 -0.0073955595 9.3099636e-39 326 246
0.0086281532 0.70300001 -0.0073955595 9.4021592e-39 327 246
0.0098747732 0.704 -0.0074060797 9.5876252e-39 328 246
0.011109119 0.704 -0.0074060797 9.6798223e-39 329 246
0.012343466 0.704 -0.0074060797 9.8634849e-39 330 246
0.013577812 0.704 -0.0074060797 9.7712878e-39 331 246
0.014854239 0.70599997 -0.0074271196 9.5861777e-39 332 246
0.016092092 0.70599997 -0.0074271196 8.8486127e-39 333 246
0.017354494 0.70700002 -0.0074376399 8.2950858e-39 334 246
0.0186204 0.708 -0.0074481601 7.8341076e-39 335 246
0.019917866 0.70999998 -0.0074691991 7.7433581e-39 336 246
0.021192541 0.71100003 -0.0074797203 8.2043349e-39 337 246
0.022502279 0.713 -0.0075007593 7.8391467e-39 338 246
0.02378572 0.71399999 -0.0075112795 7.9313423e-39 339 246
0.025107734 0.71600002 -0.00753232 8.0238939e-39 340 246
0.02639994 0.71700001 -0.0075428397 7.4707201e-39 341 246
0.027657079 0.71700001 -0.0075428397 7.286326e-39 342 246
0.028914221 0.71700001 -0.0075428397 9.9599993e-39 343 246
0.030171359 0.71700001 -0.0075428397 1.5023556e-38 344 246
0.031428497 0.71700001 -0.0075428397 1.6682717e-38 345 246
-0.039514873 0.727 -0.0089227129 1.7295651e-38 289 247
-0.038240198 0.727 -0.0089227129 1.5101347e-38 290 247
-0.036863834 0.72500002 -0.0088981669 1.5931466e-38 291 247
-0.035494477 0.72299999 -0.0088736191 1.3635965e-38 292 247
-0.034179479 0.722 -0.0088613462 1.3082792e-38 293 247
-0.0328224 0.72000003 -0.0088367993 1.0605034e-38 294 247
-0.031516165 0.71899998 -0.0088245263 1.0144057e-38 295 247
-0.030171359 0.71700001 -0.0087999795 9.408643e-39 296 247
-0.028793238 0.71399999 -0.0087631596 9.3164474e-39 297 247
-0.027502786 0.713 -0.0087508867 8.3051667e-39 298 247
-0.026179021 0.71100003 -0.0087263398 7.198459e-39 299 247
-0.024897331 0.70999998 -0.0087140659 6.2768656e-39 300 247
-0.023585839 0.708 -0.008689519 4.9861268e-39 301 247
-0.022344479 0.708 -0.008689519 4.9853967e-39 302 247
-0.021103119 0.708 -0.008689519 6.6449195e-39 303 247
-0.019833706 0.70700002 -0.008677247 8.3926932e-39 304 247
-0.018567799 0.70599997 -0.0086649731 8.3926932e-39 305 247
-0.017329946 0.70599997 -0.0086649731 6.732844e-39 306 247
-0.016092092 0.70599997 -0.0086649731 6.5484513e-39 307 247
-0.014791119 0.70300001 -0.0086281532 7.1034187e-39 308 247
-0.013558527 0.70300001 -0.0086281532 7.6565911e-39 309 247
-0.012325933 0.70300001 -0.0086281532 8.3912499e-39 310 247
-0.01109334 0.70300001 -0.0086281532 7.7458804e-39 311 247
-0.0098607466 0.70300001 -0.0086281532 6.9179162e-39 312 247
-0.0086281532 0.70300001 -0.0086281532 8.2086537e-39 313 247
-0.0073955595 0.70300001 -0.0086281532 1.0048976e-38 314 247
-0.0061629666 0.70300001 -0.0086281532 9.9567805e-39 315 247
-0.0049303733 0.70300001 -0.0086281532 9.9596518e-39 316 247
-0.0036977797 0.70300001 -0.0086281532 1.0144043e-38 317 247
-0.0024651866 0.70300001 -0.0086281532 9.7741843e-39 318 247
-0.0012325933 0.70300001 -0.0086281532 9.2210119e-39 319 247
0 0.70300001 -0.0086281532 8.7564394e-39 320 247
0.0012290865 0.70099998 -0.0086036054 8.4794938e-39 321 247
0.0024581731 0.70099998 -0.0086036054 7.0980097e-39 322 247
0.0036872597 0.70099998 -0.0086036054 6.6370316e-39 323 247
0.0049303733 0.70300001 -0.0086281532 6.6395525e-39 324 247
0.0061629666 0.70300001 -0.0086281532 7.4693132e-39 325 247
0.0073955595 0.70300001 -0.0086281532 8.4812973e-39 326 247
0.0086281532 0.70300001 -0.0086281532 8.6656886e-39 327 247
0.0098747732 0.704 -0.0086404262 8.6667591e-39 328 247
0.011109119 0.704 -0.0086404262 8.9437048e-39 329 247
0.012343466 0.704 -0.0086404262 9.1280862e-39 330 247
0.013577812 0.704 -0.0086404262 8.9440551e-39 331 247
0.014854239 0.70599997 -0.0086649731 9.034806e-39 332 247
0.016092092 0.70599997 -0.0086649731 8.6656633e-39 333 247
0.017354494 0.70700002 -0.008677247 8.0195723e-39 334 247
0.0186204 0.708 -0.008689519 8.2043222e-39 335 247
0.019917866 0.70999998 -0.0087140659 8.1142888e-39 336 247
0.021192541 0.71100003 -0.0087263398 8.4830699e-39 337 247
0.022502279 0.713 -0.0087508867 8.2994018e-39 338 247
0.02378572 0.71399999 -0.0087631596 8.2994018e-39 339 247
0.025107734 0.71600002 -0.0087877065 7.9302703e-39 340 247
0.02647358 0.71899998 -0.0088245263 6.916117e-39 341 247
0.027734226 0.71899998 -0.0088245263 7.1908934e-39 342 247
0.029035201 0.72000003 -0.0088367993 1.041774e-38 343 247
0.030381758 0.722 -0.0088613462 1.5114656e-38 344 247
0.031647664 0.722 -0.0088613462 1.6589786e-38 345 247
-0.039514873 0.727 -0.010197386 1.6108642e-38 289 248
-0.038240198 0.727 -0.010197386 1.5380094e-38 290 248
-0.036863834 0.72500002 -0.010169334 1.5840712e-38 291 248
-0.035494477 0.72299999 -0.01014128 1.3359737e-38 292 248
-0.034179479 0.722 -0.010127253 1.2529618e-38 293 248
-0.0328224 0.72000003 -0.010099201 1.0236255e-38 294 248
-0.031516165 0.71899998 -0.010085173 1.0051863e-38 295 248
-0.030171359 0.71700001 -0.01005712 9.3178949e-39 296 248
-0.028793238 0.71399999 -0.01001504 9.0409493e-39 297 248
-0.027502786 0.713 -0.010001013 8.7636421e-39 298 248
-0.026179021 0.71100003 -0.0099729598 7.0119252e-39 299 248
-0.024897331 0.70999998 -0.0099589331 5.0801371e-39 300 248
-0.023585839 0.708 -0.0099308798 4.6187988e-39 301 248
-0.022344479 0.708 -0.0099308798 6.2765153e-39 302 248
-0.021103119 0.708 -0.0099308798 8.0278721e-39 303 248
-0.019833706 0.70700002 -0.0099168532 9.1309827e-39 304 248
-0.018594101 0.70700002 -0.0099168532 8.670006e-39 305 248
-0.017354494 0.70700002 -0.0099168532 6.3680047e-39 306 248
-0.016092092 0.70599997 -0.0099028256 6.2758091e-39 307 248
-0.014854239 0.70599997 -0.0099028256 6.7346348e-39 308 248
-0.013577812 0.704 -0.0098747732 5.6282873e-39 309 248
-0.012343466 0.704 -0.0098747732 5.717592e-39 310 248
-0.011109119 0.704 -0.0098747732 5.5335609e-39 311 248
-0.0098747732 0.704 -0.0098747732 5.3491612e-39 312 248
-0.0086404262 0.704 -0.0098747732 5.5339112e-39 313 248
-0.0074060797 0.704 -0.0098747732 6.2700441e-39 314 248
-0.0061629666 0.70300001 -0.0098607466 7.0076092e-39 315 248
-0.0049303733 0.70300001 -0.0098607466 8.2086705e-39 316 248
-0.0036977797 0.70300001 -0.0098607466 9.1306268e-39 317 248
-0.0024651866 0.70300001 -0.0098607466 9.5876421e-39 318 248
-0.0012325933 0.70300001 -0.0098607466 8.4812945e-39 319 248
0 0.70300001 -0.0098607466 7.7415743e-39 320 248
0.0012325933 0.70300001 -0.0098607466 7.4653475e-39 321 248
0.0024651866 0.70300001 -0.0098607466 6.7277951e-39 322 248
0.0036977797 0.70300001 -0.0098607466 6.1746213e-39 323 248
0.0049303733 0.70300001 -0.0098607466 5.3488263e-39 324 248
0.0061629666 0.70300001 -0.0098607466 6.6395651e-39 325 248
0.0074060797 0.704 -0.0098747732 7.3771147e-39 326 248
0.0086404262 0.704 -0.0098747732 7.6537002e-39 327 248
0.0098747732 0.704 -0.0098747732 8.4809288e-39 328 248
0.011109119 0.704 -0.0098747732 8.8493511e-39 329 248
0.012378532 0.70599997 -0.0099028256 8.8515035e-39 330 248
0.013616386 0.70599997 -0.0099028256 8.8515035e-39 331 248
0.014854239 0.70599997 -0.0099028256 8.6663892e-39 332 248
0.016114887 0.70700002 -0.0099168532 8.4819979e-39 333 248
0.017354494 0.70700002 -0.0099168532 8.2064873e-39 334 248
0.0186204 0.708 -0.0099308798 8.2064873e-39 335 248
0.019917866 0.70999998 -0.0099589331 7.9320612e-39 336 248
0.021192541 0.71100003 -0.0099729598 8.0242568e-39 337 248
0.022502279 0.713 -0.010001013 8.1157392e-39 338 248
0.023852346 0.71600002 -0.010043093 7.9309892e-39 339 248
0.0251428 0.71700001 -0.01005712 7.8369943e-39 340 248
0.02647358 0.71899998 -0.010085173 6.6384511e-39 341 248
0.027772799 0.72000003 -0.010099201 7.5571522e-39 342 248
0.029115854 0.722 -0.010127253 1.1244976e-38 343 248
0.030381758 0.722 -0.010127253 1.5482364e-38 344 248
0.031647664 0.722 -0.010127253 1.6680906e-38 345 248
-0.038240198 0.727 -0.01147206 1.6398928e-38 290 249
-0.036863834 0.72500002 -0.0114405 1.6491124e-38 291 249
-0.035494477 0.72299999 -0.01140894 1.2899479e-38 292 249
-0.03422682 0.72299999 -0.01140894 1.1147762e-38 293 249
-0.032913569 0.722 -0.01139316 1.0050788e-38 294 249
-0.03156 0.72000003 -0.011361601 9.7742011e-39 295 249
-0.030255521 0.71899998 -0.01134582 8.1179196e-39 296 249
-0.028873893 0.71600002 -0.01129848 7.1041278e-39 297 249
-0.02754136 0.71399999 -0.011266919 7.5597137e-39 298 249
-0.026252659 0.713 -0.011251139 5.9920293e-39 299 249
-0.024932399 0.71100003 -0.01121958 3.8830317e-39 300 249
-0.023652466 0.70999998 -0.011203799 5.6351088e-39 301 249
-0.022344479 0.708 -0.01117224 8.3941365e-39 302 249
-0.021103119 0.708 -0.01117224 9.3160942e-39 303 249
-0.01986176 0.708 -0.01117224 8.857637e-39 304 249
-0.0186204 0.708 -0.01117224 8.5810487e-39 305 249
-0.017354494 0.70700002 -0.011156459 8.6703717e-39 306 249
-0.016092092 0.70599997 -0.011140679 8.485979e-39 307 249
-0.014854239 0.70599997 -0.011140679 7.6590994e-39 308 249
-0.013616386 0.70599997 -0.011140679 7.2899568e-39 309 249
-0.012378532 0.70599997 -0.011140679 7.4721872e-39 310 249
-0.011140679 0.70599997 -0.011140679 7.1952402e-39 311 249
-0.0098747732 0.704 -0.011109119 6.9179289e-39 312 249
-0.0086404262 0.704 -0.011109119 6.6417007e-39 313 249
-0.0074060797 0.704 -0.011109119 7.1927263e-39 314 249
-0.0061717331 0.704 -0.011109119 7.7455413e-39 315 249
-0.0049373866 0.704 -0.011109119 8.2083174e-39 316 249
-0.0037030398 0.704 -0.011109119 8.6696556e-39 317 249
-0.0024686933 0.704 -0.011109119 8.023559e-39 318 249
-0.0012343467 0.704 -0.011109119 7.1016041e-39 319 249
0 0.70300001 -0.01109334 6.2689749e-39 320 249
0.0012325933 0.70300001 -0.01109334 6.3611706e-39 321 249
0.0024686933 0.704 -0.011109119 5.6236181e-39 322 249
0.0037030398 0.704 -0.011109119 5.1630001e-39 323 249
0.0049373866 0.704 -0.011109119 4.4265239e-39 324 249
0.0061717331 0.704 -0.011109119 4.795305e-39 325 249
0.0074060797 0.704 -0.011109119 6.0867445e-39 326 249
0.0086404262 0.704 -0.011109119 6.7321139e-39 327 249
0.0098747732 0.704 -0.011109119 7.4700194e-39 328 249
0.011140679 0.70599997 -0.011140679 8.0228345e-39 329 249
0.012378532 0.70599997 -0.011140679 8.3919701e-39 330 249
0.013616386 0.70599997 -0.011140679 8.2079376e-39 331 249
0.01487528 0.70700002 -0.011156459 8.4827196e-39 332 249
0.016114887 0.70700002 -0.011156459 8.2983298e-39 333 249
0.017379038 0.708 -0.01117224 8.2072089e-39 334 249
0.0186204 0.708 -0.01117224 8.2072089e-39 335 249
0.019917866 0.70999998 -0.011203799 8.0235407e-39 336 249
0.021192541 0.71100003 -0.01121958 8.0235407e-39 337 249
0.022502279 0.713 -0.011251139 7.8387991e-39 338 249
0.023852346 0.71600002 -0.01129848 7.4700166e-39 339 249
0.0251428 0.71700001 -0.01131426 7.6511681e-39 340 249
0.026510401 0.72000003 -0.011361601 6.9132429e-39 341 249
0.027849946 0.722 -0.01139316 8.3869128e-39 342 249
0.029115854 0.722 -0.01139316 1.1982541e-38 343 249
0.030423839 0.72299999 -0.01140894 1.5665676e-38 344 249
0.031691495 0.72299999 -0.01140894 1.6680187e-38 345 249
-0.038398001 0.73000002 -0.012799333 1.7415598e-38 290 250
-0.036965527 0.727 -0.012746733 1.7231207e-38 291 250
-0.035494477 0.72299999 -0.012676599 1.2808353e-38 292 250
-0.03422682 0.72299999 -0.012676599 1.0411266e-38 293 250
-0.032913569 0.722 -0.012659066 1.0510317e-38 294 250
-0.03156 0.72000003 -0.012624 9.8649478e-39 295 250
-0.030255521 0.71899998 -0.012606465 6.5495177e-39 296 250
-0.028873893 0.71600002 -0.012553867 4.3371827e-39 297 250
-0.02754136 0.71399999 -0.012518799 4.2417655e-39 298 250
-0.026289478 0.71399999 -0.012518799 3.3194505e-39 299 250
-0.024932399 0.71100003 -0.0124662 2.0387744e-39 300 250
-0.023652466 0.70999998 -0.012448666 6.2797747e-39 301 250
-0.022344479 0.708 -0.0124136 9.4061375e-39 302 250
-0.021103119 0.708 -0.0124136 1.0051507e-38 303 250
-0.01986176 0.708 -0.0124136 8.9498327e-39 304 250
-0.0186204 0.708 -0.0124136 9.1338638e-39 305 250
-0.017354494 0.70700002 -0.012396066 9.2253433e-39 306 250
-0.016114887 0.70700002 -0.012396066 9.2253433e-39 307 250
-0.01487528 0.70700002 -0.012396066 9.1335008e-39 308 250
-0.013616386 0.70599997 -0.012378532 9.0413052e-39 309 250
-0.012378532 0.70599997 -0.012378532 9.3168103e-39 310 250
-0.011140679 0.70599997 -0.012378532 8.8561909e-39 311 250
-0.0099028256 0.70599997 -0.012378532 8.8551189e-39 312 250
-0.0086649731 0.70599997 -0.012378532 9.03915e-39 313 250
-0.0074060797 0.704 -0.012343466 8.855472e-39 314 250
-0.0061717331 0.704 -0.012343466 8.6710808e-39 315 250
-0.0049373866 0.704 -0.012343466 8.3955701e-39 316 250
-0.0037030398 0.704 -0.012343466 8.118623e-39 317 250
-0.0024686933 0.704 -0.012343466 7.9313577e-39 318 250
-0.0012343467 0.704 -0.012343466 7.3781839e-39 319 250
0 0.704 -0.012343466 5.0718737e-39 320 250
0.0012343467 0.704 -0.012343466 5.1640693e-39 321 250
0.0024686933 0.704 -0.012343466 5.2548426e-39 322 250
0.0037030398 0.704 -0.012343466 5.07045e-39 323 250
0.0049373866 0.704 -0.012343466 4.4268798e-39 324 250
0.0061717331 0.704 -0.012343466 4.0577372e-39 325 250
0.0074060797 0.704 -0.012343466 5.43958e-39 326 250
0.0086649731 0.70599997 -0.012378532 6.545929e-39 327 250
0.0099028256 0.70599997 -0.012378532 6.9179317e-39 328 250
0.011140679 0.70599997 -0.012378532 7.5633011e-39 329 250
0.012378532 0.70599997 -0.012378532 8.0231904e-39 330 250
0.013635674 0.70700002 -0.012396066 8.0231904e-39 331 250
0.01487528 0.70700002 -0.012396066 8.1143042e-39 332 250
0.01613768 0.708 -0.0124136 8.1143042e-39 333 250
0.017379038 0.708 -0.0124136 7.930992e-39 334 250
0.018672999 0.70999998 -0.012448666 7.8387963e-39 335 250
0.019917866 0.70999998 -0.012448666 7.8387963e-39 336 250
0.021192541 0.71100003 -0.0124662 7.7466007e-39 337 250
0.022502279 0.713 -0.012501267 7.2859911e-39 338 250
0.023852346 0.71600002 -0.012553867 6.4565906e-39 339 250
0.025212931 0.71899998 -0.012606465 7.189834e-39 340 250
0.026584039 0.722 -0.012659066 8.0195933e-39 341 250
0.027849946 0.722 -0.012659066 1.0229023e-38 342 250
0.029115854 0.722 -0.012659066 1.2810501e-38 343 250
0.030423839 0.72299999 -0.012676599 1.5482361e-38 344 250
0.031691495 0.72299999 -0.012676599 1.6588707e-38 345 250
0.032959159 0.72299999 -0.012676599 1.6678383e-38 346 250
-0.038398001 0.73000002 -0.014079267 1.6679831e-38 290 251
-0.037016369 0.72799999 -0.014040692 1.6956418e-38 291 251
-0.035592668 0.72500002 -0.013982833 1.3270763e-38 292 251
-0.034321502 0.72500002 -0.013982833 1.0596731e-38 293 251
-0.032913569 0.722 -0.013924973 1.1705974e-38 294 251
-0.03156 0.72000003 -0.0138864 1.1060604e-38 295 251
-0.030255521 0.71899998 -0.013867113 7.1920074e-39 296 251
-0.028873893 0.71600002 -0.013809253 4.6105298e-39 297 251
-0.02754136 0.71399999 -0.01377068 2.6801991e-39 298 251
-0.026289478 0.71399999 -0.01377068 2.5880021e-39 299 251
-0.025002534 0.713 -0.013751393 2.2166986e-39 300 251
-0.023652466 0.70999998 -0.013693533 6.0889151e-39 301 251
-0.022407599 0.70999998 -0.013693533 9.497617e-39 302 251
-0.021162732 0.70999998 -0.013693533 1.0972388e-38 303 251
-0.01986176 0.708 -0.013654959 9.1360218e-39 304 251
-0.0186204 0.708 -0.013654959 8.6750436e-39 305 251
-0.017379038 0.708 -0.013654959 8.8580028e-39 306 251
-0.016114887 0.70700002 -0.013635674 8.581776e-39 307 251
-0.01487528 0.70700002 -0.013635674 8.9487565e-39 308 251
-0.013616386 0.70599997 -0.013616386 8.7647239e-39 309 251
-0.012378532 0.70599997 -0.013616386 8.7647239e-39 310 251
-0.011140679 0.70599997 -0.013616386 8.6721696e-39 311 251
-0.0099028256 0.70599997 -0.013616386 8.6721724e-39 312 251
-0.0086649731 0.70599997 -0.013616386 8.764368e-39 313 251
-0.0074271196 0.70599997 -0.013616386 8.6725255e-39 314 251
-0.0061892662 0.70599997 -0.013616386 8.4881342e-39 315 251
-0.0049373866 0.704 -0.013577812 8.3037374e-39 316 251
-0.0037030398 0.704 -0.013577812 8.0275092e-39 317 251
-0.0024686933 0.704 -0.013577812 8.301222e-39 318 251
-0.0012343467 0.704 -0.013577812 7.8402439e-39 319 251
0 0.704 -0.013577812 5.4413751e-39 320 251
0.0012343467 0.704 -0.013577812 4.7960057e-39 321 251
0.0024686933 0.704 -0.013577812 4.612713e-39 322 251
0.0037030398 0.704 -0.013577812 4.2439305e-39 323 251
0.0049373866 0.704 -0.013577812 3.875141e-39 324 251
