# .PCD v.7 - Point Cloud Data file format
FIELDS x y z rgb imX imY
SIZE 4 4 4 4 4 4
TYPE F F F F F F
COUNT 1 1 1 1 1 1
WIDTH 849
HEIGHT 1
VIEWPOINT 0 0 0 1 0 0 0
POINTS 849
DATA ascii
0.00335588 0.63800001 0.095083259 1.8900457e-38 323 155
0.0044745067 0.63800001 0.095083259 1.8900454e-38 324 155
0.0055931332 0.63800001 0.095083259 1.8808259e-38 325 155
0.0067117601 0.63800001 0.095083259 1.8808259e-38 326 155
0.0078181131 0.63700002 0.094934233 1.8808259e-38 327 155
0.0089349868 0.63700002 0.094934233 1.8808259e-38 328 155
0.0100992 0.63999999 0.095381327 1.8716063e-38 329 155
0.011186266 0.63800001 0.095083259 1.8807536e-38 330 155
0.012304893 0.63800001 0.095083259 1.8807536e-38 331 155
0.013465599 0.63999999 0.095381327 1.8990848e-38 332 155
0.014587732 0.63999999 0.095381327 1.8898652e-38 333 155
0.015709866 0.63999999 0.095381327 1.8623142e-38 334 155
0.016831998 0.63999999 0.095381327 1.8530946e-38 335 155
0.017954132 0.63999999 0.095381327 1.8346912e-38 336 155
0.019016653 0.63800001 0.095083259 1.8346912e-38 337 155
0.02013528 0.63800001 0.095083259 1.8532025e-38 338 155
0.021220595 0.63700002 0.094934233 1.7149091e-38 339 155
0.022337466 0.63700002 0.094934233 1.5764355e-38 340 155
-0.0089490134 0.63800001 0.093964644 1.4195593e-38 312 156
-0.007830387 0.63800001 0.093964644 1.6500124e-38 313 156
-0.0067117601 0.63800001 0.093964644 1.7061229e-38 314 156
-0.0055931332 0.63800001 0.093964644 1.918173e-38 315 156
-0.0044745067 0.63800001 0.093964644 1.8994455e-38 316 156
-0.0033506199 0.63700002 0.093817361 1.8349086e-38 317 156
-0.0022337467 0.63700002 0.093817361 1.8715707e-38 318 156
-0.0011168733 0.63700002 0.093817361 1.8715707e-38 319 156
0 0.63700002 0.093817361 1.8807187e-38 320 156
0.0011168733 0.63700002 0.093817361 1.8899382e-38 321 156
0.0022372534 0.63800001 0.093964644 1.8900454e-38 322 156
0.00335588 0.63800001 0.093964644 1.8900454e-38 323 156
0.0044674934 0.63700002 0.093817361 1.8808259e-38 324 156
0.0055843666 0.63700002 0.093817361 1.8900454e-38 325 156
0.0067012399 0.63700002 0.093817361 1.8807903e-38 326 156
0.0078181131 0.63700002 0.093817361 1.8900457e-38 327 156
0.0089349868 0.63700002 0.093817361 1.8624593e-38 328 156
0.01006764 0.63800001 0.093964644 1.8624593e-38 329 156
0.011168733 0.63700002 0.093817361 1.8807903e-38 330 156
0.012285607 0.63700002 0.093817361 1.8715707e-38 331 156
0.01342352 0.63800001 0.093964644 1.880754e-38 332 156
0.014542148 0.63800001 0.093964644 1.8715343e-38 333 156
0.015660774 0.63800001 0.093964644 1.8532028e-38 334 156
0.016779399 0.63800001 0.093964644 1.8439832e-38 335 156
0.017898027 0.63800001 0.093964644 1.8347637e-38 336 156
0.018986847 0.63700002 0.093817361 1.8347637e-38 337 156
0.020103721 0.63700002 0.093817361 1.8348e-38 338 156
0.021220595 0.63700002 0.093817361 1.687323e-38 339 156
0.022337466 0.63700002 0.093817361 1.5488127e-38 340 156
-0.0089490134 0.63800001 0.092846014 1.4287433e-38 312 157
-0.007830387 0.63800001 0.092846014 1.6776715e-38 313 157
-0.0067117601 0.63800001 0.092846014 1.6786812e-38 314 157
-0.0055931332 0.63800001 0.092846014 1.8815474e-38 315 157
-0.0044745067 0.63800001 0.092846014 1.8994818e-38 316 157
-0.0033506199 0.63700002 0.092700489 1.8349448e-38 317 157
-0.0022337467 0.63700002 0.092700489 1.8716063e-38 318 157
-0.0011168733 0.63700002 0.092700489 1.8716063e-38 319 157
0 0.63700002 0.092700489 1.8807903e-38 320 157
0.0011168733 0.63700002 0.092700489 1.8900457e-38 321 157
0.0022337467 0.63700002 0.092700489 1.8808259e-38 322 157
0.0033506199 0.63700002 0.092700489 1.8900454e-38 323 157
0.0044674934 0.63700002 0.092700489 1.8808259e-38 324 157
0.0055843666 0.63700002 0.092700489 1.8808259e-38 325 157
0.0067012399 0.63700002 0.092700489 1.8900101e-38 326 157
0.0078181131 0.63700002 0.092700489 1.8900101e-38 327 157
0.0089349868 0.63700002 0.092700489 1.8716789e-38 328 157
0.01005186 0.63700002 0.092700489 1.8624593e-38 329 157
0.011151199 0.63599998 0.092554957 1.8624593e-38 330 157
0.012266319 0.63599998 0.092554957 1.8532398e-38 331 157
0.01340248 0.63700002 0.092700489 1.8715707e-38 332 157
0.014519353 0.63700002 0.092700489 1.8531675e-38 333 157
0.015636226 0.63700002 0.092700489 1.8532031e-38 334 157
0.0167531 0.63700002 0.092700489 1.8347281e-38 335 157
0.017869974 0.63700002 0.092700489 1.8255085e-38 336 157
0.018986847 0.63700002 0.092700489 1.8347281e-38 337 157
0.020072158 0.63599998 0.092554957 1.8531675e-38 338 157
0.021153966 0.63499999 0.092409424 1.6595567e-38 339 157
0.022267332 0.63499999 0.092409424 1.4753083e-38 340 157
-0.0089910924 0.64099997 0.092158698 1.4378555e-38 312 158
-0.007830387 0.63800001 0.091727383 1.7144424e-38 313 158
-0.0067117601 0.63800001 0.091727383 1.6696782e-38 314 158
-0.0055931332 0.63800001 0.091727383 1.8632891e-38 315 158
-0.0044745067 0.63800001 0.091727383 1.8996263e-38 316 158
-0.0033506199 0.63700002 0.09158361 1.8350893e-38 317 158
-0.0022302398 0.63599998 0.091439828 1.8808256e-38 318 158
-0.0011151199 0.63599998 0.091439828 1.8808256e-38 319 158
0 0.63599998 0.091439828 1.8899736e-38 320 158
0.0011151199 0.63599998 0.091439828 1.8899736e-38 321 158
0.0022302398 0.63599998 0.091439828 1.8807903e-38 322 158
0.0033506199 0.63700002 0.09158361 1.8900457e-38 323 158
0.0044604796 0.63599998 0.091439828 1.8807906e-38 324 158
0.0055755996 0.63599998 0.091439828 1.8900101e-38 325 158
0.0067012399 0.63700002 0.09158361 1.8900101e-38 326 158
0.0078058392 0.63599998 0.091439828 1.8807906e-38 327 158
0.0089209592 0.63599998 0.091439828 1.8807906e-38 328 158
0.010036079 0.63599998 0.091439828 1.8807906e-38 329 158
0.011151199 0.63599998 0.091439828 1.871571e-38 330 158
0.012266319 0.63599998 0.091439828 1.871571e-38 331 158
0.013381439 0.63599998 0.091439828 1.8714987e-38 332 158
0.014496559 0.63599998 0.091439828 1.8714987e-38 333 158
0.015611678 0.63599998 0.091439828 1.8623147e-38 334 158
0.016726799 0.63599998 0.091439828 1.8346562e-38 335 158
0.017841918 0.63599998 0.091439828 1.8254366e-38 336 158
0.018927233 0.63499999 0.091296062 1.8346562e-38 337 158
0.020009039 0.634 0.091152288 1.8072139e-38 338 158
0.021120653 0.634 0.091152288 1.5767608e-38 339 158
0.022232266 0.634 0.091152288 1.4199554e-38 340 158
-0.0089910924 0.64099997 0.091034815 1.4194887e-38 312 159
-0.007830387 0.63800001 0.090608761 1.7329539e-38 313 159
-0.0067117601 0.63800001 0.090608761 1.6329447e-38 314 159
-0.0055931332 0.63800001 0.090608761 1.8357751e-38 315 159
-0.0044745067 0.63800001 0.090608761 1.9090629e-38 316 159
-0.0033506199 0.63700002 0.090466738 1.8537455e-38 317 159
-0.0022302398 0.63599998 0.090324715 1.9084849e-38 318 159
-0.0011151199 0.63599998 0.090324715 1.8900457e-38 319 159
0 0.63599998 0.090324715 1.8715343e-38 320 159
0.0011151199 0.63599998 0.090324715 1.880754e-38 321 159
0.0022302398 0.63599998 0.090324715 1.8807903e-38 322 159
0.0033453598 0.63599998 0.090324715 1.8900457e-38 323 159
0.0044604796 0.63599998 0.090324715 1.8807906e-38 324 159
0.0055755996 0.63599998 0.090324715 1.8807906e-38 325 159
0.0066907196 0.63599998 0.090324715 1.8716792e-38 326 159
0.0078058392 0.63599998 0.090324715 1.8624596e-38 327 159
0.0089209592 0.63599998 0.090324715 1.8899385e-38 328 159
0.010036079 0.63599998 0.090324715 1.8899385e-38 329 159
0.011151199 0.63599998 0.090324715 1.871571e-38 330 159
0.012247032 0.63499999 0.090182692 1.871571e-38 331 159
0.0133604 0.63499999 0.090182692 1.8715343e-38 332 159
0.014473766 0.63499999 0.090182692 1.8623147e-38 333 159
0.015587131 0.63499999 0.090182692 1.8439832e-38 334 159
0.016726799 0.63599998 0.090324715 1.8255082e-38 335 159
0.017841918 0.63599998 0.090324715 1.8346562e-38 336 159
0.018927233 0.63499999 0.090182692 1.8254366e-38 337 159
0.020009039 0.634 0.090040676 1.7334573e-38 338 159
0.021120653 0.634 0.090040676 1.4845291e-38 339 159
0.022232266 0.634 0.090040676 1.3922965e-38 340 159
-0.0089910924 0.64099997 0.089910932 1.4287086e-38 312 160
-0.0078549329 0.63999999 0.08977066 1.7421737e-38 313 160
-0.0067327996 0.63999999 0.08977066 1.6237622e-38 314 160
-0.0055931332 0.63800001 0.089490131 1.7804947e-38 315 160
-0.0044745067 0.63800001 0.089490131 1.8264846e-38 316 160
-0.0033506199 0.63700002 0.089349866 1.798862e-38 317 160
-0.0022302398 0.63599998 0.089209594 1.8903351e-38 318 160
-0.0011151199 0.63599998 0.089209594 1.8534208e-38 319 160
0 0.63599998 0.089209594 1.8899736e-38 320 160
0.0011151199 0.63599998 0.089209594 1.8991931e-38 321 160
0.0022302398 0.63599998 0.089209594 1.8807543e-38 322 160
0.0033453598 0.63599998 0.089209594 1.8899738e-38 323 160
0.0044604796 0.63599998 0.089209594 1.8624593e-38 324 160
0.0055755996 0.63599998 0.089209594 1.8716789e-38 325 160
0.0066907196 0.63599998 0.089209594 1.8624593e-38 326 160
0.0078058392 0.63599998 0.089209594 1.8716789e-38 327 160
0.0089209592 0.63599998 0.089209594 1.8624593e-38 328 160
0.0100203 0.63499999 0.089069329 1.8624593e-38 329 160
0.011133666 0.63499999 0.089069329 1.8532395e-38 330 160
0.012247032 0.63499999 0.089069329 1.8532395e-38 331 160
0.013339359 0.634 0.088929065 1.8532031e-38 332 160
0.014450972 0.634 0.088929065 1.8532031e-38 333 160
0.015587131 0.63499999 0.089069329 1.8439829e-38 334 160
0.016700499 0.63499999 0.089069329 1.8347634e-38 335 160
0.017841918 0.63599998 0.089209594 1.8346915e-38 336 160
0.018927233 0.63499999 0.089069329 1.760935e-38 337 160
0.0200406 0.63499999 0.089069329 1.6135667e-38 338 160
0.021120653 0.634 0.088929065 1.4475786e-38 339 160
0.022232266 0.634 0.088929065 1.4014445e-38 340 160
-0.0089910924 0.64099997 0.088787034 1.4194884e-38 312 161
-0.0078549329 0.63999999 0.088648528 1.7513927e-38 313 161
-0.0067327996 0.63999999 0.088648528 1.5962833e-38 314 161
-0.0055931332 0.63800001 0.088371508 1.6792595e-38 315 161
-0.0044745067 0.63800001 0.088371508 1.7070273e-38 316 161
-0.0033506199 0.63700002 0.088232994 1.771564e-38 317 161
-0.0022337467 0.63700002 0.088232994 1.9090997e-38 318 161
-0.0011151199 0.63599998 0.088094473 1.8537824e-38 319 161
0 0.63599998 0.088094473 1.8994102e-38 320 161
0.0011151199 0.63599998 0.088094473 1.8717155e-38 321 161
0.0022302398 0.63599998 0.088094473 1.8624593e-38 322 161
0.0033453598 0.63599998 0.088094473 1.8624593e-38 323 161
0.0044604796 0.63599998 0.088094473 1.8624593e-38 324 161
0.0055755996 0.63599998 0.088094473 1.8624593e-38 325 161
0.0066907196 0.63599998 0.088094473 1.8807906e-38 326 161
0.0077935657 0.63499999 0.087955967 1.8900101e-38 327 161
0.0089069325 0.63499999 0.087955967 1.8807908e-38 328 161
0.010004519 0.634 0.087817445 1.8807908e-38 329 161
0.011116133 0.634 0.087817445 1.8715713e-38 330 161
0.012227747 0.634 0.087817445 1.8531322e-38 331 161
0.013339359 0.634 0.087817445 1.8532031e-38 332 161
0.014450972 0.634 0.087817445 1.8439476e-38 333 161
0.015587131 0.63499999 0.087955967 1.8624944e-38 334 161
0.016700499 0.63499999 0.087955967 1.8163966e-38 335 161
0.017841918 0.63599998 0.088094473 1.7519321e-38 336 161
0.018957037 0.63599998 0.088094473 1.6043832e-38 337 161
0.0200406 0.63499999 0.087955967 1.4569784e-38 338 161
0.021153966 0.63499999 0.087955967 1.3924414e-38 339 161
-0.0089770658 0.63999999 0.087526396 1.4379997e-38 312 162
-0.0078549329 0.63999999 0.087526396 1.7606844e-38 313 162
-0.0067117601 0.63800001 0.087252878 1.633054e-38 314 162
-0.0055931332 0.63800001 0.087252878 1.697591e-38 315 162
-0.0044745067 0.63800001 0.087252878 1.6334875e-38 316 162
-0.0033506199 0.63700002 0.087116122 1.6888044e-38 317 162
-0.0022302398 0.63599998 0.086979352 1.80819e-38 318 162
-0.0011151199 0.63599998 0.086979352 1.80819e-38 319 162
0 0.63599998 0.086979352 1.8814042e-38 320 162
0.0011151199 0.63599998 0.086979352 1.8445259e-38 321 162
0.0022302398 0.63599998 0.086979352 1.8811508e-38 322 162
0.0033453598 0.63599998 0.086979352 1.8534561e-38 323 162
0.0044604796 0.63599998 0.086979352 1.9084495e-38 324 162
0.0055755996 0.63599998 0.086979352 1.8900104e-38 325 162
0.0066801999 0.63499999 0.086842597 1.8900104e-38 326 162
0.0077935657 0.63499999 0.086842597 1.8900104e-38 327 162
0.0089069325 0.63499999 0.086842597 1.8899385e-38 328 162
0.010004519 0.634 0.086705834 1.8899385e-38 329 162
0.011116133 0.634 0.086705834 1.8625312e-38 330 162
0.012227747 0.634 0.086705834 1.8533117e-38 331 162
0.013339359 0.634 0.086705834 1.8349083e-38 332 162
0.014450972 0.634 0.086705834 1.8256886e-38 333 162
0.015562586 0.634 0.086705834 1.7888826e-38 334 162
0.016726799 0.63599998 0.086979352 1.7059066e-38 335 162
0.017813865 0.63499999 0.086842597 1.5401709e-38 336 162
0.018927233 0.63499999 0.086842597 1.4479752e-38 337 162
0.020009039 0.634 0.086705834 1.4384316e-38 338 162
0.021120653 0.634 0.086705834 1.4199925e-38 339 162
-0.0078549329 0.63999999 0.086404264 1.7057287e-38 313 163
-0.0067117601 0.63800001 0.086134247 1.6423102e-38 314 163
-0.0055931332 0.63800001 0.086134247 1.6976275e-38 315 163
-0.0044745067 0.63800001 0.086134247 1.6058292e-38 316 163
-0.0033506199 0.63700002 0.08599925 1.6242323e-38 317 163
-0.0022302398 0.63599998 0.085864238 1.6886608e-38 318 163
-0.0011151199 0.63599998 0.085864238 1.7715999e-38 319 163
0 0.63599998 0.085864238 1.863291e-38 320 163
0.0011151199 0.63599998 0.085864238 1.8448878e-38 321 163
0.0022302398 0.63599998 0.085864238 1.8999155e-38 322 163
0.0033453598 0.63599998 0.085864238 1.8630374e-38 323 163
0.0044604796 0.63599998 0.085864238 1.8903348e-38 324 163
0.0055668331 0.63499999 0.085729234 1.862676e-38 325 163
0.0066801999 0.63499999 0.085729234 1.8717155e-38 326 163
0.0077935657 0.63499999 0.085729234 1.8717155e-38 327 163
0.0089069325 0.63499999 0.085729234 1.8717158e-38 328 163
0.010004519 0.634 0.085594222 1.8624962e-38 329 163
0.011116133 0.634 0.085594222 1.8534564e-38 330 163
0.012227747 0.634 0.085594222 1.8442369e-38 331 163
0.01329728 0.63200003 0.085324213 1.8258332e-38 332 163
0.014405387 0.63200003 0.085324213 1.8073941e-38 333 163
0.015562586 0.634 0.085594222 1.6783202e-38 334 163
0.016726799 0.63599998 0.085864238 1.5584659e-38 335 163
0.017813865 0.63499999 0.085729234 1.4111692e-38 336 163
0.018927233 0.63499999 0.085729234 1.374327e-38 337 163
0.020009039 0.634 0.085594222 1.4292488e-38 338 163
0.021120653 0.634 0.085594222 1.4016259e-38 339 163
-0.0067327996 0.63999999 0.085282132 1.5964284e-38 314 164
-0.0056106662 0.63999999 0.085282132 1.6793685e-38 315 164
-0.0044885329 0.63999999 0.085282132 1.6517115e-38 316 164
-0.00335588 0.63800001 0.085015625 1.6424919e-38 317 164
-0.0022337467 0.63700002 0.084882379 1.6058292e-38 318 164
-0.0011168733 0.63700002 0.084882379 1.6334877e-38 319 164
0 0.63599998 0.084749117 1.6794408e-38 320 164
0.0011151199 0.63599998 0.084749117 1.6886964e-38 321 164
0.0022302398 0.63599998 0.084749117 1.7621279e-38 322 164
0.0033453598 0.63599998 0.084749117 1.7713475e-38 323 164
0.0044604796 0.63599998 0.084749117 1.853818e-38 324 164
0.0055668331 0.63499999 0.084615864 1.8445625e-38 325 164
0.0066801999 0.63499999 0.084615864 1.8444534e-38 326 164
0.0077935657 0.63499999 0.084615864 1.8167947e-38 327 164
0.0089069325 0.63499999 0.084615864 1.8350899e-38 328 164
0.010004519 0.634 0.08448261 1.8258703e-38 329 164
0.011116133 0.634 0.08448261 1.7798808e-38 330 164
0.012227747 0.634 0.08448261 1.7338189e-38 331 164
0.01329728 0.63200003 0.084216103 1.6967962e-38 332 164
0.014405387 0.63200003 0.084216103 1.6414788e-38 333 164
0.015562586 0.634 0.08448261 1.5307717e-38 334 164
0.016726799 0.63599998 0.084749117 1.4570152e-38 335 164
0.017813865 0.63499999 0.084615864 1.3558165e-38 336 164
0.018927233 0.63499999 0.084615864 1.3650721e-38 337 164
0.0200406 0.63499999 0.084615864 1.4016978e-38 338 164
0.021220595 0.63700002 0.084882379 1.3924783e-38 339 164
-0.0067327996 0.63999999 0.08416 1.5780253e-38 314 165
-0.0056106662 0.63999999 0.08416 1.6517818e-38 315 165
-0.0044885329 0.63999999 0.08416 1.6334158e-38 316 165
-0.0033663998 0.63999999 0.08416 1.6149408e-38 317 165
-0.0022372534 0.63800001 0.083897002 1.5781353e-38 318 165
-0.0011168733 0.63700002 0.083765499 1.5688799e-38 319 165
0 0.63700002 0.083765499 1.5781348e-38 320 165
0.0011151199 0.63599998 0.083633989 1.5966099e-38 321 165
0.0022302398 0.63599998 0.083633989 1.6884806e-38 322 165
0.0033453598 0.63599998 0.083633989 1.7253588e-38 323 165
0.0044604796 0.63599998 0.083633989 1.7803508e-38 324 165
0.0055668331 0.63499999 0.083502494 1.7803508e-38 325 165
0.0066801999 0.63499999 0.083502494 1.817012e-38 326 165
0.0077935657 0.63499999 0.083502494 1.7616946e-38 327 165
0.0089069325 0.63499999 0.083502494 1.7983208e-38 328 165
0.0100203 0.63499999 0.083502494 1.7614427e-38 329 165
0.011133666 0.63499999 0.083502494 1.6786461e-38 330 165
0.012227747 0.634 0.083370999 1.6417677e-38 331 165
0.013339359 0.634 0.083370999 1.5587195e-38 332 165
0.014450972 0.634 0.083370999 1.4941826e-38 333 165
0.015611678 0.63599998 0.083633989 1.3835478e-38 334 165
0.0167531 0.63700002 0.083765499 1.3651087e-38 335 165
0.017841918 0.63599998 0.083633989 1.3650365e-38 336 165
0.018957037 0.63599998 0.083633989 1.3650365e-38 337 165
0.020103721 0.63700002 0.083765499 1.3741112e-38 338 165
0.021220595 0.63700002 0.083765499 1.3648916e-38 339 165
-0.0056281998 0.64200002 0.083297364 1.6056843e-38 315 166
-0.00450256 0.64200002 0.083297364 1.587318e-38 316 166
-0.0033716597 0.64099997 0.083167605 1.5780985e-38 317 166
-0.0022477731 0.64099997 0.083167605 1.5780629e-38 318 166
-0.0011221332 0.63999999 0.083037868 1.5596238e-38 319 166
0 0.63800001 0.082778372 1.587138e-38 320 166
0.0011168733 0.63700002 0.082648627 1.5779184e-38 321 166
0.0022337467 0.63700002 0.082648627 1.5594789e-38 322 166
0.0033453598 0.63599998 0.082518876 1.5594789e-38 323 166
0.0044604796 0.63599998 0.082518876 1.5777735e-38 324 166
0.0055755996 0.63599998 0.082518876 1.5685539e-38 325 166
0.0066907196 0.63599998 0.082518876 1.5500057e-38 326 166
0.0077935657 0.63499999 0.082389124 1.5315665e-38 327 166
0.0089069325 0.63499999 0.082389124 1.5958514e-38 328 166
0.0100203 0.63499999 0.082389124 1.5866318e-38 329 166
0.011133666 0.63499999 0.082389124 1.4762845e-38 330 166
0.012247032 0.63499999 0.082389124 1.4209671e-38 331 166
0.0133604 0.63499999 0.082389124 1.4482296e-38 332 166
0.014496559 0.63599998 0.082518876 1.4390099e-38 333 166
0.015636226 0.63700002 0.082648627 1.3835844e-38 334 166
0.016779399 0.63800001 0.082778372 1.3835844e-38 335 166
0.017898027 0.63800001 0.082778372 1.3742561e-38 336 166
0.019016653 0.63800001 0.082778372 1.3558168e-38 337 166
0.020198399 0.63999999 0.083037868 1.3924427e-38 338 166
-0.0079531204 0.648 0.082939677 1.6968707e-38 313 167
-0.0068064397 0.64700001 0.082811691 1.6147962e-38 314 167
-0.0056720334 0.64700001 0.082811691 1.6240158e-38 315 167
-0.0045095733 0.64300001 0.082299709 1.5596956e-38 316 167
-0.00337692 0.64200002 0.082171716 1.5689152e-38 317 167
-0.00225128 0.64200002 0.082171716 1.5688436e-38 318 167
-0.0011238866 0.64099997 0.082043722 1.5503686e-38 319 167
0 0.64099997 0.082043722 1.5411843e-38 320 167
0.0011186267 0.63800001 0.081659749 1.5504039e-38 321 167
0.0022337467 0.63700002 0.081531756 1.5502593e-38 322 167
0.0033506199 0.63700002 0.081531756 1.5594789e-38 323 167
0.0044674934 0.63700002 0.081531756 1.5595142e-38 324 167
0.0055755996 0.63599998 0.081403755 1.5134165e-38 325 167
0.0066907196 0.63599998 0.081403755 1.5039085e-38 326 167
0.0078058392 0.63599998 0.081403755 1.5223117e-38 327 167
0.0089209592 0.63599998 0.081403755 1.5315309e-38 328 167
0.010036079 0.63599998 0.081403755 1.5039083e-38 329 167
0.011151199 0.63599998 0.081403755 1.4852887e-38 330 167
0.012266319 0.63599998 0.081403755 1.4300071e-38 331 167
0.01340248 0.63700002 0.081531756 1.4206074e-38 332 167
0.014542148 0.63800001 0.081659749 1.4022043e-38 333 167
0.015660774 0.63800001 0.081659749 1.3928395e-38 334 167
0.016779399 0.63800001 0.081659749 1.38362e-38 335 167
0.017954132 0.63999999 0.081915729 1.3742917e-38 336 167
0.019106071 0.64099997 0.082043722 1.346597e-38 337 167
0.020229958 0.64099997 0.082043722 1.3831515e-38 338 167
-0.0079531204 0.648 0.081803516 1.6324059e-38 313 168
-0.0068064397 0.64700001 0.08167728 1.6606427e-38 314 168
-0.0056720334 0.64700001 0.08167728 1.6975209e-38 315 168
-0.0045306133 0.64600003 0.081551038 1.6057213e-38 316 168
-0.0033874398 0.64399999 0.08129856 1.5688789e-38 317 168
-0.0022547867 0.64300001 0.081172317 1.5779906e-38 318 168
-0.0011238866 0.64099997 0.080919832 1.550332e-38 319 168
0 0.64099997 0.080919832 1.550332e-38 320 168
0.0011221332 0.63999999 0.080793597 1.550332e-38 321 168
0.0022372534 0.63800001 0.080541119 1.5503676e-38 322 168
0.00335588 0.63800001 0.080541119 1.5595872e-38 323 168
0.0044745067 0.63800001 0.080541119 1.5411476e-38 324 168
0.0055931332 0.63800001 0.080541119 1.5134531e-38 325 168
0.0067012399 0.63700002 0.080414884 1.5407874e-38 326 168
0.0078181131 0.63700002 0.080414884 1.5223842e-38 327 168
0.0089349868 0.63700002 0.080414884 1.5223117e-38 328 168
0.01005186 0.63700002 0.080414884 1.4946888e-38 329 168
0.011168733 0.63700002 0.080414884 1.4760694e-38 330 168
0.012304893 0.63800001 0.080541119 1.420752e-38 331 168
0.01342352 0.63800001 0.080541119 1.4022043e-38 332 168
0.014587732 0.63999999 0.080793597 1.3837293e-38 333 168
0.015734414 0.64099997 0.080919832 1.3743648e-38 334 168
0.016858298 0.64099997 0.080919832 1.3467421e-38 335 168
0.017982185 0.64099997 0.080919832 1.3741483e-38 336 168
0.019135879 0.64200002 0.081046082 1.3649287e-38 337 168
-0.0079653924 0.64899999 0.080791838 1.4756376e-38 313 169
-0.0068169599 0.648 0.080667354 1.5868508e-38 314 169
-0.0056807999 0.648 0.080667354 1.7435829e-38 315 169
-0.0045376266 0.64700001 0.08054287 1.6517471e-38 316 169
-0.0033874398 0.64399999 0.08016941 1.6056493e-38 317 169
-0.0022582933 0.64399999 0.08016941 1.6147965e-38 318 169
-0.00112564 0.64200002 0.079920441 1.587138e-38 319 169
0 0.64099997 0.079795949 1.550332e-38 320 169
0.0011238866 0.64099997 0.079795949 1.5318928e-38 321 169
0.0022442664 0.63999999 0.079671465 1.5411123e-38 322 169
0.0033663998 0.63999999 0.079671465 1.5411123e-38 323 169
0.0044745067 0.63800001 0.079422489 1.5501871e-38 324 169
0.0055931332 0.63800001 0.079422489 1.531748e-38 325 169
0.0067327996 0.63999999 0.079671465 1.5041246e-38 326 169
0.0078549329 0.63999999 0.079671465 1.4672464e-38 327 169
0.0089770658 0.63999999 0.079671465 1.4855053e-38 328 169
0.0100992 0.63999999 0.079671465 1.4486631e-38 329 169
0.011221332 0.63999999 0.079671465 1.4575579e-38 330 169
0.012343466 0.63999999 0.079671465 1.4022406e-38 331 169
0.013486639 0.64099997 0.079795949 1.4113159e-38 332 169
0.014610525 0.64099997 0.079795949 1.3836574e-38 333 169
0.01575896 0.64200002 0.079920441 1.3743648e-38 334 169
0.016884599 0.64200002 0.079920441 1.3467421e-38 335 169
0.01801024 0.64200002 0.079920441 1.374148e-38 336 169
0.019195493 0.64399999 0.08016941 1.3465254e-38 337 169
0.020387759 0.64600003 0.080418386 1.3831512e-38 338 169
-0.0079776663 0.64999998 0.079776667 1.3370566e-38 313 170
-0.0068274797 0.64899999 0.079653934 1.4394097e-38 314 170
-0.0056895665 0.64899999 0.079653934 1.7067769e-38 315 170
-0.0045376266 0.64700001 0.079408467 1.6793697e-38 316 170
-0.00339796 0.64600003 0.079285733 1.6424921e-38 317 170
-0.0022582933 0.64399999 0.079040259 1.614869e-38 318 170
-0.0011291467 0.64399999 0.079040259 1.5964297e-38 319 170
0 0.64200002 0.0787948 1.5596235e-38 320 170
0.00112564 0.64200002 0.0787948 1.504342e-38 321 170
0.0022477731 0.64099997 0.078672059 1.550224e-38 322 170
0.0033716597 0.64099997 0.078672059 1.5226013e-38 323 170
0.0044955462 0.64099997 0.078672059 1.5500076e-38 324 170
0.0056194332 0.64099997 0.078672059 1.5223489e-38 325 170
0.0067433193 0.64099997 0.078672059 1.5040167e-38 326 170
0.0078672068 0.64099997 0.078672059 1.4671745e-38 327 170
0.0089770658 0.63999999 0.078549333 1.4761775e-38 328 170
0.0100992 0.63999999 0.078549333 1.4300437e-38 329 170
0.011221332 0.63999999 0.078549333 1.4298269e-38 330 170
0.012362752 0.64099997 0.078672059 1.4206074e-38 331 170
0.013486639 0.64099997 0.078672059 1.438902e-38 332 170
0.01463332 0.64200002 0.0787948 1.4020239e-38 333 170
0.01575896 0.64200002 0.0787948 1.3927674e-38 334 170
0.016910899 0.64300001 0.078917533 1.3743282e-38 335 170
0.018038293 0.64300001 0.078917533 1.3834033e-38 336 170
0.019255107 0.64600003 0.079285733 1.3465251e-38 337 170
0.020387759 0.64600003 0.079285733 1.3831512e-38 338 170
-0.0079776663 0.64999998 0.078636996 1.115462e-38 313 171
-0.0068274797 0.64899999 0.078516014 1.0896411e-38 314 171
-0.0056895665 0.64899999 0.078516014 1.4953019e-38 315 171
-0.00454464 0.648 0.078395039 1.697701e-38 316 171
-0.0034032199 0.64700001 0.078274064 1.7069204e-38 317 171
-0.0022653067 0.64600003 0.078153081 1.6241607e-38 318 171
-0.0011326533 0.64600003 0.078153081 1.6057216e-38 319 171
0 0.64399999 0.077911116 1.5963575e-38 320 171
0.0011273933 0.64300001 0.077790141 1.5779184e-38 321 171
0.00225128 0.64200002 0.077669159 1.5686268e-38 322 171
0.00337692 0.64200002 0.077669159 1.5501877e-38 323 171
0.00450256 0.64200002 0.077669159 1.5041972e-38 324 171
0.0056281998 0.64200002 0.077669159 1.4580994e-38 325 171
0.00675384 0.64200002 0.077669159 1.4489151e-38 326 171
0.0078672068 0.64099997 0.077548169 1.43044e-38 327 171
0.0089910924 0.64099997 0.077548169 1.466994e-38 328 171
0.010114979 0.64099997 0.077548169 1.4209321e-38 329 171
0.011238866 0.64099997 0.077548169 1.4758173e-38 330 171
0.01238204 0.64200002 0.077669159 1.4481946e-38 331 171
0.01350768 0.64200002 0.077669159 1.4756361e-38 332 171
0.01463332 0.64200002 0.077669159 1.4571611e-38 333 171
0.015783506 0.64300001 0.077790141 1.3928392e-38 334 171
0.0169372 0.64399999 0.077911116 1.355997e-38 335 171
0.018066347 0.64399999 0.077911116 1.3741836e-38 336 171
0.019255107 0.64600003 0.078153081 1.3465251e-38 337 171
0.020387759 0.64600003 0.078153081 1.3463453e-38 338 171
-0.0068274797 0.64899999 0.077378102 9.2318328e-39 314 172
-0.0056895665 0.64899999 0.077378102 1.3656864e-38 315 172
-0.00454464 0.648 0.077258877 1.5687725e-38 316 172
-0.0034032199 0.64700001 0.077139653 1.6978445e-38 317 172
-0.0022653067 0.64600003 0.077020429 1.6793697e-38 318 172
-0.0011326533 0.64600003 0.077020429 1.6516756e-38 319 172
0 0.64399999 0.076781973 1.5873183e-38 320 172
0.0011291467 0.64399999 0.076781973 1.5780629e-38 321 172
0.0022547867 0.64300001 0.076662742 1.587138e-38 322 172
0.0033821799 0.64300001 0.076662742 1.5594791e-38 323 172
0.0045095733 0.64300001 0.076662742 1.5501871e-38 324 172
0.0056369668 0.64300001 0.076662742 1.5133449e-38 325 172
0.00675384 0.64200002 0.076543517 1.5132719e-38 326 172
0.0078794798 0.64200002 0.076543517 1.4856492e-38 327 172
0.00900512 0.64200002 0.076543517 1.5037999e-38 328 172
0.01013076 0.64200002 0.076543517 1.4669577e-38 329 172
0.011273934 0.64300001 0.076662742 1.5035118e-38 330 172
0.012401327 0.64300001 0.076662742 1.4758173e-38 331 172
0.01352872 0.64300001 0.076662742 1.4573409e-38 332 172
0.014656113 0.64300001 0.076662742 1.4389017e-38 333 172
0.015808053 0.64399999 0.076781973 1.3835834e-38 334 172
0.0169372 0.64399999 0.076781973 1.3651084e-38 335 172
0.018066347 0.64399999 0.076781973 1.3740761e-38 336 172
0.019255107 0.64600003 0.077020429 1.3464175e-38 337 172
0.020387759 0.64600003 0.077020429 1.2818805e-38 338 172
-0.0056895665 0.64899999 0.076240189 1.0325583e-38 315 173
-0.00454464 0.648 0.076122716 1.0714914e-38 316 173
-0.0034032199 0.64700001 0.07600525 1.3941761e-38 317 173
-0.0022688133 0.64700001 0.07600525 1.6792263e-38 318 173
-0.0011344067 0.64700001 0.07600525 1.6976651e-38 319 173
0 0.64600003 0.075887777 1.6425997e-38 320 173
0.0011326533 0.64600003 0.075887777 1.6057216e-38 321 173
0.0022582933 0.64399999 0.075652823 1.5964297e-38 322 173
0.0033874398 0.64399999 0.075652823 1.5595516e-38 323 173
0.0045165867 0.64399999 0.075652823 1.5962852e-38 324 173
0.0056369668 0.64300001 0.07553535 1.5778462e-38 325 173
0.0067643598 0.64300001 0.07553535 1.5960684e-38 326 173
0.0078917528 0.64300001 0.07553535 1.5499706e-38 327 173
0.0090191467 0.64300001 0.07553535 1.5589382e-38 328 173
0.01014654 0.64300001 0.07553535 1.540499e-38 329 173
0.011291467 0.64399999 0.075652823 1.485217e-38 330 173
0.012420613 0.64399999 0.075652823 1.4575582e-38 331 173
0.013549759 0.64399999 0.075652823 1.4206071e-38 332 173
0.014678906 0.64399999 0.075652823 1.3745094e-38 333 173
0.015857147 0.64600003 0.075887777 1.3468493e-38 334 173
0.016989801 0.64600003 0.075887777 1.3283743e-38 335 173
0.018122453 0.64600003 0.075887777 1.3188664e-38 336 173
0.019284913 0.64700001 0.07600525 1.1990121e-38 337 173
-0.00454464 0.648 0.074986562 8.3134694e-39 316 174
-0.0034032199 0.64700001 0.07487084 1.190874e-38 317 174
-0.0022688133 0.64700001 0.07487084 1.4762531e-38 318 174
-0.0011344067 0.64700001 0.07487084 1.6422051e-38 319 174
0 0.64600003 0.074755117 1.6516397e-38 320 174
0.0011326533 0.64600003 0.074755117 1.6516397e-38 321 174
0.0022653067 0.64600003 0.074755117 1.5688789e-38 322 174
0.0033874398 0.64399999 0.074523672 1.5688789e-38 323 174
0.0045165867 0.64399999 0.074523672 1.6055048e-38 324 174
0.0056369668 0.64300001 0.074407957 1.5778462e-38 325 174
0.0067643598 0.64300001 0.074407957 1.5684818e-38 326 174
0.0078917528 0.64300001 0.074407957 1.5408229e-38 327 174
0.0090191467 0.64300001 0.074407957 1.5682656e-38 328 174
0.01014654 0.64300001 0.074407957 1.5129482e-38 329 174
0.011291467 0.64399999 0.074523672 1.485217e-38 330 174
0.012420613 0.64399999 0.074523672 1.4667778e-38 331 174
0.01359184 0.64600003 0.074755117 1.438902e-38 332 174
0.014724494 0.64600003 0.074755117 1.3928042e-38 333 174
0.015857147 0.64600003 0.074755117 1.3742563e-38 334 174
0.016989801 0.64600003 0.074755117 1.3004998e-38 335 174
0.018122453 0.64600003 0.074755117 1.1807527e-38 336 174
0.019284913 0.64700001 0.07487084 1.1807527e-38 337 174
-0.0022688133 0.64700001 0.073736429 1.0889928e-38 318 175
-0.0011344067 0.64700001 0.073736429 1.2733481e-38 319 175
0 0.64600003 0.073622465 1.4211504e-38 320 175
0.0011326533 0.64600003 0.073622465 1.5133461e-38 321 175
0.0022653067 0.64600003 0.073622465 1.6146171e-38 322 175
0.00339796 0.64600003 0.073622465 1.6422398e-38 323 175
0.0045306133 0.64600003 0.073622465 1.6146525e-38 324 175
0.0056632664 0.64600003 0.073622465 1.5869578e-38 325 175
0.00679592 0.64600003 0.073622465 1.5960684e-38 326 175
0.0079040267 0.64399999 0.07339453 1.5684099e-38 327 175
0.0090331733 0.64399999 0.07339453 1.5958517e-38 328 175
0.01016232 0.64399999 0.07339453 1.5405343e-38 329 175
0.011326533 0.64600003 0.073622465 1.5035833e-38 330 175
0.012459187 0.64600003 0.073622465 1.4483018e-38 331 175
0.01359184 0.64600003 0.073622465 1.4571964e-38 332 175
0.014724494 0.64600003 0.073622465 1.3742563e-38 333 175
0.015857147 0.64600003 0.073622465 1.2450025e-38 334 175
0.0170161 0.64700001 0.073736429 1.1159287e-38 335 175
0.018150507 0.64700001 0.073736429 1.0146574e-38 336 175
0.019284913 0.64700001 0.073736429 1.2728051e-38 337 175
-0.00113616 0.648 0.072714239 1.1530233e-38 319 176
0 0.64700001 0.072602026 1.1717534e-38 320 176
0.0011344067 0.64700001 0.072602026 1.2547654e-38 321 176
0.0022688133 0.64700001 0.072602026 1.3377782e-38 322 176
0.0034032199 0.64700001 0.072602026 1.4299737e-38 323 176
0.0045376266 0.64700001 0.072602026 1.4668874e-38 324 176
0.0056720334 0.64700001 0.072602026 1.49451e-38 325 176
0.0068064397 0.64700001 0.072602026 1.4669224e-38 326 176
0.0079408465 0.64700001 0.072602026 1.4484833e-38 327 176
0.0090752533 0.64700001 0.072602026 1.4665255e-38 328 176
0.01020966 0.64700001 0.072602026 1.411244e-38 329 176
0.011344067 0.64700001 0.072602026 1.3926597e-38 330 176
0.012478473 0.64700001 0.072602026 1.3097197e-38 331 176
0.013612879 0.64700001 0.072602026 1.272517e-38 332 176
0.014747286 0.64700001 0.072602026 1.2356029e-38 333 176
0.015881693 0.64700001 0.072602026 1.0973821e-38 334 176
0.0170161 0.64700001 0.072602026 1.1342602e-38 335 176
0 0.64700001 0.071467623 1.0422817e-38 320 177
0.0011344067 0.64700001 0.071467623 9.9614791e-39 321 177
0.0022688133 0.64700001 0.071467623 9.5037505e-39 322 177
0.0034032199 0.64700001 0.071467623 1.0517902e-38 323 177
0.00454464 0.648 0.071578078 1.1624973e-38 324 177
0.0056807999 0.648 0.071578078 1.2362538e-38 325 177
0.0068169599 0.648 0.071578078 1.2271059e-38 326 177
0.0079408465 0.64700001 0.071467623 1.1718244e-38 327 177
0.0090752533 0.64700001 0.071467623 1.2174527e-38 328 177
0.01020966 0.64700001 0.071467623 1.1713909e-38 329 177
0.011344067 0.64700001 0.071467623 1.1527713e-38 330 177
0.012478473 0.64700001 0.071467623 1.0606117e-38 331 177
0.013612879 0.64700001 0.071467623 1.041922e-38 332 177
0.014747286 0.64700001 0.071467623 1.0603611e-38 333 177
-0.035641756 0.847 0.034156688 1.8070341e-38 296 217
-0.037039164 0.84500003 0.032594465 1.7977069e-38 295 218
-0.035557602 0.84500003 0.032594465 1.8070341e-38 296 218
-0.034156688 0.847 0.032671615 1.7148743e-38 297 218
-0.035557602 0.84500003 0.0311129 1.8070343e-38 296 219
-0.017649053 0.71899998 0.020170346 1.3189363e-38 306 224
-0.016342819 0.71700001 0.020114239 1.2359602e-38 307 224
-0.015085679 0.71700001 0.020114239 1.097347e-38 308 224
-0.014021406 0.727 0.020394772 1.4661294e-38 309 224
-0.012711667 0.72500002 0.020338668 2.0005783e-38 310 224
-0.0114405 0.72500002 0.020338668 1.8162229e-38 311 224
-0.021669446 0.727 0.019120099 9.7927501e-39 303 225
-0.020394772 0.727 0.019120099 9.7002462e-39 304 225
-0.019014901 0.72299999 0.019014901 1.0069387e-38 305 225
-0.017649053 0.71899998 0.018909698 1.2364619e-38 306 225
-0.016342819 0.71700001 0.018857099 1.2364619e-38 307 225
-0.015085679 0.71700001 0.018857099 1.2172717e-38 308 225
-0.013867113 0.71899998 0.018909698 1.2172717e-38 309 225
-0.012624 0.72000003 0.018935999 1.3367685e-38 310 225
-0.01140894 0.72299999 0.019014901 1.2261338e-38 311 225
-0.022975679 0.72799999 0.017869972 1.1171706e-38 302 226
-0.021669446 0.727 0.017845426 1.0802924e-38 303 226
-0.020394772 0.727 0.017845426 9.7913152e-39 304 226
-0.019014901 0.72299999 0.017747238 9.9753463e-39 305 226
-0.017673599 0.72000003 0.017673599 1.0620057e-38 306 226
-0.016388407 0.71899998 0.017649053 1.1080675e-38 307 226
-0.01512776 0.71899998 0.017649053 1.1901849e-38 308 226
-0.013867113 0.71899998 0.017649053 1.1164284e-38 309 226
-0.012624 0.72000003 0.017673599 1.0883035e-38 310 226
-0.01140894 0.72299999 0.017747238 1.0513892e-38 311 226
-0.01014128 0.72299999 0.017747238 1.0885591e-38 312 226
-0.0088736191 0.72299999 0.017747238 1.2913894e-38 313 226
-0.024085538 0.72299999 0.01647958 1.1905013e-38 301 227
-0.02281788 0.72299999 0.01647958 1.1080602e-38 302 227
-0.021669446 0.727 0.016570752 1.0896211e-38 303 227
-0.020394772 0.727 0.016570752 1.0253009e-38 304 227
-0.019120099 0.727 0.016570752 1.0068977e-38 305 227
-0.017747238 0.72299999 0.01647958 9.6080281e-39 306 227
-0.016456785 0.722 0.016456785 9.7005825e-39 307 227
-0.0151488 0.72000003 0.0164112 1.006653e-38 308 227
-0.0138864 0.72000003 0.0164112 1.0158726e-38 309 227
-0.012624 0.72000003 0.0164112 1.1441224e-38 310 227
-0.011361601 0.72000003 0.0164112 1.1533421e-38 311 227
-0.010099201 0.72000003 0.0164112 1.1805725e-38 312 227
-0.0088613462 0.722 0.016456785 1.171353e-38 313 227
0.010001013 0.713 0.016251646 1.106854e-38 328 227
0.012378532 0.70599997 0.016092092 1.2262757e-38 330 227
0.013616386 0.70599997 0.016092092 1.2355312e-38 331 227
0.014938398 0.70999998 0.016183265 1.2629375e-38 332 227
0.026768139 0.727 0.016570752 1.0519599e-38 341 227
0.028042812 0.727 0.016570752 8.7757521e-39 342 227
0.029438468 0.73000002 0.016639132 8.7757521e-39 343 227
-0.024085538 0.72299999 0.015211919 1.1720991e-38 301 228
-0.02281788 0.72299999 0.015211919 1.1355744e-38 302 228
-0.021669446 0.727 0.015296079 1.1355744e-38 303 228
-0.020394772 0.727 0.015296079 1.0804363e-38 304 228
-0.019120099 0.727 0.015296079 1.062033e-38 305 228
-0.017796334 0.72500002 0.015254001 9.792369e-39 306 228
-0.01647958 0.72299999 0.015211919 9.7001719e-39 307 228
-0.015190879 0.722 0.015190879 9.7916837e-39 308 228
-0.013924973 0.722 0.015190879 9.976075e-39 309 228
-0.012624 0.72000003 0.0151488 1.0339887e-38 310 228
-0.011361601 0.72000003 0.0151488 1.0524637e-38 311 228
-0.010099201 0.72000003 0.0151488 1.144124e-38 312 228
-0.0088367993 0.72000003 0.0151488 1.1533436e-38 313 228
0.0087508867 0.713 0.015001519 1.1527701e-38 327 228
0.010001013 0.713 0.015001519 1.0791943e-38 328 228
0.011203799 0.70999998 0.014938398 1.0699748e-38 329 228
0.012378532 0.70599997 0.014854239 1.1527345e-38 330 228
0.013616386 0.70599997 0.014854239 1.2080517e-38 331 228
0.014791119 0.70300001 0.014791119 1.226311e-38 332 228
0.016023712 0.70300001 0.014791119 1.2816284e-38 333 228
0.025528532 0.72799999 0.01531712 9.8795577e-39 340 228
0.026768139 0.727 0.015296079 9.4189383e-39 341 228
0.028042812 0.727 0.015296079 9.6944434e-39 342 228
0.029438468 0.73000002 0.0153592 9.6944434e-39 343 228
0.03076048 0.73100001 0.01538024 1.0243696e-38 344 228
0.032042164 0.73100001 0.01538024 1.0612119e-38 345 228
-0.024218792 0.727 0.014021406 1.1628799e-38 301 229
-0.022944121 0.727 0.014021406 1.1356466e-38 302 229
-0.021669446 0.727 0.014021406 1.1172075e-38 303 229
-0.020422826 0.72799999 0.014040692 1.0804363e-38 304 229
-0.019120099 0.727 0.014021406 1.0528135e-38 305 229
-0.017796334 0.72500002 0.013982833 9.7934381e-39 306 229
-0.016525166 0.72500002 0.013982833 9.7012425e-39 307 229
-0.015211919 0.72299999 0.01394426 9.7923718e-39 308 229
-0.01394426 0.72299999 0.01394426 9.6076204e-39 309 229
-0.012659066 0.722 0.013924973 9.3303552e-39 310 229
-0.01139316 0.722 0.013924973 9.7909747e-39 311 229
-0.010099201 0.72000003 0.0138864 1.0616111e-38 312 229
-0.0088367993 0.72000003 0.0138864 1.0984892e-38 313 229
0.0087508867 0.713 0.013751393 1.2448931e-38 327 229
0.010001013 0.713 0.013751393 1.2082669e-38 328 229
0.011203799 0.70999998 0.013693533 1.2174865e-38 329 229
0.012343466 0.704 0.013577812 1.2543292e-38 330 229
0.013577812 0.704 0.013577812 1.3096464e-38 331 229
0.014791119 0.70300001 0.013558527 1.3003549e-38 332 229
0.016023712 0.70300001 0.013558527 1.3187941e-38 333 229
0.024252106 0.72799999 0.014040692 9.1441605e-39 339 229
0.025528532 0.72799999 0.014040692 9.7877152e-39 340 229
0.026804959 0.72799999 0.014040692 9.7877152e-39 341 229
0.028081384 0.72799999 0.014040692 9.8774068e-39 342 229
0.029478792 0.73100001 0.014098554 9.9699611e-39 343 229
0.03076048 0.73100001 0.014098554 1.0519207e-38 344 229
0.032042164 0.73100001 0.014098554 1.1072381e-38 345 229
0.033323854 0.73100001 0.014098554 1.3924372e-38 346 229
-0.024218792 0.727 0.012746733 1.1811763e-38 301 230
-0.022944121 0.727 0.012746733 1.1355394e-38 302 230
-0.021669446 0.727 0.012746733 1.1078807e-38 303 230
-0.020422826 0.72799999 0.012764266 1.0436658e-38 304 230
-0.019120099 0.727 0.012746733 1.0344462e-38 305 230
-0.017845426 0.727 0.012746733 9.7941444e-39 306 230
-0.016525166 0.72500002 0.012711667 9.609393e-39 307 230
-0.015254001 0.72500002 0.012711667 9.3338823e-39 308 230
-0.01394426 0.72299999 0.012676599 9.2416867e-39 309 230
-0.012659066 0.722 0.012659066 8.9647565e-39 310 230
-0.01139316 0.722 0.012659066 9.3331789e-39 311 230
-0.010099201 0.72000003 0.012624 9.4239872e-39 312 230
-0.0088245263 0.71899998 0.012606465 9.6087372e-39 313 230
-0.0075638802 0.71899998 0.012606465 9.8828648e-39 314 230
-0.0063032326 0.71899998 0.012606465 1.0159092e-38 315 230
-0.0050636264 0.722 0.012659066 1.0892373e-38 316 230
-0.0037977197 0.722 0.012659066 1.1260795e-38 317 230
-0.0025318132 0.722 0.012659066 1.2452878e-38 318 230
0.0025142799 0.71700001 0.0125714 1.2726943e-38 322 230
0.0037714199 0.71700001 0.0125714 1.2726943e-38 323 230
0.0050285598 0.71700001 0.0125714 1.2727296e-38 324 230
0.0062769335 0.71600002 0.012553867 1.2727296e-38 325 230
0.00753232 0.71600002 0.012553867 1.2726577e-38 326 230
0.0087877065 0.71600002 0.012553867 1.2910608e-38 327 230
0.010043093 0.71600002 0.012553867 1.2176287e-38 328 230
0.011266919 0.71399999 0.012518799 1.2084092e-38 329 230
0.012343466 0.704 0.012343466 1.1992619e-38 330 230
0.013558527 0.70300001 0.012325933 1.2269205e-38 331 230
0.014749039 0.70099998 0.012290866 1.2086607e-38 332 230
0.015978126 0.70099998 0.012290866 1.1810379e-38 333 230
0.017673599 0.72000003 0.012624 1.1260051e-38 334 230
0.018935999 0.72000003 0.012624 1.0799073e-38 335 230
0.020254506 0.722 0.012659066 1.0157221e-38 336 230
0.021520413 0.722 0.012659066 9.3274588e-39 337 230
0.02281788 0.72299999 0.012676599 9.4188977e-39 338 230
0.024252106 0.72799999 0.012764266 9.8795157e-39 339 230
0.025528532 0.72799999 0.012764266 9.8795423e-39 340 230
0.026804959 0.72799999 0.012764266 9.6951497e-39 341 230
0.028081384 0.72799999 0.012764266 1.0428065e-38 342 230
0.029478792 0.73100001 0.012816866 1.0428065e-38 343 230
0.03076048 0.73100001 0.012816866 1.0610331e-38 344 230
0.032042164 0.73100001 0.012816866 1.1163504e-38 345 230
0.033323854 0.73100001 0.012816866 1.4201326e-38 346 230
-0.025493465 0.727 0.01147206 1.3285837e-38 300 231
-0.024218792 0.727 0.01147206 1.1810707e-38 301 231
-0.022944121 0.727 0.01147206 1.0804388e-38 302 231
-0.021699252 0.72799999 0.01148784 1.0619997e-38 303 231
-0.020478934 0.73000002 0.011519399 1.0161498e-38 304 231
-0.0191464 0.72799999 0.01148784 1.0161498e-38 305 231
-0.017845426 0.727 0.01147206 9.7948479e-39 306 231
-0.016525166 0.72500002 0.0114405 9.7022921e-39 307 231
-0.015254001 0.72500002 0.0114405 9.5178882e-39 308 231
-0.01394426 0.72299999 0.01140894 9.5178882e-39 309 231
-0.012659066 0.722 0.01139316 9.3338669e-39 310 231
-0.01139316 0.722 0.01139316 9.3338669e-39 311 231
-0.010099201 0.72000003 0.011361601 9.1484373e-39 312 231
-0.0088245263 0.71899998 0.01134582 9.4250242e-39 313 231
-0.0075638802 0.71899998 0.01134582 9.4246935e-39 314 231
-0.0063032326 0.71899998 0.01134582 9.2406623e-39 315 231
-0.0050636264 0.722 0.01139316 9.9753883e-39 316 231
-0.0037977197 0.722 0.01139316 1.0528561e-38 317 231
-0.0025248001 0.72000003 0.011361601 1.1719603e-38 318 231
-0.0012624001 0.72000003 0.011361601 1.1904354e-38 319 231
0 0.72000003 0.011361601 1.1994413e-38 320 231
0.0012606466 0.71899998 0.01134582 1.1994413e-38 321 231
0.0025142799 0.71700001 0.01131426 1.1993691e-38 322 231
0.0037714199 0.71700001 0.01131426 1.1993691e-38 323 231
0.0050285598 0.71700001 0.01131426 1.1902202e-38 324 231
0.0062769335 0.71600002 0.01129848 1.1625616e-38 325 231
0.00753232 0.71600002 0.01129848 1.1717089e-38 326 231
0.0087877065 0.71600002 0.01129848 1.1809284e-38 327 231
0.010043093 0.71600002 0.01129848 1.1625969e-38 328 231
0.01129848 0.71600002 0.01129848 1.1441577e-38 329 231
0.012343466 0.704 0.011109119 1.0889824e-38 330 231
0.013558527 0.70300001 0.01109334 1.0797627e-38 331 231
0.014749039 0.70099998 0.011061779 1.070864e-38 332 231
0.015978126 0.70099998 0.011061779 1.0339858e-38 333 231
0.017673599 0.72000003 0.011361601 9.5114815e-39 334 231
0.018935999 0.72000003 0.011361601 9.5114815e-39 335 231
0.020254506 0.722 0.01139316 9.6969097e-39 336 231
0.021520413 0.722 0.01139316 9.5121597e-39 337 231
0.02281788 0.72299999 0.01140894 9.6036421e-39 338 231
0.024252106 0.72799999 0.01148784 9.8798688e-39 339 231
0.025528532 0.72799999 0.01148784 1.0521315e-38 340 231
0.026804959 0.72799999 0.01148784 1.0429119e-38 341 231
0.028158534 0.73000002 0.011519399 1.0243325e-38 342 231
0.029478792 0.73100001 0.01153518 1.0612106e-38 343 231
0.03076048 0.73100001 0.01153518 1.0795092e-38 344 231
0.032042164 0.73100001 0.01153518 1.1256069e-38 345 231
0.033323854 0.73100001 0.01153518 1.4200979e-38 346 231
-0.025703866 0.73299998 0.010281546 1.3836882e-38 300 232
-0.024418673 0.73299998 0.010281546 1.1716383e-38 301 232
-0.02307036 0.73100001 0.010253493 1.0160486e-38 302 232
-0.021788673 0.73100001 0.010253493 1.0252681e-38 303 232
-0.020478934 0.73000002 0.010239467 1.0070396e-38 304 232
-0.0191464 0.72799999 0.010211413 9.9782008e-39 305 232
-0.017869972 0.72799999 0.010211413 9.7040942e-39 306 232
-0.016570752 0.727 0.010197386 9.4275059e-39 307 232
-0.015296079 0.727 0.010197386 9.4271289e-39 308 232
-0.013982833 0.72500002 0.010169334 9.2427405e-39 309 232
-0.012676599 0.72299999 0.01014128 9.3338585e-39 310 232
-0.01140894 0.72299999 0.01014128 9.3338585e-39 311 232
-0.010127253 0.722 0.010127253 9.1501875e-39 312 232
-0.0088613462 0.722 0.010127253 9.1501875e-39 313 232
-0.0075954394 0.722 0.010127253 9.1498414e-39 314 232
-0.0063295332 0.722 0.010127253 8.9658103e-39 315 232
-0.0050636264 0.722 0.010127253 9.4257753e-39 316 232
-0.0037977197 0.722 0.010127253 9.9785903e-39 317 232
-0.0025248001 0.72000003 0.010099201 1.0893774e-38 318 232
-0.0012624001 0.72000003 0.010099201 1.117036e-38 319 232
0 0.72000003 0.010099201 1.1443729e-38 320 232
0.0012606466 0.71899998 0.010085173 1.1351175e-38 321 232
0.0025142799 0.71700001 0.01005712 1.1443376e-38 322 232
0.0037714199 0.71700001 0.01005712 1.135118e-38 323 232
0.0050285598 0.71700001 0.01005712 1.0983467e-38 324 232
0.0062857 0.71700001 0.01005712 1.0522489e-38 325 232
0.0075428397 0.71700001 0.01005712 9.7892329e-39 326 232
0.0087877065 0.71600002 0.010043093 9.8817886e-39 327 232
0.010043093 0.71600002 0.010043093 1.0249124e-38 328 232
0.01131426 0.71700001 0.01005712 1.0249124e-38 329 232
0.0125714 0.71700001 0.01005712 1.0799411e-38 330 232
0.013828539 0.71700001 0.01005712 1.0615018e-38 331 232
0.0151488 0.72000003 0.010099201 1.0524948e-38 332 232
0.0164112 0.72000003 0.010099201 9.9717744e-39 333 232
0.017722692 0.722 0.010127253 9.8802458e-39 334 232
0.0189886 0.722 0.010127253 9.2348764e-39 335 232
0.020282559 0.72299999 0.01014128 9.6947587e-39 336 232
0.021550218 0.72299999 0.01014128 9.7869543e-39 337 232
0.022880999 0.72500002 0.010169334 1.0246157e-38 338 232
0.024252106 0.72799999 0.010211413 1.0430548e-38 339 232
0.025528532 0.72799999 0.010211413 1.0795034e-38 340 232
0.026878599 0.73000002 0.010239467 1.0518446e-38 341 232
0.028197108 0.73100001 0.010253493 9.9674584e-39 342 232
0.029559445 0.73299998 0.010281546 1.0612828e-38 343 232
0.030886721 0.73400003 0.010295574 1.1530507e-38 344 232
0.032173667 0.73400003 0.010295574 1.2268072e-38 345 232
0.033551786 0.736 0.010323626 1.3465581e-38 346 232
-0.025809066 0.736 0.0090331733 1.4389355e-38 300 233
-0.024518613 0.736 0.0090331733 1.1992269e-38 301 233
-0.023165042 0.73400003 0.0090086265 1.1169991e-38 302 233
-0.021878093 0.73400003 0.0090086265 1.1538413e-38 303 233
-0.020563092 0.73299998 0.0089963535 1.172347e-38 304 233
-0.019199001 0.73000002 0.0089595336 1.1355047e-38 305 233
-0.017919067 0.73000002 0.0089595336 1.0254044e-38 306 233
-0.016593546 0.72799999 0.0089349858 9.7934255e-39 307 233
-0.01531712 0.72799999 0.0089349858 9.7941122e-39 308 233
-0.014021406 0.727 0.0089227129 9.7015592e-39 309 233
-0.012711667 0.72500002 0.0088981669 9.5178882e-39 310 233
-0.01140894 0.72299999 0.0088736191 9.7019179e-39 311 233
-0.01014128 0.72299999 0.0088736191 9.7012005e-39 312 233
-0.0088736191 0.72299999 0.0088736191 9.7933947e-39 313 233
-0.0075954394 0.722 0.0088613462 1.0251137e-38 314 233
-0.0063295332 0.722 0.0088613462 1.0343333e-38 315 233
-0.0050636264 0.722 0.0088613462 1.0804015e-38 316 233
-0.0037977197 0.722 0.0088613462 1.1080602e-38 317 233
-0.0025318132 0.722 0.0088613462 1.1077788e-38 318 233
-0.0012624001 0.72000003 0.0088367993 1.1170344e-38 319 233
0 0.72000003 0.0088367993 1.0526438e-38 320 233
0.0012624001 0.72000003 0.0088367993 1.0618635e-38 321 233
0.0025212932 0.71899998 0.0088245263 1.0433886e-38 322 233
0.0037819401 0.71899998 0.0088245263 1.0433886e-38 323 233
0.0050425865 0.71899998 0.0088245263 1.0433871e-38 324 233
0.0062857 0.71700001 0.0087999795 1.024948e-38 325 233
0.0075428397 0.71700001 0.0087999795 1.024983e-38 326 233
0.0087999795 0.71700001 0.0087999795 1.0157634e-38 327 233
0.01005712 0.71700001 0.0087999795 1.0341293e-38 328 233
0.01134582 0.71899998 0.0088245263 1.0433848e-38 329 233
0.012606465 0.71899998 0.0088245263 1.135112e-38 330 233
0.0138864 0.72000003 0.0088367993 1.1258924e-38 331 233
0.0151488 0.72000003 0.0088367993 1.0982681e-38 332 233
0.016456785 0.722 0.0088613462 1.0522062e-38 333 233
