# .PCD v.7 - Point Cloud Data file format
FIELDS x y z rgb imX imY
SIZE 4 4 4 4 4 4
TYPE F F F F F F
COUNT 1 1 1 1 1 1
WIDTH 829
HEIGHT 1
VIEWPOINT 0 0 0 1 0 0 0
POINTS 829
DATA ascii
-0.030816587 0.676 0.0059262668 1.0051845e-38 294 235
-0.029631332 0.676 0.0059262668 1.014404e-38 295 235
-0.028404001 0.67500001 0.0059174998 1.0970561e-38 296 235
-0.027220501 0.67500001 0.0059174998 1.078581e-38 297 235
-0.026037 0.67500001 0.0059174998 1.0786163e-38 298 235
-0.0248535 0.67500001 0.0059174998 1.041774e-38 299 235
-0.023669999 0.67500001 0.0059174998 9.9582028e-39 300 235
-0.022486499 0.67500001 0.0059174998 9.5894217e-39 301 235
-0.021334561 0.676 0.0059262668 8.9444208e-39 302 235
-0.020149305 0.676 0.0059262668 8.2068558e-39 303 235
-0.018964052 0.676 0.0059262668 8.3908967e-39 304 235
-0.017778801 0.676 0.0059262668 8.3908967e-39 305 235
-0.016593546 0.676 0.0059262668 8.7571555e-39 306 235
-0.015408293 0.676 0.0059262668 8.8493511e-39 307 235
-0.014223038 0.676 0.0059262668 1.0323024e-38 308 235
-0.013037786 0.676 0.0059262668 1.0046077e-38 309 235
-0.011852534 0.676 0.0059262668 7.8355173e-39 310 235
-0.01066728 0.676 0.0059262668 7.1901479e-39 311 235
-0.0095100794 0.67799997 0.0059437994 6.9153533e-39 312 235
-0.0083213197 0.67799997 0.0059437994 6.730962e-39 313 235
-0.0071325595 0.67799997 0.0059437994 6.3643319e-39 314 235
-0.0059437994 0.67799997 0.0059437994 6.3643319e-39 315 235
-0.0047620535 0.67900002 0.0059525664 6.4554373e-39 316 235
-0.0035767998 0.68000001 0.0059613334 6.4554373e-39 317 235
-0.0023915465 0.68199998 0.005978866 6.182065e-39 318 235
-0.0011957732 0.68199998 0.005978866 6.274262e-39 319 235
0 0.68300003 0.0059876335 6.3682331e-39 320 235
0.0011975267 0.68300003 0.0059876335 6.5526244e-39 321 235
0.0024055731 0.68599999 0.0060139326 7.6557321e-39 322 235
0.0036136196 0.68699998 0.0060226996 8.3011015e-39 323 235
0.0048251734 0.68800002 0.0060314666 8.3929496e-39 324 235
0.0060489997 0.69 0.0060489997 8.2081996e-39 325 235
0.0072903596 0.69300002 0.0060753003 8.1142468e-39 326 235
0.0085176928 0.69400001 0.0060840664 5.9019118e-39 327 235
0.0097625591 0.69599998 0.0061015999 5.718643e-39 328 235
-0.0550722 0.69800001 0.0048953067 1.5766174e-38 275 236
-0.053694077 0.69599998 0.0048812795 1.4384669e-38 276 236
-0.05224758 0.69300002 0.00486024 1.226417e-38 277 236
-0.051032521 0.69300002 0.00486024 1.1985056e-38 278 236
-0.049673684 0.69099998 0.0048462129 1.2077252e-38 279 236
-0.04846213 0.69099998 0.0048462129 1.1986152e-38 280 236
-0.047182199 0.69 0.0048391996 1.0972359e-38 281 236
-0.045772515 0.68699998 0.0048181596 8.4834595e-39 282 236
-0.044503104 0.68599999 0.0048111463 8.0228401e-39 283 236
-0.043300316 0.68599999 0.0048111463 7.9306571e-39 284 236
-0.041913435 0.68300003 0.0047901068 7.7466259e-39 285 236
-0.040656291 0.68199998 0.004783093 7.6540744e-39 286 236
-0.039344799 0.68000001 0.0047690663 8.0228555e-39 287 236
-0.038152531 0.68000001 0.0047690663 7.8395432e-39 288 236
-0.036905911 0.67900002 0.0047620535 7.8395432e-39 289 236
-0.035715401 0.67900002 0.0047620535 8.7600548e-39 290 236
-0.034474038 0.67799997 0.0047550397 9.1284786e-39 291 236
-0.033285279 0.67799997 0.0047550397 9.6794874e-39 292 236
-0.032001842 0.676 0.0047410131 9.771683e-39 293 236
-0.030816587 0.676 0.0047410131 1.0047544e-38 294 236
-0.029631332 0.676 0.0047410131 1.0231937e-38 295 236
-0.028446076 0.676 0.0047410131 1.0324485e-38 296 236
-0.027220501 0.67500001 0.0047339997 1.0324485e-38 297 236
-0.026037 0.67500001 0.0047339997 1.032556e-38 298 236
-0.0248535 0.67500001 0.0047339997 1.0417756e-38 299 236
-0.023669999 0.67500001 0.0047339997 1.0325557e-38 300 236
-0.022486499 0.67500001 0.0047339997 9.7723836e-39 301 236
-0.021334561 0.676 0.0047410131 8.7589576e-39 302 236
-0.020149305 0.676 0.0047410131 8.2057838e-39 303 236
-0.018964052 0.676 0.0047410131 8.2987011e-39 304 236
-0.017778801 0.676 0.0047410131 8.4830938e-39 305 236
-0.016593546 0.676 0.0047410131 8.8493511e-39 306 236
-0.015408293 0.676 0.0047410131 8.8493511e-39 307 236
-0.014223038 0.676 0.0047410131 1.0598897e-38 308 236
-0.013037786 0.676 0.0047410131 1.0230475e-38 309 236
-0.011852534 0.676 0.0047410131 8.2954235e-39 310 236
-0.01066728 0.676 0.0047410131 7.2809114e-39 311 236
-0.0095100794 0.67799997 0.0047550397 6.9146344e-39 312 236
-0.0083213197 0.67799997 0.0047550397 6.8224388e-39 313 236
-0.0071430802 0.67900002 0.0047620535 6.5476469e-39 314 236
-0.0059525664 0.67900002 0.0047620535 6.5476469e-39 315 236
-0.0047690663 0.68000001 0.0047690663 6.4554485e-39 316 236
-0.0035767998 0.68000001 0.0047690663 6.3632515e-39 317 236
-0.0023915465 0.68199998 0.004783093 6.5487035e-39 318 236
-0.0011975267 0.68300003 0.0047901068 6.5487035e-39 319 236
0 0.68300003 0.0047901068 6.6419557e-39 320 236
0.00119928 0.68400002 0.0047971201 6.9181825e-39 321 236
0.0024055731 0.68599999 0.0048111463 7.5628302e-39 322 236
0.0036136196 0.68699998 0.0048181596 8.116004e-39 323 236
0.0048391996 0.69 0.0048391996 8.1156509e-39 324 236
0.0060753003 0.69300002 0.00486024 8.1156509e-39 325 236
0.0072903596 0.69300002 0.00486024 8.0213295e-39 326 236
0.0085176928 0.69400001 0.0048672534 5.9930242e-39 327 236
0.0097625591 0.69599998 0.0048812795 6.2689301e-39 328 236
-0.0550722 0.69800001 0.0036714801 1.5490311e-38 275 237
-0.053694077 0.69599998 0.0036609597 1.4384319e-38 276 237
-0.052322973 0.69400001 0.0036504399 1.2816634e-38 277 237
-0.051106159 0.69400001 0.0036504399 1.2629359e-38 278 237
-0.049817458 0.69300002 0.0036451798 1.2444609e-38 279 237
-0.04846213 0.69099998 0.0036346598 1.1802843e-38 280 237
-0.047182199 0.69 0.0036293997 1.1065276e-38 281 237
-0.045839146 0.68800002 0.0036188802 9.7720361e-39 282 237
-0.044567976 0.68699998 0.0036136196 9.0341123e-39 283 237
-0.043300316 0.68599999 0.00360836 8.7582541e-39 284 237
-0.041974798 0.68400002 0.00359784 8.5738615e-39 285 237
-0.040715907 0.68300003 0.0035925799 8.2065279e-39 286 237
-0.039460517 0.68199998 0.00358732 8.3905604e-39 287 237
-0.038152531 0.68000001 0.0035767998 8.4823931e-39 288 237
-0.036960267 0.68000001 0.0035767998 8.4823931e-39 289 237
-0.035715401 0.67900002 0.0035715401 9.5869386e-39 290 237
-0.034524884 0.67900002 0.0035715401 9.8635255e-39 291 237
-0.033285279 0.67799997 0.0035662798 9.5883707e-39 292 237
-0.03209652 0.67799997 0.0035662798 9.4958164e-39 293 237
-0.030907756 0.67799997 0.0035662798 9.6805636e-39 294 237
-0.029631332 0.676 0.0035557596 9.6805636e-39 295 237
-0.028446076 0.676 0.0035557596 9.6794818e-39 296 237
-0.027260827 0.676 0.0035557596 9.5872861e-39 297 237
-0.026075572 0.676 0.0035557596 9.4021774e-39 298 237
-0.0248535 0.67500001 0.0035505001 8.6642536e-39 299 237
-0.023669999 0.67500001 0.0035505001 8.2054307e-39 300 237
-0.022519812 0.676 0.0035557596 8.7586045e-39 301 237
-0.021334561 0.676 0.0035557596 8.5734929e-39 302 237
-0.020149305 0.676 0.0035557596 8.4812973e-39 303 237
-0.018964052 0.676 0.0035557596 8.3908967e-39 304 237
-0.017778801 0.676 0.0035557596 8.4830938e-39 305 237
-0.016593546 0.676 0.0035557596 8.8486323e-39 306 237
-0.015408293 0.676 0.0035557596 8.9408279e-39 307 237
-0.014223038 0.676 0.0035557596 1.05989e-38 308 237
-0.013037786 0.676 0.0035557596 1.0322674e-38 309 237
-0.011852534 0.676 0.0035557596 8.387266e-39 310 237
-0.010698839 0.67799997 0.0035662798 7.5575053e-39 311 237
-0.0095100794 0.67799997 0.0035662798 7.0986711e-39 312 237
-0.0083335936 0.67900002 0.0035715401 6.9142813e-39 313 237
-0.0071430802 0.67900002 0.0035715401 6.546575e-39 314 237
-0.0059525664 0.67900002 0.0035715401 6.546575e-39 315 237
-0.0047690663 0.68000001 0.0035767998 6.4547339e-39 316 237
-0.00358732 0.68199998 0.00358732 6.4547339e-39 317 237
-0.0023915465 0.68199998 0.00358732 6.8238639e-39 318 237
-0.0011975267 0.68300003 0.0035925799 7.3766789e-39 319 237
0 0.68300003 0.0035925799 7.0089586e-39 320 237
0.00119928 0.68400002 0.00359784 6.732013e-39 321 237
0.0024090798 0.68699998 0.0036136196 7.3780915e-39 322 237
0.0036136196 0.68699998 0.0036136196 7.6546783e-39 323 237
0.0048391996 0.69 0.0036293997 7.9301862e-39 324 237
0.0060753003 0.69300002 0.0036451798 8.1149376e-39 325 237
0.0072903596 0.69300002 0.0036451798 8.1146027e-39 326 237
0.0085176928 0.69400001 0.0036504399 6.2706901e-39 327 237
0.0097625591 0.69599998 0.0036609597 6.6369937e-39 328 237
-0.0550722 0.69800001 0.0024476533 1.5582509e-38 275 238
-0.053694077 0.69599998 0.0024406398 1.4292488e-38 276 238
-0.05224758 0.69300002 0.00243012 1.2909552e-38 277 238
-0.051032521 0.69300002 0.00243012 1.2630078e-38 278 238
-0.049817458 0.69300002 0.00243012 1.2445688e-38 279 238
-0.04846213 0.69099998 0.0024231065 1.1710646e-38 280 238
-0.047250576 0.69099998 0.0024231065 1.1157473e-38 281 238
-0.045839146 0.68800002 0.0024125867 1.041705e-38 282 238
-0.044567976 0.68699998 0.0024090798 9.5872889e-39 283 238
-0.043300316 0.68599999 0.0024055731 9.2181561e-39 284 238
-0.041974798 0.68400002 0.0023985601 9.0337648e-39 285 238
-0.040715907 0.68300003 0.0023950534 8.2997969e-39 286 238
-0.039460517 0.68199998 0.0023915465 8.2997969e-39 287 238
-0.038264744 0.68199998 0.0023915465 8.5745859e-39 288 238
-0.036960267 0.68000001 0.0023845332 8.7589758e-39 289 238
-0.035715401 0.67900002 0.0023810267 9.9560771e-39 290 238
-0.034524884 0.67900002 0.0023810267 1.1062066e-38 291 238
-0.033285279 0.67799997 0.0023775198 1.0236609e-38 292 238
-0.03209652 0.67799997 0.0023775198 9.9596616e-39 293 238
-0.030907756 0.67799997 0.0023775198 9.8678163e-39 294 238
-0.029631332 0.676 0.0023705065 9.5915895e-39 295 238
-0.028446076 0.676 0.0023705065 9.8652981e-39 296 238
-0.027260827 0.676 0.0023705065 9.5890714e-39 297 238
-0.026075572 0.676 0.0023705065 9.0341151e-39 298 238
-0.024890319 0.676 0.0023705065 7.835572e-39 299 238
-0.023705067 0.676 0.0023705065 7.8352188e-39 300 238
-0.022519812 0.676 0.0023705065 8.4805882e-39 301 238
-0.021397678 0.67799997 0.0023775198 8.2061495e-39 302 238
-0.020149305 0.676 0.0023705065 8.2061495e-39 303 238
-0.018964052 0.676 0.0023705065 8.3908939e-39 304 238
-0.0178314 0.67799997 0.0023775198 8.3908939e-39 305 238
-0.016642639 0.67799997 0.0023775198 8.9397489e-39 306 238
-0.015453878 0.67799997 0.0023775198 9.1244989e-39 307 238
-0.014265119 0.67799997 0.0023775198 1.0415235e-38 308 238
-0.013076359 0.67799997 0.0023775198 1.0323039e-38 309 238
-0.011887599 0.67799997 0.0023775198 8.2043222e-39 310 238
-0.010698839 0.67799997 0.0023775198 7.5589528e-39 311 238
-0.0095100794 0.67799997 0.0023775198 7.6500541e-39 312 238
-0.0083335936 0.67900002 0.0023810267 7.4653027e-39 313 238
-0.0071430802 0.67900002 0.0023810267 7.3730916e-39 314 238
-0.0059613334 0.68000001 0.0023845332 7.3730916e-39 315 238
-0.0047690663 0.68000001 0.0023845332 7.0975809e-39 316 238
-0.00358732 0.68199998 0.0023915465 7.0053853e-39 317 238
-0.0023950534 0.68300003 0.0023950534 7.5600038e-39 318 238
-0.0011975267 0.68300003 0.0023950534 8.2053732e-39 319 238
0 0.68300003 0.0023950534 7.651461e-39 320 238
0.00119928 0.68400002 0.0023985601 7.2823183e-39 321 238
0.0024090798 0.68699998 0.0024090798 7.7447132e-39 322 238
0.0036188802 0.68800002 0.0024125867 8.2053312e-39 323 238
0.0048391996 0.69 0.0024195998 8.0220161e-39 324 238
0.0060753003 0.69300002 0.00243012 8.298603e-39 325 238
0.0072903596 0.69300002 0.00243012 8.8500168e-39 326 238
0.0085176928 0.69400001 0.0024336267 6.6376804e-39 327 238
0.0097625591 0.69599998 0.0024406398 6.4529724e-39 328 238
-0.0550722 0.69800001 0.0012238267 1.5305919e-38 275 239
-0.053694077 0.69599998 0.0012203199 1.4291767e-38 276 239
-0.05224758 0.69300002 0.00121506 1.2908833e-38 277 239
-0.051032521 0.69300002 0.00121506 1.2078351e-38 278 239
-0.049817458 0.69300002 0.00121506 1.1986155e-38 279 239
-0.04846213 0.69099998 0.0012115532 1.1618094e-38 280 239
-0.047250576 0.69099998 0.0012115532 1.106492e-38 281 239
-0.045839146 0.68800002 0.0012062934 1.0143337e-38 282 239
-0.044567976 0.68699998 0.0012045399 9.4057717e-39 283 239
-0.043300316 0.68599999 0.0012027866 9.0355627e-39 284 239
-0.041974798 0.68400002 0.00119928 8.5745859e-39 285 239
-0.040715907 0.68300003 0.0011975267 8.2072454e-39 286 239
-0.039460517 0.68199998 0.0011957732 8.2997997e-39 287 239
-0.038264744 0.68199998 0.0011957732 8.6657026e-39 288 239
-0.036960267 0.68000001 0.0011922666 8.7582569e-39 289 239
-0.035767999 0.68000001 0.0011922666 9.1288345e-39 290 239
-0.034575731 0.68000001 0.0011922666 9.8663996e-39 291 239
-0.033334374 0.67900002 0.0011905134 9.866031e-39 292 239
-0.032143861 0.67900002 0.0011905134 1.0234453e-38 293 239
-0.030953348 0.67900002 0.0011905134 9.9592958e-39 294 239
-0.029718997 0.67799997 0.0011887599 1.0144046e-38 295 239
-0.028530238 0.67799997 0.0011887599 9.869254e-39 296 239
-0.027260827 0.676 0.0011852533 9.7766996e-39 297 239
-0.026075572 0.676 0.0011852533 9.4039739e-39 298 239
-0.024890319 0.676 0.0011852533 7.5600613e-39 299 239
-0.023705067 0.676 0.0011852533 8.295834e-39 300 239
-0.022519812 0.676 0.0011852533 8.4802253e-39 301 239
-0.021397678 0.67799997 0.0011887599 8.2983452e-39 302 239
-0.020208918 0.67799997 0.0011887599 8.2061495e-39 303 239
-0.019020159 0.67799997 0.0011887599 8.7571583e-39 304 239
-0.0178314 0.67799997 0.0011887599 8.941551e-39 305 239
-0.016642639 0.67799997 0.0011887599 8.8493511e-39 306 239
-0.015453878 0.67799997 0.0011887599 8.9415482e-39 307 239
-0.014265119 0.67799997 0.0011887599 1.0230844e-38 308 239
-0.013076359 0.67799997 0.0011887599 1.0230844e-38 309 239
-0.011887599 0.67799997 0.0011887599 7.744077e-39 310 239
-0.010714619 0.67900002 0.0011905134 7.6518813e-39 311 239
-0.009524107 0.67900002 0.0011905134 8.3851136e-39 312 239
-0.0083335936 0.67900002 0.0011905134 7.8319412e-39 313 239
-0.0071430802 0.67900002 0.0011905134 7.6500485e-39 314 239
-0.0059613334 0.68000001 0.0011922666 7.7426028e-39 315 239
-0.0047690663 0.68000001 0.0011922666 7.2848645e-39 316 239
-0.00358732 0.68199998 0.0011957732 7.2848645e-39 317 239
-0.0023950534 0.68300003 0.0011975267 8.1138993e-39 318 239
-0.0011975267 0.68300003 0.0011975267 8.2060949e-39 319 239
0 0.68400002 0.00119928 7.745823e-39 320 239
0.0012027866 0.68599999 0.0012027866 7.4688774e-39 321 239
0.0024090798 0.68699998 0.0012045399 9.3999339e-39 322 239
0.0036188802 0.68800002 0.0012062934 9.3077383e-39 323 239
0.0048462129 0.69099998 0.0012115532 8.205334e-39 324 239
0.0060753003 0.69300002 0.00121506 8.6659534e-39 325 239
0.0072903596 0.69300002 0.00121506 8.6674178e-39 326 239
0.0085176928 0.69400001 0.0012168133 6.7313095e-39 327 239
0.0097345067 0.69400001 0.0012168133 6.1767345e-39 328 239
-0.055229999 0.69999999 -0 1.4752746e-38 275 240
-0.053771228 0.69700003 -0 1.4382521e-38 276 240
-0.052473757 0.69599998 -0 1.3276174e-38 277 240
-0.051106159 0.69400001 -0 1.1987953e-38 278 240
-0.049817458 0.69300002 -0 1.1803562e-38 279 240
-0.048602402 0.69300002 -0 1.1434426e-38 280 240
-0.047250576 0.69099998 -0 1.1157839e-38 281 240
-0.045972396 0.69 -0 1.069399e-38 282 240
-0.044632856 0.68800002 -0 9.8642289e-39 283 240
-0.043363437 0.68699998 -0 9.3107048e-39 284 240
-0.042097531 0.68599999 -0 9.034118e-39 285 240
-0.040775519 0.68400002 -0 8.4831092e-39 286 240
-0.039518382 0.68300003 -0 8.3909135e-39 287 240
-0.038264744 0.68199998 -0 8.4827462e-39 288 240
-0.036960267 0.68000001 -0 8.758973e-39 289 240
-0.035767999 0.68000001 -0 8.9433671e-39 290 240
-0.034575731 0.68000001 -0 9.1277597e-39 291 240
-0.033334374 0.67900002 -0 9.4039893e-39 292 240
-0.032143861 0.67900002 -0 9.4961849e-39 293 240
-0.030953348 0.67900002 -0 9.9571476e-39 294 240
-0.029762832 0.67900002 -0 1.0233735e-38 295 240
-0.028530238 0.67799997 -0 1.0695413e-38 296 240
-0.027341479 0.67799997 -0 1.0511021e-38 297 240
-0.026152719 0.67799997 -0 9.6809139e-39 298 240
-0.024890319 0.676 -0 7.5604144e-39 299 240
-0.023705067 0.676 -0 7.2870729e-39 300 240
-0.022519812 0.676 -0 7.9324423e-39 301 240
-0.021397678 0.67799997 -0 8.5738461e-39 302 240
-0.020208918 0.67799997 -0 8.5738461e-39 303 240
-0.019020159 0.67799997 -0 8.666762e-39 304 240
-0.0178314 0.67799997 -0 8.4820106e-39 305 240
-0.016642639 0.67799997 -0 8.4812917e-39 306 240
-0.015453878 0.67799997 -0 8.7582387e-39 307 240
-0.014265119 0.67799997 -0 9.4950765e-39 308 240
-0.013095647 0.67900002 -0 9.4950765e-39 309 240
-0.011905133 0.67900002 -0 8.2968836e-39 310 240
-0.010714619 0.67900002 -0 8.2968836e-39 311 240
-0.009524107 0.67900002 -0 9.2163036e-39 312 240
-0.0083458666 0.68000001 -0 8.847521e-39 313 240
-0.0071535995 0.68000001 -0 9.3985298e-39 314 240
-0.0059613334 0.68000001 -0 9.674758e-39 315 240
-0.004783093 0.68199998 -0 9.2163008e-39 316 240
-0.00358732 0.68199998 -0 9.2163008e-39 317 240
-0.0023950534 0.68300003 -0 9.2173728e-39 318 240
-0.00119928 0.68400002 -0 9.4939596e-39 319 240
0 0.68599999 -0 8.9407901e-39 320 240
0.0012045399 0.68699998 -0 8.7563974e-39 321 240
0.0024090798 0.68699998 -0 1.0137163e-38 322 240
0.0036293997 0.69 -0 1.0229717e-38 323 240
0.0048462129 0.69099998 -0 8.8499971e-39 324 240
0.0060753003 0.69300002 -0 9.0347485e-39 325 240
0.0073008798 0.69400001 -0 9.8620205e-39 326 240
0.0085176928 0.69400001 -0 6.5429778e-39 327 240
0.0097345067 0.69400001 -0 6.0816676e-39 328 240
-0.055229999 0.69999999 -0.0012273333 1.4382521e-38 275 241
-0.053848371 0.69800001 -0.0012238267 1.3921543e-38 276 241
-0.052549154 0.69700003 -0.0012220733 1.3276174e-38 277 241
-0.051253434 0.69599998 -0.0012203199 1.2080151e-38 278 241
-0.049889345 0.69400001 -0.0012168133 1.1803206e-38 279 241
-0.048602402 0.69300002 -0.00121506 1.1527345e-38 280 241
-0.047250576 0.69099998 -0.0012115532 1.0881975e-38 281 241
-0.045972396 0.69 -0.0012097999 9.8667499e-39 282 241
-0.044632856 0.68800002 -0.0012062934 9.3135761e-39 283 241
-0.043363437 0.68699998 -0.0012045399 8.9433643e-39 284 241
-0.042097531 0.68599999 -0.0012027866 8.5749419e-39 285 241
-0.040775519 0.68400002 -0.00119928 8.5753048e-39 286 241
-0.039518382 0.68300003 -0.0011975267 8.4831092e-39 287 241
-0.038264744 0.68199998 -0.0011957732 8.5756579e-39 288 241
-0.037068974 0.68199998 -0.0011957732 8.6678536e-39 289 241
-0.035767999 0.68000001 -0.0011922666 9.035913e-39 290 241
-0.034575731 0.68000001 -0.0011922666 9.035913e-39 291 241
-0.033383466 0.68000001 -0.0011922666 9.5865701e-39 292 241
-0.032191198 0.68000001 -0.0011922666 9.309623e-39 293 241
-0.030953348 0.67900002 -0.0011905134 9.9546295e-39 294 241
-0.029762832 0.67900002 -0.0011905134 1.0599999e-38 295 241
-0.028572321 0.67900002 -0.0011905134 1.0785459e-38 296 241
-0.027341479 0.67799997 -0.0011887599 1.0785459e-38 297 241
-0.026152719 0.67799997 -0.0011887599 9.9567777e-39 298 241
-0.024963958 0.67799997 -0.0011887599 7.7440826e-39 299 241
-0.023775198 0.67799997 -0.0011887599 7.1008754e-39 300 241
-0.022586439 0.67799997 -0.0011887599 8.2075817e-39 301 241
-0.021397678 0.67799997 -0.0011887599 8.7582415e-39 302 241
-0.020208918 0.67799997 -0.0011887599 8.5734901e-39 303 241
-0.019020159 0.67799997 -0.0011887599 8.5734901e-39 304 241
-0.0178314 0.67799997 -0.0011887599 8.5734901e-39 305 241
-0.016667187 0.67900002 -0.0011905134 8.4812945e-39 306 241
-0.015476674 0.67900002 -0.0011905134 8.3890989e-39 307 241
-0.01428616 0.67900002 -0.0011905134 9.1262954e-39 308 241
-0.013095647 0.67900002 -0.0011905134 9.6794691e-39 309 241
-0.011905133 0.67900002 -0.0011905134 9.4947079e-39 310 241
-0.0107304 0.68000001 -0.0011922666 9.4025123e-39 311 241
-0.0095381327 0.68000001 -0.0011922666 9.4950555e-39 312 241
-0.0083458666 0.68000001 -0.0011922666 9.4950555e-39 313 241
-0.0071535995 0.68000001 -0.0011922666 1.0414124e-38 314 241
-0.005978866 0.68199998 -0.0011957732 1.0690352e-38 315 241
-0.004783093 0.68199998 -0.0011957732 1.078255e-38 316 241
-0.0035925799 0.68300003 -0.0011975267 1.0506324e-38 317 241
-0.0023950534 0.68300003 -0.0011975267 1.0229011e-38 318 241
-0.0012027866 0.68599999 -0.0012027866 1.0136815e-38 319 241
0 0.68599999 -0.0012027866 9.9520665e-39 320 241
0.0012045399 0.68699998 -0.0012045399 9.8598709e-39 321 241
0.0024090798 0.68699998 -0.0012045399 1.0045336e-38 322 241
0.0036293997 0.69 -0.0012097999 1.0506674e-38 323 241
0.0048462129 0.69099998 -0.0012115532 1.0689966e-38 324 241
0.0060753003 0.69300002 -0.00121506 1.0321184e-38 325 241
0.0072903596 0.69300002 -0.00121506 1.0229727e-38 326 241
0.0085176928 0.69400001 -0.0012168133 6.3575104e-39 327 241
0.0097345067 0.69400001 -0.0012168133 6.1720681e-39 328 241
-0.055308893 0.70099998 -0.0024581731 1.419885e-38 275 242
-0.053848371 0.69800001 -0.0024476533 1.3921543e-38 276 242
-0.052549154 0.69700003 -0.0024441467 1.3276174e-38 277 242
-0.051253434 0.69599998 -0.0024406398 1.2446779e-38 278 242
-0.050033119 0.69599998 -0.0024406398 1.1985802e-38 279 242
-0.048672531 0.69400001 -0.0024336267 1.1618816e-38 280 242
-0.047387339 0.69300002 -0.00243012 1.0973446e-38 281 242
-0.046039023 0.69099998 -0.0024231065 8.7629233e-39 282 242
-0.0447626 0.69 -0.0024195998 8.1175538e-39 283 242
-0.043363437 0.68699998 -0.0024090798 8.5745859e-39 284 242
-0.042097531 0.68599999 -0.0024055731 8.7589758e-39 285 242
-0.040775519 0.68400002 -0.0023985601 8.3923485e-39 286 242
-0.039518382 0.68300003 -0.0023950534 8.3923485e-39 287 242
-0.038320854 0.68300003 -0.0023950534 8.5763768e-39 288 242
-0.037068974 0.68199998 -0.0023915465 8.6685724e-39 289 242
-0.035873197 0.68199998 -0.0023915465 8.9437202e-39 290 242
-0.034677424 0.68199998 -0.0023915465 9.1281128e-39 291 242
-0.033383466 0.68000001 -0.0023845332 9.6805636e-39 292 242
-0.032191198 0.68000001 -0.0023845332 9.9571504e-39 293 242
-0.030998932 0.68000001 -0.0023845332 9.9571448e-39 294 242
-0.029806666 0.68000001 -0.0023845332 1.0326286e-38 295 242
-0.028572321 0.67900002 -0.0023810267 1.0602863e-38 296 242
-0.027381808 0.67900002 -0.0023810267 1.0510668e-38 297 242
-0.026191294 0.67900002 -0.0023810267 1.0325189e-38 298 242
-0.025000781 0.67900002 -0.0023810267 9.6798195e-39 299 242
-0.023775198 0.67799997 -0.0023775198 9.1255653e-39 300 242
-0.022586439 0.67799997 -0.0023775198 9.7709347e-39 301 242
-0.021429239 0.67900002 -0.0023810267 9.2174148e-39 302 242
-0.020238725 0.67900002 -0.0023810267 8.7564366e-39 303 242
-0.019048214 0.67900002 -0.0023810267 8.2979822e-39 304 242
-0.017857701 0.67900002 -0.0023810267 8.4820134e-39 305 242
-0.016667187 0.67900002 -0.0023810267 8.5738461e-39 306 242
-0.015476674 0.67900002 -0.0023810267 8.7582387e-39 307 242
-0.01428616 0.67900002 -0.0023810267 1.0138642e-38 308 242
-0.013114933 0.68000001 -0.0023845332 1.0230838e-38 309 242
-0.011922667 0.68000001 -0.0023845332 1.0230828e-38 310 242
-0.0107304 0.68000001 -0.0023845332 1.0230828e-38 311 242
-0.0095381327 0.68000001 -0.0023845332 1.0231179e-38 312 242
-0.0083704125 0.68199998 -0.0023915465 1.0231179e-38 313 242
-0.00717464 0.68199998 -0.0023915465 1.0506318e-38 314 242
-0.005978866 0.68199998 -0.0023915465 1.0414121e-38 315 242
-0.0047901068 0.68300003 -0.0023950534 1.0321928e-38 316 242
-0.0035925799 0.68300003 -0.0023950534 1.0137178e-38 317 242
-0.0023985601 0.68400002 -0.0023985601 1.0045338e-38 318 242
-0.0012027866 0.68599999 -0.0024055731 1.0137534e-38 319 242
0 0.68699998 -0.0024090798 9.7694745e-39 320 242
0.0012045399 0.68699998 -0.0024090798 9.6772775e-39 321 242
0.0024090798 0.68699998 -0.0024090798 1.0044619e-38 322 242
0.0036293997 0.69 -0.0024195998 1.0505238e-38 323 242
0.0048462129 0.69099998 -0.0024231065 1.0691411e-38 324 242
0.0060753003 0.69300002 -0.00243012 1.0507021e-38 325 242
0.0072903596 0.69300002 -0.00243012 1.0505593e-38 326 242
0.0085176928 0.69400001 -0.0024336267 6.5411814e-39 327 242
0.0097625591 0.69599998 -0.0024406398 6.815997e-39 328 242
-0.0554667 0.70300001 -0.0036977797 1.4383964e-38 275 243
-0.054002665 0.69999999 -0.0036819996 1.4197774e-38 276 243
-0.052624546 0.69800001 -0.0036714801 1.3276176e-38 277 243
-0.051327083 0.69700003 -0.00366622 1.2353861e-38 278 243
-0.050105009 0.69700003 -0.00366622 1.2261666e-38 279 243
-0.048672531 0.69400001 -0.0036504399 1.1709937e-38 280 243
-0.047387339 0.69300002 -0.0036451798 1.1064567e-38 281 243
-0.046039023 0.69099998 -0.0036346598 8.2093964e-39 282 243
-0.0447626 0.69 -0.0036293997 7.4718313e-39 283 243
-0.043426562 0.68800002 -0.0036188802 8.1150483e-39 284 243
-0.042158898 0.68699998 -0.0036136196 8.2072454e-39 285 243
-0.040894743 0.68599999 -0.00360836 8.0239331e-39 286 243
-0.03957624 0.68400002 -0.00359784 8.0239331e-39 287 243
-0.038320854 0.68300003 -0.0035925799 8.0250079e-39 288 243
-0.037068974 0.68199998 -0.00358732 8.2093992e-39 289 243
-0.035873197 0.68199998 -0.00358732 8.6678564e-39 290 243
-0.034677424 0.68199998 -0.00358732 9.0362802e-39 291 243
-0.03348165 0.68199998 -0.00358732 1.0050065e-38 292 243
-0.032191198 0.68000001 -0.0035767998 1.0972021e-38 293 243
-0.030998932 0.68000001 -0.0035767998 1.0236606e-38 294 243
-0.029806666 0.68000001 -0.0035767998 1.0144409e-38 295 243
-0.028614398 0.68000001 -0.0035767998 1.0420274e-38 296 243
-0.027381808 0.67900002 -0.0035715401 1.0328077e-38 297 243
-0.026191294 0.67900002 -0.0035715401 1.0878008e-38 298 243
-0.025000781 0.67900002 -0.0035715401 1.0693617e-38 299 243
-0.023810266 0.67900002 -0.0035715401 1.0785091e-38 300 243
-0.022619752 0.67900002 -0.0035715401 1.0416307e-38 301 243
-0.0214608 0.68000001 -0.0035767998 9.3103321e-39 302 243
-0.020268533 0.68000001 -0.0035767998 8.2039845e-39 303 243
-0.019076265 0.68000001 -0.0035767998 7.9299228e-39 304 243
-0.017883999 0.68000001 -0.0035767998 8.4830966e-39 305 243
-0.016691733 0.68000001 -0.0035767998 8.5745593e-39 306 243
-0.015499466 0.68000001 -0.0035767998 8.7593107e-39 307 243
-0.01434928 0.68199998 -0.00358732 1.0138642e-38 308 243
-0.013114933 0.68000001 -0.0035767998 1.0230838e-38 309 243
-0.011922667 0.68000001 -0.0035767998 1.0138996e-38 310 243
-0.010761959 0.68199998 -0.00358732 1.0231191e-38 311 243
-0.009566186 0.68199998 -0.00358732 1.0231547e-38 312 243
-0.0083704125 0.68199998 -0.00358732 9.8627646e-39 313 243
-0.00717464 0.68199998 -0.00358732 1.0045358e-38 314 243
-0.0059876335 0.68300003 -0.0035925799 9.7687711e-39 315 243
-0.0047901068 0.68300003 -0.0035925799 9.6754993e-39 316 243
-0.00359784 0.68400002 -0.00359784 9.5833036e-39 317 243
-0.0024055731 0.68599999 -0.00360836 9.768055e-39 318 243
-0.0012045399 0.68699998 -0.0036136196 1.0136477e-38 319 243
0 0.68699998 -0.0036136196 9.585456e-39 320 243
0.0012062934 0.68800002 -0.0036188802 9.3088677e-39 321 243
0.0024125867 0.68800002 -0.0036188802 1.0043192e-38 322 243
0.0036293997 0.69 -0.0036293997 1.0596364e-38 323 243
0.0048462129 0.69099998 -0.0036346598 1.0507393e-38 324 243
0.0060753003 0.69300002 -0.0036451798 1.0507393e-38 325 243
0.0073008798 0.69400001 -0.0036504399 1.0689269e-38 326 243
0.0085176928 0.69400001 -0.0036504399 7.7386497e-39 327 243
0.0097625591 0.69599998 -0.0036609597 7.8308608e-39 328 243
-0.054002665 0.69999999 -0.0049093333 1.447508e-38 276 244
-0.052775331 0.69999999 -0.0049093333 1.2908114e-38 277 244
-0.051547997 0.69999999 -0.0049093333 1.1986158e-38 278 244
-0.050176892 0.69800001 -0.0048953067 1.1986158e-38 279 244
-0.048882935 0.69700003 -0.0048882933 1.180249e-38 280 244
-0.047455717 0.69400001 -0.0048672534 1.115712e-38 281 244
-0.04617228 0.69300002 -0.00486024 8.8533238e-39 282 244
-0.0447626 0.69 -0.0048391996 8.30015e-39 283 244
-0.043426562 0.68800002 -0.0048251734 8.1154043e-39 284 244
-0.042158898 0.68699998 -0.0048181596 8.0228499e-39 285 244
-0.040894743 0.68599999 -0.0048111463 7.5625976e-39 286 244
-0.03957624 0.68400002 -0.0047971201 7.6547932e-39 287 244
-0.038320854 0.68300003 -0.0047901068 7.8399034e-39 288 244
-0.037123326 0.68300003 -0.0047901068 8.0246548e-39 289 244
-0.035873197 0.68199998 -0.004783093 8.7589758e-39 290 244
-0.034677424 0.68199998 -0.004783093 8.9433671e-39 291 244
-0.03348165 0.68199998 -0.004783093 9.497973e-39 292 244
-0.032285877 0.68199998 -0.004783093 1.0143342e-38 293 244
-0.030998932 0.68000001 -0.0047690663 1.0327724e-38 294 244
-0.029806666 0.68000001 -0.0047690663 1.0327724e-38 295 244
-0.028614398 0.68000001 -0.0047690663 1.0419554e-38 296 244
-0.027422134 0.68000001 -0.0047690663 1.0327358e-38 297 244
-0.026229866 0.68000001 -0.0047690663 1.0326639e-38 298 244
-0.025037598 0.68000001 -0.0047690663 9.8653009e-39 299 244
-0.023810266 0.67900002 -0.0047620535 1.0231567e-38 300 244
-0.022619752 0.67900002 -0.0047620535 9.9549798e-39 301 244
-0.0214608 0.68000001 -0.0047690663 9.0341151e-39 302 244
-0.020268533 0.68000001 -0.0047690663 8.020322e-39 303 244
-0.019132372 0.68199998 -0.004783093 7.9299228e-39 304 244
-0.017936599 0.68199998 -0.004783093 8.4830966e-39 305 244
-0.016740825 0.68199998 -0.004783093 8.4823665e-39 306 244
-0.015545053 0.68199998 -0.004783093 8.2983354e-39 307 244
-0.01434928 0.68199998 -0.004783093 9.4021592e-39 308 244
-0.013153506 0.68199998 -0.004783093 9.8631373e-39 309 244
-0.011957732 0.68199998 -0.004783093 9.9535309e-39 310 244
-0.010761959 0.68199998 -0.004783093 9.8613353e-39 311 244
-0.009566186 0.68199998 -0.004783093 9.399641e-39 312 244
-0.0083704125 0.68199998 -0.004783093 9.399641e-39 313 244
-0.00717464 0.68199998 -0.004783093 9.2152498e-39 314 244
-0.0059876335 0.68300003 -0.0047901068 9.2152498e-39 315 244
-0.0047971201 0.68400002 -0.0047971201 9.2145281e-39 316 244
-0.00360836 0.68599999 -0.0048111463 9.2145281e-39 317 244
-0.0024055731 0.68599999 -0.0048111463 9.5833036e-39 318 244
-0.0012045399 0.68699998 -0.0048181596 1.0044282e-38 319 244
0 0.68699998 -0.0048181596 9.6765727e-39 320 244
0.0012062934 0.68800002 -0.0048251734 9.3081489e-39 321 244
0.0024125867 0.68800002 -0.0048251734 1.0043192e-38 322 244
0.0036293997 0.69 -0.0048391996 1.0872951e-38 323 244
0.0048462129 0.69099998 -0.0048462129 1.0782903e-38 324 244
0.0060753003 0.69300002 -0.00486024 1.0690708e-38 325 244
0.0073008798 0.69400001 -0.0048672534 1.0688913e-38 326 244
0.0085176928 0.69400001 -0.0048672534 9.6747608e-39 327 244
0.0097625591 0.69599998 -0.0048812795 9.8588017e-39 328 244
0.011045999 0.69999999 -0.0049093333 1.1887106e-38 329 244
-0.054079808 0.70099998 -0.0061454331 1.4476884e-38 276 245
-0.052850723 0.70099998 -0.0061454331 1.2448581e-38 277 245
-0.051547997 0.69999999 -0.0061366665 1.1802487e-38 278 245
-0.050320663 0.69999999 -0.0061366665 1.1802487e-38 279 245
-0.048882935 0.69700003 -0.0061103669 1.1710293e-38 280 245
-0.047455717 0.69400001 -0.0060840664 1.115712e-38 281 245
-0.04617228 0.69300002 -0.0060753003 9.0384339e-39 282 245
-0.044827472 0.69099998 -0.0060577663 8.3008689e-39 283 245
-0.043552797 0.69 -0.0060489997 8.1143323e-39 284 245
-0.042158898 0.68699998 -0.0060226996 7.929941e-39 285 245
-0.040954359 0.68699998 -0.0060226996 7.1959731e-39 286 245
-0.039691959 0.68599999 -0.0060139326 7.3800042e-39 287 245
-0.038376961 0.68400002 -0.0059964 7.8395404e-39 288 245
-0.037123326 0.68300003 -0.0059876335 8.0239331e-39 289 245
-0.035873197 0.68199998 -0.005978866 8.9415692e-39 290 245
-0.034677424 0.68199998 -0.005978866 9.1259605e-39 291 245
-0.03348165 0.68199998 -0.005978866 8.8508155e-39 292 245
-0.032285877 0.68199998 -0.005978866 8.9430111e-39 293 245
-0.030998932 0.68000001 -0.0059613334 9.8656807e-39 294 245
-0.029806666 0.68000001 -0.0059613334 1.0141907e-38 295 245
-0.028614398 0.68000001 -0.0059613334 1.0602869e-38 296 245
-0.027422134 0.68000001 -0.0059613334 1.0510314e-38 297 245
-0.026229866 0.68000001 -0.0059613334 1.0142608e-38 298 245
-0.025037598 0.68000001 -0.0059613334 9.1288149e-39 299 245
-0.023845334 0.68000001 -0.0059613334 8.8508001e-39 300 245
-0.022653066 0.68000001 -0.0059613334 8.9429957e-39 301 245
-0.021523919 0.68199998 -0.005978866 8.8486477e-39 302 245
-0.020328145 0.68199998 -0.005978866 8.6642564e-39 303 245
-0.019132372 0.68199998 -0.005978866 8.2061495e-39 304 245
-0.017936599 0.68199998 -0.005978866 8.4830966e-39 305 245
-0.016740825 0.68199998 -0.005978866 8.7571555e-39 306 245
-0.015545053 0.68199998 -0.005978866 8.6649599e-39 307 245
-0.01434928 0.68199998 -0.005978866 9.0348186e-39 308 245
-0.013153506 0.68199998 -0.005978866 9.1270142e-39 309 245
-0.011957732 0.68199998 -0.005978866 9.5847554e-39 310 245
-0.010761959 0.68199998 -0.005978866 9.0315816e-39 311 245
-0.009566186 0.68199998 -0.005978866 8.8461155e-39 312 245
-0.0083826864 0.68300003 -0.0059876335 9.0301467e-39 313 245
-0.0071851597 0.68300003 -0.0059876335 8.7549905e-39 314 245
-0.0059876335 0.68300003 -0.0059876335 8.7549905e-39 315 245
-0.0048111463 0.68599999 -0.0060139326 8.6638725e-39 316 245
-0.00360836 0.68599999 -0.0060139326 8.6638725e-39 317 245
-0.0024090798 0.68699998 -0.0060226996 9.3077957e-39 318 245
-0.0012045399 0.68699998 -0.0060226996 9.7687739e-39 319 245
0 0.68800002 -0.0060314666 9.4932632e-39 320 245
0.0012062934 0.68800002 -0.0060314666 9.3085118e-39 321 245
0.0024125867 0.68800002 -0.0060314666 1.0042114e-38 322 245
0.0036346598 0.69099998 -0.0060577663 1.0779679e-38 323 245
0.00486024 0.69300002 -0.0060753003 1.0690355e-38 324 245
0.0060840664 0.69400001 -0.0060840664 1.0506324e-38 325 245
0.0073008798 0.69400001 -0.0060840664 1.0779679e-38 326 245
0.0085176928 0.69400001 -0.0060840664 1.0318702e-38 327 245
0.0097765867 0.69700003 -0.0061103669 1.0320859e-38 328 245
0.01101444 0.69800001 -0.006119133 1.1242456e-38 329 245
-0.054311249 0.704 -0.0074060797 1.4383967e-38 276 246
-0.052850723 0.70099998 -0.0073745195 1.1986521e-38 277 246
-0.051547997 0.69999999 -0.0073639993 1.1341507e-38 278 246
-0.050320663 0.69999999 -0.0073639993 1.1525898e-38 279 246
-0.048953064 0.69800001 -0.0073429602 1.1893605e-38 280 246
-0.047592476 0.69599998 -0.0073219193 1.1340432e-38 281 246
-0.04617228 0.69300002 -0.0072903596 8.9458824e-39 282 246
-0.044827472 0.69099998 -0.0072693196 7.7476979e-39 283 246
-0.043615919 0.69099998 -0.0072693196 7.377133e-39 284 246
-0.042220265 0.68800002 -0.0072377604 7.5615256e-39 285 246
-0.040954359 0.68699998 -0.0072272392 7.7469889e-39 286 246
-0.039691959 0.68599999 -0.0072167199 7.9317389e-39 287 246
-0.038376961 0.68400002 -0.0071956799 8.5756607e-39 288 246
-0.037177678 0.68400002 -0.0071956799 8.5756607e-39 289 246
-0.035925802 0.68300003 -0.0071851597 8.850447e-39 290 246
-0.034728274 0.68300003 -0.0071851597 8.9430013e-39 291 246
-0.033530746 0.68300003 -0.0071851597 8.5738615e-39 292 246
-0.032285877 0.68199998 -0.00717464 8.7582541e-39 293 246
-0.031090107 0.68199998 -0.00717464 9.9571476e-39 294 246
-0.029894331 0.68199998 -0.00717464 1.051032e-38 295 246
-0.02869856 0.68199998 -0.00717464 1.0602863e-38 296 246
-0.027502786 0.68199998 -0.00717464 1.0695419e-38 297 246
-0.026229866 0.68000001 -0.0071535995 9.7745514e-39 298 246
-0.025037598 0.68000001 -0.0071535995 7.2852694e-39 299 246
-0.023845334 0.68000001 -0.0071535995 6.4587556e-39 300 246
-0.022653066 0.68000001 -0.0071535995 7.4729061e-39 301 246
-0.021523919 0.68199998 -0.00717464 8.2983508e-39 302 246
-0.020328145 0.68199998 -0.00717464 8.1136008e-39 303 246
-0.019132372 0.68199998 -0.00717464 8.2979822e-39 304 246
-0.017962901 0.68300003 -0.0071851597 8.9433516e-39 305 246
-0.016765373 0.68300003 -0.0071851597 8.6660389e-39 306 246
-0.015567848 0.68300003 -0.0071851597 8.2968976e-39 307 246
-0.01434928 0.68199998 -0.00717464 8.9419027e-39 308 246
-0.013153506 0.68199998 -0.00717464 9.3103265e-39 309 246
-0.011975267 0.68300003 -0.0071851597 9.2170477e-39 310 246
-0.01077774 0.68300003 -0.0071851597 9.0322977e-39 311 246
-0.0095802136 0.68300003 -0.0071851597 8.6638753e-39 312 246
-0.0083826864 0.68300003 -0.0071851597 8.8479064e-39 313 246
-0.0071851597 0.68300003 -0.0071851597 8.6642284e-39 314 246
-0.0059964 0.68400002 -0.0071956799 8.479477e-39 315 246
-0.0048111463 0.68599999 -0.0072167199 8.5705936e-39 316 246
-0.0036136196 0.68699998 -0.0072272392 8.6627893e-39 317 246
-0.0024090798 0.68699998 -0.0072272392 9.1234045e-39 318 246
-0.0012045399 0.68699998 -0.0072272392 9.492187e-39 319 246
0 0.68800002 -0.0072377604 9.6758524e-39 320 246
0.0012062934 0.68800002 -0.0072377604 9.5836568e-39 321 246
0.0024195998 0.69 -0.0072587994 9.6762083e-39 322 246
0.0036346598 0.69099998 -0.0072693196 1.0321578e-38 323 246
0.00486024 0.69300002 -0.0072903596 1.0506686e-38 324 246
0.0060840664 0.69400001 -0.0073008798 1.0322295e-38 325 246
0.0073219193 0.69599998 -0.0073219193 1.0044632e-38 326 246
0.0085422397 0.69599998 -0.0073219193 9.2152316e-39 327 246
0.0097765867 0.69700003 -0.00733244 8.113193e-39 328 246
0.01101444 0.69800001 -0.0073429602 1.0233692e-38 329 246
0.012238266 0.69800001 -0.0073429602 1.3718401e-38 330 246
-0.054311249 0.704 -0.0086404262 1.4659108e-38 276 247
-0.053001512 0.70300001 -0.0086281532 1.1708489e-38 277 247
-0.051621638 0.70099998 -0.0086036054 1.0787978e-38 278 247
-0.050320663 0.69999999 -0.0085913334 1.115712e-38 279 247
-0.048953064 0.69800001 -0.0085667865 1.171066e-38 280 247
-0.047592476 0.69599998 -0.0085422397 1.106529e-38 281 247
-0.04617228 0.69300002 -0.0085054198 8.9458824e-39 282 247
-0.044957221 0.69300002 -0.0085054198 8.2083174e-39 283 247
-0.043615919 0.69099998 -0.008480873 8.2054489e-39 284 247
-0.042342998 0.69 -0.0084686 8.1132533e-39 285 247
-0.041013971 0.68800002 -0.0084440531 7.5647458e-39 286 247
-0.039749816 0.68699998 -0.0084317802 7.7494972e-39 287 247
-0.03848917 0.68599999 -0.0084195063 8.5749391e-39 288 247
-0.037286382 0.68599999 -0.0084195063 8.7589702e-39 289 247
-0.035978399 0.68400002 -0.0083949603 8.9433643e-39 290 247
-0.03477912 0.68400002 -0.0083949603 9.0355599e-39 291 247
-0.033579841 0.68400002 -0.0083949603 9.9564274e-39 292 247
-0.032333218 0.68300003 -0.0083826864 9.9564274e-39 293 247
-0.031090107 0.68199998 -0.0083704125 1.0693261e-38 294 247
-0.029894331 0.68199998 -0.0083704125 1.0785815e-38 295 247
-0.02869856 0.68199998 -0.0083704125 1.0878008e-38 296 247
-0.027502786 0.68199998 -0.0083704125 1.0693617e-38 297 247
-0.026307013 0.68199998 -0.0083704125 9.9564246e-39 298 247
-0.025111238 0.68199998 -0.0083704125 7.7437295e-39 299 247
-0.023845334 0.68000001 -0.0083458666 6.7342663e-39 300 247
-0.022653066 0.68000001 -0.0083458666 7.5640269e-39 301 247
-0.021523919 0.68199998 -0.0083704125 8.2061523e-39 302 247
-0.020357953 0.68300003 -0.0083826864 8.2061523e-39 303 247
-0.019160427 0.68300003 -0.0083826864 8.4820134e-39 304 247
-0.017962901 0.68300003 -0.0083826864 8.7586017e-39 305 247
-0.016765373 0.68300003 -0.0083826864 8.8475561e-39 306 247
-0.015567848 0.68300003 -0.0083826864 8.5709706e-39 307 247
-0.014370319 0.68300003 -0.0083826864 8.8493511e-39 308 247
-0.013172794 0.68300003 -0.0083826864 9.0341025e-39 309 247
-0.011975267 0.68300003 -0.0083826864 9.2166917e-39 310 247
-0.01077774 0.68300003 -0.0083826864 8.9401048e-39 311 247
-0.0095802136 0.68300003 -0.0083826864 8.4798498e-39 312 247
-0.0083949603 0.68400002 -0.0083949603 8.1110672e-39 313 247
-0.0071956799 0.68400002 -0.0083949603 8.0181555e-39 314 247
-0.0060139326 0.68599999 -0.0084195063 7.8334042e-39 315 247
-0.0048181596 0.68699998 -0.0084317802 7.7419302e-39 316 247
-0.0036136196 0.68699998 -0.0084317802 7.8341272e-39 317 247
-0.0024090798 0.68699998 -0.0084317802 8.479847e-39 318 247
-0.0012062934 0.68800002 -0.0084440531 8.9411838e-39 319 247
0 0.68800002 -0.0084440531 9.4929073e-39 320 247
0.0012097999 0.69 -0.0084686 9.216319e-39 321 247
0.0024195998 0.69 -0.0084686 9.583654e-39 322 247
0.0036346598 0.69099998 -0.008480873 1.0229023e-38 323 247
0.00486024 0.69300002 -0.0085054198 1.0138627e-38 324 247
0.0060840664 0.69400001 -0.0085176928 9.8620387e-39 325 247
0.0073219193 0.69599998 -0.0085422397 9.8598947e-39 326 247
0.0085422397 0.69599998 -0.0085422397 8.4769603e-39 327 247
0.0097765867 0.69700003 -0.0085545136 8.2929151e-39 328 247
0.011061779 0.70099998 -0.0086036054 1.1611958e-38 329 247
0.012290866 0.70099998 -0.0086036054 1.4459577e-38 330 247
-0.054311249 0.704 -0.0098747732 1.4932808e-38 276 248
-0.053001512 0.70300001 -0.0098607466 1.1889992e-38 277 248
-0.051621638 0.70099998 -0.0098326923 9.4986764e-39 278 248
-0.050392549 0.70099998 -0.0098326923 1.051247e-38 279 248
-0.048953064 0.69800001 -0.0097906133 1.1342955e-38 280 248
-0.047592476 0.69599998 -0.0097625591 1.0789781e-38 281 248
-0.046238903 0.69400001 -0.0097345067 9.313223e-39 282 248
-0.044957221 0.69300002 -0.0097204801 8.3912667e-39 283 248
-0.043615919 0.69099998 -0.0096924258 7.8377398e-39 284 248
-0.042342998 0.69 -0.0096783992 7.9299354e-39 285 248
-0.041013971 0.68800002 -0.0096503468 8.2075985e-39 286 248
-0.039749816 0.68699998 -0.0096363192 8.2997941e-39 287 248
-0.038545277 0.68699998 -0.0096363192 8.5749419e-39 288 248
-0.037286382 0.68599999 -0.0096222926 8.5749419e-39 289 248
-0.036083598 0.68599999 -0.0096222926 8.850447e-39 290 248
-0.03477912 0.68400002 -0.0095942402 9.5883707e-39 291 248
-0.033579841 0.68400002 -0.0095942402 1.087946e-38 292 248
-0.032333218 0.68300003 -0.0095802136 1.1155687e-38 293 248
-0.031135695 0.68300003 -0.0095802136 1.1246072e-38 294 248
-0.029894331 0.68199998 -0.009566186 1.1153876e-38 295 248
-0.02869856 0.68199998 -0.009566186 1.0879084e-38 296 248
-0.027502786 0.68199998 -0.009566186 1.0602497e-38 297 248
-0.026307013 0.68199998 -0.009566186 1.004934e-38 298 248
-0.025111238 0.68199998 -0.009566186 7.836644e-39 299 248
-0.023915464 0.68199998 -0.009566186 7.0068931e-39 300 248
-0.022719691 0.68199998 -0.009566186 8.2050775e-39 301 248
-0.02155548 0.68300003 -0.0095802136 8.2061523e-39 302 248
-0.020357953 0.68300003 -0.0095802136 8.2061523e-39 303 248
-0.019160427 0.68300003 -0.0095802136 8.6656858e-39 304 248
-0.017962901 0.68300003 -0.0095802136 8.9422726e-39 305 248
-0.016765373 0.68300003 -0.0095802136 8.6642438e-39 306 248
-0.015567848 0.68300003 -0.0095802136 8.3872968e-39 307 248
-0.014370319 0.68300003 -0.0095802136 9.1252192e-39 308 248
-0.013172794 0.68300003 -0.0095802136 9.4018061e-39 309 248
-0.011975267 0.68300003 -0.0095802136 9.0315788e-39 310 248
-0.01079352 0.68400002 -0.0095942402 8.5705992e-39 311 248
-0.0095942402 0.68400002 -0.0095942402 8.0170723e-39 312 248
-0.0083949603 0.68400002 -0.0095942402 7.9248767e-39 313 248
-0.0072167199 0.68599999 -0.0096222926 7.5550236e-39 314 248
-0.0060139326 0.68599999 -0.0096222926 7.2784353e-39 315 248
-0.0048181596 0.68699998 -0.0096363192 7.2777164e-39 316 248
-0.0036136196 0.68699998 -0.0096363192 7.9230859e-39 317 248
-0.0024090798 0.68699998 -0.0096363192 8.662076e-39 318 248
-0.0012062934 0.68800002 -0.0096503468 9.6758692e-39 319 248
0 0.68800002 -0.0096503468 9.4932632e-39 320 248
0.0012097999 0.69 -0.0096783992 9.2163162e-39 321 248
0.0024195998 0.69 -0.0096783992 9.4903863e-39 322 248
0.0036346598 0.69099998 -0.0096924258 1.004356e-38 323 248
0.00486024 0.69300002 -0.0097204801 9.8616828e-39 324 248
0.0060840664 0.69400001 -0.0097345067 9.6776517e-39 325 248
0.0073219193 0.69599998 -0.0097625591 9.3085146e-39 326 248
0.0085422397 0.69599998 -0.0097625591 8.2021685e-39 327 248
0.0098186666 0.69999999 -0.0098186666 8.6609788e-39 328 248
0.011045999 0.69999999 -0.0098186666 1.2809782e-38 329 248
0.012343466 0.704 -0.0098747732 1.5940101e-38 330 248
-0.054311249 0.704 -0.011109119 1.5574575e-38 276 249
-0.053001512 0.70300001 -0.01109334 1.2347728e-38 277 249
-0.051621638 0.70099998 -0.011061779 9.3114083e-39 278 249
-0.050392549 0.70099998 -0.011061779 1.0233006e-38 279 249
-0.049093332 0.69999999 -0.011045999 1.0606113e-38 280 249
-0.047592476 0.69599998 -0.010982879 1.0606113e-38 281 249
-0.046238903 0.69400001 -0.01095132 1.0049343e-38 282 249
-0.044957221 0.69300002 -0.010935539 8.9429957e-39 283 249
-0.043615919 0.69099998 -0.01090398 8.2976319e-39 284 249
-0.042342998 0.69 -0.010888199 8.5738587e-39 285 249
-0.041013971 0.68800002 -0.010856641 8.3909135e-39 286 249
-0.039749816 0.68699998 -0.010840859 8.3909135e-39 287 249
-0.038545277 0.68699998 -0.010840859 8.3901933e-39 288 249
-0.037286382 0.68599999 -0.010825079 8.4823903e-39 289 249
-0.036083598 0.68599999 -0.010825079 8.6675004e-39 290 249
-0.034880809 0.68599999 -0.010825079 8.8522504e-39 291 249
-0.033678025 0.68599999 -0.010825079 9.6816384e-39 292 249
-0.032380559 0.68400002 -0.01079352 1.05114e-38 293 249
-0.03118128 0.68400002 -0.01079352 1.0878011e-38 294 249
-0.029938167 0.68300003 -0.01077774 1.0970208e-38 295 249
-0.028740639 0.68300003 -0.01077774 1.0970561e-38 296 249
-0.027543113 0.68300003 -0.01077774 1.0878364e-38 297 249
-0.026307013 0.68199998 -0.010761959 1.0233006e-38 298 249
-0.025111238 0.68199998 -0.010761959 8.4816476e-39 299 249
-0.023915464 0.68199998 -0.010761959 8.1082016e-39 300 249
-0.022719691 0.68199998 -0.010761959 9.1219948e-39 301 249
-0.02155548 0.68300003 -0.01077774 8.2976291e-39 302 249
-0.020357953 0.68300003 -0.01077774 8.4816602e-39 303 249
-0.019160427 0.68300003 -0.01077774 8.5734901e-39 304 249
-0.0179892 0.68400002 -0.01079352 8.9422726e-39 305 249
-0.016789921 0.68400002 -0.01079352 8.6638879e-39 306 249
-0.01559064 0.68400002 -0.01079352 8.5716923e-39 307 249
-0.01439136 0.68400002 -0.01079352 8.8493511e-39 308 249
-0.01319208 0.68400002 -0.01079352 8.8493511e-39 309 249
-0.0119928 0.68400002 -0.01079352 9.0297837e-39 310 249
-0.01079352 0.68400002 -0.01079352 7.9234362e-39 311 249
-0.0096222926 0.68599999 -0.010825079 7.1880375e-39 312 249
-0.0084195063 0.68599999 -0.010825079 7.0036463e-39 313 249
-0.0072272392 0.68699998 -0.010840859 6.7267105e-39 314 249
-0.0060226996 0.68699998 -0.010840859 6.5423178e-39 315 249
-0.0048181596 0.68699998 -0.010840859 6.634868e-39 316 249
-0.0036188802 0.68800002 -0.010856641 7.2802374e-39 317 249
-0.0024125867 0.68800002 -0.010856641 8.2965347e-39 318 249
-0.0012062934 0.68800002 -0.010856641 8.9419027e-39 319 249
0 0.69 -0.010888199 9.400713e-39 320 249
0.0012097999 0.69 -0.010888199 9.0319319e-39 321 249
0.0024231065 0.69099998 -0.01090398 9.3059979e-39 322 249
0.0036451798 0.69300002 -0.010935539 9.9513673e-39 323 249
0.0048672534 0.69400001 -0.01095132 9.4939821e-39 324 249
0.0061015999 0.69599998 -0.010982879 9.3095922e-39 325 249
0.00733244 0.69700003 -0.01099866 9.3077957e-39 326 249
0.0085545136 0.69700003 -0.01099866 8.1092526e-39 327 249
0.0098326923 0.70099998 -0.011061779 8.9375685e-39 328 249
0.011109119 0.704 -0.011109119 1.3086012e-38 329 249
0.012343466 0.704 -0.011109119 1.5665673e-38 330 249
0.013577812 0.704 -0.011109119 1.677238e-38 331 249
-0.053001512 0.70300001 -0.012325933 1.2347728e-38 277 250
-0.051768921 0.70300001 -0.012325933 8.942267e-39 278 250
-0.050392549 0.70099998 -0.012290866 9.2192127e-39 279 250
-0.049093332 0.69999999 -0.012273333 9.6855998e-39 280 250
-0.047592476 0.69599998 -0.0122032 9.7781542e-39 281 250
-0.046238903 0.69400001 -0.012168133 1.0326652e-38 282 250
-0.044957221 0.69300002 -0.012150601 9.4968912e-39 283 250
-0.043615919 0.69099998 -0.012115533 9.1259577e-39 284 250
-0.042342998 0.69 -0.012097999 8.9415664e-39 285 250
-0.041013971 0.68800002 -0.012062933 8.3909107e-39 286 250
-0.039749816 0.68699998 -0.012045399 8.4834651e-39 287 250
-0.038545277 0.68699998 -0.012045399 8.4827434e-39 288 250
-0.037286382 0.68599999 -0.012027865 8.4827434e-39 289 250
-0.036083598 0.68599999 -0.012027865 8.5756607e-39 290 250
-0.034880809 0.68599999 -0.012027865 8.5756607e-39 291 250
-0.033678025 0.68599999 -0.012027865 9.0362802e-39 292 250
-0.032380559 0.68400002 -0.0119928 9.6816496e-39 293 250
-0.03118128 0.68400002 -0.0119928 1.0509598e-38 294 250
-0.029982001 0.68400002 -0.0119928 1.0601794e-38 295 250
-0.028740639 0.68300003 -0.011975267 1.0602863e-38 296 250
-0.027543113 0.68300003 -0.011975267 1.0510668e-38 297 250
-0.026345588 0.68300003 -0.011975267 1.0415957e-38 298 250
-0.02514806 0.68300003 -0.011975267 8.8486323e-39 299 250
-0.023950534 0.68300003 -0.011975267 8.3837081e-39 300 250
-0.022753006 0.68300003 -0.011975267 9.2138275e-39 301 250
-0.02158704 0.68400002 -0.0119928 8.4809414e-39 302 250
-0.020387759 0.68400002 -0.0119928 8.4809414e-39 303 250
-0.01918848 0.68400002 -0.0119928 8.5734929e-39 304 250
-0.0179892 0.68400002 -0.0119928 8.5734929e-39 305 250
-0.016789921 0.68400002 -0.0119928 8.5709734e-39 306 250
-0.01559064 0.68400002 -0.0119928 8.3865807e-39 307 250
-0.01439136 0.68400002 -0.0119928 8.6642438e-39 308 250
-0.01319208 0.68400002 -0.0119928 8.7564394e-39 309 250
