# .PCD v.7 - Point Cloud Data file format
FIELDS x y z rgb imX imY
SIZE 4 4 4 4 4 4
TYPE F F F F F F
COUNT 1 1 1 1 1 1
WIDTH 845
HEIGHT 1
VIEWPOINT 0 0 0 1 0 0 0
POINTS 845
DATA ascii
-0.0055931332 0.63800001 0.099557772 1.8616292e-38 315 151
-0.0044745067 0.63800001 0.099557772 1.9082681e-38 316 151
-0.00335588 0.63800001 0.099557772 1.9451463e-38 317 151
-0.0022442664 0.63999999 0.099869862 1.8531675e-38 318 151
-0.0011238866 0.64099997 0.1000259 1.8531675e-38 319 151
0 0.64099997 0.1000259 1.8532031e-38 320 151
0.0011221332 0.63999999 0.099869862 1.8532031e-38 321 151
0.0022442664 0.63999999 0.099869862 1.871534e-38 322 151
0.0033716597 0.64099997 0.1000259 1.871534e-38 323 151
0.0044955462 0.64099997 0.1000259 1.871534e-38 324 151
0.0056194332 0.64099997 0.1000259 1.871534e-38 325 151
0.00675384 0.64200002 0.10018196 1.8898655e-38 326 151
0.0078794798 0.64200002 0.10018196 1.8898655e-38 327 151
0.0090191467 0.64300001 0.100338 1.8715343e-38 328 151
0.01014654 0.64300001 0.100338 1.8715343e-38 329 151
0.011273934 0.64300001 0.100338 1.8715696e-38 330 151
0.012401327 0.64300001 0.100338 1.8623142e-38 331 151
0.01352872 0.64300001 0.100338 1.8440185e-38 332 151
0.014656113 0.64300001 0.100338 1.8347631e-38 333 151
0.01575896 0.64200002 0.10018196 1.8254716e-38 334 151
0.016884599 0.64200002 0.10018196 1.8254716e-38 335 151
0.017982185 0.64099997 0.1000259 1.8620979e-38 336 151
0.019106071 0.64099997 0.1000259 1.8620979e-38 337 151
0.020229958 0.64099997 0.1000259 1.8066708e-38 338 151
0.02138716 0.64200002 0.10018196 1.5393035e-38 339 151
-0.0067012399 0.63700002 0.098284855 1.5852588e-38 314 152
-0.0055843666 0.63700002 0.098284855 1.9817e-38 315 152
-0.0044745067 0.63800001 0.098439142 1.9267795e-38 316 152
-0.00335588 0.63800001 0.098439142 1.8990848e-38 317 152
-0.0022372534 0.63800001 0.098439142 1.8440198e-38 318 152
-0.0011221332 0.63999999 0.09874773 1.8532395e-38 319 152
0 0.64099997 0.098902017 1.8716063e-38 320 152
0.0011221332 0.63999999 0.09874773 1.8716063e-38 321 152
0.0022442664 0.63999999 0.09874773 1.8808259e-38 322 152
0.0033716597 0.64099997 0.098902017 1.8716063e-38 323 152
0.0044955462 0.64099997 0.098902017 1.8716063e-38 324 152
0.0056194332 0.64099997 0.098902017 1.8808259e-38 325 152
0.0067433193 0.64099997 0.098902017 1.880754e-38 326 152
0.0078672068 0.64099997 0.098902017 1.880754e-38 327 152
0.00900512 0.64200002 0.099056318 1.8532031e-38 328 152
0.01014654 0.64300001 0.099210612 1.8716063e-38 329 152
0.0112564 0.64200002 0.099056318 1.8532028e-38 330 152
0.01238204 0.64200002 0.099056318 1.8532028e-38 331 152
0.01352872 0.64300001 0.099210612 1.8532025e-38 332 152
0.014656113 0.64300001 0.099210612 1.8439829e-38 333 152
0.01575896 0.64200002 0.099056318 1.8530946e-38 334 152
0.016884599 0.64200002 0.099056318 1.8346915e-38 335 152
0.017982185 0.64099997 0.098902017 1.8530227e-38 336 152
0.019106071 0.64099997 0.098902017 1.8530227e-38 337 152
0.020229958 0.64099997 0.098902017 1.8896119e-38 338 152
0.021353846 0.64099997 0.098902017 1.6406838e-38 339 152
0.022477733 0.64099997 0.098902017 1.5023174e-38 340 152
-0.0067012399 0.63700002 0.097167984 1.6592673e-38 314 153
-0.0055843666 0.63700002 0.097167984 2.0464889e-38 315 153
-0.0044745067 0.63800001 0.097320519 1.9361428e-38 316 153
-0.00335588 0.63800001 0.097320519 1.8716059e-38 317 153
-0.0022372534 0.63800001 0.097320519 1.8716063e-38 318 153
-0.0011221332 0.63999999 0.097625598 1.8716063e-38 319 153
0 0.63999999 0.097625598 1.853347e-38 320 153
0.0011221332 0.63999999 0.097625598 1.853347e-38 321 153
0.0022442664 0.63999999 0.097625598 1.8808256e-38 322 153
0.0033716597 0.64099997 0.097778134 1.8808256e-38 323 153
0.0044955462 0.64099997 0.097778134 1.8899733e-38 324 153
0.0056194332 0.64099997 0.097778134 1.8899733e-38 325 153
0.0067433193 0.64099997 0.097778134 1.8807536e-38 326 153
0.0078672068 0.64099997 0.097778134 1.8899733e-38 327 153
0.0089910924 0.64099997 0.097778134 1.8899736e-38 328 153
0.01013076 0.64200002 0.097930677 1.880754e-38 329 153
0.0112564 0.64200002 0.097930677 1.8990848e-38 330 153
0.01238204 0.64200002 0.097930677 1.8898652e-38 331 153
0.01350768 0.64200002 0.097930677 1.8715696e-38 332 153
0.01463332 0.64200002 0.097930677 1.8623142e-38 333 153
0.015734414 0.64099997 0.097778134 1.8622779e-38 334 153
0.016858298 0.64099997 0.097778134 1.8622779e-38 335 153
0.017982185 0.64099997 0.097778134 1.8530227e-38 336 153
0.019106071 0.64099997 0.097778134 1.8622423e-38 337 153
0.020229958 0.64099997 0.097778134 1.8806088e-38 338 153
0.021353846 0.64099997 0.097778134 1.686998e-38 339 153
0.022477733 0.64099997 0.097778134 1.557671e-38 340 153
-0.0067117601 0.63800001 0.096201889 1.7146577e-38 314 154
-0.0055931332 0.63800001 0.096201889 2.0741846e-38 315 154
-0.0044745067 0.63800001 0.096201889 1.8902255e-38 316 154
-0.00335588 0.63800001 0.096201889 1.8349083e-38 317 154
-0.0022372534 0.63800001 0.096201889 1.8349083e-38 318 154
-0.0011238866 0.64099997 0.096654251 1.8533114e-38 319 154
0 0.63999999 0.096503459 1.8349799e-38 320 154
0.0011221332 0.63999999 0.096503459 1.8441994e-38 321 154
0.0022372534 0.63800001 0.096201889 1.8624947e-38 322 154
0.00335588 0.63800001 0.096201889 1.8624947e-38 323 154
0.0044745067 0.63800001 0.096201889 1.8807903e-38 324 154
0.0055931332 0.63800001 0.096201889 1.8807903e-38 325 154
0.0067327996 0.63999999 0.096503459 1.8899738e-38 326 154
0.0078549329 0.63999999 0.096503459 1.8899738e-38 327 154
0.0089770658 0.63999999 0.096503459 1.8808259e-38 328 154
0.010114979 0.64099997 0.096654251 1.8716063e-38 329 154
0.011221332 0.63999999 0.096503459 1.8807536e-38 330 154
0.012343466 0.63999999 0.096503459 1.871534e-38 331 154
0.013486639 0.64099997 0.096654251 1.8716059e-38 332 154
0.014610525 0.64099997 0.096654251 1.8532028e-38 333 154
0.015734414 0.64099997 0.096654251 1.8623142e-38 334 154
0.016858298 0.64099997 0.096654251 1.8530946e-38 335 154
0.017954132 0.63999999 0.096503459 1.8346918e-38 336 154
0.019016653 0.63800001 0.096201889 1.8346918e-38 337 154
0.02013528 0.63800001 0.096201889 1.8898289e-38 338 154
0.021220595 0.63700002 0.096051104 1.7699746e-38 339 154
0.022337466 0.63700002 0.096051104 1.6314641e-38 340 154
-0.0089069325 0.63499999 0.094636157 1.4287783e-38 312 155
-0.0077935657 0.63499999 0.094636157 1.5301934e-38 313 155
-0.0066907196 0.63599998 0.094785191 1.6873232e-38 314 155
-0.0055843666 0.63700002 0.094934233 1.9915329e-38 315 155
-0.0044674934 0.63700002 0.094934233 1.8902619e-38 316 155
-0.0033506199 0.63700002 0.094934233 1.8349804e-38 317 155
-0.0022337467 0.63700002 0.094934233 1.8349083e-38 318 155
-0.0011168733 0.63700002 0.094934233 1.8533114e-38 319 155
0 0.63700002 0.094934233 1.8533114e-38 320 155
0.0011168733 0.63700002 0.094934233 1.8533114e-38 321 155
0.0022337467 0.63700002 0.094934233 1.8624591e-38 322 155
0.0033506199 0.63700002 0.094934233 1.8716786e-38 323 155
0.0044674934 0.63700002 0.094934233 1.8624947e-38 324 155
0.0055843666 0.63700002 0.094934233 1.8624947e-38 325 155
0.0067012399 0.63700002 0.094934233 1.8624947e-38 326 155
0.0078181131 0.63700002 0.094934233 1.8624947e-38 327 155
0.0089349868 0.63700002 0.094934233 1.8899733e-38 328 155
0.0100992 0.63999999 0.095381327 1.8899733e-38 329 155
0.011221332 0.63999999 0.095381327 1.8807892e-38 330 155
0.012343466 0.63999999 0.095381327 1.8807892e-38 331 155
0.013465599 0.63999999 0.095381327 1.8715696e-38 332 155
0.014587732 0.63999999 0.095381327 1.8623142e-38 333 155
0.015709866 0.63999999 0.095381327 1.8623142e-38 334 155
0.016858298 0.64099997 0.095530361 1.8530946e-38 335 155
0.017954132 0.63999999 0.095381327 1.8346918e-38 336 155
0.019016653 0.63800001 0.095083259 1.8254363e-38 337 155
0.02013528 0.63800001 0.095083259 1.8530949e-38 338 155
0.021220595 0.63700002 0.094934233 1.7516798e-38 339 155
0.022337466 0.63700002 0.094934233 1.5949103e-38 340 155
-0.0100203 0.63499999 0.093522795 1.4471805e-38 311 156
-0.0089069325 0.63499999 0.093522795 1.419631e-38 312 156
-0.0077935657 0.63499999 0.093522795 1.5763635e-38 313 156
-0.0066907196 0.63599998 0.093670078 1.6783921e-38 314 156
-0.0055843666 0.63700002 0.093817361 1.9457594e-38 315 156
-0.0044674934 0.63700002 0.093817361 1.8903701e-38 316 156
-0.0033506199 0.63700002 0.093817361 1.8258332e-38 317 156
-0.0022337467 0.63700002 0.093817361 1.8532398e-38 318 156
-0.0011168733 0.63700002 0.093817361 1.8624593e-38 319 156
0 0.63700002 0.093817361 1.8624591e-38 320 156
0.0011168733 0.63700002 0.093817361 1.8716786e-38 321 156
0.0022337467 0.63700002 0.093817361 1.8716786e-38 322 156
0.0033506199 0.63700002 0.093817361 1.8716786e-38 323 156
0.0044674934 0.63700002 0.093817361 1.8716786e-38 324 156
0.0055843666 0.63700002 0.093817361 1.8716786e-38 325 156
0.0067012399 0.63700002 0.093817361 1.8716786e-38 326 156
0.0078181131 0.63700002 0.093817361 1.8624591e-38 327 156
0.0089349868 0.63700002 0.093817361 1.8900454e-38 328 156
0.01006764 0.63800001 0.093964644 1.8900454e-38 329 156
0.011186266 0.63800001 0.093964644 1.8808612e-38 330 156
0.012304893 0.63800001 0.093964644 1.8716415e-38 331 156
0.013465599 0.63999999 0.094259195 1.8715696e-38 332 156
0.014587732 0.63999999 0.094259195 1.8715696e-38 333 156
0.015709866 0.63999999 0.094259195 1.8532025e-38 334 156
0.016831998 0.63999999 0.094259195 1.8347634e-38 335 156
0.017954132 0.63999999 0.094259195 1.8346918e-38 336 156
0.018986847 0.63700002 0.093817361 1.8346918e-38 337 156
0.020103721 0.63700002 0.093817361 1.8347637e-38 338 156
0.021220595 0.63700002 0.093817361 1.7149093e-38 339 156
0.022337466 0.63700002 0.093817361 1.5856191e-38 340 156
-0.01006764 0.63800001 0.092846014 1.4471086e-38 311 157
-0.0089349868 0.63700002 0.092700489 1.4471464e-38 312 157
-0.0078181131 0.63700002 0.092700489 1.6500127e-38 313 157
-0.0067012399 0.63700002 0.092700489 1.7060873e-38 314 157
-0.0055843666 0.63700002 0.092700489 1.9734907e-38 315 157
-0.0044674934 0.63700002 0.092700489 1.9179928e-38 316 157
-0.0033506199 0.63700002 0.092700489 1.8258332e-38 317 157
-0.0022337467 0.63700002 0.092700489 1.8349083e-38 318 157
-0.0011168733 0.63700002 0.092700489 1.8533114e-38 319 157
0 0.63700002 0.092700489 1.8624591e-38 320 157
0.0011168733 0.63700002 0.092700489 1.8716786e-38 321 157
0.0022337467 0.63700002 0.092700489 1.8716786e-38 322 157
0.0033506199 0.63700002 0.092700489 1.8716786e-38 323 157
0.0044674934 0.63700002 0.092700489 1.8716786e-38 324 157
0.0055843666 0.63700002 0.092700489 1.8716786e-38 325 157
0.0067012399 0.63700002 0.092700489 1.8716786e-38 326 157
0.0078181131 0.63700002 0.092700489 1.8716786e-38 327 157
0.0089349868 0.63700002 0.092700489 1.8900454e-38 328 157
0.01005186 0.63700002 0.092700489 1.8900454e-38 329 157
0.011168733 0.63700002 0.092700489 1.8808256e-38 330 157
0.012285607 0.63700002 0.092700489 1.8716059e-38 331 157
0.01340248 0.63700002 0.092700489 1.8532747e-38 332 157
0.014542148 0.63800001 0.092846014 1.8440551e-38 333 157
0.015660774 0.63800001 0.092846014 1.871534e-38 334 157
0.016779399 0.63800001 0.092846014 1.8530949e-38 335 157
0.017869974 0.63700002 0.092700489 1.8346562e-38 336 157
0.018986847 0.63700002 0.092700489 1.8346562e-38 337 157
0.020072158 0.63599998 0.092554957 1.8255088e-38 338 157
0.021120653 0.634 0.092263907 1.6964349e-38 339 157
0.022232266 0.634 0.092263907 1.567144e-38 340 157
-0.01006764 0.63800001 0.091727383 1.4471802e-38 311 158
-0.0089490134 0.63800001 0.091727383 1.4287433e-38 312 158
-0.0078181131 0.63700002 0.09158361 1.6776715e-38 313 158
-0.0067012399 0.63700002 0.09158361 1.6786814e-38 314 158
-0.0055843666 0.63700002 0.09158361 1.9276096e-38 315 158
-0.0044674934 0.63700002 0.09158361 1.9089534e-38 316 158
-0.0033506199 0.63700002 0.09158361 1.8351968e-38 317 158
-0.0022302398 0.63599998 0.091439828 1.8624591e-38 318 158
-0.0011151199 0.63599998 0.091439828 1.8532395e-38 319 158
0 0.63599998 0.091439828 1.8807906e-38 320 158
0.0011151199 0.63599998 0.091439828 1.8807906e-38 321 158
0.0022302398 0.63599998 0.091439828 1.8807906e-38 322 158
0.0033453598 0.63599998 0.091439828 1.8900101e-38 323 158
0.0044604796 0.63599998 0.091439828 1.8716786e-38 324 158
0.0055755996 0.63599998 0.091439828 1.8716786e-38 325 158
0.0067012399 0.63700002 0.09158361 1.8716786e-38 326 158
0.0078058392 0.63599998 0.091439828 1.8716786e-38 327 158
0.0089209592 0.63599998 0.091439828 1.8717142e-38 328 158
0.010036079 0.63599998 0.091439828 1.8624947e-38 329 158
0.011151199 0.63599998 0.091439828 1.8532751e-38 330 158
0.012266319 0.63599998 0.091439828 1.8440195e-38 331 158
0.01340248 0.63700002 0.09158361 1.8532031e-38 332 158
0.014519353 0.63700002 0.09158361 1.8532031e-38 333 158
0.015636226 0.63700002 0.09158361 1.8348e-38 334 158
0.0167531 0.63700002 0.09158361 1.8163968e-38 335 158
0.017841918 0.63599998 0.091439828 1.8346562e-38 336 158
0.018957037 0.63599998 0.091439828 1.8254366e-38 337 158
0.0200406 0.63499999 0.091296062 1.7887026e-38 338 158
0.021120653 0.634 0.091152288 1.6135667e-38 339 158
0.022232266 0.634 0.091152288 1.4935674e-38 340 158
-0.0089490134 0.63800001 0.090608761 1.447147e-38 312 159
-0.0078181131 0.63700002 0.090466738 1.7145143e-38 313 159
-0.0067012399 0.63700002 0.090466738 1.6052862e-38 314 159
-0.0055843666 0.63700002 0.090466738 1.8357751e-38 315 159
-0.0044674934 0.63700002 0.090466738 1.881584e-38 316 159
-0.0033506199 0.63700002 0.090466738 1.817047e-38 317 159
-0.0022302398 0.63599998 0.090324715 1.89923e-38 318 159
-0.0011151199 0.63599998 0.090324715 1.8715713e-38 319 159
0 0.63599998 0.090324715 1.8624591e-38 320 159
0.0011151199 0.63599998 0.090324715 1.8624591e-38 321 159
0.0022302398 0.63599998 0.090324715 1.8807906e-38 322 159
0.0033453598 0.63599998 0.090324715 1.8807906e-38 323 159
0.0044604796 0.63599998 0.090324715 1.8716789e-38 324 159
0.0055755996 0.63599998 0.090324715 1.8716789e-38 325 159
0.0066907196 0.63599998 0.090324715 1.8716786e-38 326 159
0.0078058392 0.63599998 0.090324715 1.8624591e-38 327 159
0.0089209592 0.63599998 0.090324715 1.8624591e-38 328 159
0.010036079 0.63599998 0.090324715 1.8624591e-38 329 159
0.011151199 0.63599998 0.090324715 1.8624591e-38 330 159
0.012266319 0.63599998 0.090324715 1.8532395e-38 331 159
0.013381439 0.63599998 0.090324715 1.8440198e-38 332 159
0.014496559 0.63599998 0.090324715 1.8440198e-38 333 159
0.015611678 0.63599998 0.090324715 1.8440198e-38 334 159
0.016726799 0.63599998 0.090324715 1.8163971e-38 335 159
0.017813865 0.63499999 0.090182692 1.8439476e-38 336 159
0.018927233 0.63499999 0.090182692 1.8347281e-38 337 159
0.020009039 0.634 0.090040676 1.7518246e-38 338 159
0.021054026 0.63200003 0.089756638 1.5397746e-38 339 159
0.022162134 0.63200003 0.089756638 1.3924764e-38 340 159
-0.0078549329 0.63999999 0.08977066 1.6961122e-38 313 160
-0.0067327996 0.63999999 0.08977066 1.605323e-38 314 160
-0.0055931332 0.63800001 0.089490131 1.7897143e-38 315 160
-0.0044674934 0.63700002 0.089349866 1.8081168e-38 316 160
-0.0033506199 0.63700002 0.089349866 1.7988973e-38 317 160
-0.0022302398 0.63599998 0.089209594 1.8811152e-38 318 160
-0.0011151199 0.63599998 0.089209594 1.8257979e-38 319 160
0 0.63599998 0.089209594 1.8899733e-38 320 160
0.0011151199 0.63599998 0.089209594 1.9176318e-38 321 160
0.0022302398 0.63599998 0.089209594 1.8624591e-38 322 160
0.0033453598 0.63599998 0.089209594 1.8716786e-38 323 160
0.0044604796 0.63599998 0.089209594 1.8624593e-38 324 160
0.0055755996 0.63599998 0.089209594 1.8624593e-38 325 160
0.0066907196 0.63599998 0.089209594 1.8624591e-38 326 160
0.0078058392 0.63599998 0.089209594 1.8624591e-38 327 160
0.0089209592 0.63599998 0.089209594 1.8716786e-38 328 160
0.0100203 0.63499999 0.089069329 1.8624591e-38 329 160
0.011133666 0.63499999 0.089069329 1.8531675e-38 330 160
0.012247032 0.63499999 0.089069329 1.8531675e-38 331 160
0.0133604 0.63499999 0.089069329 1.8531675e-38 332 160
0.014496559 0.63599998 0.089209594 1.8715707e-38 333 160
0.015611678 0.63599998 0.089209594 1.8532031e-38 334 160
0.016726799 0.63599998 0.089209594 1.8439476e-38 335 160
0.017813865 0.63499999 0.089069329 1.8623147e-38 336 160
0.018927233 0.63499999 0.089069329 1.7977778e-38 337 160
0.020009039 0.634 0.088929065 1.6596653e-38 338 160
0.021054026 0.63200003 0.088648535 1.4845294e-38 339 160
0.022162134 0.63200003 0.088648535 1.3924411e-38 340 160
-0.0067327996 0.63999999 0.088648528 1.5868839e-38 314 161
-0.0055931332 0.63800001 0.088371508 1.7343969e-38 315 161
-0.0044674934 0.63700002 0.088232994 1.6978429e-38 316 161
-0.0033506199 0.63700002 0.088232994 1.7623799e-38 317 161
-0.0022302398 0.63599998 0.088094473 1.9090995e-38 318 161
-0.0011151199 0.63599998 0.088094473 1.8630377e-38 319 161
0 0.63599998 0.088094473 1.871931e-38 320 161
0.0011151199 0.63599998 0.088094473 1.8534559e-38 321 161
0.0022302398 0.63599998 0.088094473 1.8442e-38 322 161
0.0033453598 0.63599998 0.088094473 1.8349804e-38 323 161
0.0044604796 0.63599998 0.088094473 1.8532042e-38 324 161
0.0055668331 0.63499999 0.087955967 1.8624596e-38 325 161
0.0066801999 0.63499999 0.087955967 1.8624593e-38 326 161
0.0077935657 0.63499999 0.087955967 1.8532398e-38 327 161
0.0089069325 0.63499999 0.087955967 1.8807908e-38 328 161
0.0100203 0.63499999 0.087955967 1.8715713e-38 329 161
0.011133666 0.63499999 0.087955967 1.871571e-38 330 161
0.012247032 0.63499999 0.087955967 1.871571e-38 331 161
0.0133604 0.63499999 0.087955967 1.8531675e-38 332 161
0.014496559 0.63599998 0.088094473 1.8531675e-38 333 161
0.015611678 0.63599998 0.088094473 1.8624591e-38 334 161
0.016726799 0.63599998 0.088094473 1.8440198e-38 335 161
0.017841918 0.63599998 0.088094473 1.7979227e-38 336 161
0.018957037 0.63599998 0.088094473 1.6595934e-38 337 161
0.020072158 0.63599998 0.088094473 1.4938212e-38 338 161
0.021187279 0.63599998 0.088094473 1.4200288e-38 339 161
-0.0067117601 0.63800001 0.087252878 1.5684808e-38 314 162
-0.0055931332 0.63800001 0.087252878 1.7159578e-38 315 162
-0.0044674934 0.63700002 0.087116122 1.6241957e-38 316 162
-0.0033506199 0.63700002 0.087116122 1.6795131e-38 317 162
-0.0022302398 0.63599998 0.086979352 1.7898225e-38 318 162
-0.0011151199 0.63599998 0.086979352 1.8082256e-38 319 162
0 0.63599998 0.086979352 1.8814039e-38 320 162
0.0011151199 0.63599998 0.086979352 1.8537811e-38 321 162
0.0022302398 0.63599998 0.086979352 1.8811508e-38 322 162
0.0033453598 0.63599998 0.086979352 1.8534561e-38 323 162
0.0044604796 0.63599998 0.086979352 1.8625315e-38 324 162
0.0055668331 0.63499999 0.086842597 1.8532761e-38 325 162
0.0066801999 0.63499999 0.086842597 1.8807903e-38 326 162
0.0077935657 0.63499999 0.086842597 1.8900457e-38 327 162
0.0089069325 0.63499999 0.086842597 1.8807903e-38 328 162
0.0100203 0.63499999 0.086842597 1.8807903e-38 329 162
0.011133666 0.63499999 0.086842597 1.8624591e-38 330 162
0.012247032 0.63499999 0.086842597 1.8624591e-38 331 162
0.0133604 0.63499999 0.086842597 1.8717142e-38 332 162
0.014473766 0.63499999 0.086842597 1.8624947e-38 333 162
0.015611678 0.63599998 0.086979352 1.8164334e-38 334 162
0.016726799 0.63599998 0.086979352 1.7518965e-38 335 162
0.017841918 0.63599998 0.086979352 1.6137479e-38 336 162
0.018957037 0.63599998 0.086979352 1.5122967e-38 337 162
0.020072158 0.63599998 0.086979352 1.4292842e-38 338 162
0.021187279 0.63599998 0.086979352 1.4016257e-38 339 162
-0.0067117601 0.63800001 0.086134247 1.5960684e-38 314 163
-0.0055931332 0.63800001 0.086134247 1.7158869e-38 315 163
-0.0044674934 0.63700002 0.08599925 1.5966096e-38 316 163
-0.0033506199 0.63700002 0.08599925 1.6058292e-38 317 163
-0.0022302398 0.63599998 0.085864238 1.6702215e-38 318 163
-0.0011151199 0.63599998 0.085864238 1.7255386e-38 319 163
0 0.63599998 0.085864238 1.8264846e-38 320 163
0.0011151199 0.63599998 0.085864238 1.8449598e-38 321 163
0.0022302398 0.63599998 0.085864238 1.8998436e-38 322 163
0.0033453598 0.63599998 0.085864238 1.8537458e-38 323 163
0.0044604796 0.63599998 0.085864238 1.8627477e-38 324 163
0.0055668331 0.63499999 0.085729234 1.8351249e-38 325 163
0.0066801999 0.63499999 0.085729234 1.8809704e-38 326 163
0.0077935657 0.63499999 0.085729234 1.8717508e-38 327 163
0.0089069325 0.63499999 0.085729234 1.8717511e-38 328 163
0.0100203 0.63499999 0.085729234 1.8717511e-38 329 163
0.011133666 0.63499999 0.085729234 1.853384e-38 330 163
0.012247032 0.63499999 0.085729234 1.853384e-38 331 163
0.0133604 0.63499999 0.085729234 1.8626038e-38 332 163
0.014473766 0.63499999 0.085729234 1.8257256e-38 333 163
0.015611678 0.63599998 0.085864238 1.6875763e-38 334 163
0.016726799 0.63599998 0.085864238 1.6046002e-38 335 163
0.017841918 0.63599998 0.085864238 1.4754548e-38 336 163
0.018957037 0.63599998 0.085864238 1.4016622e-38 337 163
0.020072158 0.63599998 0.085864238 1.3832584e-38 338 163
0.021187279 0.63599998 0.085864238 1.3832584e-38 339 163
-0.0078794798 0.64200002 0.085548639 1.5495722e-38 313 164
-0.0067433193 0.64099997 0.085415386 1.6145078e-38 314 164
-0.0056106662 0.63999999 0.085282132 1.7158872e-38 315 164
-0.0044885329 0.63999999 0.085282132 1.6149408e-38 316 164
-0.00335588 0.63800001 0.085015625 1.6149408e-38 317 164
-0.0022337467 0.63700002 0.084882379 1.5966096e-38 318 164
-0.0011168733 0.63700002 0.084882379 1.6058292e-38 319 164
0 0.63599998 0.084749117 1.6702215e-38 320 164
0.0011151199 0.63599998 0.084749117 1.6886608e-38 321 164
0.0022302398 0.63599998 0.084749117 1.7804947e-38 322 164
0.0033453598 0.63599998 0.084749117 1.7804947e-38 323 164
0.0044604796 0.63599998 0.084749117 1.8354862e-38 324 164
0.0055668331 0.63499999 0.084615864 1.8354862e-38 325 164
0.0066801999 0.63499999 0.084615864 1.8629281e-38 326 164
0.0077935657 0.63499999 0.084615864 1.8444531e-38 327 164
0.0089069325 0.63499999 0.084615864 1.8351615e-38 328 164
0.0100203 0.63499999 0.084615864 1.8259419e-38 329 164
0.011133666 0.63499999 0.084615864 1.761513e-38 330 164
0.012247032 0.63499999 0.084615864 1.7245988e-38 331 164
0.0133604 0.63499999 0.084615864 1.7152356e-38 332 164
0.014473766 0.63499999 0.084615864 1.6691019e-38 333 164
0.015611678 0.63599998 0.084749117 1.4941104e-38 334 164
0.016726799 0.63599998 0.084749117 1.438793e-38 335 164
0.017841918 0.63599998 0.084749117 1.3741836e-38 336 164
0.018957037 0.63599998 0.084749117 1.3465251e-38 337 164
0.020103721 0.63700002 0.084882379 1.3924064e-38 338 164
0.021220595 0.63700002 0.084882379 1.3924064e-38 339 164
-0.0078794798 0.64200002 0.084422998 1.5863429e-38 313 165
-0.0067433193 0.64099997 0.084291495 1.605288e-38 314 165
-0.0056194332 0.64099997 0.084291495 1.6790445e-38 315 165
-0.0044955462 0.64099997 0.084291495 1.5873898e-38 316 165
-0.0033663998 0.63999999 0.08416 1.5966093e-38 317 165
-0.0022372534 0.63800001 0.083897002 1.6057216e-38 318 165
-0.0011168733 0.63700002 0.083765499 1.6057216e-38 319 165
0 0.63700002 0.083765499 1.6057213e-38 320 165
0.0011151199 0.63599998 0.083633989 1.6241604e-38 321 165
0.0022302398 0.63599998 0.083633989 1.6609298e-38 322 165
0.0033453598 0.63599998 0.083633989 1.6885525e-38 323 165
0.0044604796 0.63599998 0.083633989 1.7804228e-38 324 165
0.0055668331 0.63499999 0.083502494 1.7804228e-38 325 165
0.0066801999 0.63499999 0.083502494 1.8169767e-38 326 165
0.0077935657 0.63499999 0.083502494 1.7616593e-38 327 165
0.0089069325 0.63499999 0.083502494 1.7892456e-38 328 165
0.0100203 0.63499999 0.083502494 1.7524032e-38 329 165
0.011133666 0.63499999 0.083502494 1.678718e-38 330 165
0.012247032 0.63499999 0.083502494 1.6141811e-38 331 165
0.0133604 0.63499999 0.083502494 1.5772308e-38 332 165
0.014473766 0.63499999 0.083502494 1.5219134e-38 333 165
0.015611678 0.63599998 0.083633989 1.4020589e-38 334 165
0.016726799 0.63599998 0.083633989 1.355997e-38 335 165
0.017841918 0.63599998 0.083633989 1.3465254e-38 336 165
0.018957037 0.63599998 0.083633989 1.3373058e-38 337 165
0.020103721 0.63700002 0.083765499 1.36482e-38 338 165
-0.00675384 0.64200002 0.083297364 1.6145797e-38 314 166
-0.0056281998 0.64200002 0.083297364 1.6422386e-38 315 166
-0.00450256 0.64200002 0.083297364 1.5964297e-38 316 166
-0.0033716597 0.64099997 0.083167605 1.614869e-38 317 166
-0.0022442664 0.63999999 0.083037868 1.6424919e-38 318 166
-0.0011186267 0.63800001 0.082778372 1.6148692e-38 319 166
0 0.63700002 0.082648627 1.6057216e-38 320 166
0.0011168733 0.63700002 0.082648627 1.5596238e-38 321 166
0.0022302398 0.63599998 0.082518876 1.5504395e-38 322 166
0.0033453598 0.63599998 0.082518876 1.5411841e-38 323 166
0.0044604796 0.63599998 0.082518876 1.5869931e-38 324 166
0.0055755996 0.63599998 0.082518876 1.5777735e-38 325 166
0.0066907196 0.63599998 0.082518876 1.5685168e-38 326 166
0.0078058392 0.63599998 0.082518876 1.5592972e-38 327 166
0.0089069325 0.63499999 0.082389124 1.5683722e-38 328 166
0.0100203 0.63499999 0.082389124 1.53153e-38 329 166
0.011133666 0.63499999 0.082389124 1.4670646e-38 330 166
0.012247032 0.63499999 0.082389124 1.4025277e-38 331 166
0.013381439 0.63599998 0.082518876 1.4208226e-38 332 166
0.014496559 0.63599998 0.082518876 1.4115672e-38 333 166
0.015611678 0.63599998 0.082518876 1.3560333e-38 334 166
0.0167531 0.63700002 0.082648627 1.3375942e-38 335 166
0.017869974 0.63700002 0.082648627 1.3740761e-38 336 166
0.019016653 0.63800001 0.082778372 1.3648566e-38 337 166
-0.00679592 0.64600003 0.08268369 1.6330193e-38 314 167
-0.0056457333 0.64399999 0.082427703 1.660678e-38 315 167
-0.00450256 0.64200002 0.082171716 1.5780629e-38 316 167
-0.0033716597 0.64099997 0.082043722 1.5873183e-38 317 167
-0.0022477731 0.64099997 0.082043722 1.605686e-38 318 167
-0.0011221332 0.63999999 0.081915729 1.605686e-38 319 167
0 0.63800001 0.081659749 1.6056495e-38 320 167
0.0011168733 0.63700002 0.081531756 1.5871745e-38 321 167
0.0022337467 0.63700002 0.081531756 1.5318925e-38 322 167
0.0033506199 0.63700002 0.081531756 1.5226729e-38 323 167
0.0044604796 0.63599998 0.081403755 1.5594073e-38 324 167
0.0055755996 0.63599998 0.081403755 1.5409323e-38 325 167
0.0066907196 0.63599998 0.081403755 1.5133093e-38 326 167
0.0078058392 0.63599998 0.081403755 1.5040896e-38 327 167
0.0089209592 0.63599998 0.081403755 1.5039804e-38 328 167
0.0100203 0.63499999 0.081275761 1.4762857e-38 329 167
0.011133666 0.63499999 0.081275761 1.4485179e-38 330 167
0.012266319 0.63599998 0.081403755 1.4024561e-38 331 167
0.01340248 0.63700002 0.081531756 1.4207507e-38 332 167
0.014519353 0.63700002 0.081531756 1.4022756e-38 333 167
0.015636226 0.63700002 0.081531756 1.3375942e-38 334 167
0.0167531 0.63700002 0.081531756 1.3283746e-38 335 167
0.017898027 0.63800001 0.081659749 1.3649282e-38 336 167
0.019076265 0.63999999 0.081915729 1.3373055e-38 337 167
-0.00679592 0.64600003 0.081551038 1.6329837e-38 314 168
-0.0056632664 0.64600003 0.081551038 1.6975206e-38 315 168
-0.0045095733 0.64300001 0.081172317 1.6423835e-38 316 168
-0.00337692 0.64200002 0.081046082 1.6239442e-38 317 168
-0.0022477731 0.64099997 0.080919832 1.6239805e-38 318 168
-0.0011238866 0.64099997 0.080919832 1.6147609e-38 319 168
0 0.63999999 0.080793597 1.5872101e-38 320 168
0.0011221332 0.63999999 0.080793597 1.550332e-38 321 168
0.0022372534 0.63800001 0.080541119 1.5318209e-38 322 168
0.0033506199 0.63700002 0.080414884 1.5318209e-38 323 168
0.0044674934 0.63700002 0.080414884 1.5409323e-38 324 168
0.0055843666 0.63700002 0.080414884 1.5133096e-38 325 168
0.0067012399 0.63700002 0.080414884 1.5133093e-38 326 168
0.0078181131 0.63700002 0.080414884 1.5040896e-38 327 168
0.0089349868 0.63700002 0.080414884 1.5040523e-38 328 168
0.010036079 0.63599998 0.080288634 1.4579545e-38 329 168
0.011151199 0.63599998 0.080288634 1.4577735e-38 330 168
0.012285607 0.63700002 0.080414884 1.4300788e-38 331 168
0.01342352 0.63800001 0.080541119 1.42997e-38 332 168
0.014542148 0.63800001 0.080541119 1.3930916e-38 333 168
0.015709866 0.63999999 0.080793597 1.3283023e-38 334 168
0.016831998 0.63999999 0.080793597 1.3283023e-38 335 168
0.017982185 0.64099997 0.080919832 1.3649282e-38 336 168
-0.0068064397 0.64700001 0.08054287 1.5685189e-38 314 169
-0.0056720334 0.64700001 0.08054287 1.7068124e-38 315 169
-0.0045306133 0.64600003 0.080418386 1.6608945e-38 316 169
-0.0033821799 0.64300001 0.080044925 1.6240161e-38 317 169
-0.00225128 0.64200002 0.079920441 1.5964297e-38 318 169
-0.00112564 0.64200002 0.079920441 1.5872101e-38 319 169
0 0.64099997 0.079795949 1.5228531e-38 320 169
0.0011238866 0.64099997 0.079795949 1.5044139e-38 321 169
0.0022442664 0.63999999 0.079671465 1.5226013e-38 322 169
0.00335588 0.63800001 0.079422489 1.5226013e-38 323 169
0.0044745067 0.63800001 0.079422489 1.5041619e-38 324 169
0.0055931332 0.63800001 0.079422489 1.4949422e-38 325 169
0.0067117601 0.63800001 0.079422489 1.4949056e-38 326 169
0.007830387 0.63800001 0.079422489 1.4949056e-38 327 169
0.0089490134 0.63800001 0.079422489 1.4947609e-38 328 169
0.01005186 0.63700002 0.079298005 1.4578826e-38 329 169
0.011168733 0.63700002 0.079298005 1.4485179e-38 330 169
0.012304893 0.63800001 0.079422489 1.4116756e-38 331 169
0.013465599 0.63999999 0.079671465 1.4022393e-38 332 169
0.014587732 0.63999999 0.079671465 1.3837643e-38 333 169
0.015734414 0.64099997 0.079795949 1.3465616e-38 334 169
0.016858298 0.64099997 0.079795949 1.3558171e-38 335 169
0.01801024 0.64200002 0.079920441 1.3649638e-38 336 169
0.019284913 0.64700001 0.08054287 1.3649638e-38 337 169
-0.0068064397 0.64700001 0.079408467 1.3934192e-38 314 170
-0.0056720334 0.64700001 0.079408467 1.6884811e-38 315 170
-0.0045306133 0.64600003 0.079285733 1.7069563e-38 316 170
-0.00339796 0.64600003 0.079285733 1.6608592e-38 317 170
-0.0022582933 0.64399999 0.079040259 1.5873178e-38 318 170
-0.0011273933 0.64300001 0.078917533 1.5780982e-38 319 170
0 0.64200002 0.0787948 1.5228884e-38 320 170
0.00112564 0.64200002 0.0787948 1.4767906e-38 321 170
0.0022477731 0.64099997 0.078672059 1.522601e-38 322 170
0.0033663998 0.63999999 0.078549333 1.5041619e-38 323 170
0.0044885329 0.63999999 0.078549333 1.5040896e-38 324 170
0.0056106662 0.63999999 0.078549333 1.4856505e-38 325 170
0.0067327996 0.63999999 0.078549333 1.5131647e-38 326 170
0.0078549329 0.63999999 0.078549333 1.5039451e-38 327 170
0.0089770658 0.63999999 0.078549333 1.4762857e-38 328 170
0.01006764 0.63800001 0.078303866 1.4302239e-38 329 170
0.011186266 0.63800001 0.078303866 1.4392267e-38 330 170
0.012343466 0.63999999 0.078549333 1.4023124e-38 331 170
0.013486639 0.64099997 0.078672059 1.4112435e-38 332 170
0.01463332 0.64200002 0.0787948 1.3928042e-38 333 170
0.01575896 0.64200002 0.0787948 1.3926232e-38 334 170
0.016910899 0.64300001 0.078917533 1.3926232e-38 335 170
0.018066347 0.64399999 0.079040259 1.3833666e-38 336 170
0.019284913 0.64700001 0.079408467 1.3648916e-38 337 170
-0.0056807999 0.648 0.078395039 1.5043414e-38 315 171
-0.0045376266 0.64700001 0.078274064 1.6793697e-38 316 171
-0.00339796 0.64600003 0.078153081 1.6885892e-38 317 171
-0.0022582933 0.64399999 0.077911116 1.6149411e-38 318 171
-0.0011291467 0.64399999 0.077911116 1.6057216e-38 319 171
0 0.64300001 0.077790141 1.5964294e-38 320 171
0.0011273933 0.64300001 0.077790141 1.5595872e-38 321 171
0.00225128 0.64200002 0.077669159 1.5686268e-38 322 171
0.00337692 0.64200002 0.077669159 1.5409323e-38 323 171
0.00450256 0.64200002 0.077669159 1.5041616e-38 324 171
0.0056281998 0.64200002 0.077669159 1.4857224e-38 325 171
0.00675384 0.64200002 0.077669159 1.4856139e-38 326 171
0.0078672068 0.64099997 0.077548169 1.4763943e-38 327 171
0.0089910924 0.64099997 0.077548169 1.4669946e-38 328 171
0.010114979 0.64099997 0.077548169 1.439336e-38 329 171
0.011238866 0.64099997 0.077548169 1.4483028e-38 330 171
0.01238204 0.64200002 0.077669159 1.4114604e-38 331 171
0.01350768 0.64200002 0.077669159 1.4204989e-38 332 171
0.014656113 0.64300001 0.077790141 1.4020239e-38 333 171
0.015808053 0.64399999 0.077911116 1.4294654e-38 334 171
0.0169372 0.64399999 0.077911116 1.4018427e-38 335 171
0.018122453 0.64600003 0.078153081 1.3925507e-38 336 171
0.019284913 0.64700001 0.078274064 1.3556723e-38 337 171
0.02041932 0.64700001 0.078274064 1.3738601e-38 338 171
-0.0056895665 0.64899999 0.077378102 1.3655068e-38 315 172
-0.0045376266 0.64700001 0.077139653 1.5503692e-38 316 172
-0.00339796 0.64600003 0.077020429 1.6794415e-38 317 172
-0.0022653067 0.64600003 0.077020429 1.6793697e-38 318 172
-0.0011326533 0.64600003 0.077020429 1.6609309e-38 319 172
0 0.64399999 0.076781973 1.6149408e-38 320 172
0.0011291467 0.64399999 0.076781973 1.587318e-38 321 172
0.0022582933 0.64399999 0.076781973 1.5871382e-38 322 172
0.0033874398 0.64399999 0.076781973 1.5594435e-38 323 172
0.0045165867 0.64399999 0.076781973 1.5685189e-38 324 172
0.0056369668 0.64300001 0.076662742 1.5316408e-38 325 172
0.0067643598 0.64300001 0.076662742 1.5224198e-38 326 172
0.0078917528 0.64300001 0.076662742 1.5131644e-38 327 172
0.0090191467 0.64300001 0.076662742 1.5038002e-38 328 172
0.01014654 0.64300001 0.076662742 1.466958e-38 329 172
0.011291467 0.64399999 0.076781973 1.4851087e-38 330 172
0.012420613 0.64399999 0.076781973 1.4482665e-38 331 172
0.013549759 0.64399999 0.076781973 1.4481219e-38 332 172
0.014678906 0.64399999 0.076781973 1.4388664e-38 333 172
0.015808053 0.64399999 0.076781973 1.4294654e-38 334 172
0.016989801 0.64600003 0.077020429 1.4018427e-38 335 172
0.018122453 0.64600003 0.077020429 1.4016622e-38 336 172
0.019284913 0.64700001 0.077139653 1.3463809e-38 337 172
0.02041932 0.64700001 0.077139653 1.2910279e-38 338 172
-0.0045376266 0.64700001 0.07600525 1.0990419e-38 316 173
-0.0034032199 0.64700001 0.07600525 1.4032875e-38 317 173
-0.0022688133 0.64700001 0.07600525 1.6516756e-38 318 173
-0.0011344067 0.64700001 0.07600525 1.6885533e-38 319 173
0 0.64600003 0.075887777 1.6609309e-38 320 173
0.0011326533 0.64600003 0.075887777 1.6424921e-38 321 173
0.0022653067 0.64600003 0.075887777 1.6056493e-38 322 173
0.0033874398 0.64399999 0.075652823 1.5779906e-38 323 173
0.0045165867 0.64399999 0.075652823 1.6144369e-38 324 173
0.0056457333 0.64399999 0.075652823 1.6052174e-38 325 173
0.0067748795 0.64399999 0.075652823 1.5591906e-38 326 173
0.0079040267 0.64399999 0.075652823 1.5499709e-38 327 173
0.0090331733 0.64399999 0.075652823 1.5773772e-38 328 173
0.01016232 0.64399999 0.075652823 1.5312794e-38 329 173
0.011291467 0.64399999 0.075652823 1.5311347e-38 330 173
0.012420613 0.64399999 0.075652823 1.4942923e-38 331 173
0.013549759 0.64399999 0.075652823 1.4299347e-38 332 173
0.014678906 0.64399999 0.075652823 1.3838367e-38 333 173
0.015857147 0.64600003 0.075887777 1.4018793e-38 334 173
0.016989801 0.64600003 0.075887777 1.3742566e-38 335 173
0.018122453 0.64600003 0.075887777 1.3832231e-38 336 173
0.019284913 0.64700001 0.07600525 1.2357461e-38 337 173
-0.0045376266 0.64700001 0.07487084 8.404586e-39 316 174
-0.0034032199 0.64700001 0.07487084 1.2000217e-38 317 174
-0.0022688133 0.64700001 0.07487084 1.4946202e-38 318 174
-0.0011344067 0.64700001 0.07487084 1.6605722e-38 319 174
0 0.64700001 0.07487084 1.6517115e-38 320 174
0.0011326533 0.64600003 0.074755117 1.6517115e-38 321 174
0.0022653067 0.64600003 0.074755117 1.6516396e-38 322 174
0.00339796 0.64600003 0.074755117 1.6147612e-38 323 174
0.0045306133 0.64600003 0.074755117 1.6055048e-38 324 174
0.0056632664 0.64600003 0.074755117 1.5686265e-38 325 174
0.00679592 0.64600003 0.074755117 1.5684818e-38 326 174
0.0079040267 0.64399999 0.074523672 1.5408229e-38 327 174
0.0090331733 0.64399999 0.074523672 1.5683374e-38 328 174
0.01016232 0.64399999 0.074523672 1.5130201e-38 329 174
0.011326533 0.64600003 0.074755117 1.4944722e-38 330 174
0.012459187 0.64600003 0.074755117 1.4852168e-38 331 174
0.01359184 0.64600003 0.074755117 1.4665609e-38 332 174
0.014724494 0.64600003 0.074755117 1.4112435e-38 333 174
0.015857147 0.64600003 0.074755117 1.3650015e-38 334 174
0.016989801 0.64600003 0.074755117 1.3096841e-38 335 174
0.018122453 0.64600003 0.074755117 1.2358899e-38 336 174
0.019284913 0.64700001 0.07487084 1.2082672e-38 337 174
-0.00113616 0.648 0.073850393 1.3008273e-38 319 175
0 0.64700001 0.073736429 1.3844523e-38 320 175
0.0011344067 0.64700001 0.073736429 1.4950871e-38 321 175
0.0022688133 0.64700001 0.073736429 1.6239089e-38 322 175
0.0034032199 0.64700001 0.073736429 1.6331284e-38 323 175
0.0045376266 0.64700001 0.073736429 1.6239436e-38 324 175
0.0056720334 0.64700001 0.073736429 1.5962849e-38 325 175
0.00679592 0.64600003 0.073622465 1.605288e-38 326 175
0.0079285735 0.64600003 0.073622465 1.5868489e-38 327 175
0.0090612266 0.64600003 0.073622465 1.5683372e-38 328 175
0.01019388 0.64600003 0.073622465 1.5314591e-38 329 175
0.011326533 0.64600003 0.073622465 1.5220583e-38 330 175
0.012459187 0.64600003 0.073622465 1.485144e-38 331 175
0.01359184 0.64600003 0.073622465 1.4664162e-38 332 175
0.014724494 0.64600003 0.073622465 1.3650012e-38 333 175
0.015857147 0.64600003 0.073622465 1.2726256e-38 334 175
0.016989801 0.64600003 0.073622465 1.1435518e-38 335 175
0.018122453 0.64600003 0.073622465 9.7806653e-39 336 175
-0.0011379133 0.64899999 0.072826453 1.1621707e-38 319 176
0 0.648 0.072714239 1.2267471e-38 320 176
0.00113616 0.648 0.072714239 1.3096872e-38 321 176
0.00227232 0.648 0.072714239 1.3560375e-38 322 176
0.00340848 0.648 0.072714239 1.4574526e-38 323 176
0.00454464 0.648 0.072714239 1.4669592e-38 324 176
0.0056807999 0.648 0.072714239 1.4761788e-38 325 176
0.0068064397 0.64700001 0.072602026 1.5128403e-38 326 176
0.0079408465 0.64700001 0.072602026 1.4944013e-38 327 176
0.0090752533 0.64700001 0.072602026 1.4667056e-38 328 176
0.01020966 0.64700001 0.072602026 1.4482665e-38 329 176
0.011326533 0.64600003 0.072489813 1.438758e-38 330 176
0.012459187 0.64600003 0.072489813 1.3465622e-38 331 176
0.01359184 0.64600003 0.072489813 1.3092875e-38 332 176
0.014724494 0.64600003 0.072489813 1.2539701e-38 333 176
0.015857147 0.64600003 0.072489813 1.0791943e-38 334 176
0.016989801 0.64600003 0.072489813 1.0791943e-38 335 176
0 0.64899999 0.07168854 1.1063871e-38 320 177
0.0011379133 0.64899999 0.07168854 1.0141554e-38 321 177
0.0022758266 0.64899999 0.07168854 9.3164908e-39 322 177
0.00340848 0.648 0.071578078 1.0699425e-38 323 177
0.00454464 0.648 0.071578078 1.1532422e-38 324 177
0.0056807999 0.648 0.071578078 1.2177791e-38 325 177
0.0068169599 0.648 0.071578078 1.2729516e-38 326 177
0.0079408465 0.64700001 0.071467623 1.2361092e-38 327 177
0.0090752533 0.64700001 0.071467623 1.2452559e-38 328 177
0.01020966 0.64700001 0.071467623 1.2176332e-38 329 177
0.011344067 0.64700001 0.071467623 1.2080884e-38 330 177
0.012459187 0.64600003 0.071357161 1.1159287e-38 331 177
0.01359184 0.64600003 0.071357161 1.115677e-38 332 177
0.014724494 0.64600003 0.071357161 1.1340801e-38 333 177
0.01020966 0.64700001 0.070333213 1.2540792e-38 329 178
0.011344067 0.64700001 0.070333213 1.2447862e-38 330 178
0.012478473 0.64700001 0.070333213 1.290848e-38 331 178
0.013612879 0.64700001 0.070333213 1.3554202e-38 332 178
0.045341201 0.86199999 0.060454931 1.7606476e-38 350 200
0.046852574 0.86199999 0.060454931 1.8620628e-38 351 200
0.04847616 0.86400002 0.060595199 1.8712823e-38 352 200
0.045341201 0.86199999 0.058943558 1.8619907e-38 350 201
0.046852574 0.86199999 0.058943558 1.8896136e-38 351 201
0.048363943 0.86199999 0.058943558 1.8345839e-38 352 201
0.046852574 0.86199999 0.057432186 1.8805019e-38 351 202
-0.022944121 0.727 0.019120099 1.2272716e-38 302 225
-0.021669446 0.727 0.019120099 1.1258924e-38 303 225
-0.020422826 0.72799999 0.0191464 9.7920761e-39 304 225
-0.024218792 0.727 0.017845426 1.2366055e-38 301 226
-0.022944121 0.727 0.017845426 1.2642578e-38 302 226
-0.021669446 0.727 0.017845426 1.1351839e-38 303 226
-0.020394772 0.727 0.017845426 9.5147241e-39 304 226
-0.0190675 0.72500002 0.017796334 9.6991167e-39 305 226
-0.017747238 0.72299999 0.017747238 1.0159785e-38 306 226
-0.016456785 0.722 0.017722692 1.0528208e-38 307 226
-0.015190879 0.722 0.017722692 1.1810379e-38 308 226
-0.024218792 0.727 0.016570752 1.2639767e-38 301 227
-0.022944121 0.727 0.016570752 1.2643294e-38 302 227
-0.021669446 0.727 0.016570752 1.1997924e-38 303 227
-0.020394772 0.727 0.016570752 1.0069694e-38 304 227
-0.0190675 0.72500002 0.016525166 9.793106e-39 305 227
-0.017747238 0.72299999 0.01647958 1.015974e-38 306 227
-0.016456785 0.722 0.016456785 1.0067545e-38 307 227
-0.0151488 0.72000003 0.0164112 9.9750352e-39 308 227
-0.0138864 0.72000003 0.0164112 1.0528208e-38 309 227
-0.024218792 0.727 0.015296079 1.1903645e-38 301 228
-0.022944121 0.727 0.015296079 1.1815334e-38 302 228
-0.021669446 0.727 0.015296079 1.1538748e-38 303 228
-0.020422826 0.72799999 0.01531712 1.0712893e-38 304 228
-0.019120099 0.727 0.015296079 1.0344109e-38 305 228
-0.017796334 0.72500002 0.015254001 9.3356872e-39 306 228
-0.01647958 0.72299999 0.015211919 9.0587402e-39 307 228
-0.0151488 0.72000003 0.0151488 9.5168737e-39 308 228
-0.0138864 0.72000003 0.0151488 1.0070047e-38 309 228
-0.012624 0.72000003 0.0151488 1.1077795e-38 310 228
-0.011361601 0.72000003 0.0151488 1.1169991e-38 311 228
0.030718399 0.73000002 0.0153592 1.1072754e-38 344 228
0.031998333 0.73000002 0.0153592 1.134934e-38 345 228
-0.024252106 0.72799999 0.014040692 1.1349771e-38 301 229
-0.022975679 0.72799999 0.014040692 1.089414e-38 302 229
-0.021699252 0.72799999 0.014040692 1.1262921e-38 303 229
-0.020422826 0.72799999 0.014040692 1.0805107e-38 304 229
-0.0191464 0.72799999 0.014040692 1.0159738e-38 305 229
-0.017869972 0.72799999 0.014040692 9.151642e-39 306 229
-0.016525166 0.72500002 0.013982833 8.9672508e-39 307 229
-0.015211919 0.72299999 0.01394426 9.2420426e-39 308 229
-0.013924973 0.722 0.013924973 9.2420426e-39 309 229
-0.012624 0.72000003 0.0138864 9.5165206e-39 310 229
-0.011361601 0.72000003 0.0138864 9.8853017e-39 311 229
0.021520413 0.722 0.013924973 1.0519249e-38 337 229
0.022786319 0.722 0.013924973 9.6015864e-39 338 229
0.024052227 0.722 0.013924973 9.8781719e-39 339 229
0.025318133 0.722 0.013924973 9.6026402e-39 340 229
0.026620859 0.72299999 0.01394426 9.4182489e-39 341 229
0.02788852 0.72299999 0.01394426 1.0153649e-38 342 229
0.029357811 0.72799999 0.014040692 1.0429876e-38 343 229
0.030718399 0.73000002 0.014079267 1.1254621e-38 344 229
0.031998333 0.73000002 0.014079267 1.1346817e-38 345 229
0.033278264 0.73000002 0.014079267 1.4291713e-38 346 229
-0.024252106 0.72799999 0.012764266 1.134942e-38 301 230
-0.022975679 0.72799999 0.012764266 1.0801597e-38 302 230
-0.021699252 0.72799999 0.012764266 1.1262215e-38 303 230
-0.020478934 0.73000002 0.012799333 1.1079902e-38 304 230
-0.019199001 0.73000002 0.012799333 1.0434532e-38 305 230
-0.017869972 0.72799999 0.012764266 9.1516449e-39 306 230
-0.016593546 0.72799999 0.012764266 9.0590905e-39 307 230
-0.015296079 0.727 0.012746733 9.242037e-39 308 230
-0.01394426 0.72299999 0.012676599 9.3345914e-39 309 230
-0.012659066 0.722 0.012659066 9.6086741e-39 310 230
-0.01139316 0.722 0.012659066 9.7008698e-39 311 230
-0.010127253 0.722 0.012659066 1.0159387e-38 312 230
-0.0088613462 0.722 0.012659066 1.0159387e-38 313 230
-0.00753232 0.71600002 0.012553867 1.006653e-38 314 230
-0.0062769335 0.71600002 0.012553867 9.9743346e-39 315 230
-0.0050215465 0.71600002 0.012553867 1.0340987e-38 316 230
-0.00376616 0.71600002 0.012553867 1.0248791e-38 317 230
0.0189886 0.722 0.012659066 1.0798723e-38 335 230
0.020254506 0.722 0.012659066 1.0337359e-38 336 230
0.021520413 0.722 0.012659066 1.0244805e-38 337 230
0.022786319 0.722 0.012659066 1.0061113e-38 338 230
0.024052227 0.722 0.012659066 9.8770817e-39 339 230
0.025318133 0.722 0.012659066 1.0243694e-38 340 230
0.026620859 0.72299999 0.012676599 1.0151498e-38 341 230
0.02788852 0.72299999 0.012676599 1.0243694e-38 342 230
0.029357811 0.72799999 0.012764266 1.0612475e-38 343 230
0.030718399 0.73000002 0.012799333 1.1254271e-38 344 230
0.031998333 0.73000002 0.012799333 1.1715609e-38 345 230
0.033278264 0.73000002 0.012799333 1.5395553e-38 346 230
-0.025598666 0.73000002 0.011519399 1.3561042e-38 300 231
-0.024318734 0.73000002 0.011519399 1.1624934e-38 301 231
-0.023038799 0.73000002 0.011519399 1.0801244e-38 302 231
-0.021758866 0.73000002 0.011519399 1.0985635e-38 303 231
-0.020478934 0.73000002 0.011519399 1.0711842e-38 304 231
-0.019199001 0.73000002 0.011519399 1.0158668e-38 305 231
-0.017919067 0.73000002 0.011519399 9.243486e-39 306 231
-0.016593546 0.72799999 0.01148784 9.1512889e-39 307 231
-0.015296079 0.727 0.01147206 9.7941598e-39 308 231
-0.013982833 0.72500002 0.0114405 1.0162944e-38 309 231
-0.012676599 0.72299999 0.01140894 1.0528132e-38 310 231
-0.01140894 0.72299999 0.01140894 1.0251545e-38 311 231
-0.010127253 0.722 0.01139316 1.0069655e-38 312 231
-0.0088613462 0.722 0.01139316 9.4242857e-39 313 231
-0.00753232 0.71600002 0.01129848 9.0576738e-39 314 231
-0.0062769335 0.71600002 0.01129848 8.7807282e-39 315 231
-0.0050215465 0.71600002 0.01129848 9.1470304e-39 316 231
-0.00376616 0.71600002 0.01129848 9.4236187e-39 317 231
-0.0025142799 0.71700001 0.01131426 9.7895706e-39 318 231
-0.00125714 0.71700001 0.01131426 1.0066518e-38 319 231
0.01647958 0.72299999 0.01140894 1.0154041e-38 333 231
0.017747238 0.72299999 0.01140894 1.0431327e-38 334 231
0.0189886 0.722 0.01139316 1.0431327e-38 335 231
0.020254506 0.722 0.01139316 1.033841e-38 336 231
0.021520413 0.722 0.01139316 1.0522801e-38 337 231
0.02281788 0.72299999 0.01140894 1.0796147e-38 338 231
0.024085538 0.72299999 0.01140894 1.051956e-38 339 231
0.025423333 0.72500002 0.0114405 1.0334796e-38 340 231
0.026694499 0.72500002 0.0114405 1.0426993e-38 341 231
0.027965667 0.72500002 0.0114405 1.0611037e-38 342 231
0.029438468 0.73000002 0.011519399 1.0887264e-38 343 231
0.030718399 0.73000002 0.011519399 1.171455e-38 344 231
0.031998333 0.73000002 0.011519399 1.27287e-38 345 231
-0.025809066 0.736 0.010323626 1.438793e-38 300 232
-0.024518613 0.736 0.010323626 1.2451822e-38 301 232
-0.02307036 0.73100001 0.010253493 1.0800528e-38 302 232
-0.021788673 0.73100001 0.010253493 1.0800528e-38 303 232
-0.020506985 0.73100001 0.010253493 1.0252306e-38 304 232
-0.019199001 0.73000002 0.010239467 9.6991322e-39 305 232
-0.017919067 0.73000002 0.010239467 9.0598234e-39 306 232
-0.016593546 0.72799999 0.010211413 9.0598234e-39 307 232
-0.01531712 0.72799999 0.010211413 9.7934508e-39 308 232
-0.014021406 0.727 0.010197386 1.0254789e-38 309 232
-0.012711667 0.72500002 0.010169334 1.0619981e-38 310 232
-0.01140894 0.72299999 0.01014128 1.0435589e-38 311 232
-0.01014128 0.72299999 0.01014128 9.8841876e-39 312 232
-0.0088613462 0.722 0.010127253 9.5154065e-39 313 232
-0.0075428397 0.71700001 0.01005712 9.1484022e-39 314 232
-0.0062857 0.71700001 0.01005712 9.0562066e-39 315 232
-0.0050285598 0.71700001 0.01005712 8.9640264e-39 316 232
-0.0037714199 0.71700001 0.01005712 9.1484191e-39 317 232
-0.0025142799 0.71700001 0.01005712 9.5147185e-39 318 232
-0.00125714 0.71700001 0.01005712 9.5147185e-39 319 232
0 0.71700001 0.01005712 8.5956769e-39 320 232
0.011361601 0.72000003 0.010099201 1.0523934e-38 329 232
0.012624 0.72000003 0.010099201 1.1166769e-38 330 232
0.013924973 0.722 0.010127253 1.098202e-38 331 232
0.015211919 0.72299999 0.01014128 1.0890866e-38 332 232
0.01647958 0.72299999 0.01014128 1.0613921e-38 333 232
0.017747238 0.72299999 0.01014128 1.0431662e-38 334 232
0.019014901 0.72299999 0.01014128 1.0431662e-38 335 232
0.020282559 0.72299999 0.01014128 1.0797568e-38 336 232
0.021550218 0.72299999 0.01014128 1.0890122e-38 337 232
0.02281788 0.72299999 0.01014128 1.1071645e-38 338 232
0.024152167 0.72500002 0.010169334 1.0702504e-38 339 232
0.025493465 0.727 0.010197386 1.0335895e-38 340 232
0.026768139 0.727 0.010197386 1.0981264e-38 341 232
0.028081384 0.72799999 0.010211413 1.2082975e-38 342 232
0.029438468 0.73000002 0.010239467 1.2267725e-38 343 232
0.030844638 0.73299998 0.010281546 1.3094281e-38 344 232
-0.030671058 0.833 0.010223686 1.5124069e-38 299 233
-0.025879199 0.73799998 0.0090577193 1.4940751e-38 300 233
-0.024585238 0.73799998 0.0090577193 1.3465619e-38 301 233
-0.023165042 0.73400003 0.0090086265 1.1259704e-38 302 233
-0.021878093 0.73400003 0.0090086265 1.0798725e-38 303 233
-0.020563092 0.73299998 0.0089963535 9.9767967e-39 304 233
-0.019225299 0.73100001 0.0089718066 9.6080155e-39 305 233
-0.017943613 0.73100001 0.0089718066 8.967276e-39 306 233
