# .PCD v.7 - Point Cloud Data file format
FIELDS x y z rgb imX imY
SIZE 4 4 4 4 4 4
TYPE F F F F F F
COUNT 1 1 1 1 1 1
WIDTH 829
HEIGHT 1
VIEWPOINT 0 0 0 1 0 0 0
POINTS 829
DATA ascii
0.017035386 0.69400001 -0.0060840664 4.7931232e-39 334 245
0.0182522 0.69400001 -0.0060840664 6.3600888e-39 335 245
0.019553173 0.69700003 -0.0061103669 8.7531898e-39 336 245
0.020775247 0.69700003 -0.0061103669 8.9375811e-39 337 245
0.02202888 0.69800001 -0.006119133 8.2968458e-39 338 245
0.023252707 0.69800001 -0.006119133 8.6656283e-39 339 245
0.024546666 0.69999999 -0.0061366665 9.3106222e-39 340 245
0.025773998 0.69999999 -0.0061366665 9.2184265e-39 341 245
0.027039904 0.70099998 -0.0061454331 9.0336892e-39 342 245
0.028349647 0.70300001 -0.0061629666 9.0336892e-39 343 245
0.029708479 0.70599997 -0.0061892662 8.7538905e-39 344 245
0.030946331 0.70599997 -0.0061892662 8.2010754e-39 345 245
0.032184184 0.70599997 -0.0061892662 6.9110793e-39 346 245
0.033469379 0.70700002 -0.0061980332 7.4642531e-39 347 245
0.034708988 0.70700002 -0.0061980332 1.2900927e-38 348 245
-0.033800758 0.71399999 -0.0075112795 1.6311774e-38 293 246
-0.032503292 0.713 -0.0075007593 1.6311774e-38 294 246
-0.031253166 0.713 -0.0075007593 1.6219579e-38 295 246
-0.030003037 0.713 -0.0075007593 1.4655139e-38 296 246
-0.028672259 0.71100003 -0.0074797203 1.3087814e-38 297 246
-0.027425639 0.71100003 -0.0074797203 1.0508151e-38 298 246
-0.026142199 0.70999998 -0.0074691991 8.2036188e-39 299 246
-0.024897331 0.70999998 -0.0074691991 8.5695427e-39 300 246
-0.023585839 0.708 -0.0074481601 8.9383266e-39 301 246
-0.022312919 0.70700002 -0.0074376399 9.5912518e-39 302 246
-0.021073313 0.70700002 -0.0074376399 1.0605764e-38 303 246
-0.019749546 0.704 -0.0074060797 1.1340435e-38 304 246
-0.018436298 0.70099998 -0.0073745195 1.1248238e-38 305 246
-0.017182667 0.69999999 -0.0073639993 1.0972009e-38 306 246
-0.015955333 0.69999999 -0.0073639993 1.0695063e-38 307 246
-0.01468592 0.69800001 -0.0073429602 1.1429031e-38 308 246
-0.013442807 0.69700003 -0.00733244 1.1613422e-38 309 246
-0.012220734 0.69700003 -0.00733244 1.179889e-38 310 246
-0.010982879 0.69599998 -0.0073219193 1.1891085e-38 311 246
-0.0097345067 0.69400001 -0.0073008798 1.1524454e-38 312 246
-0.0085176928 0.69400001 -0.0073008798 1.1616649e-38 313 246
-0.0073008798 0.69400001 -0.0073008798 1.1524454e-38 314 246
-0.0060840664 0.69400001 -0.0073008798 1.1340062e-38 315 246
-0.00486024 0.69300002 -0.0072903596 1.1431179e-38 316 246
-0.0036451798 0.69300002 -0.0072903596 1.1431179e-38 317 246
-0.00243012 0.69300002 -0.0072903596 1.0233359e-38 318 246
-0.0012115532 0.69099998 -0.0072693196 8.5741964e-39 319 246
0 0.69099998 -0.0072693196 8.1088994e-39 320 246
0.0012115532 0.69099998 -0.0072693196 7.5557271e-39 321 246
0.0024231065 0.69099998 -0.0072693196 6.3604265e-39 322 246
0.0036346598 0.69099998 -0.0072693196 6.2682294e-39 323 246
0.0048462129 0.69099998 -0.0072693196 6.3611481e-39 324 246
0.0060577663 0.69099998 -0.0072693196 6.2685938e-39 325 246
0.0072903596 0.69300002 -0.0072903596 6.6381008e-39 326 246
0.0085054198 0.69300002 -0.0072903596 7.2834702e-39 327 246
0.0097204801 0.69300002 -0.0072903596 7.7437295e-39 328 246
0.010935539 0.69300002 -0.0072903596 8.3890989e-39 329 246
0.012168133 0.69400001 -0.0073008798 9.127017e-39 330 246
0.013384946 0.69400001 -0.0073008798 9.2192127e-39 331 246
0.01460176 0.69400001 -0.0073008798 9.2166959e-39 332 246
0.015818574 0.69400001 -0.0073008798 9.4929227e-39 333 246
0.017084479 0.69599998 -0.0073219193 9.9549798e-39 334 246
0.018304799 0.69599998 -0.0073219193 1.0231567e-38 335 246
0.019553173 0.69700003 -0.00733244 1.0782197e-38 336 246
0.020805053 0.69800001 -0.0073429602 9.860601e-39 337 246
0.02202888 0.69800001 -0.0073429602 9.1251617e-39 338 246
0.023252707 0.69800001 -0.0073429602 9.309553e-39 339 246
0.024546666 0.69999999 -0.0073639993 9.4953834e-39 340 246
0.025810819 0.70099998 -0.0073745195 9.4953834e-39 341 246
0.027117053 0.70300001 -0.0073955595 9.2188049e-39 342 246
0.028389972 0.704 -0.0074060797 8.9418593e-39 343 246
0.029708479 0.70599997 -0.0074271196 8.387982e-39 344 246
0.030946331 0.70599997 -0.0074271196 7.9273626e-39 345 246
0.032184184 0.70599997 -0.0074271196 7.8348265e-39 346 246
0.033469379 0.70700002 -0.0074376399 8.3880002e-39 347 246
0.034708988 0.70700002 -0.0074376399 1.25199e-38 348 246
-0.035150826 0.71600002 -0.0087877065 1.6678752e-38 292 247
-0.033800758 0.71399999 -0.0087631596 1.6678752e-38 293 247
-0.032548878 0.71399999 -0.0087631596 1.6678755e-38 294 247
-0.031296998 0.71399999 -0.0087631596 1.6494723e-38 295 247
-0.030045118 0.71399999 -0.0087631596 1.4746259e-38 296 247
-0.028752912 0.713 -0.0087508867 1.3363324e-38 297 247
-0.027425639 0.71100003 -0.0087263398 1.152338e-38 298 247
-0.026142199 0.70999998 -0.0087140659 1.0140446e-38 299 247
-0.024897331 0.70999998 -0.0087140659 7.7480483e-39 300 247
-0.023585839 0.708 -0.008689519 7.3792671e-39 301 247
-0.022312919 0.70700002 -0.008677247 7.5651017e-39 302 247
-0.021073313 0.70700002 -0.008677247 9.31646e-39 303 247
-0.019805651 0.70599997 -0.0086649731 1.0694713e-38 304 247
-0.018488899 0.70300001 -0.0086281532 1.0602517e-38 305 247
-0.017207211 0.70099998 -0.0086036054 9.7738354e-39 306 247
-0.015955333 0.69999999 -0.0085913334 9.128466e-39 307 247
-0.014727999 0.69999999 -0.0085913334 9.3135789e-39 308 247
-0.013462093 0.69800001 -0.0085667865 9.6820027e-39 309 247
-0.012220734 0.69700003 -0.0085545136 1.0327728e-38 310 247
-0.01099866 0.69700003 -0.0085545136 1.0788706e-38 311 247
-0.0097625591 0.69599998 -0.0085422397 1.1523745e-38 312 247
-0.0085422397 0.69599998 -0.0085422397 1.1339712e-38 313 247
-0.0073008798 0.69400001 -0.0085176928 1.1248589e-38 314 247
-0.0060840664 0.69400001 -0.0085176928 1.1156393e-38 315 247
-0.0048672534 0.69400001 -0.0085176928 1.1247867e-38 316 247
-0.0036504399 0.69400001 -0.0085176928 1.1247867e-38 317 247
-0.00243012 0.69300002 -0.0085054198 1.1153873e-38 318 247
-0.00121506 0.69300002 -0.0085054198 1.0416307e-38 319 247
0 0.69300002 -0.0085054198 1.0321589e-38 320 247
0.00121506 0.69300002 -0.0085054198 1.0137556e-38 321 247
0.00243012 0.69300002 -0.0085054198 9.4025123e-39 322 247
0.0036451798 0.69300002 -0.0085054198 9.2177623e-39 323 247
0.00486024 0.69300002 -0.0085054198 9.3099608e-39 324 247
0.0060753003 0.69300002 -0.0085054198 9.4021564e-39 325 247
0.0072903596 0.69300002 -0.0085054198 9.5858274e-39 326 247
0.0085054198 0.69300002 -0.0085054198 9.9546113e-39 327 247
0.0097204801 0.69300002 -0.0085054198 1.0045727e-38 328 247
0.01095132 0.69400001 -0.0085176928 1.0045727e-38 329 247
0.012168133 0.69400001 -0.0085176928 9.9549644e-39 330 247
0.013384946 0.69400001 -0.0085176928 1.0231191e-38 331 247
0.01460176 0.69400001 -0.0085176928 1.032339e-38 332 247
0.015864158 0.69599998 -0.0085422397 1.0507781e-38 333 247
0.017084479 0.69599998 -0.0085422397 1.0599251e-38 334 247
0.018331099 0.69700003 -0.0085545136 1.0323024e-38 335 247
0.019581227 0.69800001 -0.0085667865 1.004677e-38 336 247
0.020805053 0.69800001 -0.0085667865 9.3088467e-39 337 247
0.02202888 0.69800001 -0.0085667865 8.6667017e-39 338 247
0.023319334 0.69999999 -0.0085913334 8.851093e-39 339 247
0.024581732 0.70099998 -0.0086036054 8.668152e-39 340 247
0.025884461 0.70300001 -0.0086281532 8.483402e-39 341 247
0.027155625 0.704 -0.0086404262 8.7581939e-39 342 247
0.028389972 0.704 -0.0086404262 8.7581939e-39 343 247
0.029708479 0.70599997 -0.0086649731 8.5727292e-39 344 247
0.030946331 0.70599997 -0.0086649731 8.5727292e-39 345 247
0.032229774 0.70700002 -0.008677247 8.2972339e-39 346 247
0.033469379 0.70700002 -0.008677247 8.4819853e-39 347 247
0.034708988 0.70700002 -0.008677247 1.1965255e-38 348 247
-0.035150826 0.71600002 -0.010043093 1.6678386e-38 292 248
-0.033800758 0.71399999 -0.01001504 1.6678386e-38 293 248
-0.032548878 0.71399999 -0.01001504 1.6678389e-38 294 248
-0.031296998 0.71399999 -0.01001504 1.6585834e-38 295 248
-0.030045118 0.71399999 -0.01001504 1.5021404e-38 296 248
-0.028793238 0.71399999 -0.01001504 1.3730665e-38 297 248
-0.027502786 0.713 -0.010001013 1.1432631e-38 298 248
-0.026142199 0.70999998 -0.0099589331 1.0879457e-38 299 248
-0.024897331 0.70999998 -0.0099589331 9.6830817e-39 300 248
-0.023585839 0.708 -0.0099308798 8.9455167e-39 301 248
-0.022312919 0.70700002 -0.0099168532 8.5763796e-39 302 248
-0.021073313 0.70700002 -0.0099168532 8.9451635e-39 303 248
-0.019805651 0.70599997 -0.0099028256 9.0362802e-39 304 248
-0.018488899 0.70300001 -0.0098607466 8.760052e-39 305 248
-0.017256306 0.70300001 -0.0098607466 8.2997997e-39 306 248
-0.015978126 0.70099998 -0.0098326923 7.5618759e-39 307 248
-0.014727999 0.69999999 -0.0098186666 7.1016195e-39 308 248
-0.013500666 0.69999999 -0.0098186666 7.6547932e-39 309 248
-0.012238266 0.69800001 -0.0097906133 8.1179196e-39 310 248
-0.01099866 0.69700003 -0.0097765867 9.4086584e-39 311 248
-0.0097765867 0.69700003 -0.0097765867 1.0879457e-38 312 248
-0.0085422397 0.69599998 -0.0097625591 1.0971653e-38 313 248
-0.0073219193 0.69599998 -0.0097625591 1.1155318e-38 314 248
-0.0060840664 0.69400001 -0.0097345067 1.1155318e-38 315 248
-0.0048672534 0.69400001 -0.0097345067 1.1155674e-38 316 248
-0.0036504399 0.69400001 -0.0097345067 1.1063478e-38 317 248
-0.0024336267 0.69400001 -0.0097345067 1.1246425e-38 318 248
-0.00121506 0.69300002 -0.0097204801 1.0508501e-38 319 248
0 0.69300002 -0.0097204801 1.0228676e-38 320 248
0.00121506 0.69300002 -0.0097204801 1.078185e-38 321 248
0.00243012 0.69300002 -0.0097204801 1.1706324e-38 322 248
0.0036451798 0.69300002 -0.0097204801 1.179852e-38 323 248
0.00486024 0.69300002 -0.0097204801 1.1430813e-38 324 248
0.0060753003 0.69300002 -0.0097204801 1.1430813e-38 325 248
0.0072903596 0.69300002 -0.0097204801 1.1521211e-38 326 248
0.0085054198 0.69300002 -0.0097204801 1.0783646e-38 327 248
0.0097345067 0.69400001 -0.0097345067 1.0045361e-38 328 248
0.01095132 0.69400001 -0.0097345067 9.6762195e-39 329 248
0.012168133 0.69400001 -0.0097345067 9.0319291e-39 330 248
0.013384946 0.69400001 -0.0097345067 9.3085146e-39 331 248
0.014643839 0.69599998 -0.0097625591 9.6772985e-39 332 248
0.015864158 0.69599998 -0.0097625591 1.004608e-38 333 248
0.017109027 0.69700003 -0.0097765867 9.5861777e-39 334 248
0.018331099 0.69700003 -0.0097765867 9.2173952e-39 335 248
0.019581227 0.69800001 -0.0097906133 9.401048e-39 336 248
0.020805053 0.69800001 -0.0097906133 8.8478742e-39 337 248
0.022091998 0.69999999 -0.0098186666 8.5734327e-39 338 248
0.023319334 0.69999999 -0.0098186666 8.5734327e-39 339 248
0.024581732 0.70099998 -0.0098326923 8.5730852e-39 340 248
0.025884461 0.70300001 -0.0098607466 8.2961395e-39 341 248
0.027155625 0.704 -0.0098747732 8.4812553e-39 342 248
0.028470624 0.70599997 -0.0099028256 8.6656479e-39 343 248
0.029708479 0.70599997 -0.0099028256 8.2990332e-39 344 248
0.030990168 0.70700002 -0.0099168532 8.1146419e-39 345 248
0.032229774 0.70700002 -0.0099168532 8.2064845e-39 346 248
0.033469379 0.70700002 -0.0099168532 7.6536694e-39 347 248
0.034708988 0.70700002 -0.0099168532 1.2059252e-38 348 248
0.035948593 0.70700002 -0.0099168532 1.2243644e-38 349 248
-0.036304519 0.71399999 -0.011266919 1.6678386e-38 291 249
-0.035052639 0.71399999 -0.011266919 1.6678386e-38 292 249
-0.03389544 0.71600002 -0.01129848 1.6678386e-38 293 249
-0.032640055 0.71600002 -0.01129848 1.6586189e-38 294 249
-0.031296998 0.71399999 -0.011266919 1.6309604e-38 295 249
-0.030045118 0.71399999 -0.011266919 1.5204713e-38 296 249
-0.028752912 0.713 -0.011251139 1.4098724e-38 297 249
-0.027502786 0.713 -0.011251139 1.1708139e-38 298 249
-0.026179021 0.71100003 -0.01121958 1.1062769e-38 299 249
-0.024932399 0.71100003 -0.01121958 1.0144779e-38 300 249
-0.023652466 0.70999998 -0.011203799 9.6838006e-39 301 249
-0.022312919 0.70700002 -0.011156459 9.1331477e-39 302 249
-0.021073313 0.70700002 -0.011156459 8.9487565e-39 303 249
-0.019805651 0.70599997 -0.011140679 9.0377179e-39 304 249
-0.018488899 0.70300001 -0.01109334 8.3923485e-39 305 249
-0.017256306 0.70300001 -0.01109334 7.4686097e-39 306 249
-0.015978126 0.70099998 -0.011061779 7.0994685e-39 307 249
-0.014749039 0.70099998 -0.011061779 6.2725903e-39 308 249
-0.013500666 0.69999999 -0.011045999 6.5488184e-39 309 249
-0.012238266 0.69800001 -0.01101444 7.471481e-39 310 249
-0.01101444 0.69800001 -0.01101444 8.5778285e-39 311 249
-0.0097906133 0.69800001 -0.01101444 9.8671128e-39 312 249
-0.0085545136 0.69700003 -0.01099866 1.0236255e-38 313 249
-0.00733244 0.69700003 -0.01099866 1.0695782e-38 314 249
-0.0061015999 0.69599998 -0.010982879 1.0511751e-38 315 249
-0.0048672534 0.69400001 -0.01095132 1.0878731e-38 316 249
-0.0036504399 0.69400001 -0.01095132 1.0970927e-38 317 249
-0.0024336267 0.69400001 -0.01095132 1.0049326e-38 318 249
-0.0012168133 0.69400001 -0.01095132 9.0348158e-39 319 249
0 0.69300002 -0.010935539 8.8497071e-39 320 249
0.00121506 0.69300002 -0.010935539 9.1262954e-39 321 249
0.00243012 0.69300002 -0.010935539 1.0230841e-38 322 249
0.0036504399 0.69400001 -0.01095132 1.0323036e-38 323 249
0.0048672534 0.69400001 -0.01095132 9.6805383e-39 324 249
0.0060840664 0.69400001 -0.01095132 9.772734e-39 325 249
0.0073008798 0.69400001 -0.01095132 1.0138996e-38 326 249
0.0085176928 0.69400001 -0.01095132 8.8482567e-39 327 249
0.0097345067 0.69400001 -0.01095132 8.2950886e-39 328 249
0.010982879 0.69599998 -0.010982879 8.0185031e-39 329 249
0.0122032 0.69599998 -0.010982879 8.4773316e-39 330 249
0.013423519 0.69599998 -0.010982879 8.6617229e-39 331 249
0.014643839 0.69599998 -0.010982879 8.2010993e-39 332 249
0.015886955 0.69700003 -0.01099866 8.1089022e-39 333 249
0.017109027 0.69700003 -0.01099866 7.3749245e-39 334 249
0.0183574 0.69800001 -0.01101444 7.6515114e-39 335 249
0.019581227 0.69800001 -0.01101444 8.4809021e-39 336 249
0.020805053 0.69800001 -0.01101444 8.5730992e-39 337 249
0.022091998 0.69999999 -0.011045999 8.4812497e-39 338 249
0.023319334 0.69999999 -0.011045999 8.2050229e-39 339 249
0.024581732 0.70099998 -0.011061779 8.2961423e-39 340 249
0.02592128 0.704 -0.011109119 8.2961423e-39 341 249
0.027232772 0.70599997 -0.011140679 8.1149923e-39 342 249
0.028470624 0.70599997 -0.011140679 8.2997423e-39 343 249
0.029750559 0.70700002 -0.011156459 8.4823483e-39 344 249
0.030990168 0.70700002 -0.011156459 8.297957e-39 345 249
0.03227536 0.708 -0.01117224 8.0213757e-39 346 249
0.033469379 0.70700002 -0.011156459 7.6522345e-39 347 249
0.034708988 0.70700002 -0.011156459 1.2616389e-38 348 249
0.035948593 0.70700002 -0.011156459 1.3261758e-38 349 249
-0.035052639 0.71399999 -0.012518799 1.6586186e-38 292 250
-0.03389544 0.71600002 -0.012553867 1.6586186e-38 293 250
-0.032640055 0.71600002 -0.012553867 1.6493637e-38 294 250
-0.031384666 0.71600002 -0.012553867 1.6309606e-38 295 250
-0.030045118 0.71399999 -0.012518799 1.5206151e-38 296 250
-0.028752912 0.713 -0.012501267 1.419164e-38 297 250
-0.027502786 0.713 -0.012501267 1.1799974e-38 298 250
-0.026252659 0.713 -0.012501267 1.106205e-38 299 250
-0.024932399 0.71100003 -0.0124662 1.0053309e-38 300 250
-0.023652466 0.70999998 -0.012448666 9.7767207e-39 301 250
-0.022344479 0.708 -0.0124136 9.3186138e-39 302 250
-0.021073313 0.70700002 -0.012396066 9.1338638e-39 303 250
-0.019805651 0.70599997 -0.012378532 8.9455195e-39 304 250
-0.018515198 0.704 -0.012343466 8.30015e-39 305 250
-0.017256306 0.70300001 -0.012325933 6.2707868e-39 306 250
-0.016023712 0.70300001 -0.012325933 5.6254174e-39 307 250
-0.014749039 0.70099998 -0.012290866 5.1655323e-39 308 250
-0.013500666 0.69999999 -0.012273333 5.3499249e-39 309 250
-0.012273333 0.69999999 -0.012273333 6.4584235e-39 310 250
-0.011045999 0.69999999 -0.012273333 7.5644123e-39 311 250
-0.0097906133 0.69800001 -0.012238266 8.6703745e-39 312 250
-0.0085545136 0.69700003 -0.012220734 9.5001352e-39 313 250
-0.00733244 0.69700003 -0.012220734 9.6841537e-39 314 250
-0.0061015999 0.69599998 -0.0122032 9.8685449e-39 315 250
-0.0048812795 0.69599998 -0.0122032 1.0327358e-38 316 250
-0.0036609597 0.69599998 -0.0122032 1.0327358e-38 317 250
-0.0024336267 0.69400001 -0.012168133 9.2210147e-39 318 250
-0.0012168133 0.69400001 -0.012168133 7.9302759e-39 319 250
0 0.69400001 -0.012168133 7.8366468e-39 320 250
0.0012168133 0.69400001 -0.012168133 7.9288424e-39 321 250
0.0024336267 0.69400001 -0.012168133 7.6508122e-39 322 250
0.0036504399 0.69400001 -0.012168133 7.5586151e-39 323 250
0.0048672534 0.69400001 -0.012168133 8.0188688e-39 324 250
0.0060840664 0.69400001 -0.012168133 8.479847e-39 325 250
0.0073008798 0.69400001 -0.012168133 8.6624417e-39 326 250
0.0085176928 0.69400001 -0.012168133 7.0954762e-39 327 250
0.0097625591 0.69599998 -0.0122032 6.7277797e-39 328 250
0.010982879 0.69599998 -0.0122032 6.9125297e-39 329 250
0.0122032 0.69599998 -0.0122032 7.8316091e-39 330 250
0.013423519 0.69599998 -0.0122032 8.0160003e-39 331 250
0.01466488 0.69700003 -0.012220734 7.1844404e-39 332 250
0.015886955 0.69700003 -0.012220734 6.7234637e-39 333 250
0.017133573 0.69800001 -0.012238266 5.7154256e-39 334 250
0.0183574 0.69800001 -0.012238266 6.5451863e-39 335 250
0.019581227 0.69800001 -0.012238266 8.0199408e-39 336 250
0.020805053 0.69800001 -0.012238266 8.3890835e-39 337 250
0.022091998 0.69999999 -0.012273333 8.4805462e-39 338 250
0.023319334 0.69999999 -0.012273333 7.8351768e-39 339 250
0.024651866 0.70300001 -0.012325933 7.4692697e-39 340 250
0.02592128 0.704 -0.012343466 7.8380509e-39 341 250
0.027232772 0.70599997 -0.012378532 7.8398473e-39 342 250
0.028470624 0.70599997 -0.012378532 8.1167929e-39 343 250
0.029750559 0.70700002 -0.012396066 8.3890806e-39 344 250
0.031034 0.708 -0.0124136 8.2968836e-39 345 250
0.03227536 0.708 -0.0124136 7.6518673e-39 346 250
0.033516716 0.708 -0.0124136 7.4674761e-39 347 250
0.034856264 0.70999998 -0.012448666 1.3819245e-38 348 250
0.036101133 0.70999998 -0.012448666 1.5109984e-38 349 250
-0.03389544 0.71600002 -0.013809253 1.6586189e-38 293 251
-0.032640055 0.71600002 -0.013809253 1.6402522e-38 294 251
-0.031384666 0.71600002 -0.013809253 1.6125934e-38 295 251
-0.03012928 0.71600002 -0.013809253 1.5482376e-38 296 251
-0.028793238 0.71399999 -0.01377068 1.4376388e-38 297 251
-0.027502786 0.713 -0.013751393 1.2168397e-38 298 251
-0.026252659 0.713 -0.013751393 1.0969855e-38 299 251
-0.024932399 0.71100003 -0.01371282 9.7777983e-39 300 251
-0.023652466 0.70999998 -0.013693533 9.7777983e-39 301 251
-0.022344479 0.708 -0.013654959 9.4100933e-39 302 251
-0.021103119 0.708 -0.013654959 9.2253433e-39 303 251
-0.019805651 0.70599997 -0.013616386 9.0387997e-39 304 251
-0.018515198 0.704 -0.013577812 8.2093992e-39 305 251
-0.017256306 0.70300001 -0.013558527 5.4435457e-39 306 251
-0.016023712 0.70300001 -0.013558527 4.7981763e-39 307 251
-0.014749039 0.70099998 -0.013519952 4.8896656e-39 308 251
-0.013500666 0.69999999 -0.013500666 5.074417e-39 309 251
-0.012273333 0.69999999 -0.013500666 5.4457079e-39 310 251
-0.011045999 0.69999999 -0.013500666 6.2758273e-39 311 251
-0.0097906133 0.69800001 -0.013462093 7.8402593e-39 312 251
-0.0085667865 0.69800001 -0.013462093 8.8547714e-39 313 251
-0.0073429602 0.69800001 -0.013462093 9.3153782e-39 314 251
-0.0061103669 0.69700003 -0.013442807 9.5916049e-39 315 251
-0.0048882933 0.69700003 -0.013442807 9.867103e-39 316 251
-0.0036609597 0.69599998 -0.013423519 9.9592986e-39 317 251
-0.0024406398 0.69599998 -0.013423519 9.2217336e-39 318 251
-0.0012203199 0.69599998 -0.013423519 8.0231904e-39 319 251
0 0.69400001 -0.013384946 7.1005279e-39 320 251
0.0012168133 0.69400001 -0.013384946 6.4551584e-39 321 251
0.0024336267 0.69400001 -0.013384946 6.9125395e-39 322 251
0.0036504399 0.69400001 -0.013384946 6.8203438e-39 323 251
0.0048672534 0.69400001 -0.013384946 7.3738707e-39 324 251
0.0060840664 0.69400001 -0.013384946 7.7426547e-39 325 251
0.0073008798 0.69400001 -0.013384946 8.0181654e-39 326 251
0.0085422397 0.69599998 -0.013423519 7.0962077e-39 327 251
0.0097625591 0.69599998 -0.013423519 7.2806003e-39 328 251
0.01099866 0.69700003 -0.013442807 7.5575459e-39 329 251
0.012220734 0.69700003 -0.013442807 7.4682188e-39 330 251
0.013442807 0.69700003 -0.013442807 7.5604144e-39 331 251
0.01466488 0.69700003 -0.013442807 7.926676e-39 332 251
0.015909746 0.69800001 -0.013462093 7.3735022e-39 333 251
0.017133573 0.69800001 -0.013462093 6.5451863e-39 334 251
0.0183574 0.69800001 -0.013462093 6.7295775e-39 335 251
0.019581227 0.69800001 -0.013462093 7.8369971e-39 336 251
0.020864666 0.69999999 -0.013500666 8.2983354e-39 337 251
0.022091998 0.69999999 -0.013500666 8.0202967e-39 338 251
0.023352645 0.70099998 -0.013519952 6.8217535e-39 339 251
0.024686933 0.704 -0.013577812 4.0663159e-39 340 251
0.02592128 0.704 -0.013577812 6.0946198e-39 341 251
0.027232772 0.70599997 -0.013616386 8.5745467e-39 342 251
0.028510952 0.70700002 -0.013635674 8.4823511e-39 343 251
0.02979264 0.708 -0.013654959 8.2061341e-39 344 251
0.031121666 0.70999998 -0.013693533 7.9295458e-39 345 251
0.032366529 0.70999998 -0.013693533 6.7306341e-39 346 251
0.033611398 0.70999998 -0.013693533 6.7306341e-39 347 251
0.034905359 0.71100003 -0.01371282 1.428274e-38 348 251
0.036151983 0.71100003 -0.01371282 1.5850067e-38 349 251
-0.032776814 0.71899998 -0.01512776 1.6127013e-38 294 252
-0.031428497 0.71700001 -0.015085679 1.5942622e-38 295 252
-0.03012928 0.71600002 -0.01506464 1.5298345e-38 296 252
-0.028793238 0.71399999 -0.015022559 1.4468583e-38 297 252
-0.02754136 0.71399999 -0.015022559 1.2904517e-38 298 252
-0.026252659 0.713 -0.015001519 1.1705974e-38 299 252
-0.025002534 0.713 -0.015001519 9.6856026e-39 300 252
-0.023685781 0.71100003 -0.014959441 9.5934056e-39 301 252
-0.022344479 0.708 -0.01489632 9.3175446e-39 302 252
-0.021103119 0.708 -0.01489632 9.2253489e-39 303 252
-0.019833706 0.70700002 -0.01487528 9.1309953e-39 304 252
-0.018567799 0.70599997 -0.014854239 8.5778229e-39 305 252
-0.017280852 0.704 -0.014812159 5.4457079e-39 306 252
-0.016023712 0.70300001 -0.014791119 4.8003385e-39 307 252
-0.014791119 0.70300001 -0.014791119 4.4304952e-39 308 252
-0.013519952 0.70099998 -0.014749039 4.3379408e-39 309 252
-0.012273333 0.69999999 -0.014727999 3.9716722e-39 310 252
-0.011045999 0.69999999 -0.014727999 4.9861843e-39 311 252
-0.0098186666 0.69999999 -0.014727999 6.8264801e-39 312 252
-0.0085667865 0.69800001 -0.01468592 8.2094146e-39 313 252
-0.0073429602 0.69800001 -0.01468592 9.0387969e-39 314 252
-0.006119133 0.69800001 -0.01468592 9.0387969e-39 315 252
-0.0048882933 0.69700003 -0.01466488 9.2238986e-39 316 252
-0.00366622 0.69700003 -0.01466488 9.2238986e-39 317 252
-0.0024441467 0.69700003 -0.01466488 9.3135733e-39 318 252
-0.0012203199 0.69599998 -0.014643839 8.5760083e-39 319 252
0 0.69599998 -0.014643839 8.0188716e-39 320 252
0.0012203199 0.69599998 -0.014643839 7.8344803e-39 321 252
0.0024406398 0.69599998 -0.014643839 7.5614864e-39 322 252
0.0036609597 0.69599998 -0.014643839 7.5614864e-39 323 252
0.0048812795 0.69599998 -0.014643839 8.0217415e-39 324 252
0.0061015999 0.69599998 -0.014643839 8.1139385e-39 325 252
0.0073219193 0.69599998 -0.014643839 8.2972508e-39 326 252
0.0085545136 0.69700003 -0.01466488 8.0210226e-39 327 252
0.0097765867 0.69700003 -0.01466488 7.929543e-39 328 252
0.01101444 0.69800001 -0.01468592 8.1139357e-39 329 252
0.012220734 0.69700003 -0.01466488 8.1150077e-39 330 252
0.013442807 0.69700003 -0.01466488 8.2072033e-39 331 252
0.01468592 0.69800001 -0.01468592 8.4834175e-39 332 252
0.015909746 0.69800001 -0.01468592 8.1149951e-39 333 252
0.017133573 0.69800001 -0.01468592 7.2856044e-39 334 252
0.0183574 0.69800001 -0.01468592 7.1012117e-39 335 252
0.019581227 0.69800001 -0.01468592 6.8250003e-39 336 252
0.020864666 0.69999999 -0.014727999 7.1934241e-39 337 252
0.022091998 0.69999999 -0.014727999 7.3742239e-39 338 252
0.023352645 0.70099998 -0.014749039 4.5161607e-39 339 252
0.024686933 0.704 -0.014812159 8.4091921e-40 340 252
0.02592128 0.704 -0.014812159 5.5425362e-39 341 252
0.027232772 0.70599997 -0.014854239 9.4936261e-39 342 252
0.028510952 0.70700002 -0.01487528 9.309595e-39 343 252
0.02979264 0.708 -0.01489632 9.1251995e-39 344 252
0.031121666 0.70999998 -0.014938398 8.5720258e-39 345 252
0.032366529 0.70999998 -0.014938398 7.4645866e-39 346 252
0.033658739 0.71100003 -0.014959441 7.4645866e-39 347 252
0.035003547 0.713 -0.015001519 1.4376369e-38 348 252
0.036304519 0.71399999 -0.015022559 1.6035531e-38 349 252
0.037556399 0.71399999 -0.015022559 1.7045727e-38 350 252
-0.032776814 0.71899998 -0.016388407 1.6311041e-38 294 253
-0.031516165 0.71899998 -0.016388407 1.6034815e-38 295 253
-0.030255521 0.71899998 -0.016388407 1.5298701e-38 296 253
-0.028793238 0.71399999 -0.016274439 1.446858e-38 297 253
-0.02754136 0.71399999 -0.016274439 1.3549521e-38 298 253
-0.026289478 0.71399999 -0.016274439 1.2074032e-38 299 253
-0.025002534 0.713 -0.016251646 9.5004855e-39 300 253
-0.023685781 0.71100003 -0.01620606 9.5930399e-39 301 253
-0.022407599 0.70999998 -0.016183265 9.1320757e-39 302 253
-0.021162732 0.70999998 -0.016183265 9.1320757e-39 303 253
-0.019833706 0.70700002 -0.016114887 8.7640177e-39 304 253
-0.018567799 0.70599997 -0.016092092 8.1186483e-39 305 253
-0.017329946 0.70599997 -0.016092092 5.3545912e-39 306 253
-0.016046507 0.704 -0.016046507 3.8794612e-39 307 253
-0.014791119 0.70300001 -0.016023712 3.6925714e-39 308 253
-0.013558527 0.70300001 -0.016023712 3.4159845e-39 309 253
-0.012290866 0.70099998 -0.015978126 3.9666373e-39 310 253
-0.011061779 0.70099998 -0.015978126 5.3495718e-39 311 253
-0.0098186666 0.69999999 -0.015955333 6.4584179e-39 312 253
-0.0085913334 0.69999999 -0.015955333 7.7491567e-39 313 253
-0.0073639993 0.69999999 -0.015955333 8.3945107e-39 314 253
-0.006119133 0.69800001 -0.015909746 8.7632918e-39 315 253
-0.0048953067 0.69800001 -0.015909746 9.1306268e-39 316 253
-0.00366622 0.69700003 -0.015886955 9.2231811e-39 317 253
-0.0024441467 0.69700003 -0.015886955 9.3142922e-39 318 253
-0.0012220733 0.69700003 -0.015886955 8.9458698e-39 319 253
0 0.69599998 -0.015864158 8.5756453e-39 320 253
0.0012203199 0.69599998 -0.015864158 8.4834497e-39 321 253
0.0024441467 0.69700003 -0.015886955 7.8431151e-39 322 253
0.00366622 0.69700003 -0.015886955 7.8431151e-39 323 253
0.0048882933 0.69700003 -0.015886955 8.3930491e-39 324 253
0.0061103669 0.69700003 -0.015886955 8.3930491e-39 325 253
0.00733244 0.69700003 -0.015886955 8.3930491e-39 326 253
0.0085545136 0.69700003 -0.015886955 8.1161021e-39 327 253
0.0097765867 0.69700003 -0.015886955 8.2079376e-39 328 253
0.01101444 0.69800001 -0.015909746 8.3919701e-39 329 253
0.012238266 0.69800001 -0.015909746 8.2086537e-39 330 253
0.013462093 0.69800001 -0.015909746 8.116458e-39 331 253
0.01468592 0.69800001 -0.015909746 8.0242596e-39 332 253
0.015909746 0.69800001 -0.015909746 7.932064e-39 333 253
0.017133573 0.69800001 -0.015909746 7.4710886e-39 334 253
0.0183574 0.69800001 -0.015909746 6.7335236e-39 335 253
0.019637333 0.69999999 -0.015955333 5.2587634e-39 336 253
0.020864666 0.69999999 -0.015955333 3.138264e-39 337 253
0.022123558 0.70099998 -0.015978126 3.2275925e-39 338 253
0.023419274 0.70300001 -0.016023712 2.6744188e-39 339 253
0.024686933 0.704 -0.016046507 2.0301213e-39 340 253
0.02592128 0.704 -0.016046507 6.6399028e-39 341 253
0.027271347 0.70700002 -0.016114887 9.3999942e-39 342 253
0.02855128 0.708 -0.01613768 1.0137559e-38 343 253
0.029876797 0.70999998 -0.016183265 1.050597e-38 344 253
0.031121666 0.70999998 -0.016183265 1.0136828e-38 345 253
0.032412119 0.71100003 -0.01620606 9.9491841e-39 346 253
0.033658739 0.71100003 -0.01620606 9.856987e-39 347 253
0.035003547 0.713 -0.016251646 1.4376367e-38 348 253
0.036304519 0.71399999 -0.016274439 1.5667105e-38 349 253
0.037556399 0.71399999 -0.016274439 1.6862054e-38 350 253
-0.0328224 0.72000003 -0.017673599 1.612701e-38 294 254
-0.03156 0.72000003 -0.017673599 1.5942619e-38 295 254
-0.030255521 0.71899998 -0.017649053 1.5022107e-38 296 254
-0.028873893 0.71600002 -0.017575413 1.4468934e-38 297 254
-0.02754136 0.71399999 -0.017526319 1.3825382e-38 298 254
-0.026289478 0.71399999 -0.017526319 1.2442447e-38 299 254
-0.025002534 0.713 -0.017501773 9.9571504e-39 300 254
-0.023685781 0.71100003 -0.01745268 9.6805636e-39 301 254
-0.022407599 0.70999998 -0.017428132 9.223198e-39 302 254
-0.021162732 0.70999998 -0.017428132 9.1306422e-39 303 254
-0.01986176 0.708 -0.017379038 8.7629359e-39 304 254
-0.018594101 0.70700002 -0.017354494 8.3023165e-39 305 254
-0.017329946 0.70599997 -0.017329946 6.6435182e-39 306 254
-0.016046507 0.704 -0.017280852 4.6152143e-39 307 254
-0.014812159 0.704 -0.017280852 5.5314253e-39 308 254
-0.013558527 0.70300001 -0.017256306 5.4388709e-39 309 254
-0.012325933 0.70300001 -0.017256306 4.7971015e-39 310 254
-0.011061779 0.70099998 -0.017207211 5.903449e-39 311 254
-0.0098326923 0.70099998 -0.017207211 6.0914304e-39 312 254
-0.0085913334 0.69999999 -0.017182667 7.1981381e-39 313 254
-0.0073639993 0.69999999 -0.017182667 7.4761529e-39 314 254
-0.006119133 0.69800001 -0.017133573 8.028968e-39 315 254
-0.0048953067 0.69800001 -0.017133573 8.4877811e-39 316 254
-0.0036714801 0.69800001 -0.017133573 8.5799767e-39 317 254
-0.0024476533 0.69800001 -0.017133573 8.8551161e-39 318 254
-0.0012220733 0.69700003 -0.017109027 8.6707248e-39 319 254
0 0.69700003 -0.017109027 8.5781593e-39 320 254
0.0012220733 0.69700003 -0.017109027 8.5781593e-39 321 254
0.0024441467 0.69700003 -0.017109027 8.6707108e-39 322 254
0.00366622 0.69700003 -0.017109027 8.4859608e-39 323 254
0.0048882933 0.69700003 -0.017109027 8.668557e-39 324 254
0.0061103669 0.69700003 -0.017109027 8.5763614e-39 325 254
0.00733244 0.69700003 -0.017109027 8.5763614e-39 326 254
0.0085667865 0.69800001 -0.017133573 8.4841658e-39 327 254
0.0097906133 0.69800001 -0.017133573 8.4834497e-39 328 254
0.01101444 0.69800001 -0.017133573 8.4834497e-39 329 254
0.012238266 0.69800001 -0.017133573 8.115386e-39 330 254
0.013462093 0.69800001 -0.017133573 8.115386e-39 331 254
0.01468592 0.69800001 -0.017133573 7.7476797e-39 332 254
0.015909746 0.69800001 -0.017133573 7.6554841e-39 333 254
0.017182667 0.69999999 -0.017182667 7.5611305e-39 334 254
0.018409999 0.69999999 -0.017182667 6.2703916e-39 335 254
0.019637333 0.69999999 -0.017182667 4.1488258e-39 336 254
0.020894472 0.70099998 -0.017207211 3.1346738e-39 337 254
0.022123558 0.70099998 -0.017207211 2.58187e-39 338 254
0.023452586 0.704 -0.017280852 2.58187e-39 339 254
0.024686933 0.704 -0.017280852 2.857731e-39 340 254
0.025994917 0.70599997 -0.017329946 6.1767737e-39 341 254
0.027271347 0.70700002 -0.017354494 8.7575058e-39 342 254
0.02855128 0.708 -0.017379038 1.0232995e-38 343 254
0.029876797 0.70999998 -0.017428132 1.1057695e-38 344 254
0.031165501 0.71100003 -0.01745268 1.0872945e-38 345 254
0.032412119 0.71100003 -0.01745268 1.0965128e-38 346 254
0.033753417 0.713 -0.017501773 1.1426105e-38 347 254
0.035003547 0.713 -0.017501773 1.4744432e-38 348 254
0.036304519 0.71399999 -0.017526319 1.585042e-38 349 254
0.037556399 0.71399999 -0.017526319 1.6493275e-38 350 254
-0.0328224 0.72000003 -0.018935999 1.621813e-38 294 255
-0.03156 0.72000003 -0.018935999 1.6033738e-38 295 255
-0.030171359 0.71700001 -0.018857099 1.4746243e-38 296 255
-0.028873893 0.71600002 -0.0188308 1.4100874e-38 297 255
-0.027618507 0.71600002 -0.0188308 1.3639911e-38 298 255
-0.026289478 0.71399999 -0.018778199 1.2902346e-38 299 255
-0.025037598 0.71399999 -0.018778199 1.0509951e-38 300 255
-0.023685781 0.71100003 -0.0186993 9.4036039e-39 301 255
-0.022407599 0.70999998 -0.018672999 9.0377151e-39 302 255
-0.021162732 0.70999998 -0.018672999 9.5908889e-39 303 255
-0.01986176 0.708 -0.0186204 8.7640149e-39 304 255
-0.018594101 0.70700002 -0.018594101 8.3952323e-39 305 255
-0.017329946 0.70599997 -0.018567799 7.5647486e-39 306 255
-0.016092092 0.70599997 -0.018567799 6.9193792e-39 307 255
-0.014812159 0.704 -0.018515198 6.4558843e-39 308 255
-0.013558527 0.70300001 -0.018488899 6.3636887e-39 309 255
-0.012325933 0.70300001 -0.018488899 5.9059503e-39 310 255
-0.01109334 0.70300001 -0.018488899 6.3669285e-39 311 255
-0.0098326923 0.70099998 -0.018436298 6.9211813e-39 312 255
-0.0086036054 0.70099998 -0.018436298 7.4739963e-39 313 255
-0.0073639993 0.69999999 -0.018409999 7.6594624e-39 314 255
-0.0061366665 0.69999999 -0.018409999 7.9364094e-39 315 255
-0.0049093333 0.69999999 -0.018409999 8.3952323e-39 316 255
-0.0036714801 0.69800001 -0.0183574 8.3030367e-39 317 255
-0.0024476533 0.69800001 -0.0183574 8.5778257e-39 318 255
-0.0012238267 0.69800001 -0.0183574 8.4856287e-39 319 255
0 0.69800001 -0.0183574 8.4859818e-39 320 255
0.0012238267 0.69800001 -0.0183574 8.4859818e-39 321 255
0.0024476533 0.69800001 -0.0183574 8.3934275e-39 322 255
0.0036714801 0.69800001 -0.0183574 8.2093964e-39 323 255
0.0048953067 0.69800001 -0.0183574 8.3923457e-39 324 255
0.006119133 0.69800001 -0.0183574 8.30015e-39 325 255
0.0073429602 0.69800001 -0.0183574 8.2086705e-39 326 255
0.0085667865 0.69800001 -0.0183574 8.0246394e-39 327 255
0.0098186666 0.69999999 -0.018409999 7.8402439e-39 328 255
0.011045999 0.69999999 -0.018409999 7.8402439e-39 329 255
0.012273333 0.69999999 -0.018409999 7.7473294e-39 330 255
0.013500666 0.69999999 -0.018409999 7.6551338e-39 331 255
0.014727999 0.69999999 -0.018409999 7.5625794e-39 332 255
0.015955333 0.69999999 -0.018409999 7.10196e-39 333 255
0.017182667 0.69999999 -0.018409999 6.8224962e-39 334 255
0.018409999 0.69999999 -0.018409999 5.4395618e-39 335 255
0.019665385 0.70099998 -0.018436298 4.608006e-39 336 255
0.020954086 0.70300001 -0.018488899 4.3314192e-39 337 255
0.02218668 0.70300001 -0.018488899 4.0541218e-39 338 255
0.023452586 0.704 -0.018515198 4.1463174e-39 339 255
0.024686933 0.704 -0.018515198 4.9764382e-39 340 255
0.025994917 0.70599997 -0.018567799 6.1746213e-39 341 255
0.027271347 0.70700002 -0.018594101 7.930992e-39 342 255
0.02855128 0.708 -0.0186204 9.6827075e-39 343 255
0.029876797 0.70999998 -0.018672999 1.0966228e-38 344 255
0.031165501 0.71100003 -0.0186993 1.0966228e-38 345 255
0.032503292 0.713 -0.018751899 1.1334638e-38 346 255
0.033753417 0.713 -0.018751899 1.2348431e-38 347 255
0.035003547 0.713 -0.018751899 1.4836627e-38 348 255
0.036304519 0.71399999 -0.018778199 1.5758225e-38 349 255
0.037556399 0.71399999 -0.018778199 1.6033733e-38 350 255
-0.0328224 0.72000003 -0.020198401 1.6125934e-38 294 256
-0.03156 0.72000003 -0.020198401 1.5849348e-38 295 256
-0.030171359 0.71700001 -0.020114239 1.4746243e-38 296 256
-0.028873893 0.71600002 -0.020086186 1.4100874e-38 297 256
-0.027618507 0.71600002 -0.020086186 1.382358e-38 298 256
-0.026289478 0.71399999 -0.020030079 1.3731384e-38 299 256
-0.025037598 0.71399999 -0.020030079 1.2349898e-38 300 256
-0.023685781 0.71100003 -0.01994592 1.105916e-38 301 256
-0.022439159 0.71100003 -0.01994592 9.4997624e-39 302 256
-0.021192541 0.71100003 -0.01994592 9.9610993e-39 303 256
-0.019917866 0.70999998 -0.019917866 9.1335135e-39 304 256
-0.0186204 0.708 -0.01986176 8.488144e-39 305 256
-0.017354494 0.70700002 -0.019833706 7.1066445e-39 306 256
-0.016092092 0.70599997 -0.019805651 6.5534707e-39 307 256
-0.014812159 0.704 -0.019749546 6.6420678e-39 308 256
-0.013558527 0.70300001 -0.019721493 6.6420678e-39 309 256
-0.012325933 0.70300001 -0.019721493 6.7349879e-39 310 256
-0.01109334 0.70300001 -0.019721493 7.1037719e-39 311 256
-0.0098607466 0.70300001 -0.019721493 7.0140958e-39 312 256
-0.0086036054 0.70099998 -0.019665385 7.5672695e-39 313 256
-0.0073745195 0.70099998 -0.019665385 7.2921246e-39 314 256
-0.0061366665 0.69999999 -0.019637333 7.4765159e-39 315 256
-0.0049093333 0.69999999 -0.019637333 7.7516636e-39 316 256
-0.0036819996 0.69999999 -0.019637333 7.6591092e-39 317 256
-0.0024546667 0.69999999 -0.019637333 8.0264526e-39 318 256
-0.0012238267 0.69800001 -0.019581227 7.934257e-39 319 256
0 0.69800001 -0.019581227 8.2101208e-39 320 256
0.0012238267 0.69800001 -0.019581227 8.1175665e-39 321 256
0.0024476533 0.69800001 -0.019581227 8.1168476e-39 322 256
0.0036714801 0.69800001 -0.019581227 8.024652e-39 323 256
0.0048953067 0.69800001 -0.019581227 7.9324535e-39 324 256
0.006119133 0.69800001 -0.019581227 7.9324535e-39 325 256
0.0073429602 0.69800001 -0.019581227 7.6572974e-39 326 256
0.0085913334 0.69999999 -0.019637333 7.4729061e-39 327 256
0.0098186666 0.69999999 -0.019637333 7.4685873e-39 328 256
0.011045999 0.69999999 -0.019637333 7.0998048e-39 329 256
0.012273333 0.69999999 -0.019637333 6.368355e-39 330 256
0.013500666 0.69999999 -0.019637333 6.6449405e-39 331 256
0.014727999 0.69999999 -0.019637333 6.8268178e-39 332 256
0.015955333 0.69999999 -0.019637333 6.1814484e-39 333 256
0.017207211 0.70099998 -0.019665385 6.2682463e-39 334 256
0.018436298 0.70099998 -0.019665385 5.6228768e-39 335 256
0.019665385 0.70099998 -0.019665385 5.1615358e-39 336 256
0.020954086 0.70300001 -0.019721493 4.7923931e-39 337 256
0.02218668 0.70300001 -0.019721493 4.4243337e-39 338 256
0.023452586 0.704 -0.019749546 4.6087249e-39 339 256
0.024686933 0.704 -0.019749546 5.4374066e-39 340 256
0.02603174 0.70700002 -0.019833706 5.8987449e-39 341 256
0.027271347 0.70700002 -0.019833706 7.5604116e-39 342 256
0.028631933 0.70999998 -0.019917866 9.4965198e-39 343 256
0.029876797 0.70999998 -0.019917866 1.1056989e-38 344 256
0.031165501 0.71100003 -0.01994592 1.124138e-38 345 256
0.032503292 0.713 -0.020002026 1.1795613e-38 346 256
0.033753417 0.713 -0.020002026 1.2440983e-38 347 256
0.035003547 0.713 -0.020002026 1.4651877e-38 348 256
0.036304519 0.71399999 -0.020030079 1.5481997e-38 349 256
0.037556399 0.71399999 -0.020030079 1.5849702e-38 350 256
-0.032685637 0.71700001 -0.021371379 1.6033738e-38 294 257
-0.031428497 0.71700001 -0.021371379 1.5849348e-38 295 257
-0.030171359 0.71700001 -0.021371379 1.4837363e-38 296 257
-0.028873893 0.71600002 -0.021341572 1.4007962e-38 297 257
-0.027618507 0.71600002 -0.021341572 1.3365473e-38 298 257
-0.026289478 0.71399999 -0.021281958 1.364242e-38 299 257
-0.025037598 0.71399999 -0.021281958 1.3548788e-38 300 257
-0.023752406 0.713 -0.021252153 1.2350246e-38 301 257
-0.022439159 0.71100003 -0.021192541 1.1524098e-38 302 257
-0.021192541 0.71100003 -0.021192541 1.1616293e-38 303 257
-0.019917866 0.70999998 -0.021162732 1.0421722e-38 304 257
-0.0186204 0.708 -0.021103119 9.5916021e-39 305 257
-0.017354494 0.70700002 -0.021073313 8.0257212e-39 306 257
-0.016092092 0.70599997 -0.021043506 6.2743629e-39 307 257
-0.014854239 0.70599997 -0.021043506 6.271856e-39 308 257
-0.013577812 0.704 -0.020983893 6.6409972e-39 309 257
-0.012343466 0.704 -0.020983893 6.9190261e-39 310 257
-0.01109334 0.70300001 -0.020954086 7.5643955e-39 311 257
-0.0098607466 0.70300001 -0.020954086 7.0166139e-39 312 257
-0.0086281532 0.70300001 -0.020954086 7.2932008e-39 313 257
-0.0073745195 0.70099998 -0.020894472 7.6591092e-39 314 257
-0.0061454331 0.70099998 -0.020894472 7.5669136e-39 315 257
-0.0049163462 0.70099998 -0.020894472 7.4743649e-39 316 257
-0.0036819996 0.69999999 -0.020864666 7.1981381e-39 317 257
-0.0024546667 0.69999999 -0.020864666 7.5658416e-39 318 257
-0.0012273333 0.69999999 -0.020864666 7.5658416e-39 319 257
0 0.69800001 -0.020805053 7.8417054e-39 320 257
0.0012238267 0.69800001 -0.020805053 7.7495098e-39 321 257
0.0024476533 0.69800001 -0.020805053 7.6573114e-39 322 257
0.0036714801 0.69800001 -0.020805053 7.5651143e-39 323 257
0.0048953067 0.69800001 -0.020805053 7.3810832e-39 324 257
0.006119133 0.69800001 -0.020805053 7.2888876e-39 325 257
0.0073639993 0.69999999 -0.020864666 7.1048467e-39 326 257
0.0085913334 0.69999999 -0.020864666 6.6438685e-39 327 257
0.0098186666 0.69999999 -0.020864666 6.3622369e-39 328 257
0.011045999 0.69999999 -0.020864666 5.2562495e-39 329 257
0.012273333 0.69999999 -0.020864666 6.0896031e-39 330 257
0.013500666 0.69999999 -0.020864666 7.1033949e-39 331 257
0.014727999 0.69999999 -0.020864666 7.7437267e-39 332 257
0.015955333 0.69999999 -0.020864666 6.913966e-39 333 257
0.017207211 0.70099998 -0.020894472 6.4511886e-39 334 257
0.018436298 0.70099998 -0.020894472 5.9905706e-39 335 257
0.019721493 0.70300001 -0.020954086 5.8061751e-39 336 257
0.020983893 0.704 -0.020983893 5.5295896e-39 337 257
0.022218239 0.704 -0.020983893 5.1618861e-39 338 257
0.023452586 0.704 -0.020983893 5.1618861e-39 339 257
0.024757065 0.70599997 -0.021043506 5.5285134e-39 340 257
0.02603174 0.70700002 -0.021073313 5.3444823e-39 341 257
0.027271347 0.70700002 -0.021073313 6.4526221e-39 342 257
0.028631933 0.70999998 -0.021162732 8.9419027e-39 343 257
0.029876797 0.70999998 -0.021162732 1.0781481e-38 344 257
0.031253166 0.713 -0.021252153 1.142685e-38 345 257
0.032503292 0.713 -0.021252153 1.1611942e-38 346 257
0.033753417 0.713 -0.021252153 1.1796332e-38 347 257
0.035003547 0.713 -0.021252153 1.4191975e-38 348 257
0.036253672 0.713 -0.021252153 1.5298321e-38 349 257
-0.031516165 0.71899998 -0.022691639 1.5757509e-38 295 258
-0.030255521 0.71899998 -0.022691639 1.4837713e-38 296 258
-0.028914221 0.71700001 -0.02262852 1.3731366e-38 297 258
-0.027657079 0.71700001 -0.02262852 1.2813372e-38 298 258
-0.026363119 0.71600002 -0.022596961 1.3458742e-38 299 258
-0.025037598 0.71399999 -0.022533838 1.3091767e-38 300 258
-0.023752406 0.713 -0.022502279 1.2630429e-38 301 258
-0.022439159 0.71100003 -0.022439159 1.2353496e-38 302 258
-0.021192541 0.71100003 -0.022439159 1.2629722e-38 303 258
-0.019917866 0.70999998 -0.022407599 1.2167675e-38 304 258
-0.018672999 0.70999998 -0.022407599 1.1522306e-38 305 258
-0.017379038 0.708 -0.022344479 9.9567777e-39 306 258
-0.016114887 0.70700002 -0.022312919 7.9284738e-39 307 258
-0.014854239 0.70599997 -0.022281358 5.7157983e-39 308 258
-0.013616386 0.70599997 -0.022281358 6.5451989e-39 309 258
-0.012343466 0.704 -0.022218239 6.4580521e-39 310 258
-0.011109119 0.704 -0.022218239 7.8409866e-39 311 258
-0.0098607466 0.70300001 -0.02218668 7.2932036e-39 312 258
-0.0086281532 0.70300001 -0.02218668 7.4772347e-39 313 258
-0.0073745195 0.70099998 -0.022123558 7.4757998e-39 314 258
-0.0061454331 0.70099998 -0.022123558 7.1066571e-39 315 258
-0.0049163462 0.70099998 -0.022123558 7.101988e-39 316 258
-0.0036819996 0.69999999 -0.022091998 7.194185e-39 317 258
-0.0024546667 0.69999999 -0.022091998 7.3796539e-39 318 258
-0.0012273333 0.69999999 -0.022091998 7.6562422e-39 319 258
0 0.69999999 -0.022091998 7.4740019e-39 320 258
0.0012273333 0.69999999 -0.022091998 7.2892505e-39 321 258
0.0024546667 0.69999999 -0.022091998 7.1059383e-39 322 258
0.0036819996 0.69999999 -0.022091998 7.0137426e-39 323 258
0.0049093333 0.69999999 -0.022091998 7.0122979e-39 324 258
0.0061366665 0.69999999 -0.022091998 6.6435154e-39 325 258
0.0073639993 0.69999999 -0.022091998 6.1800135e-39 326 258
0.0085913334 0.69999999 -0.022091998 4.2439053e-39 327 258
0.0098186666 0.69999999 -0.022091998 3.50562e-39 328 258
0.011045999 0.69999999 -0.022091998 4.1509894e-39 329 258
0.012273333 0.69999999 -0.022091998 8.1114358e-39 330 258
0.013500666 0.69999999 -0.022091998 9.9553484e-39 331 258
0.014727999 0.69999999 -0.022091998 9.8613325e-39 332 258
0.015978126 0.70099998 -0.022123558 8.6627893e-39 333 258
0.017256306 0.70300001 -0.02218668 7.9245054e-39 334 258
0.018488899 0.70300001 -0.02218668 7.279136e-39 335 258
0.019749546 0.704 -0.022218239 5.9934376e-39 336 258
0.020983893 0.704 -0.022218239 5.6246565e-39 337 258
0.022218239 0.704 -0.022218239 5.8072555e-39 338 258
0.023452586 0.704 -0.022218239 5.6225041e-39 339 258
0.024757065 0.70599997 -0.022281358 5.8994511e-39 340 258
0.02603174 0.70700002 -0.022312919 5.8072555e-39 341 258
0.027309919 0.708 -0.022344479 6.4515389e-39 342 258
0.028631933 0.70999998 -0.022407599 8.1114204e-39 343 258
0.029918881 0.71100003 -0.022439159 1.0138627e-38 344 258
0.031253166 0.713 -0.022502279 1.1060942e-38 345 258
0.032548878 0.71399999 -0.022533838 1.1518654e-38 346 258
0.033800758 0.71399999 -0.022533838 1.1149873e-38 347 258
0.035052639 0.71399999 -0.022533838 1.4100129e-38 348 258
-0.031516165 0.71899998 -0.023952285 1.5940817e-38 295 259
-0.030255521 0.71899998 -0.023952285 1.4930615e-38 296 259
-0.028994869 0.71899998 -0.023952285 1.3178898e-38 297 259
-0.027734226 0.71899998 -0.023952285 1.1524782e-38 298 259
-0.026363119 0.71600002 -0.023852346 1.2631129e-38 299 259
-0.025107734 0.71600002 -0.023852346 1.2909171e-38 300 259
-0.023752406 0.713 -0.023752406 1.2632224e-38 301 259
-0.022439159 0.71100003 -0.023685781 1.263151e-38 302 259
-0.021192541 0.71100003 -0.023685781 1.2538956e-38 303 259
-0.01994592 0.71100003 -0.023685781 1.2353849e-38 304 259
-0.018672999 0.70999998 -0.023652466 1.2261653e-38 305 259
-0.017379038 0.708 -0.023585839 1.1706324e-38 306 259
-0.016114887 0.70700002 -0.023552528 1.032339e-38 307 259
-0.014854239 0.70599997 -0.023519212 7.8337601e-39 308 259
-0.013616386 0.70599997 -0.023519212 6.2660756e-39 309 259
-0.012343466 0.704 -0.023452586 5.5335721e-39 310 259
-0.011109119 0.704 -0.023452586 7.5618759e-39 311 259
-0.0098747732 0.704 -0.023452586 9.4987058e-39 312 259
-0.0086281532 0.70300001 -0.023419274 9.4987058e-39 313 259
-0.0073955595 0.70300001 -0.023419274 9.1288345e-39 314 259
-0.0061454331 0.70099998 -0.023352645 7.9302913e-39 315 259
-0.0049163462 0.70099998 -0.023352645 6.8221585e-39 316 259
-0.0036819996 0.69999999 -0.023319334 6.8221585e-39 317 259
-0.0024546667 0.69999999 -0.023319334 7.7469945e-39 318 259
-0.0012273333 0.69999999 -0.023319334 8.3923639e-39 319 259
0 0.69999999 -0.023319334 8.484907e-39 320 259
0.0012273333 0.69999999 -0.023319334 8.3005158e-39 321 259
0.0024546667 0.69999999 -0.023319334 8.024652e-39 322 259
0.0036819996 0.69999999 -0.023319334 7.4714782e-39 323 259
0.0049093333 0.69999999 -0.023319334 7.2845688e-39 324 259
0.0061366665 0.69999999 -0.023319334 6.1782212e-39 325 259
0.0073639993 0.69999999 -0.023319334 5.1644449e-39 326 259
0.0085913334 0.69999999 -0.023319334 2.951391e-39 327 259
0.0098186666 0.69999999 -0.023319334 2.5808162e-39 328 259
0.011061779 0.70099998 -0.023352645 3.871555e-39 329 259
0.012290866 0.70099998 -0.023352645 8.0210422e-39 330 259
0.013519952 0.70099998 -0.023352645 1.0141542e-38 331 259
0.014749039 0.70099998 -0.023352645 1.0599238e-38 332 259
0.016023712 0.70300001 -0.023419274 9.861673e-39 333 259
0.017280852 0.704 -0.023452586 9.4892905e-39 334 259
0.018515198 0.704 -0.023452586 8.7517255e-39 335 259
0.019749546 0.704 -0.023452586 7.5564347e-39 336 259
0.020983893 0.704 -0.023452586 7.3716847e-39 337 259
0.022281358 0.70599997 -0.023519212 7.2794891e-39 338 259
0.023519212 0.70599997 -0.023519212 7.2794891e-39 339 259
0.024757065 0.70599997 -0.023519212 7.1890941e-39 340 259
0.02603174 0.70700002 -0.023552528 7.3734868e-39 341 259
0.027309919 0.708 -0.023585839 7.6493632e-39 342 259
0.028631933 0.70999998 -0.023652466 8.3869283e-39 343 259
0.029918881 0.71100003 -0.023685781 9.587607e-39 344 259
0.031253166 0.713 -0.023752406 1.06014e-38 345 259
0.032640055 0.71600002 -0.023852346 1.0415884e-38 346 259
0.03389544 0.71600002 -0.023852346 1.0231134e-38 347 259
0.035150826 0.71600002 -0.023852346 1.4100832e-38 348 259
-0.030255521 0.71899998 -0.025212931 1.4747297e-38 296 260
-0.028994869 0.71899998 -0.025212931 1.2626796e-38 297 260
-0.027734226 0.71899998 -0.025212931 9.7769925e-39 298 260
-0.02639994 0.71700001 -0.0251428 1.0514916e-38 299 260
-0.025107734 0.71600002 -0.025107734 1.1527656e-38 300 260
-0.02378572 0.71399999 -0.025037598 1.2080829e-38 301 260
-0.022439159 0.71100003 -0.024932399 1.2538956e-38 302 260
-0.021192541 0.71100003 -0.024932399 1.263151e-38 303 260
-0.01994592 0.71100003 -0.024932399 1.2354568e-38 304 260
-0.018672999 0.70999998 -0.024897331 1.2354568e-38 305 260
-0.017379038 0.708 -0.024827199 1.3180731e-38 306 260
-0.01613768 0.708 -0.024827199 1.2351331e-38 307 260
-0.01487528 0.70700002 -0.024792133 1.1058441e-38 308 260
-0.013616386 0.70599997 -0.024757065 8.1078204e-39 309 260
-0.012378532 0.70599997 -0.024757065 5.8040311e-39 310 260
-0.011109119 0.704 -0.024686933 7.4635524e-39 311 260
-0.0098747732 0.704 -0.024686933 8.8515218e-39 312 260
-0.0086281532 0.70300001 -0.024651866 1.1340804e-38 313 260
-0.0073955595 0.70300001 -0.024651866 1.1613059e-38 314 260
-0.0061454331 0.70099998 -0.024581732 9.676951e-39 315 260
