# .PCD v.7 - Point Cloud Data file format
FIELDS x y z rgb imX imY
SIZE 4 4 4 4 4 4
TYPE F F F F F F
COUNT 1 1 1 1 1 1
WIDTH 832
HEIGHT 1
VIEWPOINT 0 0 0 1 0 0 0
POINTS 832
DATA ascii
-0.0083949603 0.68400002 -0.037177678 1.4480863e-38 313 271
-0.0071851597 0.68300003 -0.037123326 1.4480863e-38 314 271
-0.005978866 0.68199998 -0.037068974 1.4388667e-38 315 271
-0.0047690663 0.68000001 -0.036960267 1.0518994e-38 316 271
-0.0035715401 0.67900002 -0.036905911 5.1716475e-39 317 271
-0.0023775198 0.67799997 -0.036851559 1.1298207e-39 318 271
-0.0011887599 0.67799997 -0.036851559 1.8673857e-39 319 271
0 0.67799997 -0.036851559 1.0060904e-38 320 271
0.0011852533 0.676 -0.036742851 1.2457989e-38 321 271
0.0023705065 0.676 -0.036742851 1.4846759e-38 322 271
0.0035557596 0.676 -0.036742851 1.3832607e-38 323 271
0.0047410131 0.676 -0.036742851 1.1531663e-38 324 271
0.0059262668 0.676 -0.036742851 1.1162521e-38 325 271
0.0071115191 0.676 -0.036742851 1.1898288e-38 326 271
0.0082844999 0.67500001 -0.036688499 1.2267429e-38 327 271
0.0094539737 0.67400002 -0.036634147 1.3281581e-38 328 271
0.01063572 0.67400002 -0.036634147 1.438793e-38 329 271
0.011835 0.67500001 -0.036688499 1.3282304e-38 330 271
0.0130185 0.67500001 -0.036688499 1.1807174e-38 331 271
0.01418096 0.67400002 -0.036634147 1.1623862e-38 332 271
0.015362706 0.67400002 -0.036634147 1.2453262e-38 333 271
0.016544454 0.67400002 -0.036634147 1.3558168e-38 334 271
0.0177262 0.67400002 -0.036634147 1.3465972e-38 335 271
0.018907947 0.67400002 -0.036634147 1.3833313e-38 336 271
0.020089693 0.67400002 -0.036634147 1.392551e-38 337 271
0.021271439 0.67400002 -0.036634147 1.4201374e-38 338 271
0.022453187 0.67400002 -0.036634147 1.4477601e-38 339 271
0.023669999 0.67500001 -0.036688499 1.5027537e-38 340 271
0.0248535 0.67500001 -0.036688499 1.4842787e-38 341 271
0.026037 0.67500001 -0.036688499 1.0790892e-38 342 271
0.027260827 0.676 -0.036742851 5.2595145e-39 343 271
0.028530238 0.67799997 -0.036851559 6.001411e-39 344 271
0.029762832 0.67900002 -0.036905911 8.5828886e-39 345 271
0.030953348 0.67900002 -0.036905911 9.0384522e-39 346 271
0.032191198 0.68000001 -0.036960267 8.2086929e-39 347 271
0.03348165 0.68199998 -0.037068974 8.6718417e-39 348 271
0.034677424 0.68199998 -0.037068974 7.4732985e-39 349 271
0.035925802 0.68300003 -0.037123326 6.0903766e-39 350 271
0.037177678 0.68400002 -0.037177678 6.4595179e-39 351 271
0.038320854 0.68300003 -0.037123326 8.0225024e-39 352 271
0.039518382 0.68300003 -0.037123326 1.0880568e-38 353 271
0.040954359 0.68699998 -0.037340738 1.2170196e-38 354 271
0.042342998 0.69 -0.037503798 1.2907761e-38 355 271
0.043805279 0.69400001 -0.037721213 1.4567265e-38 356 271
0.045022093 0.69400001 -0.037721213 1.7240939e-38 357 271
-0.015750192 0.69099998 -0.038769703 1.5584324e-38 307 272
-0.014517599 0.69 -0.038713597 1.5216983e-38 308 272
-0.013269227 0.68800002 -0.038601387 1.5032952e-38 309 272
-0.012045399 0.68699998 -0.038545277 1.4848926e-38 310 272
-0.010840859 0.68699998 -0.038545277 1.4848926e-38 311 272
-0.0096222926 0.68599999 -0.03848917 1.4481943e-38 312 272
-0.0084195063 0.68599999 -0.03848917 1.4389746e-38 313 272
-0.0071851597 0.68300003 -0.038320854 1.4573058e-38 314 272
-0.0059876335 0.68300003 -0.038320854 1.5126232e-38 315 272
-0.004783093 0.68199998 -0.038264744 1.3097228e-38 316 272
-0.0035767998 0.68000001 -0.038152531 8.0264694e-39 317 272
-0.0023810267 0.67900002 -0.038096428 7.473667e-39 318 272
-0.0011905134 0.67900002 -0.038096428 8.8566015e-39 319 272
0 0.67799997 -0.038040318 1.2911396e-38 320 272
0.0011887599 0.67799997 -0.038040318 1.3648961e-38 321 272
0.0023705065 0.676 -0.037928104 1.4662387e-38 322 272
0.0035557596 0.676 -0.037928104 1.2726279e-38 323 272
0.0047410131 0.676 -0.037928104 7.1102711e-39 324 272
0.0059262668 0.676 -0.037928104 4.4365978e-39 325 272
0.0071115191 0.676 -0.037928104 4.8943516e-39 326 272
0.0082967728 0.676 -0.037928104 5.6319166e-39 327 272
0.0094679995 0.67500001 -0.037871998 9.9712153e-39 328 272
0.0106515 0.67500001 -0.037871998 1.2737084e-38 329 272
0.011835 0.67500001 -0.037871998 1.1810802e-38 330 272
0.0130185 0.67500001 -0.037871998 9.4140758e-39 331 272
0.014202001 0.67500001 -0.037871998 8.8637733e-39 332 272
0.015362706 0.67400002 -0.037815895 1.1076108e-38 333 272
0.016544454 0.67400002 -0.037815895 1.4203187e-38 334 272
0.0177262 0.67400002 -0.037815895 1.4203187e-38 335 272
0.018907947 0.67400002 -0.037815895 1.4293935e-38 336 272
0.020119499 0.67500001 -0.037871998 1.420174e-38 337 272
0.021303 0.67500001 -0.037871998 1.3833677e-38 338 272
0.022486499 0.67500001 -0.037871998 1.2450741e-38 339 272
0.023669999 0.67500001 -0.037871998 1.2535751e-38 340 272
0.024890319 0.676 -0.037928104 1.1521958e-38 341 272
0.026075572 0.676 -0.037928104 8.4860085e-39 342 272
0.027341479 0.67799997 -0.038040318 5.6275838e-39 343 272
0.028572321 0.67900002 -0.038096428 6.3669663e-39 344 272
0.029762832 0.67900002 -0.038096428 8.2108789e-39 345 272
0.030998932 0.68000001 -0.038152531 9.042415e-39 346 272
0.032191198 0.68000001 -0.038152531 8.6736339e-39 347 272
0.03348165 0.68199998 -0.038264744 9.0416962e-39 348 272
0.034677424 0.68199998 -0.038264744 7.6587617e-39 349 272
0.035925802 0.68300003 -0.038320854 6.0892906e-39 350 272
0.037177678 0.68400002 -0.038376961 6.9186926e-39 351 272
0.03848917 0.68599999 -0.03848917 8.5767523e-39 352 272
0.039749816 0.68699998 -0.038545277 1.2264578e-38 353 272
0.041192811 0.69099998 -0.038769703 1.382684e-38 354 272
0.042527102 0.69300002 -0.03888192 1.3089275e-38 355 272
0.043805279 0.69400001 -0.038938027 1.4013736e-38 356 272
0.045022093 0.69400001 -0.038938027 1.7240583e-38 357 272
-0.015795778 0.69300002 -0.04009698 1.5216986e-38 307 273
-0.014538639 0.69099998 -0.039981257 1.4941122e-38 308 273
-0.0133078 0.69 -0.0399234 1.4941122e-38 309 273
-0.012062933 0.68800002 -0.039807681 1.4482299e-38 310 273
-0.010856641 0.68800002 -0.039807681 1.4482299e-38 311 273
-0.0096363192 0.68699998 -0.039749816 1.4573414e-38 312 273
-0.0084195063 0.68599999 -0.039691959 1.4573414e-38 313 273
-0.0071956799 0.68400002 -0.03957624 1.4481943e-38 314 273
-0.0059876335 0.68300003 -0.039518382 1.5035116e-38 315 273
-0.004783093 0.68199998 -0.039460517 1.3374891e-38 316 273
-0.0035767998 0.68000001 -0.039344799 8.8573049e-39 317 273
-0.0023810267 0.67900002 -0.039286941 8.2115824e-39 318 273
-0.0011905134 0.67900002 -0.039286941 1.079306e-38 319 273
0 0.67900002 -0.039286941 1.1252949e-38 320 273
0.0011887599 0.67799997 -0.039229076 1.1160754e-38 321 273
0.0023775198 0.67799997 -0.039229076 1.2909591e-38 322 273
0.0035557596 0.676 -0.039113361 1.1711407e-38 323 273
0.0047410131 0.676 -0.039113361 5.9120992e-39 324 273
0.0059262668 0.676 -0.039113361 3.3306216e-39 325 273
0.0071115191 0.676 -0.039113361 3.6018401e-39 326 273
0.0082967728 0.676 -0.039113361 5.5379483e-39 327 273
0.0094679995 0.67500001 -0.039055496 1.0149152e-38 328 273
0.0106515 0.67500001 -0.039055496 1.3007575e-38 329 273
0.011852534 0.676 -0.039113361 1.1627142e-38 330 273
0.013037786 0.676 -0.039113361 9.7832311e-39 331 273
0.014202001 0.67500001 -0.039055496 1.0333151e-38 332 273
0.0153855 0.67500001 -0.039055496 1.1900837e-38 333 273
0.016569 0.67500001 -0.039055496 1.3923723e-38 334 273
0.0177525 0.67500001 -0.039055496 1.3831528e-38 335 273
0.018935999 0.67500001 -0.039055496 1.3095392e-38 336 273
0.020149305 0.676 -0.039113361 1.3187588e-38 337 273
0.021334561 0.676 -0.039113361 1.327871e-38 338 273
0.022519812 0.676 -0.039113361 1.1250406e-38 339 273
0.023705067 0.676 -0.039113361 9.2199553e-39 340 273
0.024890319 0.676 -0.039113361 8.7589758e-39 341 273
0.026152719 0.67799997 -0.039229076 8.0232324e-39 342 273
0.027381808 0.67900002 -0.039286941 6.7324936e-39 343 273
0.028572321 0.67900002 -0.039286941 6.3640965e-39 344 273
0.029806666 0.68000001 -0.039344799 7.0094659e-39 345 273
0.030998932 0.68000001 -0.039344799 8.8566015e-39 346 273
0.032285877 0.68199998 -0.039460517 9.6863621e-39 347 273
0.03348165 0.68199998 -0.039460517 9.6805958e-39 348 273
0.034728274 0.68300003 -0.039518382 8.6668026e-39 349 273
0.035925802 0.68300003 -0.039518382 7.9292376e-39 350 273
0.037177678 0.68400002 -0.03957624 9.2199764e-39 351 273
0.038545277 0.68699998 -0.039749816 1.0788359e-38 352 273
0.039807681 0.68800002 -0.039807681 1.3185086e-38 353 273
0.041192811 0.69099998 -0.039981257 1.4287817e-38 354 273
0.042588469 0.69400001 -0.040154841 1.2443906e-38 355 273
0.043805279 0.69400001 -0.040154841 1.3644234e-38 356 273
0.045022093 0.69400001 -0.040154841 1.7424254e-38 357 273
-0.015795778 0.69300002 -0.041312039 1.3189408e-38 307 274
-0.014580719 0.69300002 -0.041312039 1.3558916e-38 308 274
-0.013327086 0.69099998 -0.041192811 1.4480512e-38 309 274
-0.012097999 0.69 -0.041133199 1.4665977e-38 310 274
-0.010856641 0.68800002 -0.041013971 1.4481946e-38 311 274
-0.0096363192 0.68699998 -0.040954359 1.4573058e-38 312 274
-0.0084317802 0.68699998 -0.040954359 1.4573058e-38 313 274
-0.0072167199 0.68599999 -0.040894743 1.4573058e-38 314 274
-0.0059964 0.68400002 -0.040775519 1.5034037e-38 315 274
-0.0047901068 0.68300003 -0.040715907 1.3283415e-38 316 274
-0.00358732 0.68199998 -0.040656291 8.7661883e-39 317 274
-0.0023845332 0.68000001 -0.040537067 8.2112292e-39 318 274
-0.0011922666 0.68000001 -0.040537067 1.0055142e-38 319 274
0 0.67900002 -0.040477451 9.41122e-39 320 274
0.0011905134 0.67900002 -0.040477451 7.5673088e-39 321 274
0.0023810267 0.67900002 -0.040477451 4.6174228e-39 322 274
0.0035662798 0.67799997 -0.040417835 6.0003586e-39 323 274
0.0047550397 0.67799997 -0.040417835 6.0914739e-39 324 274
0.0059437994 0.67799997 -0.040417835 5.3539088e-39 325 274
0.0071115191 0.676 -0.040298611 5.9034742e-39 326 274
0.0082967728 0.676 -0.040298611 7.6551912e-39 327 274
0.0094820261 0.676 -0.040298611 9.776041e-39 328 274
0.01066728 0.676 -0.040298611 1.0882389e-38 329 274
0.011852534 0.676 -0.040298611 1.0790189e-38 330 274
0.013037786 0.676 -0.040298611 1.0144819e-38 331 274
0.014223038 0.676 -0.040298611 9.4990842e-39 332 274
0.015408293 0.676 -0.040298611 9.2221386e-39 333 274
0.016593546 0.676 -0.040298611 9.2171023e-39 334 274
0.017778801 0.676 -0.040298611 8.1107561e-39 335 274
0.018964052 0.676 -0.040298611 5.9974579e-39 336 274
0.020149305 0.676 -0.040298611 6.9197744e-39 337 274
0.021334561 0.676 -0.040298611 7.4743901e-39 338 274
0.022519812 0.676 -0.040298611 8.0275639e-39 339 274
0.023775198 0.67799997 -0.040417835 9.2199736e-39 340 274
0.024963958 0.67799997 -0.040417835 7.6522891e-39 341 274
0.026152719 0.67799997 -0.040417835 8.5749699e-39 342 274
0.027381808 0.67900002 -0.040477451 7.6533737e-39 343 274
0.028614398 0.68000001 -0.040537067 6.4570138e-39 344 274
0.029806666 0.68000001 -0.040537067 6.3648181e-39 345 274
0.031090107 0.68199998 -0.040656291 8.5760657e-39 346 274
0.032285877 0.68199998 -0.040656291 8.8530113e-39 347 274
0.033530746 0.68300003 -0.040715907 8.5731818e-39 348 274
0.034728274 0.68300003 -0.040715907 8.5731818e-39 349 274
0.035978399 0.68400002 -0.040775519 9.4972807e-39 350 274
0.037286382 0.68599999 -0.040894743 1.1986561e-38 351 274
0.038545277 0.68699998 -0.040954359 1.3461303e-38 352 274
0.039807681 0.68800002 -0.041013971 1.3461303e-38 353 274
0.041013971 0.68800002 -0.041013971 1.3090357e-38 354 274
0.042711195 0.69599998 -0.041490879 1.1707423e-38 355 274
0.043931518 0.69599998 -0.041490879 1.3551683e-38 356 274
0.045151837 0.69599998 -0.041490879 1.7516095e-38 357 274
-0.01460176 0.69400001 -0.042588469 1.1625692e-38 308 275
-0.01336566 0.69300002 -0.042527102 1.273204e-38 309 275
-0.012115533 0.69099998 -0.042404365 1.3929141e-38 310 275
-0.010888199 0.69 -0.042342998 1.4390119e-38 311 275
-0.0096503468 0.68800002 -0.042220265 1.4573061e-38 312 275
-0.0084317802 0.68699998 -0.042158898 1.4573061e-38 313 275
-0.0072167199 0.68599999 -0.042097531 1.4390102e-38 314 275
-0.0060139326 0.68599999 -0.042097531 1.4850722e-38 315 275
-0.0047901068 0.68300003 -0.041913435 1.3375967e-38 316 275
-0.00358732 0.68199998 -0.041852064 9.0424122e-39 317 275
-0.0023915465 0.68199998 -0.041852064 8.4867399e-39 318 275
-0.0011922666 0.68000001 -0.041729335 1.0054426e-38 319 275
0 0.68000001 -0.041729335 1.0605094e-38 320 275
0.0011905134 0.67900002 -0.041667968 8.4849547e-39 321 275
0.0023810267 0.67900002 -0.041667968 4.3401268e-39 322 275
0.0035715401 0.67900002 -0.041667968 4.6167137e-39 323 275
0.0047550397 0.67799997 -0.041606598 5.7212606e-39 324 275
0.0059437994 0.67799997 -0.041606598 5.813815e-39 325 275
0.0071325595 0.67799997 -0.041606598 6.3651713e-39 326 275
0.0083213197 0.67799997 -0.041606598 6.3651713e-39 327 275
0.0094820261 0.676 -0.041483864 7.5658626e-39 328 275
0.01066728 0.676 -0.041483864 8.7644058e-39 329 275
0.011852534 0.676 -0.041483864 9.5934476e-39 330 275
0.013037786 0.676 -0.041483864 8.4867399e-39 331 275
0.014223038 0.676 -0.041483864 6.2772888e-39 332 275
0.015408293 0.676 -0.041483864 6.1850932e-39 333 275
0.016593546 0.676 -0.041483864 8.5710294e-39 334 275
0.017778801 0.676 -0.041483864 8.939812e-39 335 275
0.018964052 0.676 -0.041483864 6.4562949e-39 336 275
0.020208918 0.67799997 -0.041606598 6.0871522e-39 337 275
0.021397678 0.67799997 -0.041606598 5.3557081e-39 338 275
0.022586439 0.67799997 -0.041606598 6.7386425e-39 339 275
0.023775198 0.67799997 -0.041606598 8.9512998e-39 340 275
0.024963958 0.67799997 -0.041606598 9.4122766e-39 341 275
0.026191294 0.67900002 -0.041667968 1.0506394e-38 342 275
0.027381808 0.67900002 -0.041667968 8.3858941e-39 343 275
0.02869856 0.68199998 -0.041852064 7.2871248e-39 344 275
0.029894331 0.68199998 -0.041852064 7.9324942e-39 345 275
0.031090107 0.68199998 -0.041852064 8.5731846e-39 346 275
0.032333218 0.68300003 -0.041913435 9.1259997e-39 347 275
0.033530746 0.68300003 -0.041913435 8.4870903e-39 348 275
0.03477912 0.68400002 -0.041974798 9.593798e-39 349 275
0.035978399 0.68400002 -0.041974798 1.1986899e-38 350 275
0.037286382 0.68599999 -0.042097531 1.2908495e-38 351 275
0.038601387 0.68800002 -0.042220265 1.3460938e-38 352 275
0.0399234 0.69 -0.042342998 1.2907764e-38 353 275
0.041490879 0.69599998 -0.042711195 1.2721214e-38 354 275
0.042772565 0.69700003 -0.042772565 1.152303e-38 355 275
0.043994639 0.69700003 -0.042772565 1.3734995e-38 356 275
-0.01460176 0.69400001 -0.043805279 9.1392966e-39 308 276
-0.013384946 0.69400001 -0.043805279 1.0614427e-38 309 276
-0.012150601 0.69300002 -0.043742158 1.2548018e-38 310 276
-0.01090398 0.69099998 -0.043615919 1.3654364e-38 311 276
-0.0096783992 0.69 -0.043552797 1.4481593e-38 312 276
-0.0084440531 0.68800002 -0.043426562 1.4205005e-38 313 276
-0.0072272392 0.68699998 -0.043363437 1.4298272e-38 314 276
-0.0060226996 0.68699998 -0.043363437 1.4851087e-38 315 276
-0.0047971201 0.68400002 -0.043174081 1.3375964e-38 316 276
-0.0035925799 0.68300003 -0.043110959 9.1349652e-39 317 276
-0.0023950534 0.68300003 -0.043110959 7.8402859e-39 318 276
-0.0011957732 0.68199998 -0.043047838 8.4856553e-39 319 276
0 0.68199998 -0.043047838 9.128522e-39 320 276
0.0011922666 0.68000001 -0.042921599 8.5753496e-39 321 276
0.0023845332 0.68000001 -0.042921599 5.9982034e-39 322 276
0.0035767998 0.68000001 -0.042921599 5.8138122e-39 323 276
0.0047620535 0.67900002 -0.042858478 5.9982034e-39 324 276
0.0059525664 0.67900002 -0.042858478 5.9060078e-39 325 276
0.0071325595 0.67799997 -0.042795356 6.5474143e-39 326 276
0.0083213197 0.67799997 -0.042795356 5.625458e-39 327 276
0.0095100794 0.67799997 -0.042795356 5.1705909e-39 328 276
0.010698839 0.67799997 -0.042795356 7.7520686e-39 329 276
0.011887599 0.67799997 -0.042795356 9.7789277e-39 330 276
0.013076359 0.67799997 -0.042795356 8.0272107e-39 331 276
0.014265119 0.67799997 -0.042795356 4.8036035e-39 332 276
0.015453878 0.67799997 -0.042795356 5.3567773e-39 333 276
0.016593546 0.676 -0.042669121 9.2182009e-39 334 276
0.017778801 0.676 -0.042669121 1.0231993e-38 335 276
0.019020159 0.67799997 -0.042795356 7.0123385e-39 336 276
0.020208918 0.67799997 -0.042795356 6.3669691e-39 337 276
0.021397678 0.67799997 -0.042795356 6.3684181e-39 338 276
0.022586439 0.67799997 -0.042795356 6.8290375e-39 339 276
0.023775198 0.67799997 -0.042795356 8.9523718e-39 340 276
0.025000781 0.67900002 -0.042858478 1.088848e-38 341 276
0.026191294 0.67900002 -0.042858478 1.216447e-38 342 276
0.027422134 0.68000001 -0.042921599 8.2922537e-39 343 276
0.02869856 0.68199998 -0.043047838 7.6584086e-39 344 276
0.029894331 0.68199998 -0.043047838 9.4101256e-39 345 276
0.031135695 0.68300003 -0.043110959 9.4951157e-39 346 276
0.032333218 0.68300003 -0.043110959 1.0601463e-38 347 276
0.033579841 0.68400002 -0.043174081 1.1436965e-38 348 276
0.03477912 0.68400002 -0.043174081 1.2358923e-38 349 276
0.035978399 0.68400002 -0.043174081 1.3553133e-38 350 276
0.037340738 0.68699998 -0.043363437 1.318399e-38 351 276
0.038713597 0.69 -0.043552797 1.2355312e-38 352 276
0.04009698 0.69300002 -0.043742158 1.2355312e-38 353 276
0.041490879 0.69599998 -0.043931518 1.2445353e-38 354 276
0.042772565 0.69700003 -0.043994639 1.1615593e-38 355 276
0.043994639 0.69700003 -0.043994639 1.3919742e-38 356 276
-0.019917866 0.70999998 -0.046060063 1.6136423e-38 304 277
-0.018567799 0.70599997 -0.04580057 1.4753488e-38 305 277
-0.015955333 0.69999999 -0.04541133 1.1253312e-38 307 277
-0.01460176 0.69400001 -0.045022093 7.0213251e-39 308 277
-0.013384946 0.69400001 -0.045022093 8.4042595e-39 309 277
-0.012150601 0.69300002 -0.044957221 1.1166531e-38 310 277
-0.01090398 0.69099998 -0.044827472 1.2641661e-38 311 277
-0.0096924258 0.69099998 -0.044827472 1.4296847e-38 312 277
-0.0084686 0.69 -0.0447626 1.4112456e-38 313 277
-0.0072377604 0.68800002 -0.044632856 1.4205721e-38 314 277
-0.0060226996 0.68699998 -0.044567976 1.4667059e-38 315 277
-0.0048111463 0.68599999 -0.044503104 1.3744025e-38 316 277
-0.00359784 0.68400002 -0.04437336 1.0701568e-38 317 277
-0.0023950534 0.68300003 -0.044308487 8.8519141e-39 318 277
-0.0011975267 0.68300003 -0.044308487 8.1143491e-39 319 277
0 0.68199998 -0.044243611 7.1949291e-39 320 277
0.0011957732 0.68199998 -0.044243611 7.8402985e-39 321 277
0.0023915465 0.68199998 -0.044243611 6.6435728e-39 322 277
0.00358732 0.68199998 -0.044243611 5.9060078e-39 323 277
0.0047690663 0.68000001 -0.044113863 5.3553522e-39 324 277
0.0059613334 0.68000001 -0.044113863 5.3553522e-39 325 277
0.0071430802 0.67900002 -0.044048995 6.5474143e-39 326 277
0.0083335936 0.67900002 -0.044048995 5.5332624e-39 327 277
0.009524107 0.67900002 -0.044048995 5.2588363e-39 328 277
0.010714619 0.67900002 -0.044048995 7.3796959e-39 329 277
0.011905133 0.67900002 -0.044048995 8.9498929e-39 330 277
0.013095647 0.67900002 -0.044048995 7.7513497e-39 331 277
0.01428616 0.67900002 -0.044048995 5.3539032e-39 332 277
0.015476674 0.67900002 -0.044048995 5.4464576e-39 333 277
0.016642639 0.67799997 -0.043984115 9.2196359e-39 334 277
0.0178314 0.67799997 -0.043984115 1.0510375e-38 335 277
0.019048214 0.67900002 -0.044048995 6.0936206e-39 336 277
0.020238725 0.67900002 -0.044048995 5.5408056e-39 337 277
0.021429239 0.67900002 -0.044048995 6.8301067e-39 338 277
0.022619752 0.67900002 -0.044048995 6.922661e-39 339 277
0.023810266 0.67900002 -0.044048995 9.5912546e-39 340 277
0.025000781 0.67900002 -0.044048995 1.2080537e-38 341 277
0.026229866 0.68000001 -0.044113863 1.2443558e-38 342 277
0.027502786 0.68199998 -0.044243611 9.5858526e-39 343 277
0.02869856 0.68199998 -0.044243611 9.9614791e-39 344 277
0.029938167 0.68300003 -0.044308487 1.1989783e-38 345 277
0.031135695 0.68300003 -0.044308487 1.2264562e-38 346 277
0.032380559 0.68400002 -0.04437336 1.2356758e-38 347 277
0.033678025 0.68599999 -0.044503104 1.3460584e-38 348 277
0.034880809 0.68599999 -0.044503104 1.3091442e-38 349 277
0.036136195 0.68699998 -0.044567976 1.1435518e-38 350 277
0.037503798 0.69 -0.0447626 1.1066735e-38 351 277
0.038769703 0.69099998 -0.044827472 1.1251852e-38 352 277
0.040154841 0.69400001 -0.045022093 1.1436243e-38 353 277
0.041490879 0.69599998 -0.045151837 1.2170564e-38 354 277
0.042772565 0.69700003 -0.045216713 1.1709586e-38 355 277
0.043994639 0.69700003 -0.045216713 1.4657663e-38 356 277
-0.021162732 0.70999998 -0.047304932 1.889723e-38 303 278
-0.019917866 0.70999998 -0.047304932 1.6134979e-38 304 278
-0.018567799 0.70599997 -0.047038425 1.4659491e-38 305 278
-0.017280852 0.704 -0.046905171 1.2544051e-38 306 278
-0.015955333 0.69999999 -0.046638668 1.1161117e-38 307 278
-0.014643839 0.69599998 -0.046372157 6.8347814e-39 308 278
-0.013384946 0.69400001 -0.046238903 7.4801508e-39 309 278
-0.012168133 0.69400001 -0.046238903 9.6928487e-39 310 278
-0.010935539 0.69300002 -0.04617228 1.1444207e-38 311 278
-0.0096924258 0.69099998 -0.046039023 1.3744043e-38 312 278
-0.0084686 0.69 -0.045972396 1.3836239e-38 313 278
-0.0072377604 0.68800002 -0.045839146 1.3837661e-38 314 278
-0.0060314666 0.68800002 -0.045839146 1.4114608e-38 315 278
-0.0048181596 0.68699998 -0.045772515 1.4112084e-38 316 278
-0.00359784 0.68400002 -0.045572639 1.2636954e-38 317 278
-0.0023950534 0.68300003 -0.045506012 1.1618852e-38 318 278
-0.0011975267 0.68300003 -0.045506012 1.0143722e-38 319 278
0 0.68199998 -0.045439381 7.9350025e-39 320 278
0.0011957732 0.68199998 -0.045439381 7.2896331e-39 321 278
0.0023915465 0.68199998 -0.045439381 5.6301496e-39 322 278
0.00358732 0.68199998 -0.045439381 4.7078331e-39 323 278
0.004783093 0.68199998 -0.045439381 4.1582635e-39 324 278
0.0059613334 0.68000001 -0.045306131 4.6188815e-39 325 278
0.0071535995 0.68000001 -0.045306131 6.179701e-39 326 278
0.0083335936 0.67900002 -0.045239504 5.9034742e-39 327 278
0.009524107 0.67900002 -0.045239504 7.2846108e-39 328 278
0.010714619 0.67900002 -0.045239504 7.2846108e-39 329 278
0.011905133 0.67900002 -0.045239504 7.106702e-39 330 278
0.013095647 0.67900002 -0.045239504 6.921952e-39 331 278
0.01428616 0.67900002 -0.045239504 4.9872787e-39 332 278
0.015476674 0.67900002 -0.045239504 4.7106918e-39 333 278
0.016691733 0.68000001 -0.045306131 9.5891316e-39 334 278
0.017883999 0.68000001 -0.045306131 1.0326697e-38 335 278
0.019076265 0.68000001 -0.045306131 5.0837805e-39 336 278
0.020268533 0.68000001 -0.045306131 5.2685319e-39 337 278
0.0214608 0.68000001 -0.045306131 9.4998031e-39 338 278
0.022653066 0.68000001 -0.045306131 8.4856525e-39 339 278
0.023845334 0.68000001 -0.045306131 9.12738e-39 340 278
0.025037598 0.68000001 -0.045306131 1.1432631e-38 341 278
0.026307013 0.68199998 -0.045439381 1.1984005e-38 342 278
0.027502786 0.68199998 -0.045439381 1.1799974e-38 343 278
0.028740639 0.68300003 -0.045506012 1.2172717e-38 344 278
0.029938167 0.68300003 -0.045506012 1.3371259e-38 345 278
0.031135695 0.68300003 -0.045506012 1.3553849e-38 346 278
0.032475237 0.68599999 -0.045705888 1.3185427e-38 347 278
0.033678025 0.68599999 -0.045705888 1.2908129e-38 348 278
0.034931656 0.68699998 -0.045772515 1.2078369e-38 349 278
0.036293998 0.69 -0.045972396 9.7788829e-39 350 278
0.037666857 0.69300002 -0.04617228 9.9636329e-39 351 278
0.038938027 0.69400001 -0.046238903 1.0884512e-38 352 278
0.040270556 0.69599998 -0.046372157 1.1161098e-38 353 278
0.041550495 0.69700003 -0.046438783 1.1619912e-38 354 278
0.042772565 0.69700003 -0.046438783 1.1527716e-38 355 278
0.043994639 0.69700003 -0.046438783 1.5120086e-38 356 278
-0.021192541 0.71100003 -0.048618179 1.9172741e-38 303 279
-0.019917866 0.70999998 -0.048549797 1.6318292e-38 304 279
-0.018567799 0.70599997 -0.048276275 1.4566576e-38 305 279
-0.017280852 0.704 -0.048139516 1.2544407e-38 306 279
-0.015978126 0.70099998 -0.047934376 1.1345865e-38 307 279
-0.014727999 0.69999999 -0.047865998 7.3865133e-39 308 279
-0.013423519 0.69599998 -0.047592476 7.202122e-39 309 279
-0.012168133 0.69400001 -0.047455717 7.8514571e-39 310 279
-0.010935539 0.69300002 -0.047387339 9.6950109e-39 311 279
-0.0097204801 0.69300002 -0.047387339 1.2179244e-38 312 279
-0.008480873 0.69099998 -0.047250576 1.310084e-38 313 279
-0.0072693196 0.69099998 -0.047250576 1.3468886e-38 314 279
-0.0060489997 0.69 -0.047182199 1.3653277e-38 315 279
-0.0048251734 0.68800002 -0.047045439 1.420428e-38 316 279
-0.0036136196 0.68699998 -0.046977058 1.3558911e-38 317 279
-0.0023985601 0.68400002 -0.046771921 1.3740061e-38 318 279
-0.0011975267 0.68300003 -0.04670354 1.3740061e-38 319 279
0 0.68300003 -0.04670354 1.2820267e-38 320 279
0.0011957732 0.68199998 -0.046635158 1.1898669e-38 321 279
0.0023915465 0.68199998 -0.046635158 1.0883811e-38 322 279
0.00358732 0.68199998 -0.046635158 1.005405e-38 323 279
0.004783093 0.68199998 -0.046635158 8.8587511e-39 324 279
0.005978866 0.68199998 -0.046635158 8.581804e-39 325 279
0.00717464 0.68199998 -0.046635158 9.3150405e-39 326 279
0.0083458666 0.68000001 -0.046498399 9.4072361e-39 327 279
0.0095381327 0.68000001 -0.046498399 1.0787302e-38 328 279
0.0107304 0.68000001 -0.046498399 1.0049737e-38 329 279
0.011922667 0.68000001 -0.046498399 6.7411438e-39 330 279
0.013153506 0.68199998 -0.046635158 6.5567526e-39 331 279
0.01434928 0.68199998 -0.046635158 6.8322577e-39 332 279
0.015545053 0.68199998 -0.046635158 7.1092047e-39 333 279
0.016740825 0.68199998 -0.046635158 1.051251e-38 334 279
0.017936599 0.68199998 -0.046635158 1.115788e-38 335 279
0.019132372 0.68199998 -0.046635158 9.507328e-39 336 279
0.020328145 0.68199998 -0.046635158 1.052112e-38 337 279
0.021523919 0.68199998 -0.046635158 1.3554202e-38 338 279
0.022719691 0.68199998 -0.046635158 1.3001029e-38 339 279
0.023915464 0.68199998 -0.046635158 1.1985788e-38 340 279
0.025111238 0.68199998 -0.046635158 1.1616647e-38 341 279
0.026307013 0.68199998 -0.046635158 1.0792281e-38 342 279
0.027543113 0.68300003 -0.04670354 1.1806431e-38 343 279
0.028740639 0.68300003 -0.04670354 1.2907761e-38 344 279
0.029982001 0.68400002 -0.046771921 1.2446423e-38 345 279
0.031272452 0.68599999 -0.046908677 1.1524126e-38 346 279
0.032522578 0.68699998 -0.046977058 1.0878756e-38 347 279
0.033776212 0.68800002 -0.047045439 9.4101073e-39 348 279
0.035084199 0.69 -0.047182199 1.0055477e-38 349 279
0.036346599 0.69099998 -0.047250576 1.0240587e-38 350 279
0.037721213 0.69400001 -0.047455717 1.0425337e-38 351 279
0.038938027 0.69400001 -0.047455717 1.1068903e-38 352 279
0.040328421 0.69700003 -0.047660861 1.1161098e-38 353 279
0.041550495 0.69700003 -0.047660861 1.1158933e-38 354 279
0.042772565 0.69700003 -0.047660861 1.0605761e-38 355 279
0.043994639 0.69700003 -0.047660861 1.4934617e-38 356 279
-0.021192541 0.71100003 -0.049864799 1.9172741e-38 303 280
-0.019917866 0.70999998 -0.049794663 1.705621e-38 304 280
-0.018567799 0.70599997 -0.04951413 1.5304494e-38 305 280
-0.017329946 0.70599997 -0.04951413 1.3096137e-38 306 280
-0.015978126 0.70099998 -0.049163464 1.1897234e-38 307 280
-0.014749039 0.70099998 -0.049163464 7.9375192e-39 308 280
-0.013442807 0.69700003 -0.048882935 7.568378e-39 309 280
-0.0122032 0.69599998 -0.048812799 6.653267e-39 310 280
-0.01095132 0.69400001 -0.048672531 8.4968209e-39 311 280
-0.0097204801 0.69300002 -0.048602402 1.1074336e-38 312 280
-0.0085054198 0.69300002 -0.048602402 1.245727e-38 313 280
-0.0072693196 0.69099998 -0.04846213 1.3468886e-38 314 280
-0.0060577663 0.69099998 -0.04846213 1.3284134e-38 315 280
-0.0048251734 0.68800002 -0.048251733 1.3191573e-38 316 280
-0.0036136196 0.68699998 -0.048181597 1.2638399e-38 317 280
-0.0024055731 0.68599999 -0.048111461 1.2913541e-38 318 280
-0.00119928 0.68400002 -0.0479712 1.3558911e-38 319 280
0 0.68300003 -0.047901068 1.4202831e-38 320 280
0.0011975267 0.68300003 -0.047901068 1.4295387e-38 321 280
0.0023950534 0.68300003 -0.047901068 1.4018796e-38 322 280
0.0035925799 0.68300003 -0.047901068 1.3557818e-38 323 280
0.0047901068 0.68300003 -0.047901068 1.2544389e-38 324 280
0.0059876335 0.68300003 -0.047901068 1.1991215e-38 325 280
0.00717464 0.68199998 -0.047830928 1.2264206e-38 326 280
0.0083704125 0.68199998 -0.047830928 1.281738e-38 327 280
0.009566186 0.68199998 -0.047830928 1.3368404e-38 328 280
0.010761959 0.68199998 -0.047830928 1.2539004e-38 329 280
0.011957732 0.68199998 -0.047830928 1.0241683e-38 330 280
0.013153506 0.68199998 -0.047830928 1.005729e-38 331 280
0.01434928 0.68199998 -0.047830928 1.0149486e-38 332 280
0.015545053 0.68199998 -0.047830928 1.0610464e-38 333 280
0.016740825 0.68199998 -0.047830928 1.2357845e-38 334 280
0.017936599 0.68199998 -0.047830928 1.2819183e-38 335 280
0.019132372 0.68199998 -0.047830928 1.2361035e-38 336 280
0.020328145 0.68199998 -0.047830928 1.2361035e-38 337 280
0.021523919 0.68199998 -0.047830928 1.3832902e-38 338 280
0.022719691 0.68199998 -0.047830928 1.3832902e-38 339 280
0.023915464 0.68199998 -0.047830928 1.3832203e-38 340 280
0.025111238 0.68199998 -0.047830928 1.2909887e-38 341 280
0.026345588 0.68300003 -0.047901068 1.1989363e-38 342 280
0.027583439 0.68400002 -0.0479712 1.2634732e-38 343 280
0.02878272 0.68400002 -0.0479712 1.2174136e-38 344 280
0.029982001 0.68400002 -0.0479712 1.1068148e-38 345 280
0.031318039 0.68699998 -0.048181597 1.0328113e-38 346 280
0.032569919 0.68800002 -0.048251733 1.0328113e-38 347 280
0.0338744 0.69 -0.048391998 1.0329915e-38 348 280
0.035135046 0.69099998 -0.04846213 1.0698697e-38 349 280
0.036451802 0.69300002 -0.048602402 1.0793398e-38 350 280
0.037721213 0.69400001 -0.048672531 1.0977789e-38 351 280
0.038938027 0.69400001 -0.048672531 1.0794114e-38 352 280
0.040328421 0.69700003 -0.048882935 1.0794114e-38 353 280
0.041550495 0.69700003 -0.048882935 1.0607202e-38 354 280
0.042772565 0.69700003 -0.048882935 9.9618322e-39 355 280
0.043994639 0.69700003 -0.048882935 1.5115046e-38 356 280
-0.022439159 0.71100003 -0.051111419 1.8896867e-38 302 281
-0.021192541 0.71100003 -0.051111419 1.8896867e-38 303 281
-0.019917866 0.70999998 -0.051039528 1.7883807e-38 304 281
-0.018594101 0.70700002 -0.050823875 1.6500872e-38 305 281
-0.017329946 0.70599997 -0.050751984 1.4015573e-38 306 281
-0.016023712 0.70300001 -0.050536323 1.2632637e-38 307 281
-0.014749039 0.70099998 -0.050392549 8.1229867e-39 308 281
-0.013462093 0.69800001 -0.050176892 8.0304323e-39 309 281
-0.0122032 0.69599998 -0.050033119 6.8358576e-39 310 281
-0.01095132 0.69400001 -0.049889345 8.0344008e-39 311 281
-0.0097345067 0.69400001 -0.049889345 1.0428966e-38 312 281
-0.0085054198 0.69300002 -0.049817458 1.2272879e-38 313 281
-0.0072693196 0.69099998 -0.049673684 1.300791e-38 314 281
-0.0060577663 0.69099998 -0.049673684 1.300791e-38 315 281
-0.0048391996 0.69 -0.049601797 1.2363257e-38 316 281
-0.0036188802 0.68800002 -0.049458027 1.1533496e-38 317 281
-0.0024090798 0.68699998 -0.049386136 1.061226e-38 318 281
-0.00119928 0.68400002 -0.049170479 1.1165433e-38 319 281
0 0.68400002 -0.049170479 1.2914266e-38 320 281
0.0011975267 0.68300003 -0.049098592 1.3559635e-38 321 281
0.0023950534 0.68300003 -0.049098592 1.4295753e-38 322 281
0.0035925799 0.68300003 -0.049098592 1.4387948e-38 323 281
0.0047901068 0.68300003 -0.049098592 1.4570892e-38 324 281
0.0059876335 0.68300003 -0.049098592 1.4294304e-38 325 281
0.0071851597 0.68300003 -0.049098592 1.4108475e-38 326 281
0.0083704125 0.68199998 -0.049026705 1.3923723e-38 327 281
0.009566186 0.68199998 -0.049026705 1.3647865e-38 328 281
0.010761959 0.68199998 -0.049026705 1.4293235e-38 329 281
0.011975267 0.68300003 -0.049098592 1.4203201e-38 330 281
0.013172794 0.68300003 -0.049098592 1.4203201e-38 331 281
0.014370319 0.68300003 -0.049098592 1.4203557e-38 332 281
0.015567848 0.68300003 -0.049098592 1.411136e-38 333 281
0.016740825 0.68199998 -0.049026705 1.3927679e-38 334 281
0.017936599 0.68199998 -0.049026705 1.3742929e-38 335 281
0.019160427 0.68300003 -0.049098592 1.3834367e-38 336 281
0.020357953 0.68300003 -0.049098592 1.3373028e-38 337 281
0.021523919 0.68199998 -0.049026705 1.3372647e-38 338 281
0.022719691 0.68199998 -0.049026705 1.3280452e-38 339 281
0.023915464 0.68199998 -0.049026705 1.3096799e-38 340 281
0.02514806 0.68300003 -0.049098592 1.3188995e-38 341 281
0.026345588 0.68300003 -0.049098592 1.2726221e-38 342 281
0.027664091 0.68599999 -0.049314249 1.2634026e-38 343 281
0.02886688 0.68599999 -0.049314249 1.1439818e-38 344 281
0.030069664 0.68599999 -0.049314249 1.0610056e-38 345 281
0.031363625 0.68800002 -0.049458027 1.0423536e-38 346 281
0.032664597 0.69 -0.049601797 1.0607927e-38 347 281
0.033923492 0.69099998 -0.049673684 1.0700843e-38 348 281
0.035236739 0.69300002 -0.049817458 1.0793398e-38 349 281
0.036504399 0.69400001 -0.049889345 1.0610446e-38 350 281
0.037829921 0.69599998 -0.050033119 1.0610446e-38 351 281
0.039106347 0.69700003 -0.050105009 1.0793398e-38 352 281
0.040328421 0.69700003 -0.050105009 1.0700843e-38 353 281
0.041610107 0.69800001 -0.050176892 9.8710687e-39 354 281
0.042833932 0.69800001 -0.050176892 1.0239492e-38 355 281
0.04405776 0.69800001 -0.050176892 1.5393428e-38 356 281
-0.021192541 0.71100003 -0.052358042 1.8987981e-38 303 282
-0.019917866 0.70999998 -0.052284397 1.7883804e-38 304 282
-0.018594101 0.70700002 -0.05206348 1.6961846e-38 305 282
-0.017329946 0.70599997 -0.051989835 1.484425e-38 306 282
-0.016046507 0.704 -0.051842559 1.3277285e-38 307 282
-0.014791119 0.70300001 -0.051768921 9.7799843e-39 308 282
-0.013462093 0.69800001 -0.051400717 9.4112018e-39 309 282
-0.0122032 0.69599998 -0.051253434 8.3988603e-39 310 282
-0.01095132 0.69400001 -0.051106159 9.2286224e-39 311 282
-0.0097345067 0.69400001 -0.051106159 1.0795228e-38 312 282
-0.0085054198 0.69300002 -0.051032521 1.2270358e-38 313 282
-0.0072903596 0.69300002 -0.051032521 1.2364706e-38 314 282
-0.0060577663 0.69099998 -0.050885238 1.2272509e-38 315 282
-0.0048462129 0.69099998 -0.050885238 1.2087393e-38 316 282
-0.0036293997 0.69 -0.050811596 1.1349828e-38 317 282
-0.0024090798 0.68699998 -0.050590675 9.4155206e-39 318 282
-0.0012027866 0.68599999 -0.050517038 9.1389337e-39 319 282
0 0.68599999 -0.050517038 1.0335322e-38 320 282
0.00119928 0.68400002 -0.050369758 1.061191e-38 321 282
0.0023985601 0.68400002 -0.050369758 1.162389e-38 322 282
0.0035925799 0.68300003 -0.05029612 1.2085228e-38 323 282
0.0047901068 0.68300003 -0.05029612 1.3095412e-38 324 282
0.0059876335 0.68300003 -0.05029612 1.2726629e-38 325 282
0.0071851597 0.68300003 -0.05029612 1.2541519e-38 326 282
0.0083826864 0.68300003 -0.05029612 1.2264931e-38 327 282
0.0095802136 0.68300003 -0.05029612 1.1622802e-38 328 282
0.01077774 0.68300003 -0.05029612 1.272915e-38 329 282
0.011975267 0.68300003 -0.05029612 1.3648584e-38 330 282
0.013172794 0.68300003 -0.05029612 1.3648584e-38 331 282
0.014370319 0.68300003 -0.05029612 1.3281601e-38 332 282
0.015567848 0.68300003 -0.05029612 1.3097209e-38 333 282
0.016765373 0.68300003 -0.05029612 1.2637659e-38 334 282
0.017962901 0.68300003 -0.05029612 1.2729856e-38 335 282
0.019160427 0.68300003 -0.05029612 1.3372675e-38 336 282
0.020357953 0.68300003 -0.05029612 1.3096449e-38 337 282
0.02155548 0.68300003 -0.05029612 1.3096799e-38 338 282
0.022753006 0.68300003 -0.05029612 1.2451429e-38 339 282
0.023950534 0.68300003 -0.05029612 1.1531286e-38 340 282
0.025184879 0.68400002 -0.050369758 1.1623483e-38 341 282
0.026461305 0.68599999 -0.050517038 1.1990824e-38 342 282
0.027664091 0.68599999 -0.050517038 1.208302e-38 343 282
0.028908957 0.68699998 -0.050590675 1.1715329e-38 344 282
0.030113498 0.68699998 -0.050590675 1.1254351e-38 345 282
0.031363625 0.68800002 -0.050664321 1.0793745e-38 346 282
0.032664597 0.69 -0.050811596 1.0885941e-38 347 282
0.033923492 0.69099998 -0.050885238 1.0886307e-38 348 282
0.035236739 0.69300002 -0.051032521 1.0794111e-38 349 282
0.036609598 0.69599998 -0.051253434 1.0518253e-38 350 282
0.037829921 0.69599998 -0.051253434 1.0333501e-38 351 282
0.039106347 0.69700003 -0.051327083 1.0057277e-38 352 282
0.040386278 0.69800001 -0.051400717 1.0333504e-38 353 282
0.041610107 0.69800001 -0.051400717 1.1160005e-38 354 282
0.042833932 0.69800001 -0.051400717 1.2081963e-38 355 282
0.04405776 0.69800001 -0.051400717 1.6222465e-38 356 282
-0.019917866 0.70999998 -0.053529263 1.7699413e-38 304 283
-0.018594101 0.70700002 -0.053303085 1.7146239e-38 305 283
-0.017329946 0.70599997 -0.053227689 1.5674005e-38 306 283
-0.016046507 0.704 -0.053076904 1.4014124e-38 307 283
-0.014812159 0.704 -0.053076904 1.0423552e-38 308 283
-0.013462093 0.69800001 -0.052624546 1.0423552e-38 309 283
-0.012220734 0.69700003 -0.052549154 1.0425003e-38 310 283
-0.010982879 0.69599998 -0.052473757 1.070159e-38 311 283
-0.0097345067 0.69400001 -0.052322973 1.0521162e-38 312 283
-0.0085176928 0.69400001 -0.052322973 1.1350923e-38 313 283
-0.0072903596 0.69300002 -0.05224758 1.153639e-38 314 283
-0.0060753003 0.69300002 -0.05224758 1.153639e-38 315 283
-0.0048462129 0.69099998 -0.052096792 1.1719339e-38 316 283
-0.0036293997 0.69 -0.052021399 1.1627142e-38 317 283
-0.0024125867 0.68800002 -0.051870614 9.78395e-39 318 283
-0.0012045399 0.68699998 -0.051795214 8.5854068e-39 319 283
0 0.68599999 -0.051719822 8.3102618e-39 320 283
0.0012027866 0.68599999 -0.051719822 8.2180662e-39 321 283
0.0023985601 0.68400002 -0.051569041 9.0456661e-39 322 283
0.00359784 0.68400002 -0.051569041 9.5062841e-39 323 283
0.0047971201 0.68400002 -0.051569041 9.871824e-39 324 283
0.0059876335 0.68300003 -0.051493648 9.5034002e-39 325 283
0.0071851597 0.68300003 -0.051493648 9.779264e-39 326 283
0.0083826864 0.68300003 -0.051493648 9.6870684e-39 327 283
0.0095802136 0.68300003 -0.051493648 1.0149486e-38 328 283
0.01077774 0.68300003 -0.051493648 1.1163638e-38 329 283
0.011975267 0.68300003 -0.051493648 1.1713572e-38 330 283
0.013172794 0.68300003 -0.051493648 1.152918e-38 331 283
0.014370319 0.68300003 -0.051493648 1.0978167e-38 332 283
0.015567848 0.68300003 -0.051493648 1.0701941e-38 333 283
0.016765373 0.68300003 -0.051493648 1.0979957e-38 334 283
0.0179892 0.68400002 -0.051569041 1.1625326e-38 335 283
0.01918848 0.68400002 -0.051569041 1.2453244e-38 336 283
0.020387759 0.68400002 -0.051569041 1.2453244e-38 337 283
0.02158704 0.68400002 -0.051569041 1.300425e-38 338 283
0.022786319 0.68400002 -0.051569041 1.1805707e-38 339 283
0.0239856 0.68400002 -0.051569041 9.412959e-39 340 283
0.025258519 0.68599999 -0.051719822 1.0150524e-38 341 283
0.026499879 0.68699998 -0.051795214 1.1346902e-38 342 283
0.027704418 0.68699998 -0.051795214 1.162313e-38 343 283
0.028908957 0.68699998 -0.051795214 1.1347991e-38 344 283
0.030157333 0.68800002 -0.051870614 1.1071404e-38 345 283
0.031454802 0.69 -0.052021399 1.0611518e-38 346 283
0.032711938 0.69099998 -0.052096792 1.0611518e-38 347 283
0.034021679 0.69300002 -0.05224758 1.0243105e-38 348 283
0.035287585 0.69400001 -0.052322973 1.0150909e-38 349 283
0.036609598 0.69599998 -0.052473757 1.0424984e-38 350 283
0.037884273 0.69700003 -0.052549154 1.0148038e-38 351 283
0.039106347 0.69700003 -0.052549154 9.7806877e-39 352 283
0.040386278 0.69800001 -0.052624546 1.079484e-38 353 283
0.041610107 0.69800001 -0.052624546 1.2909201e-38 354 283
0.042833932 0.69800001 -0.052624546 1.3738964e-38 355 283
0.04405776 0.69800001 -0.052624546 1.6499408e-38 356 283
-0.018672999 0.70999998 -0.054774132 1.6318995e-38 305 284
-0.017329946 0.70599997 -0.054465543 1.6320444e-38 306 284
-0.016046507 0.704 -0.054311249 1.5029705e-38 307 284
-0.014812159 0.704 -0.054311249 1.0515379e-38 308 284
-0.013500666 0.69999999 -0.054002665 9.7778137e-39 309 284
-0.012220734 0.69700003 -0.053771228 9.5984797e-39 310 284
-0.010982879 0.69599998 -0.053694077 1.0612632e-38 311 284
-0.0097345067 0.69400001 -0.053539783 1.0155619e-38 312 284
-0.0085176928 0.69400001 -0.053539783 1.0524402e-38 313 284
-0.0072903596 0.69300002 -0.053462639 1.1168333e-38 314 284
-0.0060753003 0.69300002 -0.053462639 1.1168333e-38 315 284
-0.0048462129 0.69099998 -0.053308345 1.1351997e-38 316 284
-0.0036346598 0.69099998 -0.053308345 1.1444194e-38 317 284
-0.0024195998 0.69 -0.053231198 1.1257998e-38 318 284
-0.0012062934 0.68800002 -0.053076908 1.0889574e-38 319 284
0 0.68699998 -0.052999757 1.0706262e-38 320 284
0.0012045399 0.68699998 -0.052999757 1.0706262e-38 321 284
0.0024055731 0.68599999 -0.05292261 1.1165082e-38 322 284
0.00360836 0.68599999 -0.05292261 1.0888856e-38 323 284
0.0047971201 0.68400002 -0.05276832 1.0611546e-38 324 284
0.0059964 0.68400002 -0.05276832 1.03346e-38 325 284
0.0071851597 0.68300003 -0.052691177 1.0151288e-38 326 284
0.0083826864 0.68300003 -0.052691177 1.0151288e-38 327 284
0.0095802136 0.68300003 -0.052691177 1.0794139e-38 328 284
0.01077774 0.68300003 -0.052691177 1.1070367e-38 329 284
0.011975267 0.68300003 -0.052691177 1.0702659e-38 330 284
0.013172794 0.68300003 -0.052691177 1.0610464e-38 331 284
0.014370319 0.68300003 -0.052691177 9.7821479e-39 332 284
0.015567848 0.68300003 -0.052691177 9.3211711e-39 333 284
0.016789921 0.68400002 -0.05276832 1.042787e-38 334 284
0.0179892 0.68400002 -0.05276832 1.1349828e-38 335 284
0.01918848 0.68400002 -0.05276832 1.2452541e-38 336 284
0.020447372 0.68599999 -0.05292261 1.2452541e-38 337 284
0.021650158 0.68599999 -0.05292261 1.2911704e-38 338 284
0.022852944 0.68599999 -0.05292261 1.1620965e-38 339 284
0.024055731 0.68599999 -0.05292261 1.0699379e-38 340 284
0.025295338 0.68699998 -0.052999757 1.1344748e-38 341 284
0.026499879 0.68699998 -0.052999757 1.1254719e-38 342 284
0.027744746 0.68800002 -0.053076908 1.1254719e-38 343 284
0.028951041 0.68800002 -0.053076908 1.097958e-38 344 284
0.030244999 0.69 -0.053231198 1.0702994e-38 345 284
0.031454802 0.69 -0.053231198 1.0334941e-38 346 284
0.032711938 0.69099998 -0.053308345 1.0150189e-38 347 284
0.034021679 0.69300002 -0.053462639 9.9668797e-39 348 284
0.035287585 0.69400001 -0.053539783 9.5977384e-39 349 284
0.036609598 0.69599998 -0.053694077 9.5955734e-39 350 284
0.037884273 0.69700003 -0.053771228 9.2267923e-39 351 284
0.039162453 0.69800001 -0.053848371 1.1065293e-38 352 284
0.040386278 0.69800001 -0.053848371 1.3370184e-38 353 284
0.041610107 0.69800001 -0.053848371 1.4381802e-38 354 284
0.042833932 0.69800001 -0.053848371 1.4750225e-38 355 284
0.04405776 0.69800001 -0.053848371 1.6224613e-38 356 284
-0.017280852 0.704 -0.055545598 1.6137129e-38 306 285
-0.016046507 0.704 -0.055545598 1.5952736e-38 307 285
-0.014812159 0.704 -0.055545598 1.2540439e-38 308 285
-0.013500666 0.69999999 -0.055229999 1.060433e-38 309 285
-0.012238266 0.69800001 -0.0550722 9.4137255e-39 310 285
-0.01099866 0.69700003 -0.054993302 1.1165082e-38 311 285
-0.0097625591 0.69599998 -0.054914396 1.0615881e-38 312 285
-0.0085422397 0.69599998 -0.054914396 1.0431131e-38 313 285
-0.0073008798 0.69400001 -0.054756597 1.0524049e-38 314 285
-0.0060753003 0.69300002 -0.054677699 1.0616244e-38 315 285
-0.00486024 0.69300002 -0.054677699 1.0525481e-38 316 285
-0.0036346598 0.69099998 -0.054519895 1.0801709e-38 317 285
-0.0024195998 0.69 -0.054440998 1.1351278e-38 318 285
-0.0012062934 0.68800002 -0.054283202 1.1627507e-38 319 285
0 0.68699998 -0.054204296 1.2087765e-38 320 285
0.0012045399 0.68699998 -0.054204296 1.217996e-38 321 285
0.0024090798 0.68699998 -0.054204296 1.2363628e-38 322 285
0.0036136196 0.68699998 -0.054204296 1.1902652e-38 323 285
0.0048181596 0.68699998 -0.054204296 1.1718253e-38 324 285
0.0060139326 0.68599999 -0.054125395 1.1534222e-38 325 285
0.0072167199 0.68599999 -0.054125395 1.1534578e-38 326 285
0.0084195063 0.68599999 -0.054125395 1.1442024e-38 327 285
0.0096222926 0.68599999 -0.054125395 1.1624976e-38 328 285
0.01079352 0.68400002 -0.053967599 1.1348029e-38 329 285
0.0119928 0.68400002 -0.053967599 1.1348029e-38 330 285
0.01319208 0.68400002 -0.053967599 1.1348029e-38 331 285
0.01439136 0.68400002 -0.053967599 1.0242404e-38 332 285
0.01559064 0.68400002 -0.053967599 8.8594699e-39 333 285
0.016789921 0.68400002 -0.053967599 1.0610464e-38 334 285
0.018041799 0.68599999 -0.054125395 1.1809007e-38 335 285
0.019244585 0.68599999 -0.054125395 1.2544389e-38 336 285
0.020477179 0.68699998 -0.054204296 1.2359998e-38 337 285
0.021681719 0.68699998 -0.054204296 1.208302e-38 338 285
0.022886258 0.68699998 -0.054204296 1.0515693e-38 339 285
0.024090799 0.68699998 -0.054204296 9.5058637e-39 340 285
0.02533216 0.68800002 -0.054283202 1.1072829e-38 341 285
0.026538454 0.68800002 -0.054283202 1.1990862e-38 342 285
0.027744746 0.68800002 -0.054283202 1.1622079e-38 343 285
0.029035198 0.69 -0.054440998 1.1346218e-38 344 285
0.030288832 0.69099998 -0.054519895 1.088524e-38 345 285
0.031591557 0.69300002 -0.054677699 1.005764e-38 346 285
0.03280662 0.69300002 -0.054677699 9.8732491e-39 347 285
0.034070771 0.69400001 -0.054756597 1.014947e-38 348 285
0.035287585 0.69400001 -0.054756597 9.7806877e-39 349 285
0.036662199 0.69700003 -0.054993302 9.5955552e-39 350 285
0.037884273 0.69700003 -0.054993302 9.5955552e-39 351 285
0.039162453 0.69800001 -0.0550722 1.1618091e-38 352 285
0.040386278 0.69800001 -0.0550722 1.4107373e-38 353 285
0.041729331 0.69999999 -0.055229999 1.4750575e-38 354 285
0.042956665 0.69999999 -0.055229999 1.4289957e-38 355 285
0.044183996 0.69999999 -0.055229999 1.5856904e-38 356 285
-0.017329946 0.70599997 -0.056941248 1.5030409e-38 306 286
-0.016092092 0.70599997 -0.056941248 1.5767974e-38 307 286
-0.014812159 0.704 -0.056779943 1.5580005e-38 308 286
-0.013500666 0.69999999 -0.056457333 1.2168767e-38 309 286
-0.012238266 0.69800001 -0.056296028 8.1240531e-39 310 286
-0.01101444 0.69800001 -0.056296028 1.0429304e-38 311 286
-0.0097765867 0.69700003 -0.056215372 1.0065579e-38 312 286
-0.0085422397 0.69599998 -0.056134716 1.0065579e-38 313 286
-0.0073008798 0.69400001 -0.055973411 1.0430411e-38 314 286
-0.0060840664 0.69400001 -0.055973411 1.0799193e-38 315 286
-0.00486024 0.69300002 -0.055892758 1.0891386e-38 316 286
-0.0036346598 0.69099998 -0.055731449 1.0891386e-38 317 286
-0.0024231065 0.69099998 -0.055731449 1.1075055e-38 318 286
-0.0012097999 0.69 -0.055650797 1.1075055e-38 319 286
0 0.68800002 -0.055489492 1.1258727e-38 320 286
0.0012062934 0.68800002 -0.055489492 1.1350923e-38 321 286
0.0024125867 0.68800002 -0.055489492 1.1350923e-38 322 286
0.0036188802 0.68800002 -0.055489492 1.1258727e-38 323 286
0.0048181596 0.68699998 -0.055408835 1.1075052e-38 324 286
0.0060226996 0.68699998 -0.055408835 1.1167247e-38 325 286
0.0072272392 0.68699998 -0.055408835 1.1259799e-38 326 286
0.0084317802 0.68699998 -0.055408835 1.1167603e-38 327 286
0.0096363192 0.68699998 -0.055408835 1.1166882e-38 328 286
0.010825079 0.68599999 -0.055328183 1.1074686e-38 329 286
0.012027865 0.68599999 -0.055328183 1.1075039e-38 330 286
0.013230653 0.68599999 -0.055328183 1.1167235e-38 331 286
0.01443344 0.68599999 -0.055328183 1.0979604e-38 332 286
0.015636226 0.68599999 -0.055328183 1.0518265e-38 333 286
0.016839013 0.68599999 -0.055328183 1.0520063e-38 334 286
0.018068098 0.68699998 -0.055408835 9.1371288e-39 335 286
0.019272638 0.68699998 -0.055408835 9.6827468e-39 336 286
0.020477179 0.68699998 -0.055408835 9.3143244e-39 337 286
0.021681719 0.68699998 -0.055408835 6.738948e-39 338 286
0.022919573 0.68800002 -0.055489492 2.7745359e-39 339 286
0.024125867 0.68800002 -0.055489492 7.6961273e-40 340 286
0.02533216 0.68800002 -0.055489492 6.2091549e-39 341 286
0.026538454 0.68800002 -0.055489492 1.2819549e-38 342 286
0.027825398 0.69 -0.055650797 1.3003942e-38 343 286
0.029035198 0.69 -0.055650797 1.2818099e-38 344 286
0.030288832 0.69099998 -0.055731449 1.2449675e-38 345 286
0.031591557 0.69300002 -0.055892758 1.1990136e-38 346 286
0.032853961 0.69400001 -0.055973411 1.189794e-38 347 286
0.034070771 0.69400001 -0.055973411 1.1896854e-38 348 286
0.035389278 0.69599998 -0.056134716 1.0882344e-38 349 286
0.036662199 0.69700003 -0.056215372 9.41188e-39 350 286
0.037938625 0.69800001 -0.056296028 1.0702619e-38 351 286
0.039274666 0.69999999 -0.056457333 1.2541127e-38 352 286
0.040502001 0.69999999 -0.056457333 1.3831865e-38 353 286
0.041729331 0.69999999 -0.056457333 1.4014439e-38 354 286
0.043018032 0.70099998 -0.056537982 1.3645657e-38 355 286
0.044247117 0.70099998 -0.056537982 1.5582468e-38 356 286
-0.017280852 0.704 -0.058014292 1.364962e-38 306 287
-0.014812159 0.704 -0.058014292 1.5401715e-38 308 287
-0.013519952 0.70099998 -0.057767071 1.3465607e-38 309 287
-0.012273333 0.69999999 -0.05768466 9.9654321e-39 310 287
-0.01101444 0.69800001 -0.057519849 1.0979224e-38 311 287
-0.0097906133 0.69800001 -0.057519849 1.2636619e-38 312 287
