# .PCD v.7 - Point Cloud Data file format
FIELDS x y z rgb imX imY
SIZE 4 4 4 4 4 4
TYPE F F F F F F
COUNT 1 1 1 1 1 1
WIDTH 851
HEIGHT 1
VIEWPOINT 0 0 0 1 0 0 0
POINTS 851
DATA ascii
-0.018234665 0.64999998 0.12194432 1.3181807e-38 304 133
-0.017147599 0.65200001 0.12231954 1.2997416e-38 305 133
-0.016004426 0.65200001 0.12231954 1.2905573e-38 306 133
-0.014884046 0.653 0.12250715 1.2813019e-38 307 133
-0.013739119 0.653 0.12250715 1.2997403e-38 308 133
-0.012613479 0.65399998 0.12269475 1.3181435e-38 309 133
-0.011484332 0.65499997 0.12288236 1.3088167e-38 310 133
-0.01036746 0.65700001 0.12325758 1.4378906e-38 311 133
-0.036581546 0.65200001 0.12117637 1.5122254e-38 288 134
-0.035329666 0.64999998 0.12080465 1.4937504e-38 289 134
-0.034189999 0.64999998 0.12080465 1.447868e-38 290 134
-0.033050328 0.64999998 0.12080465 1.447868e-38 291 134
-0.031910665 0.64999998 0.12080465 1.4570149e-38 292 134
-0.030770998 0.64999998 0.12080465 1.4662345e-38 293 134
-0.029631332 0.64999998 0.12080465 1.4661982e-38 294 134
-0.028491667 0.64999998 0.12080465 1.4385036e-38 295 134
-0.027309919 0.64899999 0.12061881 1.429212e-38 296 134
-0.026172007 0.64899999 0.12061881 1.4199925e-38 297 134
-0.025072664 0.64999998 0.12080465 1.429032e-38 298 134
-0.023932999 0.64999998 0.12080465 1.4014092e-38 299 134
-0.022793332 0.64999998 0.12080465 1.4288874e-38 300 134
-0.021653665 0.64999998 0.12080465 1.3920093e-38 301 134
-0.020513998 0.64999998 0.12080465 1.3735697e-38 302 134
-0.019374331 0.64999998 0.12080465 1.345947e-38 303 134
-0.018290773 0.65200001 0.12117637 1.3274713e-38 304 134
-0.017147599 0.65200001 0.12117637 1.3182158e-38 305 134
-0.016004426 0.65200001 0.12117637 1.327363e-38 306 134
-0.014884046 0.653 0.12136222 1.3181435e-38 307 134
-0.013760159 0.65399998 0.12154807 1.3181435e-38 308 134
-0.012632766 0.65499997 0.12173393 1.327363e-38 309 134
-0.011484332 0.65499997 0.12173393 1.318036e-38 310 134
-0.01036746 0.65700001 0.12210564 1.4286707e-38 311 134
-0.036581546 0.65200001 0.1200332 1.4016259e-38 288 135
-0.035329666 0.64999998 0.119665 1.4292488e-38 289 135
-0.034189999 0.64999998 0.119665 1.4476884e-38 290 135
-0.033050328 0.64999998 0.119665 1.456908e-38 291 135
-0.031910665 0.64999998 0.119665 1.4845663e-38 292 135
-0.030770998 0.64999998 0.119665 1.493786e-38 293 135
-0.029631332 0.64999998 0.119665 1.4479033e-38 294 135
-0.028491667 0.64999998 0.119665 1.4202087e-38 295 135
-0.027351998 0.64999998 0.119665 1.4385036e-38 296 135
-0.026212333 0.64999998 0.119665 1.4200644e-38 297 135
-0.025072664 0.64999998 0.119665 1.4199925e-38 298 135
-0.023932999 0.64999998 0.119665 1.4015175e-38 299 135
-0.022863466 0.65200001 0.1200332 1.3921896e-38 300 135
-0.021720294 0.65200001 0.1200332 1.3737146e-38 301 135
-0.02057712 0.65200001 0.1200332 1.3553108e-38 302 135
-0.019433947 0.65200001 0.1200332 1.327688e-38 303 135
-0.018290773 0.65200001 0.1200332 1.3367272e-38 304 135
-0.017147599 0.65200001 0.1200332 1.3182881e-38 305 135
-0.016028972 0.653 0.1202173 1.3182514e-38 306 135
-0.014884046 0.653 0.1202173 1.2997764e-38 307 135
-0.013760159 0.65399998 0.12040139 1.2997766e-38 308 135
-0.012632766 0.65499997 0.12058549 1.2997766e-38 309 135
-0.011484332 0.65499997 0.12058549 1.3181084e-38 310 135
-0.01036746 0.65700001 0.12095369 1.4103042e-38 311 135
-0.036581546 0.65200001 0.11889002 1.4109527e-38 288 136
-0.035438374 0.65200001 0.11889002 1.4201724e-38 289 136
-0.034295198 0.65200001 0.11889002 1.4476882e-38 290 136
-0.033152029 0.65200001 0.11889002 1.4569077e-38 291 136
-0.032008853 0.65200001 0.11889002 1.4569799e-38 292 136
-0.030770998 0.64999998 0.11852533 1.4569799e-38 293 136
-0.029631332 0.64999998 0.11852533 1.4477601e-38 294 136
-0.028491667 0.64999998 0.11852533 1.4201374e-38 295 136
-0.027351998 0.64999998 0.11852533 1.4291767e-38 296 136
-0.026212333 0.64999998 0.11852533 1.4199572e-38 297 136
-0.025149813 0.65200001 0.11889002 1.419885e-38 298 136
-0.024006641 0.65200001 0.11889002 1.4106654e-38 299 136
-0.022863466 0.65200001 0.11889002 1.4013736e-38 300 136
-0.021720294 0.65200001 0.11889002 1.3737149e-38 301 136
-0.02057712 0.65200001 0.11889002 1.3644587e-38 302 136
-0.019433947 0.65200001 0.11889002 1.3552032e-38 303 136
-0.018290773 0.65200001 0.11889002 1.3459826e-38 304 136
-0.017147599 0.65200001 0.11889002 1.3182881e-38 305 136
-0.016028972 0.653 0.11907237 1.3182514e-38 306 136
-0.014884046 0.653 0.11907237 1.3090318e-38 307 136
-0.013760159 0.65399998 0.11925472 1.327363e-38 308 136
-0.012632766 0.65499997 0.11943705 1.327363e-38 309 136
-0.011484332 0.65499997 0.11943705 1.3365475e-38 310 136
-0.01036746 0.65700001 0.11980176 1.4010845e-38 311 136
-0.036469329 0.64999998 0.11738566 1.5122967e-38 288 137
-0.035329666 0.64999998 0.11738566 1.484674e-38 289 137
-0.034189999 0.64999998 0.11738566 1.4754541e-38 290 137
-0.033050328 0.64999998 0.11738566 1.4754541e-38 291 137
-0.031910665 0.64999998 0.11738566 1.4754543e-38 292 137
-0.030770998 0.64999998 0.11738566 1.4662348e-38 293 137
-0.029631332 0.64999998 0.11738566 1.4477598e-38 294 137
-0.028491667 0.64999998 0.11738566 1.4201371e-38 295 137
-0.027351998 0.64999998 0.11738566 1.4384319e-38 296 137
-0.026212333 0.64999998 0.11738566 1.4292123e-38 297 137
-0.025072664 0.64999998 0.11738566 1.4383237e-38 298 137
-0.024006641 0.65200001 0.11774684 1.410701e-38 299 137
-0.022863466 0.65200001 0.11774684 1.4014092e-38 300 137
-0.021720294 0.65200001 0.11774684 1.3921896e-38 301 137
-0.02057712 0.65200001 0.11774684 1.3920811e-38 302 137
-0.019433947 0.65200001 0.11774684 1.3644585e-38 303 137
-0.018290773 0.65200001 0.11774684 1.3643857e-38 304 137
-0.017147599 0.65200001 0.11774684 1.3367272e-38 305 137
-0.016028972 0.653 0.11792745 1.3274711e-38 306 137
-0.014884046 0.653 0.11792745 1.3274711e-38 307 137
-0.013781199 0.65499997 0.11828862 1.3091037e-38 308 137
-0.012632766 0.65499997 0.11828862 1.2998482e-38 309 137
-0.011484332 0.65499997 0.11828862 1.3365473e-38 310 137
-0.036469329 0.64999998 0.11624599 1.5124052e-38 288 138
-0.035329666 0.64999998 0.11624599 1.5124052e-38 289 138
-0.034189999 0.64999998 0.11624599 1.5399194e-38 290 138
-0.033050328 0.64999998 0.11624599 1.5399194e-38 291 138
-0.031910665 0.64999998 0.11624599 1.5032206e-38 292 138
-0.030770998 0.64999998 0.11624599 1.5032206e-38 293 138
-0.029631332 0.64999998 0.11624599 1.4940011e-38 294 138
-0.028447833 0.64899999 0.11606716 1.4571228e-38 295 138
-0.027309919 0.64899999 0.11606716 1.4846013e-38 296 138
-0.026172007 0.64899999 0.11606716 1.4569428e-38 297 138
-0.025034092 0.64899999 0.11606716 1.4660544e-38 298 138
-0.024006641 0.65200001 0.11660367 1.429212e-38 299 138
-0.022863466 0.65200001 0.11660367 1.429032e-38 300 138
-0.021720294 0.65200001 0.11660367 1.4198124e-38 301 138
-0.02057712 0.65200001 0.11660367 1.4105205e-38 302 138
-0.019433947 0.65200001 0.11660367 1.401301e-38 303 138
-0.018318826 0.653 0.11678252 1.3737136e-38 304 138
-0.017173899 0.653 0.11678252 1.3460189e-38 305 138
-0.016028972 0.653 0.11678252 1.3550221e-38 306 138
-0.014906839 0.65399998 0.11696136 1.3458026e-38 307 138
-0.013781199 0.65499997 0.11714019 1.2997764e-38 308 138
-0.012632766 0.65499997 0.11714019 1.2352753e-38 309 138
-0.035329666 0.64999998 0.11510632 1.4938589e-38 289 139
-0.034189999 0.64999998 0.11510632 1.5306642e-38 290 139
-0.033050328 0.64999998 0.11510632 1.5399197e-38 291 139
-0.031910665 0.64999998 0.11510632 1.5675778e-38 292 139
-0.030770998 0.64999998 0.11510632 1.5767974e-38 293 139
-0.029631332 0.64999998 0.11510632 1.5675055e-38 294 139
-0.028447833 0.64899999 0.11492924 1.5398468e-38 295 139
-0.027309919 0.64899999 0.11492924 1.5305195e-38 296 139
-0.026172007 0.64899999 0.11492924 1.5120802e-38 297 139
-0.025034092 0.64899999 0.11492924 1.4844929e-38 298 139
-0.023896178 0.64899999 0.11492924 1.4475786e-38 299 139
-0.022793332 0.64999998 0.11510632 1.447542e-38 300 139
-0.021653665 0.64999998 0.11510632 1.4383225e-38 301 139
-0.020513998 0.64999998 0.11510632 1.4473622e-38 302 139
-0.019463753 0.653 0.11563759 1.4288871e-38 303 139
-0.018318826 0.653 0.11563759 1.3827527e-38 304 139
-0.017173899 0.653 0.11563759 1.355094e-38 305 139
-0.016028972 0.653 0.11563759 1.3365823e-38 306 139
-0.034189999 0.64999998 0.11396667 1.0514989e-38 290 140
-0.033050328 0.64999998 0.11396667 1.1160359e-38 291 140
-0.031910665 0.64999998 0.11396667 1.1805728e-38 292 140
-0.030770998 0.64999998 0.11396667 1.1897925e-38 293 140
-0.029585747 0.64899999 0.11379133 1.2356379e-38 294 140
-0.028447833 0.64899999 0.11379133 1.2356379e-38 295 140
-0.027309919 0.64899999 0.11379133 1.2447856e-38 296 140
-0.026172007 0.64899999 0.11379133 1.2447856e-38 297 140
-0.025034092 0.64899999 0.11379133 1.2080504e-38 298 140
-0.023896178 0.64899999 0.11379133 1.1711363e-38 299 140
-0.022793332 0.64999998 0.11396667 1.2169453e-38 300 140
-0.021653665 0.64999998 0.11396667 1.1984703e-38 301 140
-0.020513998 0.64999998 0.11396667 1.1523362e-38 302 140
-0.019463753 0.653 0.11449267 1.1246775e-38 303 140
-0.018318826 0.653 0.11449267 1.1336077e-38 304 140
-0.031910665 0.64999998 0.112827 1.0602517e-38 292 141
-0.030770998 0.64999998 0.112827 1.0879104e-38 293 141
-0.029585747 0.64899999 0.11265341 1.0511754e-38 294 141
-0.028404001 0.648 0.11247984 1.0511754e-38 295 141
-0.02726784 0.648 0.11247984 1.0602866e-38 296 141
-0.02613168 0.648 0.11247984 1.0695063e-38 297 141
-0.024995521 0.648 0.11247984 1.0879084e-38 298 141
-0.023896178 0.64899999 0.11265341 1.0602497e-38 299 141
-0.022863466 0.65200001 0.11317416 1.0876561e-38 300 141
-0.028404001 0.648 0.11134368 1.0694696e-38 295 142
-0.02726784 0.648 0.11134368 1.0694696e-38 296 142
-0.02613168 0.648 0.11134368 1.1063478e-38 297 142
-0.024995521 0.648 0.11134368 1.1246072e-38 298 142
-0.051719822 0.68599999 0.027664091 5.0742993e-39 277 217
-0.050369758 0.68400002 0.027583439 4.1548542e-39 278 217
-0.049170479 0.68400002 0.027583439 3.5094847e-39 279 217
-0.0479712 0.68400002 0.027583439 3.9694091e-39 280 217
-0.04670354 0.68300003 0.027543113 4.0616047e-39 281 217
-0.045439381 0.68199998 0.027502786 3.0524975e-39 282 217
-0.044113863 0.68000001 0.027422134 3.2368888e-39 283 217
-0.042858478 0.67900002 0.027381808 3.6053013e-39 284 217
-0.041606598 0.67799997 0.027341479 3.0521289e-39 285 217
-0.040298611 0.676 0.027260827 2.7755323e-39 286 217
-0.039113361 0.676 0.027260827 2.8680866e-39 287 217
-0.037928104 0.676 0.027260827 3.4187507e-39 288 217
-0.036742851 0.676 0.027260827 3.8800875e-39 289 217
-0.021271439 0.67400002 0.027180174 8.116395e-39 302 217
-0.020089693 0.67400002 0.027180174 7.655777e-39 303 217
-0.051719822 0.68599999 0.026461305 8.2060949e-39 277 218
-0.050369758 0.68400002 0.02638416 6.5476469e-39 278 218
-0.049170479 0.68400002 0.02638416 5.2569081e-39 279 218
-0.0479712 0.68400002 0.02638416 3.6024287e-39 280 218
-0.04670354 0.68300003 0.026345588 3.3258404e-39 281 218
-0.045439381 0.68199998 0.026307013 2.9602963e-39 282 218
-0.044113863 0.68000001 0.026229866 3.3294375e-39 283 218
-0.042858478 0.67900002 0.026191294 3.6974914e-39 284 218
-0.041606598 0.67799997 0.026152719 3.6974914e-39 285 218
-0.040298611 0.676 0.026075572 3.6971186e-39 286 218
-0.039113361 0.676 0.026075572 3.6971186e-39 287 218
-0.037871998 0.67500001 0.026037 4.3388951e-39 288 218
-0.036688499 0.67500001 0.026037 4.4314494e-39 289 218
-0.035505001 0.67500001 0.026037 5.0746679e-39 290 218
-0.034321502 0.67500001 0.026037 5.4430902e-39 291 218
-0.025882706 0.671 0.025882706 5.9097983e-39 298 218
-0.024706218 0.671 0.025882706 6.3707765e-39 299 218
-0.023529733 0.671 0.025882706 7.2876909e-39 300 218
-0.022386558 0.67199999 0.025921278 6.8267127e-39 301 218
-0.021271439 0.67400002 0.025998428 4.8952792e-39 302 218
-0.020089693 0.67400002 0.025998428 4.1573555e-39 303 218
-0.018935999 0.67500001 0.026037 5.1697123e-39 304 218
-0.0177525 0.67500001 0.026037 5.7228861e-39 305 218
-0.016569 0.67500001 0.026037 5.8132839e-39 306 218
-0.0153855 0.67500001 0.026037 5.8132839e-39 307 218
-0.014202001 0.67500001 0.026037 7.100057e-39 308 218
-0.0130185 0.67500001 0.026037 7.100057e-39 309 218
-0.011835 0.67500001 0.026037 6.0891295e-39 310 218
-0.01066728 0.676 0.026075572 5.8125412e-39 311 218
-0.0094820261 0.676 0.026075572 5.6292289e-39 312 218
-0.0082967728 0.676 0.026075572 5.6292289e-39 313 218
-0.0071115191 0.676 0.026075572 5.6299492e-39 314 218
-0.0059437994 0.67799997 0.026152719 5.9065361e-39 315 218
-0.0047550397 0.67799997 0.026152719 5.63211e-39 316 218
-0.0035662798 0.67799997 0.026152719 5.909057e-39 317 218
-0.0023915465 0.68199998 0.026307013 6.1849208e-39 318 218
-0.0011957732 0.68199998 0.026307013 6.3693121e-39 319 218
0 0.68300003 0.026345588 6.6455262e-39 320 218
-0.052999757 0.68699998 0.025295338 8.9444054e-39 276 219
-0.051795214 0.68699998 0.025295338 9.1284365e-39 277 219
-0.050517038 0.68599999 0.025258519 7.7473e-39 278 219
-0.049170479 0.68400002 0.025184879 6.7335082e-39 279 219
-0.0479712 0.68400002 0.025184879 5.3519932e-39 280 219
-0.04670354 0.68300003 0.02514806 4.2456457e-39 281 219
-0.045439381 0.68199998 0.025111238 3.4183835e-39 282 219
-0.044113863 0.68000001 0.025037598 3.6953305e-39 283 219
-0.042858478 0.67900002 0.025000781 5.0753713e-39 284 219
-0.041606598 0.67799997 0.024963958 5.1675669e-39 285 219
-0.040298611 0.676 0.024890319 4.6169085e-39 286 219
-0.039113361 0.676 0.024890319 4.5247129e-39 287 219
-0.037871998 0.67500001 0.0248535 4.5250814e-39 288 219
-0.036688499 0.67500001 0.0248535 4.5250814e-39 289 219
-0.035505001 0.67500001 0.0248535 4.6169295e-39 290 219
-0.034321502 0.67500001 0.0248535 4.7091251e-39 291 219
-0.033137999 0.67500001 0.0248535 4.4346864e-39 292 219
-0.031954501 0.67500001 0.0248535 4.8034704e-39 293 219
-0.030771 0.67500001 0.0248535 4.8073968e-39 294 219
-0.029543666 0.67400002 0.024816679 4.8073968e-39 295 219
-0.02827776 0.67199999 0.024743039 4.4368164e-39 296 219
-0.027099518 0.67199999 0.024743039 4.7134033e-39 297 219
-0.025882706 0.671 0.024706218 4.8992435e-39 298 219
-0.024706218 0.671 0.024706218 5.1754703e-39 299 219
-0.023529733 0.671 0.024706218 6.276413e-39 300 219
-0.022386558 0.67199999 0.024743039 5.354098e-39 301 219
-0.021271439 0.67400002 0.024816679 4.2477686e-39 302 219
-0.020089693 0.67400002 0.024816679 3.9715419e-39 303 219
-0.018935999 0.67500001 0.0248535 4.5247339e-39 304 219
-0.0177525 0.67500001 0.0248535 4.8935178e-39 305 219
-0.016569 0.67500001 0.0248535 5.5370697e-39 306 219
-0.0153855 0.67500001 0.0248535 5.5370697e-39 307 219
-0.014202001 0.67500001 0.0248535 5.9065515e-39 308 219
-0.0130185 0.67500001 0.0248535 5.9987471e-39 309 219
-0.011835 0.67500001 0.0248535 5.9065389e-39 310 219
-0.0106515 0.67500001 0.0248535 5.6295933e-39 311 219
-0.0094820261 0.676 0.024890319 5.6299464e-39 312 219
-0.0082967728 0.676 0.024890319 5.6299464e-39 313 219
-0.0071115191 0.676 0.024890319 5.5391871e-39 314 219
-0.0059437994 0.67799997 0.024963958 5.815411e-39 315 219
-0.0047550397 0.67799997 0.024963958 5.9998037e-39 316 219
-0.0035662798 0.67799997 0.024963958 6.0919993e-39 317 219
-0.0023845332 0.68000001 0.025037598 6.460063e-39 318 219
-0.0011957732 0.68199998 0.025111238 6.8284854e-39 319 219
0 0.68300003 0.02514806 7.0132312e-39 320 219
0.00119928 0.68400002 0.025184879 7.1057855e-39 321 219
0.0023985601 0.68400002 0.025184879 7.1990532e-39 322 219
0.0036136196 0.68699998 0.025295338 7.2912488e-39 323 219
0.0048251734 0.68800002 0.02533216 7.9333924e-39 324 219
0.0060489997 0.69 0.025405798 8.1181424e-39 325 219
-0.054677699 0.69300002 0.024301201 1.0419904e-38 275 220
-0.052999757 0.68699998 0.024090799 7.3799734e-39 276 220
-0.051795214 0.68699998 0.024090799 6.5498526e-39 277 220
-0.050517038 0.68599999 0.024055731 6.7364145e-39 278 220
-0.049314249 0.68599999 0.024055731 6.6442188e-39 279 220
-0.0479712 0.68400002 0.0239856 9.5897902e-39 280 220
-0.046771921 0.68400002 0.0239856 9.2210091e-39 281 220
-0.045439381 0.68199998 0.023915464 7.8402004e-39 282 220
-0.044113863 0.68000001 0.023845334 6.4572646e-39 283 220
-0.042921599 0.68000001 0.023845334 5.1697348e-39 284 220
-0.041606598 0.67799997 0.023775198 4.8927877e-39 285 220
-0.040417835 0.67799997 0.023775198 4.158101e-39 286 220
-0.039113361 0.676 0.023705067 4.3424908e-39 287 220
-0.037871998 0.67500001 0.023669999 4.1581038e-39 288 220
-0.036688499 0.67500001 0.023669999 4.0659081e-39 289 220
-0.035505001 0.67500001 0.023669999 4.3417691e-39 290 220
-0.034321502 0.67500001 0.023669999 4.3417691e-39 291 220
-0.033137999 0.67500001 0.023669999 4.7101817e-39 292 220
-0.031954501 0.67500001 0.023669999 4.98677e-39 293 220
-0.030725412 0.67400002 0.023634933 4.9889112e-39 294 220
-0.029543666 0.67400002 0.023634933 5.1733025e-39 295 220
-0.02827776 0.67199999 0.023564799 5.0814572e-39 296 220
-0.027099518 0.67199999 0.023564799 5.0814572e-39 297 220
-0.025882706 0.671 0.023529733 4.9906965e-39 298 220
-0.024706218 0.671 0.023529733 5.0828921e-39 299 220
-0.023564799 0.67199999 0.023564799 5.4466495e-39 300 220
-0.022453187 0.67400002 0.023634933 4.8012801e-39 301 220
-0.021271439 0.67400002 0.023634933 4.9813708e-39 302 220
-0.020119499 0.67500001 0.023669999 5.0735664e-39 303 220
-0.018935999 0.67500001 0.023669999 4.9835204e-39 304 220
-0.0177525 0.67500001 0.023669999 5.4444972e-39 305 220
-0.016569 0.67500001 0.023669999 5.812544e-39 306 220
-0.0153855 0.67500001 0.023669999 5.904741e-39 307 220
-0.014202001 0.67500001 0.023669999 5.9072465e-39 308 220
-0.0130185 0.67500001 0.023669999 5.9994408e-39 309 220
-0.011835 0.67500001 0.023669999 5.8150523e-39 310 220
-0.0106515 0.67500001 0.023669999 5.6306639e-39 311 220
-0.0094820261 0.676 0.023705067 5.8128999e-39 312 220
-0.0083213197 0.67799997 0.023775198 5.9050941e-39 313 220
-0.0071325595 0.67799997 0.023775198 5.8146936e-39 314 220
-0.0059437994 0.67799997 0.023775198 6.183116e-39 315 220
-0.0047550397 0.67799997 0.023775198 6.1849152e-39 316 220
-0.0035715401 0.67900002 0.023810266 6.2774696e-39 317 220
-0.0023845332 0.68000001 0.023845334 6.5529747e-39 318 220
-0.0011957732 0.68199998 0.023915464 6.8299217e-39 319 220
0 0.68300003 0.023950534 6.8309881e-39 320 220
0.00119928 0.68400002 0.0239856 6.9235425e-39 321 220
0.0023985601 0.68400002 0.0239856 7.2894453e-39 322 220
0.0036136196 0.68699998 0.024090799 7.4741953e-39 323 220
0.0048251734 0.68800002 0.024125867 8.5755178e-39 324 220
0.0060489997 0.69 0.024195999 8.5755178e-39 325 220
-0.055731449 0.69099998 0.023019511 1.4938209e-38 274 221
-0.054519895 0.69099998 0.023019511 1.0973797e-38 275 221
-0.053308345 0.69099998 0.023019511 8.9440677e-39 276 221
-0.051795214 0.68699998 0.022886258 8.114307e-39 277 221
-0.050517038 0.68599999 0.022852944 8.1132505e-39 278 221
-0.049314249 0.68599999 0.022852944 7.9292193e-39 279 221
-0.0479712 0.68400002 0.022786319 8.2093992e-39 280 221
-0.046771921 0.68400002 0.022786319 8.7625729e-39 281 221
-0.045439381 0.68199998 0.022719691 9.1298827e-39 282 221
-0.044113863 0.68000001 0.022653066 8.4845133e-39 283 221
-0.042921599 0.68000001 0.022653066 7.8387543e-39 284 221
-0.041667968 0.67900002 0.022619752 7.6547232e-39 285 221
-0.040417835 0.67799997 0.022586439 6.8274736e-39 286 221
-0.039229076 0.67799997 0.022586439 6.0899086e-39 287 221
-0.037928104 0.676 0.022519812 5.53889e-39 288 221
-0.036742851 0.676 0.022519812 5.446693e-39 289 221
-0.035557602 0.676 0.022519812 5.0775363e-39 290 221
-0.034321502 0.67500001 0.022486499 4.7087538e-39 291 221
-0.033137999 0.67500001 0.022486499 5.1704326e-39 292 221
-0.031954501 0.67500001 0.022486499 5.3551826e-39 293 221
-0.030725412 0.67400002 0.022453187 5.1733025e-39 294 221
-0.029543666 0.67400002 0.022453187 5.1733025e-39 295 221
-0.02827776 0.67199999 0.022386558 5.0811068e-39 296 221
-0.027099518 0.67199999 0.022386558 4.8048801e-39 297 221
-0.025921278 0.67199999 0.022386558 4.9885455e-39 298 221
-0.024743039 0.67199999 0.022386558 5.2651324e-39 299 221
-0.023564799 0.67199999 0.022386558 5.1718549e-39 300 221
-0.022453187 0.67400002 0.022453187 4.5264855e-39 301 221
-0.021303 0.67500001 0.022486499 4.8913234e-39 302 221
-0.020119499 0.67500001 0.022486499 5.0760748e-39 303 221
-0.018935999 0.67500001 0.022486499 4.8934758e-39 304 221
-0.0177525 0.67500001 0.022486499 5.077867e-39 305 221
-0.016569 0.67500001 0.022486499 5.3544399e-39 306 221
-0.0153855 0.67500001 0.022486499 5.7228609e-39 307 221
-0.014202001 0.67500001 0.022486499 5.7246517e-39 308 221
-0.0130185 0.67500001 0.022486499 5.7246517e-39 309 221
-0.011835 0.67500001 0.022486499 5.7239343e-39 310 221
-0.0106515 0.67500001 0.022486499 5.7239343e-39 311 221
-0.0094820261 0.676 0.022519812 5.7239343e-39 312 221
-0.0083213197 0.67799997 0.022586439 5.9083227e-39 313 221
-0.0071325595 0.67799997 0.022586439 6.0927112e-39 314 221
-0.0059437994 0.67799997 0.022586439 6.7377191e-39 315 221
-0.0047550397 0.67799997 0.022586439 7.5642427e-39 316 221
-0.0035715401 0.67900002 0.022619752 7.4716884e-39 317 221
-0.0023845332 0.68000001 0.022653066 7.2894481e-39 318 221
-0.0011957732 0.68199998 0.022719691 7.2894481e-39 319 221
0 0.68300003 0.022753006 7.2894453e-39 320 221
0.00119928 0.68400002 0.022786319 7.3819997e-39 321 221
0.0024055731 0.68599999 0.022852944 7.4731205e-39 322 221
0.0036136196 0.68699998 0.022886258 7.6571516e-39 323 221
0.0048391996 0.69 0.022986198 8.2085374e-39 324 221
0.0060489997 0.69 0.022986198 8.2085374e-39 325 221
0.0072693196 0.69099998 0.023019511 8.8485524e-39 326 221
-0.055731449 0.69099998 0.021807959 1.4662348e-38 274 222
-0.054519895 0.69099998 0.021807959 1.1343305e-38 275 222
-0.053308345 0.69099998 0.021807959 9.8660282e-39 276 222
-0.051870614 0.68800002 0.021713281 9.2206588e-39 277 222
-0.050590675 0.68699998 0.021681719 9.4029075e-39 278 222
-0.049386136 0.68699998 0.021681719 9.0337648e-39 279 222
-0.048111461 0.68599999 0.021650158 7.1966892e-39 280 222
-0.046771921 0.68400002 0.02158704 7.2888848e-39 281 222
-0.045506012 0.68300003 0.02155548 8.5767271e-39 282 222
-0.044243611 0.68199998 0.021523919 8.6689228e-39 283 222
-0.042921599 0.68000001 0.0214608 8.9436992e-39 284 222
-0.041667968 0.67900002 0.021429239 9.5890686e-39 285 222
-0.040417835 0.67799997 0.021397678 9.3142796e-39 286 222
-0.039229076 0.67799997 0.021397678 8.3923219e-39 287 222
-0.037928104 0.676 0.021334561 8.1207614e-39 288 222
-0.036742851 0.676 0.021334561 8.6735765e-39 289 222
-0.035557602 0.676 0.021334561 8.301159e-39 290 222
-0.034321502 0.67500001 0.021303 6.9182245e-39 291 222
-0.033137999 0.67500001 0.021303 5.6346337e-39 292 222
-0.031954501 0.67500001 0.021303 5.3580482e-39 293 222
-0.030725412 0.67400002 0.021271439 5.3587671e-39 294 222
-0.029543666 0.67400002 0.021271439 4.9903433e-39 295 222
-0.02827776 0.67199999 0.021208318 5.1711543e-39 296 222
-0.027099518 0.67199999 0.021208318 4.9871231e-39 297 222
-0.025921278 0.67199999 0.021208318 5.3562518e-39 298 222
-0.024743039 0.67199999 0.021208318 5.540643e-39 299 222
-0.023564799 0.67199999 0.021208318 5.5420696e-39 300 222
-0.022453187 0.67400002 0.021271439 4.9888958e-39 301 222
-0.021303 0.67500001 0.021303 5.2618883e-39 302 222
-0.020119499 0.67500001 0.021303 5.446281e-39 303 222
-0.018935999 0.67500001 0.021303 5.2643981e-39 304 222
-0.0177525 0.67500001 0.021303 5.540622e-39 305 222
-0.016569 0.67500001 0.021303 5.6324575e-39 306 222
-0.0153855 0.67500001 0.021303 5.8172047e-39 307 222
-0.014202001 0.67500001 0.021303 6.0937874e-39 308 222
-0.0130185 0.67500001 0.021303 6.0012344e-39 309 222
-0.011835 0.67500001 0.021303 6.0008757e-39 310 222
-0.01066728 0.676 0.021334561 6.0008757e-39 311 222
-0.0094820261 0.676 0.021334561 5.6349686e-39 312 222
-0.0083213197 0.67799997 0.021397678 5.6349686e-39 313 222
-0.0071325595 0.67799997 0.021397678 6.6458794e-39 314 222
-0.0059437994 0.67799997 0.021397678 7.3834444e-39 315 222
-0.0047620535 0.67900002 0.021429239 7.4738576e-39 316 222
-0.0035715401 0.67900002 0.021429239 7.1976308e-39 317 222
-0.0023845332 0.68000001 0.0214608 7.1976252e-39 318 222
-0.0011957732 0.68199998 0.021523919 7.1054296e-39 319 222
0 0.68300003 0.02155548 7.2894453e-39 320 222
0.00119928 0.68400002 0.02158704 7.1972497e-39 321 222
0.0024055731 0.68599999 0.021650158 7.7479025e-39 322 222
0.0036136196 0.68699998 0.021681719 8.0248481e-39 323 222
0.0048391996 0.69 0.021776399 8.3925587e-39 324 222
0.0060489997 0.69 0.021776399 8.2078073e-39 325 222
0.0072693196 0.69099998 0.021807959 8.8478335e-39 326 222
0.0085054198 0.69300002 0.021871079 1.2627853e-38 327 222
-0.055892758 0.69300002 0.020656019 1.5030409e-38 274 223
-0.054677699 0.69300002 0.020656019 1.1803562e-38 275 223
-0.053462639 0.69300002 0.020656019 9.9589427e-39 276 223
-0.052096792 0.69099998 0.020596405 9.2213777e-39 277 223
-0.050664321 0.68800002 0.020506985 9.2206742e-39 278 223
-0.049386136 0.68699998 0.020477179 9.2206742e-39 279 223
-0.048181597 0.68699998 0.020477179 8.3927086e-39 280 223
-0.046908677 0.68599999 0.020447372 8.5774586e-39 281 223
-0.045572639 0.68400002 0.020387759 9.313223e-39 282 223
-0.044243611 0.68199998 0.020328145 9.1288317e-39 283 223
-0.042921599 0.68000001 0.020268533 8.5756607e-39 284 223
-0.041667968 0.67900002 0.020238725 8.3909107e-39 285 223
-0.040417835 0.67799997 0.020208918 7.9306543e-39 286 223
-0.039229076 0.67799997 0.020208918 7.3774805e-39 287 223
-0.037928104 0.676 0.020149305 7.1080668e-39 288 223
-0.036742851 0.676 0.020149305 8.9516207e-39 289 223
-0.035557602 0.676 0.020149305 1.0141837e-38 290 223
-0.034321502 0.67500001 0.020119499 8.4819559e-39 291 223
-0.033137999 0.67500001 0.020119499 6.4647447e-39 292 223
-0.031954501 0.67500001 0.020119499 6.0963223e-39 293 223
-0.030725412 0.67400002 0.020089693 5.6360659e-39 294 223
-0.029543666 0.67400002 0.020089693 4.9906965e-39 295 223
-0.02836192 0.67400002 0.020089693 5.2622779e-39 296 223
-0.027099518 0.67199999 0.020030079 5.2622779e-39 297 223
-0.025921278 0.67199999 0.020030079 5.4495194e-39 298 223
-0.024743039 0.67199999 0.020030079 5.7261077e-39 299 223
-0.023634933 0.67400002 0.020089693 6.1877907e-39 300 223
-0.022486499 0.67500001 0.020119499 5.6346183e-39 301 223
-0.021303 0.67500001 0.020119499 6.0001737e-39 302 223
-0.020119499 0.67500001 0.020119499 6.1845649e-39 303 223
-0.018935999 0.67500001 0.020119499 6.6473283e-39 304 223
-0.0177525 0.67500001 0.020119499 7.0157507e-39 305 223
-0.016569 0.67500001 0.020119499 7.3816465e-39 306 223
-0.0153855 0.67500001 0.020119499 7.1968966e-39 307 223
-0.014202001 0.67500001 0.020119499 7.0135773e-39 308 223
-0.0130185 0.67500001 0.020119499 6.7366359e-39 309 223
-0.011835 0.67500001 0.020119499 6.1866991e-39 310 223
-0.01066728 0.676 0.020149305 6.0945049e-39 311 223
-0.0094820261 0.676 0.020149305 5.7282391e-39 312 223
-0.0083213197 0.67799997 0.020208918 5.7282391e-39 313 223
-0.0071325595 0.67799997 0.020208918 6.5536823e-39 314 223
-0.0059437994 0.67799997 0.020208918 7.1068519e-39 315 223
-0.0047620535 0.67900002 0.020238725 7.7486368e-39 316 223
-0.0035715401 0.67900002 0.020238725 7.5638868e-39 317 223
-0.0023845332 0.68000001 0.020268533 7.2883789e-39 318 223
-0.0011957732 0.68199998 0.020328145 7.1961819e-39 319 223
0 0.68300003 0.020357953 7.01322e-39 320 223
0.00119928 0.68400002 0.020387759 7.1972525e-39 321 223
0.0024090798 0.68699998 0.020477179 7.5645931e-39 322 223
0.0036188802 0.68800002 0.020506985 7.84118e-39 323 223
0.0048391996 0.69 0.020566599 8.7595615e-39 324 223
0.0060577663 0.69099998 0.020596405 9.0361484e-39 325 223
0.0072903596 0.69300002 0.020656019 9.6772467e-39 326 223
0.0085054198 0.69300002 0.020656019 1.1981777e-38 327 223
-0.054756597 0.69400001 0.019469013 1.2171265e-38 275 224
-0.053462639 0.69300002 0.01944096 9.314295e-39 276 224
-0.052096792 0.69099998 0.019384852 8.1157518e-39 277 224
-0.050885238 0.69099998 0.019384852 8.7604177e-39 278 224
-0.049458027 0.68800002 0.019300694 9.0373648e-39 279 224
-0.048181597 0.68699998 0.019272638 9.1302765e-39 280 224
-0.046908677 0.68599999 0.019244585 9.2224721e-39 281 224
-0.045572639 0.68400002 0.01918848 9.6820055e-39 282 224
-0.044243611 0.68199998 0.019132372 9.4054186e-39 283 224
-0.043047838 0.68199998 0.019132372 8.5760237e-39 284 224
-0.041729335 0.68000001 0.019076265 7.7466231e-39 285 224
-0.040477451 0.67900002 0.019048214 7.8373866e-39 286 224
-0.039229076 0.67799997 0.019020159 7.3767672e-39 287 224
-0.038040318 0.67799997 0.019020159 7.106992e-39 288 224
-0.036742851 0.676 0.018964052 9.0431003e-39 289 224
-0.035557602 0.676 0.018964052 1.0509907e-38 290 224
-0.034321502 0.67500001 0.018935999 8.7585498e-39 291 224
-0.033137999 0.67500001 0.018935999 7.2909125e-39 292 224
-0.031954501 0.67500001 0.018935999 7.1068799e-39 293 224
-0.030771 0.67500001 0.018935999 5.9112206e-39 294 224
-0.0295875 0.67500001 0.018935999 5.3580482e-39 295 224
-0.02836192 0.67400002 0.018907947 5.7214568e-39 296 224
-0.027180174 0.67400002 0.018907947 5.9980451e-39 297 224
-0.025998428 0.67400002 0.018907947 5.9097759e-39 298 224
-0.024816679 0.67400002 0.018907947 6.2789185e-39 299 224
-0.023634933 0.67400002 0.018907947 6.5544236e-39 300 224
-0.022486499 0.67500001 0.018935999 6.5544236e-39 301 224
-0.021303 0.67500001 0.018935999 6.6451927e-39 302 224
-0.020119499 0.67500001 0.018935999 7.0139753e-39 303 224
-0.018935999 0.67500001 0.018935999 8.0274055e-39 304 224
-0.017778801 0.676 0.018964052 8.5805779e-39 305 224
-0.016569 0.67500001 0.018935999 8.5787646e-39 306 224
-0.0153855 0.67500001 0.018935999 8.1177865e-39 307 224
-0.014202001 0.67500001 0.018935999 7.7493375e-39 308 224
-0.013037786 0.676 0.018964052 7.564949e-39 309 224
-0.011852534 0.676 0.018964052 6.830265e-39 310 224
-0.01066728 0.676 0.018964052 6.5540411e-39 311 224
-0.0095100794 0.67799997 0.019020159 6.1874166e-39 312 224
-0.0083213197 0.67799997 0.019020159 6.0033868e-39 313 224
-0.0071430802 0.67900002 0.019048214 6.6458766e-39 314 224
-0.0059525664 0.67900002 0.019048214 6.8302692e-39 315 224
-0.0047690663 0.68000001 0.019076265 7.2887419e-39 316 224
-0.0035767998 0.68000001 0.019076265 7.1965462e-39 317 224
-0.0023915465 0.68199998 0.019132372 6.9203153e-39 318 224
-0.0011975267 0.68300003 0.019160427 6.9203153e-39 319 224
0 0.68400002 0.01918848 7.0132186e-39 320 224
0.0012027866 0.68599999 0.019244585 7.1972497e-39 321 224
0.0024125867 0.68800002 0.019300694 7.4731233e-39 322 224
0.0036188802 0.68800002 0.019300694 7.9341015e-39 323 224
0.0048391996 0.69 0.019356798 9.6790165e-39 324 224
0.0060577663 0.69099998 0.019384852 1.0139995e-38 325 224
0.0072903596 0.69300002 0.01944096 9.4049856e-39 326 224
0.0085054198 0.69300002 0.01944096 1.0603529e-38 327 224
-0.054756597 0.69400001 0.0182522 1.2263461e-38 275 225
-0.053462639 0.69300002 0.018225901 7.289591e-39 276 225
-0.05224758 0.69300002 0.018225901 4.9843402e-39 277 225
-0.050885238 0.69099998 0.0181733 6.9190289e-39 278 225
-0.049601797 0.69 0.018146999 8.0250177e-39 279 225
-0.048181597 0.68699998 0.018068098 9.2188778e-39 280 225
-0.046908677 0.68599999 0.018041799 9.5876617e-39 281 225
-0.045572639 0.68400002 0.0179892 9.4976198e-39 282 225
-0.044243611 0.68199998 0.017936599 9.4976198e-39 283 225
-0.043047838 0.68199998 0.017936599 8.6703717e-39 284 225
-0.041729335 0.68000001 0.017883999 8.2097523e-39 285 225
-0.040537067 0.68000001 0.017883999 8.3930645e-39 286 225
-0.039286941 0.67900002 0.017857701 8.0242834e-39 287 225
-0.038040318 0.67799997 0.0178314 8.6703591e-39 288 225
-0.036742851 0.676 0.017778801 1.032952e-38 289 225
-0.035557602 0.676 0.017778801 1.0602823e-38 290 225
-0.034372345 0.676 0.017778801 8.6667143e-39 291 225
-0.033137999 0.67500001 0.0177525 6.7370352e-39 292 225
-0.031954501 0.67500001 0.0177525 6.7370352e-39 293 225
-0.030771 0.67500001 0.0177525 6.0002017e-39 294 225
-0.0295875 0.67500001 0.0177525 5.3548323e-39 295 225
-0.028404001 0.67500001 0.0177525 5.9962486e-39 296 225
-0.027220501 0.67500001 0.0177525 6.9182063e-39 297 225
-0.026037 0.67500001 0.0177525 6.5551425e-39 298 225
-0.0248535 0.67500001 0.0177525 6.5551425e-39 299 225
-0.023669999 0.67500001 0.0177525 6.9221356e-39 300 225
-0.022519812 0.676 0.017778801 6.8299399e-39 301 225
-0.021334561 0.676 0.017778801 7.1040227e-39 302 225
-0.020149305 0.676 0.017778801 7.6571965e-39 303 225
-0.018964052 0.676 0.017778801 8.0277614e-39 304 225
-0.017778801 0.676 0.017778801 8.3961838e-39 305 225
-0.016593546 0.676 0.017778801 8.4894388e-39 306 225
-0.015408293 0.676 0.017778801 8.0284607e-39 307 225
-0.014223038 0.676 0.017778801 7.8422491e-39 308 225
-0.013037786 0.676 0.017778801 7.3816367e-39 309 225
-0.011852534 0.676 0.017778801 6.9217418e-39 310 225
-0.01066728 0.676 0.017778801 6.7373533e-39 311 225
-0.0095100794 0.67799997 0.0178314 6.1866991e-39 312 225
-0.0083213197 0.67799997 0.0178314 6.1866991e-39 313 225
-0.0071430802 0.67900002 0.017857701 6.3696526e-39 314 225
-0.0059613334 0.68000001 0.017883999 6.5543998e-39 315 225
-0.0047690663 0.68000001 0.017883999 7.1043366e-39 316 225
-0.0035767998 0.68000001 0.017883999 7.1043366e-39 317 225
-0.0023915465 0.68199998 0.017936599 6.8288301e-39 318 225
-0.0011975267 0.68300003 0.017962901 7.0132186e-39 319 225
0 0.68400002 0.0179892 7.0135773e-39 320 225
0.0012027866 0.68599999 0.018041799 7.197607e-39 321 225
0.0024125867 0.68800002 0.0180944 7.288023e-39 322 225
0.0036188802 0.68800002 0.0180944 8.4865648e-39 323 225
0.0048391996 0.69 0.018146999 1.0783939e-38 324 225
0.0060489997 0.69 0.018146999 1.0507351e-38 325 225
0.0072693196 0.69099998 0.0181733 7.7515781e-39 326 225
0.0085176928 0.69400001 0.0182522 9.2267082e-39 327 225
-0.056134716 0.69599998 0.017084479 1.5399191e-38 274 226
-0.054756597 0.69400001 0.017035386 1.2541127e-38 275 226
-0.053462639 0.69300002 0.01701084 8.4856105e-39 276 226
-0.05224758 0.69300002 0.01701084 5.627546e-39 277 226
-0.051032521 0.69300002 0.01701084 6.7317636e-39 278 226
-0.049673684 0.69099998 0.016961746 7.6537213e-39 279 226
-0.048251733 0.68800002 0.016888106 7.7473574e-39 280 226
-0.046977058 0.68699998 0.01686356 8.2086957e-39 281 226
-0.045705888 0.68599999 0.016839013 9.3150278e-39 282 226
-0.044308487 0.68300003 0.016765373 1.0144428e-38 283 226
-0.043047838 0.68199998 0.016740825 1.0234453e-38 284 226
-0.041852064 0.68199998 0.016740825 1.0050062e-38 285 226
-0.040537067 0.68000001 0.016691733 9.6805664e-39 286 226
-0.039286941 0.67900002 0.016667187 9.3114251e-39 287 226
-0.038096428 0.67900002 0.016667187 8.8551161e-39 288 226
-0.036851559 0.67799997 0.016642639 1.0699029e-38 289 226
-0.035557602 0.676 0.016593546 1.0421314e-38 290 226
-0.034372345 0.676 0.016593546 8.3004555e-39 291 226
-0.033187091 0.676 0.016593546 6.8277875e-39 292 226
-0.032001842 0.676 0.016593546 6.551202e-39 293 226
-0.030816587 0.676 0.016593546 6.0880757e-39 294 226
-0.0295875 0.67500001 0.016569 6.0880757e-39 295 226
-0.028404001 0.67500001 0.016569 6.1827951e-39 296 226
-0.027220501 0.67500001 0.016569 6.8281645e-39 297 226
-0.026037 0.67500001 0.016569 6.8299399e-39 298 226
-0.0248535 0.67500001 0.016569 7.0143312e-39 299 226
-0.023669999 0.67500001 0.016569 7.0132718e-39 300 226
-0.022519812 0.676 0.016593546 6.7366849e-39 301 226
-0.021334561 0.676 0.016593546 7.1040381e-39 302 226
-0.020149305 0.676 0.016593546 7.3809851e-39 303 226
-0.018964052 0.676 0.016593546 7.844459e-39 304 226
-0.017778801 0.676 0.016593546 8.029209e-39 305 226
-0.016593546 0.676 0.016593546 8.3965243e-39 306 226
-0.015408293 0.676 0.016593546 7.9355462e-39 307 226
-0.014223038 0.676 0.016593546 8.1173969e-39 308 226
-0.013076359 0.67799997 0.016642639 7.8408142e-39 309 226
-0.011887599 0.67799997 0.016642639 7.381278e-39 310 226
-0.010698839 0.67799997 0.016642639 7.1046953e-39 311 226
-0.0095100794 0.67799997 0.016642639 6.4625643e-39 312 226
-0.0083335936 0.67900002 0.016667187 6.3700113e-39 313 226
-0.0071535995 0.68000001 0.016691733 6.0937874e-39 314 226
-0.0059613334 0.68000001 0.016691733 6.1863404e-39 315 226
-0.004783093 0.68199998 0.016740825 6.1859816e-39 316 226
-0.00358732 0.68199998 0.016740825 6.2781759e-39 317 226
-0.0023915465 0.68199998 0.016740825 7.0121424e-39 318 226
-0.0011975267 0.68300003 0.016765373 7.1968895e-39 319 226
0 0.68400002 0.016789921 7.7482613e-39 320 226
0.0012027866 0.68599999 0.016839013 7.7482613e-39 321 226
0.0024125867 0.68800002 0.016888106 8.2989533e-39 322 226
0.0036188802 0.68800002 0.016888106 9.5896908e-39 323 226
0.0048391996 0.69 0.0169372 1.1153463e-38 324 226
0.0060489997 0.69 0.0169372 9.8627239e-39 325 226
0.0072693196 0.69099998 0.016961746 5.7265183e-39 326 226
-0.055973411 0.69400001 0.015818574 1.5306995e-38 274 227
-0.054756597 0.69400001 0.015818574 1.3002105e-38 275 227
-0.053462639 0.69300002 0.015795778 1.0327008e-38 276 227
-0.05224758 0.69300002 0.015795778 7.8377272e-39 277 227
-0.051032521 0.69300002 0.015795778 7.2860149e-39 278 227
-0.049817458 0.69300002 0.015795778 6.6406455e-39 279 227
-0.04846213 0.69099998 0.015750192 7.3742603e-39 280 227
-0.046977058 0.68699998 0.015659019 7.9274341e-39 281 227
-0.045705888 0.68599999 0.015636226 7.7487909e-39 282 227
-0.044308487 0.68300003 0.015567848 9.4083109e-39 283 227
-0.043047838 0.68199998 0.015545053 1.1799268e-38 284 227
-0.041852064 0.68199998 0.015545053 1.2075495e-38 285 227
-0.040537067 0.68000001 0.015499466 1.1892533e-38 286 227
-0.039344799 0.68000001 0.015499466 1.1708142e-38 287 227
-0.038096428 0.67900002 0.015476674 1.088305e-38 288 227
-0.036851559 0.67799997 0.015453878 1.1159637e-38 289 227
-0.0356628 0.67799997 0.015453878 1.0146186e-38 290 227
-0.034372345 0.676 0.015408293 8.5792186e-39 291 227
-0.033187091 0.676 0.015408293 8.483402e-39 292 227
-0.032001842 0.676 0.015408293 8.1149783e-39 293 227
-0.030816587 0.676 0.015408293 6.179956e-39 294 227
-0.029631332 0.676 0.015408293 6.2721517e-39 295 227
-0.028404001 0.67500001 0.0153855 6.3693724e-39 296 227
-0.027220501 0.67500001 0.0153855 6.5537636e-39 297 227
-0.026037 0.67500001 0.0153855 6.7391988e-39 298 227
-0.0248535 0.67500001 0.0153855 6.7391988e-39 299 227
-0.023669999 0.67500001 0.0153855 6.8303295e-39 300 227
-0.022519812 0.676 0.015408293 6.5537412e-39 301 227
-0.021334561 0.676 0.015408293 7.0104047e-39 302 227
-0.020149305 0.676 0.015408293 7.6557742e-39 303 227
-0.018964052 0.676 0.015408293 7.9344896e-39 304 227
-0.017778801 0.676 0.015408293 8.3032721e-39 305 227
-0.016593546 0.676 0.015408293 8.394372e-39 306 227
-0.015408293 0.676 0.015408293 7.9333952e-39 307 227
-0.014265119 0.67799997 0.015453878 8.1170466e-39 308 227
-0.013076359 0.67799997 0.015453878 7.840101e-39 309 227
-0.011887599 0.67799997 0.015453878 7.013936e-39 310 227
-0.010698839 0.67799997 0.015453878 6.8295476e-39 311 227
-0.0095100794 0.67799997 0.015453878 6.1866991e-39 312 227
-0.0083335936 0.67900002 0.015476674 6.1866991e-39 313 227
-0.0071535995 0.68000001 0.015499466 6.3700113e-39 314 227
-0.0059613334 0.68000001 0.015499466 6.3700113e-39 315 227
-0.004783093 0.68199998 0.015545053 6.3692939e-39 316 227
-0.00358732 0.68199998 0.015545053 6.5536823e-39 317 227
-0.0023915465 0.68199998 0.015545053 7.1961721e-39 318 227
-0.0011975267 0.68300003 0.015567848 7.4727548e-39 319 227
0 0.68599999 0.015636226 7.6567887e-39 320 227
0.0012045399 0.68699998 0.015659019 8.0252111e-39 321 227
0.0024125867 0.68800002 0.015681813 8.9432522e-39 322 227
0.0036188802 0.68800002 0.015681813 1.0141795e-38 323 227
0.0048391996 0.69 0.015727401 1.1061619e-38 324 227
0.0060489997 0.69 0.015727401 8.7567295e-39 325 227
0.0072693196 0.69099998 0.015750192 4.804192e-39 326 227
-0.055973411 0.69400001 0.01460176 1.5399191e-38 274 228
-0.054677699 0.69300002 0.014580719 1.3186496e-38 275 228
-0.053462639 0.69300002 0.014580719 1.0144063e-38 276 228
-0.05224758 0.69300002 0.014580719 8.023203e-39 277 228
-0.051032521 0.69300002 0.014580719 8.2065251e-39 278 228
-0.049673684 0.69099998 0.014538639 8.3909163e-39 279 228
-0.04846213 0.69099998 0.014538639 7.7444707e-39 280 228
-0.047045439 0.68800002 0.014475521 7.6522751e-39 281 228
-0.045705888 0.68599999 0.01443344 6.7324908e-39 282 228
-0.044308487 0.68300003 0.014370319 7.1012719e-39 283 228
-0.043110959 0.68300003 0.014370319 8.3919953e-39 284 228
-0.041852064 0.68199998 0.01434928 8.9451691e-39 285 228
-0.040656291 0.68199998 0.01434928 9.866031e-39 286 228
-0.039344799 0.68000001 0.014307199 1.0327008e-38 287 228
-0.038152531 0.68000001 0.014307199 1.0328804e-38 288 228
-0.036905911 0.67900002 0.01428616 1.0697585e-38 289 228
-0.0356628 0.67799997 0.014265119 1.0051847e-38 290 228
-0.034474038 0.67799997 0.014265119 9.221728e-39 291 228
-0.033187091 0.676 0.014223038 9.4061024e-39 292 228
-0.032001842 0.676 0.014223038 9.5904937e-39 293 228
-0.030816587 0.676 0.014223038 9.0355192e-39 294 228
-0.029631332 0.676 0.014223038 8.0217261e-39 295 228
-0.028446076 0.676 0.014223038 7.7487069e-39 296 228
-0.027260827 0.676 0.014223038 7.6565112e-39 297 228
-0.026037 0.67500001 0.014202001 7.3820543e-39 298 228
-0.0248535 0.67500001 0.014202001 7.2898587e-39 299 228
-0.023669999 0.67500001 0.014202001 7.1058402e-39 300 228
-0.022519812 0.676 0.014223038 6.7374164e-39 301 228
-0.021334561 0.676 0.014223038 6.8285302e-39 302 228
-0.020149305 0.676 0.014223038 6.9207258e-39 303 228
-0.018964052 0.676 0.014223038 6.739552e-39 304 228
-0.0178314 0.67799997 0.014265119 6.739552e-39 305 228
-0.016642639 0.67799997 0.014265119 7.2891202e-39 306 228
-0.015453878 0.67799997 0.014265119 7.1047289e-39 307 228
-0.014265119 0.67799997 0.014265119 7.6571572e-39 308 228
-0.013076359 0.67799997 0.014265119 7.4731261e-39 309 228
-0.011887599 0.67799997 0.014265119 7.1983245e-39 310 228
-0.010698839 0.67799997 0.014265119 6.8295476e-39 311 228
-0.009524107 0.67900002 0.01428616 6.1866991e-39 312 228
-0.0083458666 0.68000001 0.014307199 6.0945049e-39 313 228
-0.00717464 0.68199998 0.01434928 5.9108339e-39 314 228
-0.005978866 0.68199998 0.01434928 5.9108339e-39 315 228
-0.004783093 0.68199998 0.01434928 6.3696526e-39 316 228
-0.00358732 0.68199998 0.01434928 6.5540411e-39 317 228
-0.0023950534 0.68300003 0.014370319 7.2890838e-39 318 228
-0.00119928 0.68400002 0.01439136 7.2890838e-39 319 228
0 0.68699998 0.014454478 8.0237762e-39 320 228
0.0012062934 0.68800002 0.014475521 8.3000029e-39 321 228
0.0024125867 0.68800002 0.014475521 9.8641337e-39 322 228
0.0036293997 0.69 0.014517599 1.0509503e-38 323 228
0.0048391996 0.69 0.014517599 1.0418396e-38 324 228
0.0060489997 0.69 0.014517599 7.929473e-39 325 228
0.0072693196 0.69099998 0.014538639 5.2597626e-39 326 228
-0.055892758 0.69300002 0.01336566 1.5582506e-38 274 229
-0.054677699 0.69300002 0.01336566 1.3462007e-38 275 229
-0.053462639 0.69300002 0.01336566 9.9589483e-39 276 229
-0.05224758 0.69300002 0.01336566 7.4696663e-39 277 229
-0.051032521 0.69300002 0.01336566 8.2997969e-39 278 229
-0.049673684 0.69099998 0.013327086 8.8529707e-39 279 229
-0.04846213 0.69099998 0.013327086 8.8511686e-39 280 229
-0.047045439 0.68800002 0.013269227 8.2057992e-39 281 229
-0.045772515 0.68699998 0.013249939 6.73356e-39 282 229
-0.04437336 0.68400002 0.01319208 5.9037993e-39 283 229
-0.043110959 0.68300003 0.013172794 5.720134e-39 284 229
-0.041852064 0.68199998 0.013153506 5.2595145e-39 285 229
-0.040656291 0.68199998 0.013153506 5.6257733e-39 286 229
-0.039344799 0.68000001 0.013114933 6.1789471e-39 287 229
-0.038152531 0.68000001 0.013114933 6.6417203e-39 288 229
-0.036905911 0.67900002 0.013095647 7.194534e-39 289 229
-0.035715401 0.67900002 0.013095647 8.5738615e-39 290 229
-0.034474038 0.67799997 0.013076359 8.9426454e-39 291 229
-0.033285279 0.67799997 0.013076359 9.0380654e-39 292 229
-0.032001842 0.676 0.013037786 9.5912392e-39 293 229
-0.030816587 0.676 0.013037786 1.0509949e-38 294 229
-0.029631332 0.676 0.013037786 9.9567749e-39 295 229
-0.028446076 0.676 0.013037786 8.7614197e-39 296 229
-0.027260827 0.676 0.013037786 8.1160503e-39 297 229
-0.026075572 0.676 0.013037786 7.7493921e-39 298 229
-0.024890319 0.676 0.013037786 7.5650008e-39 299 229
-0.023705067 0.676 0.013037786 7.2884336e-39 300 229
-0.022519812 0.676 0.013037786 7.1040409e-39 301 229
-0.021397678 0.67799997 0.013076359 6.64629e-39 302 229
-0.020208918 0.67799997 0.013076359 6.5537356e-39 303 229
-0.019020159 0.67799997 0.013076359 6.8299399e-39 304 229
-0.0178314 0.67799997 0.013076359 6.7373856e-39 305 229
-0.016642639 0.67799997 0.013076359 7.1951267e-39 306 229
-0.015453878 0.67799997 0.013076359 7.1951267e-39 307 229
-0.014265119 0.67799997 0.013076359 7.4731359e-39 308 229
-0.013095647 0.67900002 0.013095647 7.3809403e-39 309 229
-0.011905133 0.67900002 0.013095647 7.0135773e-39 310 229
-0.010714619 0.67900002 0.013095647 6.7369946e-39 311 229
-0.009524107 0.67900002 0.013095647 6.1866991e-39 312 229
-0.0083704125 0.68199998 0.013153506 6.0945049e-39 313 229
-0.00717464 0.68199998 0.013153506 6.0941461e-39 314 229
-0.0059876335 0.68300003 0.013172794 6.0941461e-39 315 229
-0.0047901068 0.68300003 0.013172794 6.4611294e-39 316 229
-0.0035925799 0.68300003 0.013172794 6.8295476e-39 317 229
-0.0023985601 0.68400002 0.01319208 7.3809249e-39 318 229
-0.0012027866 0.68599999 0.013230653 7.4731205e-39 319 229
0 0.68699998 0.013249939 7.7472047e-39 320 229
0.0012062934 0.68800002 0.013269227 8.1159872e-39 321 229
0.0024125867 0.68800002 0.013269227 1.0416597e-38 322 229
0.0036293997 0.69 0.0133078 1.0508794e-38 323 229
0.0048391996 0.69 0.0133078 9.4060422e-39 324 229
0.0060489997 0.69 0.0133078 7.469934e-39 325 229
0.0072693196 0.69099998 0.013327086 5.8111385e-39 326 229
0.0085176928 0.69400001 0.013384946 1.0236169e-38 327 229
-0.055892758 0.69300002 0.012150601 1.5306642e-38 274 230
-0.054677699 0.69300002 0.012150601 1.3278339e-38 275 230
-0.053462639 0.69300002 0.012150601 9.5908889e-39 276 230
-0.05224758 0.69300002 0.012150601 6.7324642e-39 277 230
-0.051032521 0.69300002 0.012150601 8.2065251e-39 278 230
-0.049673684 0.69099998 0.012115533 9.0362858e-39 279 230
-0.04846213 0.69099998 0.012115533 9.4054186e-39 280 230
-0.047045439 0.68800002 0.012062933 9.8663968e-39 281 230
-0.045772515 0.68699998 0.012045399 8.5781761e-39 282 230
-0.04437336 0.68400002 0.0119928 8.1175567e-39 283 230
-0.043174081 0.68400002 0.0119928 9.0362802e-39 284 230
-0.041852064 0.68199998 0.011957732 9.3132258e-39 285 230
-0.040656291 0.68199998 0.011957732 9.0337648e-39 286 230
-0.039460517 0.68199998 0.011957732 8.0196129e-39 287 230
-0.038152531 0.68000001 0.011922667 6.6409972e-39 288 230
-0.036960267 0.68000001 0.011922667 6.271856e-39 289 230
-0.035715401 0.67900002 0.011905133 8.0185367e-39 290 230
-0.034474038 0.67799997 0.011887599 8.7561017e-39 291 230
-0.033285279 0.67799997 0.011887599 8.7600548e-39 292 230
-0.03209652 0.67799997 0.011887599 9.1284786e-39 293 230
-0.030907756 0.67799997 0.011887599 9.4961723e-39 294 230
-0.029718997 0.67799997 0.011887599 9.1270296e-39 295 230
-0.028446076 0.676 0.011852534 8.4848524e-39 296 230
-0.027260827 0.676 0.011852534 8.3001024e-39 297 230
-0.026075572 0.676 0.011852534 7.9338058e-39 298 230
-0.024890319 0.676 0.011852534 7.4728276e-39 299 230
-0.023705067 0.676 0.011852534 7.1036906e-39 300 230
-0.022519812 0.676 0.011852534 7.1036906e-39 301 230
-0.021397678 0.67799997 0.011887599 6.5537412e-39 302 230
-0.020208918 0.67799997 0.011887599 6.4611868e-39 303 230
-0.019020159 0.67799997 0.011887599 6.3693303e-39 304 230
-0.0178314 0.67799997 0.011887599 6.3693303e-39 305 230
-0.016642639 0.67799997 0.011887599 6.6434033e-39 306 230
-0.015453878 0.67799997 0.011887599 6.9196314e-39 307 230
-0.014265119 0.67799997 0.011887599 7.1972749e-39 308 230
-0.013095647 0.67900002 0.011905133 7.1972749e-39 309 230
-0.011905133 0.67900002 0.011905133 6.9213831e-39 310 230
-0.010714619 0.67900002 0.011905133 6.7369946e-39 311 230
-0.0095381327 0.68000001 0.011922667 6.1866991e-39 312 230
-0.0083704125 0.68199998 0.011957732 6.0945049e-39 313 230
-0.00717464 0.68199998 0.011957732 6.1856229e-39 314 230
-0.0059876335 0.68300003 0.011975267 6.3700113e-39 315 230
-0.0047901068 0.68300003 0.011975267 6.5529649e-39 316 230
-0.00359784 0.68400002 0.0119928 6.9217418e-39 317 230
-0.0024055731 0.68599999 0.012027865 7.3805717e-39 318 230
-0.0012027866 0.68599999 0.012027865 7.4731261e-39 319 230
