# .PCD v.7 - Point Cloud Data file format
FIELDS x y z rgb imX imY
SIZE 4 4 4 4 4 4
TYPE F F F F F F
COUNT 1 1 1 1 1 1
WIDTH 837
HEIGHT 1
VIEWPOINT 0 0 0 1 0 0 0
POINTS 837
DATA ascii
0.015294326 0.671 -0.030588651 7.4825316e-39 333 266
0.016470812 0.671 -0.030588651 6.6570323e-39 334 266
0.017620999 0.67000002 -0.030543067 7.0254561e-39 335 266
0.018739626 0.66799998 -0.030451892 8.2221846e-39 336 266
0.019910853 0.66799998 -0.030451892 7.9459564e-39 337 266
0.021082079 0.66799998 -0.030451892 6.9328961e-39 338 266
0.022253305 0.66799998 -0.030451892 7.1172888e-39 339 266
0.023389466 0.667 -0.030406304 6.9322039e-39 340 266
0.024558939 0.667 -0.030406304 6.5637801e-39 341 266
0.02568984 0.66600001 -0.030360719 8.4977808e-39 342 266
0.026857559 0.66600001 -0.030360719 1.1263651e-38 343 266
0.028067358 0.667 -0.030406304 1.3927301e-38 344 266
0.029236831 0.667 -0.030406304 1.4019496e-38 345 266
0.030406304 0.667 -0.030406304 1.4110595e-38 346 266
0.03157578 0.667 -0.030406304 1.3096802e-38 347 266
0.032745253 0.667 -0.030406304 1.1438997e-38 348 266
0.033914726 0.667 -0.030406304 9.6872786e-39 349 266
0.035136797 0.66799998 -0.030451892 8.8617737e-39 350 266
0.036308024 0.66799998 -0.030451892 9.0461649e-39 351 266
0.037479252 0.66799998 -0.030451892 8.678474e-39 352 266
0.038650475 0.66799998 -0.030451892 8.678474e-39 353 266
0.039940935 0.67000002 -0.030543067 8.4948114e-39 354 266
0.041115668 0.67000002 -0.030543067 8.0338333e-39 355 266
0.042290401 0.67000002 -0.030543067 6.2868205e-39 356 266
0.043530006 0.671 -0.030588651 6.1946248e-39 357 266
0.044906374 0.67400002 -0.030725412 7.8516869e-39 358 266
0.0461565 0.67500001 -0.030771 9.3268156e-39 359 266
0.047550395 0.67799997 -0.030907756 1.1715312e-38 360 266
0.048739154 0.67799997 -0.030907756 1.2452878e-38 361 266
0.050001562 0.67900002 -0.030953348 1.3369808e-38 362 266
0.051267464 0.68000001 -0.030998932 1.3185777e-38 363 266
0.052459732 0.68000001 -0.030998932 1.3735703e-38 364 266
0.053652 0.68000001 -0.030998932 1.4288518e-38 365 266
0.054844268 0.68000001 -0.030998932 1.4566181e-38 366 266
0.056201346 0.68199998 -0.031090107 1.5672889e-38 367 266
0.05739712 0.68199998 -0.031090107 1.7422087e-38 368 266
-0.0085667865 0.69800001 -0.033043321 1.9450035e-38 313 267
-0.0073429602 0.69800001 -0.033043321 1.8622088e-38 314 267
-0.0061103669 0.69700003 -0.03299598 1.5672188e-38 315 267
-0.0048391996 0.69 -0.032664597 1.447725e-38 316 267
-0.0036293997 0.69 -0.032664597 1.4661641e-38 317 267
-0.0024125867 0.68800002 -0.032569919 1.3925507e-38 318 267
-0.0012062934 0.68800002 -0.032569919 1.3648919e-38 319 267
0 0.68699998 -0.032522578 1.2915975e-38 320 267
0.0012027866 0.68599999 -0.032475237 1.1717791e-38 321 267
0.0023950534 0.68300003 -0.032333218 1.1074571e-38 322 267
0.0035925799 0.68300003 -0.032333218 1.2457506e-38 323 267
0.004783093 0.68199998 -0.032285877 1.2089859e-38 324 267
0.0059613334 0.68000001 -0.032191198 1.2735229e-38 325 267
0.0071325595 0.67799997 -0.03209652 1.4572693e-38 326 267
0.0082967728 0.676 -0.032001842 1.5125866e-38 327 267
0.0094820261 0.676 -0.032001842 1.4206421e-38 328 267
0.0106515 0.67500001 -0.031954501 1.2915682e-38 329 267
0.011835 0.67500001 -0.031954501 7.1209616e-39 330 267
0.012999214 0.67400002 -0.03190716 4.2625369e-39 331 267
0.01413888 0.67199999 -0.031812478 5.0954701e-39 332 267
0.01531712 0.67199999 -0.031812478 6.1092633e-39 333 267
0.016470812 0.671 -0.031765141 7.9463236e-39 334 267
0.0176473 0.671 -0.031765141 8.0385192e-39 335 267
0.018795732 0.67000002 -0.0317178 8.2236195e-39 336 267
0.019970467 0.67000002 -0.0317178 8.0388695e-39 337 267
0.0211452 0.67000002 -0.0317178 8.0381535e-39 338 267
0.022319933 0.67000002 -0.0317178 7.2083914e-39 339 267
0.023424532 0.66799998 -0.031623118 8.4048383e-39 340 267
0.02459576 0.66799998 -0.031623118 1.1447653e-38 341 267
0.025728412 0.667 -0.03157578 1.3284082e-38 342 267
0.026897885 0.667 -0.03157578 1.3744702e-38 343 267
0.028109439 0.66799998 -0.031623118 1.3926948e-38 344 267
0.029236831 0.667 -0.03157578 1.3558165e-38 345 267
0.030406304 0.667 -0.03157578 1.3926215e-38 346 267
0.03157578 0.667 -0.03157578 1.4110247e-38 347 267
0.032745253 0.667 -0.03157578 1.4108768e-38 348 267
0.033965573 0.66799998 -0.031623118 1.2448886e-38 349 267
0.035136797 0.66799998 -0.031623118 9.9660151e-39 350 267
0.036308024 0.66799998 -0.031623118 8.8596661e-39 351 267
0.037479252 0.66799998 -0.031623118 8.1267674e-39 352 267
0.038650475 0.66799998 -0.031623118 8.8643324e-39 353 267
0.039940935 0.67000002 -0.0317178 9.1384376e-39 354 267
0.041177034 0.671 -0.031765141 9.2306332e-39 355 267
0.042353518 0.671 -0.031765141 9.7845539e-39 356 267
0.043594878 0.67199999 -0.031812478 1.0614315e-38 357 267
0.044972997 0.67500001 -0.031954501 1.2358868e-38 358 267
0.046361636 0.67799997 -0.03209652 1.1713499e-38 359 267
0.047620531 0.67900002 -0.032143861 9.9614468e-39 360 267
0.048811045 0.67900002 -0.032143861 1.1805359e-38 361 267
0.050001562 0.67900002 -0.032143861 1.3001396e-38 362 267
0.051267464 0.68000001 -0.032191198 1.2263829e-38 363 267
0.052459732 0.68000001 -0.032191198 1.2814472e-38 364 267
0.053652 0.68000001 -0.032191198 1.4012657e-38 365 267
0.055005573 0.68199998 -0.032285877 1.4382153e-38 366 267
0.056283753 0.68300003 -0.032333218 1.5580696e-38 367 267
0.057481278 0.68300003 -0.032333218 1.7606476e-38 368 267
-0.0086281532 0.70300001 -0.034512613 1.9450035e-38 313 268
-0.0073639993 0.69999999 -0.034365334 1.8529889e-38 314 268
-0.006119133 0.69800001 -0.034267146 1.5579989e-38 315 268
-0.0048953067 0.69800001 -0.034267146 1.4475813e-38 316 268
-0.0036293997 0.69 -0.0338744 1.4752039e-38 317 268
-0.0024195998 0.69 -0.0338744 1.420174e-38 318 268
-0.0012097999 0.69 -0.0338744 1.4109544e-38 319 268
0 0.68800002 -0.033776212 1.3468448e-38 320 268
0.0012027866 0.68599999 -0.033678025 1.2269905e-38 321 268
0.0023985601 0.68400002 -0.033579841 1.0798725e-38 322 268
0.0035925799 0.68300003 -0.033530746 1.218166e-38 323 268
0.0047901068 0.68300003 -0.033530746 1.0891695e-38 324 268
0.005978866 0.68199998 -0.03348165 9.6009558e-39 325 268
0.0071535995 0.68000001 -0.033383466 9.6942528e-39 326 268
0.0083213197 0.67799997 -0.033285279 1.1353415e-38 327 268
0.0094820261 0.676 -0.033187091 1.3102229e-38 328 268
0.01066728 0.676 -0.033187091 1.2549055e-38 329 268
0.011835 0.67500001 -0.033137999 1.0797977e-38 330 268
0.012999214 0.67400002 -0.033088908 8.3086966e-39 331 268
0.01413888 0.67199999 -0.03299072 7.5779124e-39 332 268
0.01531712 0.67199999 -0.03299072 8.3154788e-39 333 268
0.01649536 0.67199999 -0.03299072 8.315832e-39 334 268
0.0176473 0.671 -0.032941625 8.4080276e-39 335 268
0.018823786 0.671 -0.032941625 9.2341729e-39 336 268
0.020000271 0.671 -0.032941625 9.0497803e-39 337 268
0.021176759 0.671 -0.032941625 7.9463236e-39 338 268
0.022353247 0.671 -0.032941625 7.8541266e-39 339 268
0.023494666 0.67000002 -0.032892533 1.0152255e-38 340 268
0.024669399 0.67000002 -0.032892533 1.2457506e-38 341 268
0.025844134 0.67000002 -0.032892533 1.2916389e-38 342 268
0.027018867 0.67000002 -0.032892533 1.2732358e-38 343 268
0.028235679 0.671 -0.032941625 1.309791e-38 344 268
0.029368332 0.67000002 -0.032892533 1.2821322e-38 345 268
0.030543067 0.67000002 -0.032892533 1.245325e-38 346 268
0.0317178 0.67000002 -0.032892533 1.2637641e-38 347 268
0.032892533 0.67000002 -0.032892533 1.2454313e-38 348 268
0.034118112 0.671 -0.032941625 1.1532717e-38 349 268
0.0352946 0.671 -0.032941625 1.0611065e-38 350 268
0.036525436 0.67199999 -0.03299072 9.7816644e-39 351 268
0.037647571 0.671 -0.032941625 1.0150427e-38 352 268
0.038824059 0.671 -0.032941625 1.0795797e-38 353 268
0.040060159 0.67199999 -0.03299072 1.1345413e-38 354 268
0.041238401 0.67199999 -0.03299072 1.1898586e-38 355 268
0.042416636 0.67199999 -0.03299072 1.2449632e-38 356 268
0.043789499 0.67500001 -0.033137999 1.3187197e-38 357 268
0.044972997 0.67500001 -0.033137999 1.337124e-38 358 268
0.046430022 0.67900002 -0.033334374 1.2449284e-38 359 268
0.047690667 0.68000001 -0.033383466 1.0511398e-38 360 268
0.048882935 0.68000001 -0.033383466 1.0880179e-38 361 268
0.050075196 0.68000001 -0.033383466 1.0422087e-38 362 268
0.051267464 0.68000001 -0.033383466 1.060648e-38 363 268
0.052614026 0.68199998 -0.03348165 1.2536457e-38 364 268
0.053809796 0.68199998 -0.03348165 1.4011588e-38 365 268
0.055005573 0.68199998 -0.03348165 1.4565468e-38 366 268
0.056283753 0.68300003 -0.033530746 1.5948402e-38 367 268
0.057481278 0.68300003 -0.033530746 1.7606832e-38 368 268
-0.0086281532 0.70300001 -0.035745207 1.954259e-38 313 269
-0.0073639993 0.69999999 -0.035592664 1.8529889e-38 314 269
-0.0061366665 0.69999999 -0.035592664 1.5487792e-38 315 269
-0.0049093333 0.69999999 -0.035592664 1.4383617e-38 316 269
-0.00366622 0.69700003 -0.035440128 1.4752039e-38 317 269
-0.0024441467 0.69700003 -0.035440128 1.4293582e-38 318 269
-0.00121506 0.69300002 -0.035236739 1.4293582e-38 319 269
0 0.69 -0.035084199 1.3929799e-38 320 269
0.0012045399 0.68699998 -0.034931656 1.2454669e-38 321 269
0.0024055731 0.68599999 -0.034880809 1.042996e-38 322 269
0.00359784 0.68400002 -0.03477912 1.208948e-38 323 269
0.0047901068 0.68300003 -0.034728274 1.2179216e-38 324 269
0.005978866 0.68199998 -0.034677424 6.8318681e-39 325 269
0.0071535995 0.68000001 -0.034575731 1.5918372e-39 326 269
0.0083213197 0.67799997 -0.034474038 4.0811178e-39 327 269
0.0095100794 0.67799997 -0.034474038 1.0791593e-38 328 269
0.01066728 0.676 -0.034372345 1.4295387e-38 329 269
0.011852534 0.676 -0.034372345 1.4296083e-38 330 269
0.013037786 0.676 -0.034372345 1.3650715e-38 331 269
0.01418096 0.67400002 -0.034270655 1.309932e-38 332 269
0.015362706 0.67400002 -0.034270655 1.309932e-38 333 269
0.016544454 0.67400002 -0.034270655 1.2272058e-38 334 269
0.017673599 0.67199999 -0.034168959 1.1534493e-38 335 269
0.018851839 0.67199999 -0.034168959 1.0431723e-38 336 269
0.020030079 0.67199999 -0.034168959 9.6941562e-39 337 269
0.021208318 0.67199999 -0.034168959 8.9594596e-39 338 269
0.022386558 0.67199999 -0.034168959 9.3282435e-39 339 269
0.023564799 0.67199999 -0.034168959 1.1349378e-38 340 269
0.024743039 0.67199999 -0.034168959 1.1902552e-38 341 269
0.025921278 0.67199999 -0.034168959 1.1165375e-38 342 269
0.027099518 0.67199999 -0.034168959 1.0796953e-38 343 269
0.02827776 0.67199999 -0.034168959 1.0886995e-38 344 269
0.029455997 0.67199999 -0.034168959 1.0886995e-38 345 269
0.030634239 0.67199999 -0.034168959 1.042781e-38 346 269
0.031812478 0.67199999 -0.034168959 1.0520007e-38 347 269
0.03299072 0.67199999 -0.034168959 1.079695e-38 348 269
0.034168959 0.67199999 -0.034168959 1.1165731e-38 349 269
0.035452399 0.67400002 -0.034270655 1.1900051e-38 350 269
0.036634147 0.67400002 -0.034270655 1.2084442e-38 351 269
0.037815895 0.67400002 -0.034270655 1.2726574e-38 352 269
0.039055496 0.67500001 -0.034321502 1.2726574e-38 353 269
0.040298611 0.676 -0.034372345 1.2633673e-38 354 269
0.041483864 0.676 -0.034372345 1.3647823e-38 355 269
0.042795356 0.67799997 -0.034474038 1.4198124e-38 356 269
0.044048995 0.67900002 -0.034524884 1.4014092e-38 357 269
0.045239504 0.67900002 -0.034524884 1.3646748e-38 358 269
0.046498399 0.68000001 -0.034575731 1.3093933e-38 359 269
0.047830928 0.68199998 -0.034677424 1.0787983e-38 360 269
0.049026705 0.68199998 -0.034677424 1.0050059e-38 361 269
0.050222475 0.68199998 -0.034677424 8.1168476e-39 362 269
0.051418249 0.68199998 -0.034677424 9.0388025e-39 363 269
0.052614026 0.68199998 -0.034677424 1.2168764e-38 364 269
0.053809796 0.68199998 -0.034677424 1.3736448e-38 365 269
0.055086225 0.68300003 -0.034728274 1.4566186e-38 366 269
0.056283753 0.68300003 -0.034728274 1.5856925e-38 367 269
-0.0086404262 0.704 -0.037030395 1.9725899e-38 313 270
-0.0073639993 0.69999999 -0.036819998 1.8345858e-38 314 270
-0.0061366665 0.69999999 -0.036819998 1.5395597e-38 315 270
-0.0048953067 0.69800001 -0.0367148 1.4566576e-38 316 270
-0.00366622 0.69700003 -0.036662199 1.5027553e-38 317 270
-0.0024406398 0.69599998 -0.036609598 1.4293948e-38 318 270
-0.00121506 0.69300002 -0.036451802 1.4386502e-38 319 270
0 0.69099998 -0.036346599 1.4481554e-38 320 270
0.0012062934 0.68800002 -0.0361888 1.3743989e-38 321 270
0.0024090798 0.68699998 -0.036136195 1.2639077e-38 322 270
0.00360836 0.68599999 -0.036083598 1.3561392e-38 323 270
0.0047971201 0.68400002 -0.035978399 1.4387598e-38 324 270
0.0059876335 0.68300003 -0.035925802 8.5792733e-39 325 270
0.00717464 0.68199998 -0.035873197 3.0583325e-39 326 270
0.0083458666 0.68000001 -0.035767999 7.2074946e-39 327 270
0.0095100794 0.67799997 -0.0356628 1.2352807e-38 328 270
0.010698839 0.67799997 -0.0356628 1.567185e-38 329 270
0.011852534 0.676 -0.035557602 1.4573414e-38 330 270
0.013037786 0.676 -0.035557602 1.3374873e-38 331 270
0.014202001 0.67500001 -0.035505001 8.7729972e-39 332 270
0.0153855 0.67500001 -0.035505001 9.0495841e-39 333 270
0.016569 0.67500001 -0.035505001 1.1072479e-38 334 270
0.0177262 0.67400002 -0.035452399 1.1810045e-38 335 270
0.018907947 0.67400002 -0.035452399 1.2823459e-38 336 270
0.020030079 0.67199999 -0.035347197 1.2638707e-38 337 270
0.021208318 0.67199999 -0.035347197 1.2634732e-38 338 270
0.022386558 0.67199999 -0.035347197 1.2357785e-38 339 270
0.023564799 0.67199999 -0.035347197 1.2359231e-38 340 270
0.024743039 0.67199999 -0.035347197 1.3373382e-38 341 270
0.025921278 0.67199999 -0.035347197 1.2452878e-38 342 270
0.027099518 0.67199999 -0.035347197 1.2360681e-38 343 270
0.02827776 0.67199999 -0.035347197 1.2176653e-38 344 270
0.029543666 0.67400002 -0.035452399 1.2268849e-38 345 270
0.030725412 0.67400002 -0.035452399 1.2268849e-38 346 270
0.031812478 0.67199999 -0.035347197 1.2176653e-38 347 270
0.03299072 0.67199999 -0.035347197 1.2911704e-38 348 270
0.034270655 0.67400002 -0.035452399 1.30039e-38 349 270
0.035505001 0.67500001 -0.035505001 1.2450373e-38 350 270
0.036688499 0.67500001 -0.035505001 9.869254e-39 351 270
0.037871998 0.67500001 -0.035505001 8.392696e-39 352 270
0.039055496 0.67500001 -0.035505001 7.9313577e-39 353 270
0.040298611 0.676 -0.035557602 7.9381947e-39 354 270
0.041483864 0.676 -0.035557602 1.0243444e-38 355 270
0.042795356 0.67799997 -0.0356628 1.272337e-38 356 270
0.044048995 0.67900002 -0.035715401 1.2446423e-38 357 270
0.045239504 0.67900002 -0.035715401 1.1801053e-38 358 270
0.046498399 0.68000001 -0.035767999 1.0971653e-38 359 270
0.047830928 0.68199998 -0.035873197 7.1062914e-39 360 270
0.049026705 0.68199998 -0.035873197 7.4747152e-39 361 270
0.050222475 0.68199998 -0.035873197 8.4852756e-39 362 270
0.051418249 0.68199998 -0.035873197 9.4997876e-39 363 270
0.052691177 0.68300003 -0.035925802 1.2628303e-38 364 270
0.053888701 0.68300003 -0.035925802 1.4103433e-38 365 270
0.055166878 0.68400002 -0.035978399 1.4106654e-38 366 270
0.057107817 0.69300002 -0.036451802 1.5489589e-38 367 270
0.058322877 0.69300002 -0.036451802 1.7422082e-38 368 270
-0.0073639993 0.69999999 -0.038047329 1.8346577e-38 314 271
-0.0061366665 0.69999999 -0.038047329 1.5488513e-38 315 271
-0.0048953067 0.69800001 -0.037938625 1.4658772e-38 316 271
-0.00366622 0.69700003 -0.037884273 1.5119748e-38 317 271
-0.0024406398 0.69599998 -0.037829921 1.4386502e-38 318 271
-0.00121506 0.69300002 -0.037666857 1.4570895e-38 319 271
0 0.69099998 -0.03755815 1.4849274e-38 320 271
0.0012062934 0.68800002 -0.037395094 1.494147e-38 321 271
0.0024090798 0.68699998 -0.037340738 1.4204984e-38 322 271
0.0036136196 0.68699998 -0.037340738 1.4758157e-38 323 271
0.0047971201 0.68400002 -0.037177678 1.5217011e-38 324 271
0.0059876335 0.68300003 -0.037123326 9.3164908e-39 325 271
0.0071851597 0.68300003 -0.037123326 4.0707048e-39 326 271
0.0083704125 0.68199998 -0.037068974 9.6949983e-39 327 271
0.0095381327 0.68000001 -0.036960267 1.3281606e-38 328 271
0.010698839 0.67799997 -0.036851559 1.42954e-38 329 271
0.011887599 0.67799997 -0.036851559 1.4019889e-38 330 271
0.013076359 0.67799997 -0.036851559 1.2268172e-38 331 271
0.014223038 0.676 -0.036742851 4.4412852e-39 332 271
0.015408293 0.676 -0.036742851 3.7959158e-39 333 271
0.016569 0.67500001 -0.036688499 6.2812391e-39 334 271
0.0177525 0.67500001 -0.036688499 9.2311391e-39 335 271
0.018935999 0.67500001 -0.036688499 1.4017368e-38 336 271
0.020089693 0.67400002 -0.036634147 1.4017368e-38 337 271
0.021271439 0.67400002 -0.036634147 1.3647121e-38 338 271
0.022453187 0.67400002 -0.036634147 1.2264185e-38 339 271
0.023634933 0.67400002 -0.036634147 1.1990471e-38 340 271
0.024816679 0.67400002 -0.036634147 1.4018775e-38 341 271
0.025998428 0.67400002 -0.036634147 1.3926232e-38 342 271
0.027180174 0.67400002 -0.036634147 1.3926232e-38 343 271
0.02836192 0.67400002 -0.036634147 1.3650368e-38 344 271
0.029543666 0.67400002 -0.036634147 1.3742563e-38 345 271
0.030725412 0.67400002 -0.036634147 1.3926232e-38 346 271
0.03190716 0.67400002 -0.036634147 1.3926232e-38 347 271
0.033088908 0.67400002 -0.036634147 1.4476894e-38 348 271
0.034270655 0.67400002 -0.036634147 1.3831884e-38 349 271
0.035505001 0.67500001 -0.036688499 1.13437e-38 350 271
0.036688499 0.67500001 -0.036688499 6.8261144e-39 351 271
0.037871998 0.67500001 -0.036688499 4.9800634e-39 352 271
0.039113361 0.676 -0.036742851 5.1648134e-39 353 271
0.040417835 0.67799997 -0.036851559 3.5178687e-39 354 271
0.041606598 0.67799997 -0.036851559 7.1134969e-39 355 271
0.042795356 0.67799997 -0.036851559 1.0696526e-38 356 271
0.044048995 0.67900002 -0.036905911 9.4979842e-39 357 271
0.045239504 0.67900002 -0.036905911 8.2990907e-39 358 271
0.046498399 0.68000001 -0.036960267 8.1146994e-39 359 271
0.047830928 0.68199998 -0.037068974 5.7215843e-39 360 271
0.049026705 0.68199998 -0.037068974 6.1822037e-39 361 271
0.050222475 0.68199998 -0.037068974 9.1302919e-39 362 271
0.051418249 0.68199998 -0.037068974 9.9604127e-39 363 271
0.052691177 0.68300003 -0.037123326 1.2445709e-38 364 271
0.053967599 0.68400002 -0.037177678 1.3551698e-38 365 271
0.055328183 0.68599999 -0.037286382 1.3554921e-38 366 271
0.057107817 0.69300002 -0.037666857 1.5030053e-38 367 271
0.058322877 0.69300002 -0.037666857 1.7422082e-38 368 271
-0.0085913334 0.69999999 -0.039274666 1.9358196e-38 313 272
-0.0073639993 0.69999999 -0.039274666 1.8346577e-38 314 272
-0.0061366665 0.69999999 -0.039274666 1.5672904e-38 315 272
-0.0049093333 0.69999999 -0.039274666 1.4383983e-38 316 272
-0.0036714801 0.69800001 -0.039162453 1.466057e-38 317 272
-0.0024441467 0.69700003 -0.039106347 1.4477623e-38 318 272
-0.0012168133 0.69400001 -0.038938027 1.475421e-38 319 272
0 0.69300002 -0.03888192 1.4481216e-38 320 272
0.0012097999 0.69 -0.038713597 1.4757804e-38 321 272
0.0024125867 0.68800002 -0.038601387 1.4756361e-38 322 272
0.0036136196 0.68699998 -0.038545277 1.5032949e-38 323 272
0.0048111463 0.68599999 -0.03848917 1.4666e-38 324 272
0.0059964 0.68400002 -0.038376961 9.0420661e-39 325 272
0.0071851597 0.68300003 -0.038320854 3.7948466e-39 326 272
0.0083704125 0.68199998 -0.038264744 9.0499975e-39 327 272
0.0095381327 0.68000001 -0.038152531 1.0425001e-38 328 272
0.010714619 0.67900002 -0.038096428 9.4108486e-39 329 272
0.011887599 0.67799997 -0.038040318 1.0794861e-38 330 272
0.013076359 0.67799997 -0.038040318 1.0887058e-38 331 272
0.014223038 0.676 -0.037928104 5.908156e-39 332 272
0.015408293 0.676 -0.037928104 4.6174172e-39 333 272
0.016593546 0.676 -0.037928104 2.7810674e-39 334 272
0.0177525 0.67500001 -0.037871998 6.4685324e-39 335 272
0.018935999 0.67500001 -0.037871998 1.4016314e-38 336 272
0.020119499 0.67500001 -0.037871998 1.410851e-38 337 272
0.021303 0.67500001 -0.037871998 1.2636231e-38 338 272
0.022453187 0.67400002 -0.037815895 9.3171886e-39 339 272
0.023634933 0.67400002 -0.037815895 1.0336729e-38 340 272
0.024816679 0.67400002 -0.037815895 1.3102597e-38 341 272
0.025998428 0.67400002 -0.037815895 1.4479052e-38 342 272
0.027180174 0.67400002 -0.037815895 1.4294301e-38 343 272
0.02836192 0.67400002 -0.037815895 1.4110623e-38 344 272
0.029543666 0.67400002 -0.037815895 1.4294654e-38 345 272
0.030725412 0.67400002 -0.037815895 1.4111339e-38 346 272
0.03190716 0.67400002 -0.037815895 1.3742917e-38 347 272
0.033088908 0.67400002 -0.037815895 1.3647494e-38 348 272
0.034321502 0.67500001 -0.037871998 1.1987971e-38 349 272
0.035505001 0.67500001 -0.037871998 8.3044941e-39 350 272
0.036688499 0.67500001 -0.037871998 5.1702028e-39 351 272
0.037871998 0.67500001 -0.037871998 7.2828088e-39 352 272
0.039113361 0.676 -0.037928104 9.1267214e-39 353 272
0.040417835 0.67799997 -0.038040318 6.0042823e-39 354 272
0.041606598 0.67799997 -0.038040318 7.3872167e-39 355 272
0.042858478 0.67900002 -0.038096428 8.6743528e-39 356 272
0.044048995 0.67900002 -0.038096428 7.5683654e-39 357 272
0.045239504 0.67900002 -0.038096428 6.4577144e-39 358 272
0.046498399 0.68000001 -0.038152531 6.5502688e-39 359 272
0.047830928 0.68199998 -0.038264744 7.0062191e-39 360 272
0.049026705 0.68199998 -0.038264744 7.467556e-39 361 272
0.050222475 0.68199998 -0.038264744 9.1313723e-39 362 272
0.051493648 0.68300003 -0.038320854 9.7767417e-39 363 272
0.05276832 0.68400002 -0.038376961 1.1895057e-38 364 272
0.054125395 0.68599999 -0.03848917 1.2632622e-38 365 272
0.055731449 0.69099998 -0.038769703 1.2174868e-38 366 272
0.057107817 0.69300002 -0.03888192 1.4295007e-38 367 272
0.058322877 0.69300002 -0.03888192 1.76054e-38 368 272
-0.0085913334 0.69999999 -0.040502001 1.9265641e-38 313 273
-0.0073639993 0.69999999 -0.040502001 1.8529889e-38 314 273
-0.0061366665 0.69999999 -0.040502001 1.5948771e-38 315 273
-0.0049093333 0.69999999 -0.040502001 1.4661644e-38 316 273
-0.0036714801 0.69800001 -0.040386278 1.4753841e-38 317 273
-0.0024441467 0.69700003 -0.040328421 1.4386502e-38 318 273
-0.0012203199 0.69599998 -0.040270556 1.4293948e-38 319 273
0 0.69400001 -0.040154841 1.4573412e-38 320 273
0.0012115532 0.69099998 -0.039981257 1.4665609e-38 321 273
0.0024195998 0.69 -0.0399234 1.4481213e-38 322 273
0.0036188802 0.68800002 -0.039807681 1.475816e-38 323 273
0.0048111463 0.68599999 -0.039691959 1.4850389e-38 324 273
0.0060139326 0.68599999 -0.039691959 9.0420661e-39 325 273
0.0071956799 0.68400002 -0.03957624 4.4384139e-39 326 273
0.0083826864 0.68300003 -0.039518382 9.417338e-39 327 273
0.009566186 0.68199998 -0.039460517 9.5981294e-39 328 273
0.0107304 0.68000001 -0.039344799 7.0166517e-39 329 273
0.011922667 0.68000001 -0.039344799 7.5676773e-39 330 273
0.013095647 0.67900002 -0.039286941 9.0428074e-39 331 273
0.014265119 0.67799997 -0.039229076 6.82832e-39 332 273
0.015453878 0.67799997 -0.039229076 6.7361244e-39 333 273
0.016593546 0.676 -0.039113361 4.8029028e-39 334 273
0.017778801 0.676 -0.039113361 6.7390111e-39 335 273
0.018964052 0.676 -0.039113361 1.2910337e-38 336 273
0.020149305 0.676 -0.039113361 1.3279118e-38 337 273
0.021303 0.67500001 -0.039055496 1.0889574e-38 338 273
0.022486499 0.67500001 -0.039055496 8.4924895e-39 339 273
0.023669999 0.67500001 -0.039055496 1.1344792e-38 340 273
0.0248535 0.67500001 -0.039055496 1.3188704e-38 341 273
0.026037 0.67500001 -0.039055496 1.4199587e-38 342 273
0.027220501 0.67500001 -0.039055496 1.3646415e-38 343 273
0.028404001 0.67500001 -0.039055496 1.3648197e-38 344 273
0.0295875 0.67500001 -0.039055496 1.4109175e-38 345 273
0.030771 0.67500001 -0.039055496 1.3738595e-38 346 273
0.031954501 0.67500001 -0.039055496 1.2540411e-38 347 273
0.033137999 0.67500001 -0.039055496 1.1251485e-38 348 273
0.034321502 0.67500001 -0.039055496 1.032917e-38 349 273
0.035505001 0.67500001 -0.039055496 8.7579192e-39 350 273
0.036742851 0.676 -0.039113361 6.5452255e-39 351 273
0.037928104 0.676 -0.039113361 7.7445128e-39 352 273
0.039229076 0.67799997 -0.039229076 8.6664691e-39 353 273
0.040417835 0.67799997 -0.039229076 6.9226554e-39 354 273
0.041667968 0.67900002 -0.039286941 8.4903399e-39 355 273
0.042858478 0.67900002 -0.039286941 9.1335457e-39 356 273
0.044048995 0.67900002 -0.039286941 7.9350025e-39 357 273
0.045306131 0.68000001 -0.039344799 7.5611907e-39 358 273
0.046635158 0.68199998 -0.039460517 6.9158213e-39 359 273
0.047830928 0.68199998 -0.039460517 6.5495597e-39 360 273
0.049098592 0.68300003 -0.039518382 7.5637116e-39 361 273
0.05029612 0.68300003 -0.039518382 1.0143725e-38 362 273
0.051569041 0.68400002 -0.03957624 1.1065681e-38 363 273
0.053231198 0.69 -0.0399234 1.2447506e-38 364 273
0.054519895 0.69099998 -0.039981257 1.2263113e-38 365 273
0.055892758 0.69300002 -0.04009698 1.1344748e-38 366 273
0.057107817 0.69300002 -0.04009698 1.4295007e-38 367 273
0.058322877 0.69300002 -0.04009698 1.7605044e-38 368 273
-0.0073639993 0.69999999 -0.041729331 1.8529171e-38 314 274
-0.0061366665 0.69999999 -0.041729331 1.5855497e-38 315 274
-0.0048953067 0.69800001 -0.041610107 1.4569449e-38 316 274
-0.00366622 0.69700003 -0.041550495 1.4753841e-38 317 274
-0.0024406398 0.69599998 -0.041490879 1.4018087e-38 318 274
-0.0012203199 0.69599998 -0.041490879 1.3649664e-38 319 274
0 0.69400001 -0.041371655 1.3837658e-38 320 274
0.0012115532 0.69099998 -0.041192811 1.3837658e-38 321 274
0.0024195998 0.69 -0.041133199 1.4480863e-38 322 274
0.0036188802 0.68800002 -0.041013971 1.475781e-38 323 274
0.0048181596 0.68699998 -0.040954359 1.4850387e-38 324 274
0.0060139326 0.68599999 -0.040894743 8.9498663e-39 325 274
0.0072167199 0.68599999 -0.040894743 4.1654213e-39 326 274
0.0083949603 0.68400002 -0.040775519 8.9599528e-39 327 274
0.0095802136 0.68300003 -0.040715907 1.0241335e-38 328 274
0.010761959 0.68199998 -0.040656291 8.2130313e-39 329 274
0.011922667 0.68000001 -0.040537067 6.9190709e-39 330 274
0.013114933 0.68000001 -0.040537067 7.3796903e-39 331 274
0.014265119 0.67799997 -0.040417835 6.7361244e-39 332 274
0.015453878 0.67799997 -0.040417835 6.82832e-39 333 274
0.016593546 0.676 -0.040298611 6.7339706e-39 334 274
0.017778801 0.676 -0.040298611 7.37934e-39 335 274
0.018964052 0.676 -0.040298611 8.9488125e-39 336 274
0.020149305 0.676 -0.040298611 8.9488125e-39 337 274
0.021334561 0.676 -0.040298611 8.7705183e-39 338 274
0.022519812 0.676 -0.040298611 7.0191601e-39 339 274
0.023669999 0.67500001 -0.040238999 9.1252724e-39 340 274
0.0248535 0.67500001 -0.040238999 8.2958719e-39 341 274
0.026037 0.67500001 -0.040238999 6.5506289e-39 342 274
0.027220501 0.67500001 -0.040238999 6.1822065e-39 343 274
0.028404001 0.67500001 -0.040238999 6.5509694e-39 344 274
0.0295875 0.67500001 -0.040238999 7.1963388e-39 345 274
0.030771 0.67500001 -0.040238999 7.8323546e-39 346 274
0.031954501 0.67500001 -0.040238999 7.0947881e-39 347 274
0.033137999 0.67500001 -0.040238999 5.9938482e-39 348 274
0.034321502 0.67500001 -0.040238999 8.390936e-39 349 274
0.035557602 0.676 -0.040298611 9.1295954e-39 350 274
0.036742851 0.676 -0.040298611 6.732509e-39 351 274
0.037928104 0.676 -0.040298611 5.2584734e-39 352 274
0.039229076 0.67799997 -0.040417835 5.2584734e-39 353 274
0.040417835 0.67799997 -0.040417835 6.0918214e-39 354 274
0.041667968 0.67900002 -0.040477451 9.0424417e-39 355 274
0.042858478 0.67900002 -0.040477451 9.2271762e-39 356 274
0.044113863 0.68000001 -0.040537067 8.0286331e-39 357 274
0.045306131 0.68000001 -0.040537067 6.1818562e-39 358 274
0.04670354 0.68300003 -0.040715907 5.5364868e-39 359 274
0.047901068 0.68300003 -0.040715907 6.27297e-39 360 274
0.049170479 0.68400002 -0.040775519 8.5782195e-39 361 274
0.050517038 0.68599999 -0.040894743 1.253972e-38 362 274
0.05224758 0.69300002 -0.041312039 1.3092893e-38 363 274
0.053462639 0.69300002 -0.041312039 1.3183272e-38 364 274
0.054677699 0.69300002 -0.041312039 1.1339359e-38 365 274
0.055892758 0.69300002 -0.041312039 9.9614496e-39 366 274
0.057107817 0.69300002 -0.041312039 1.4294286e-38 367 274
0.058407038 0.69400001 -0.041371655 1.7790147e-38 368 274
0.059623852 0.69400001 -0.041371655 1.8896136e-38 369 274
-0.006119133 0.69800001 -0.042833932 1.5763305e-38 315 275
-0.0048953067 0.69800001 -0.042833932 1.4383983e-38 316 275
-0.00366622 0.69700003 -0.042772565 1.4568374e-38 317 275
-0.0024406398 0.69599998 -0.042711195 1.401809e-38 318 275
-0.0012203199 0.69599998 -0.042711195 1.3741863e-38 319 275
0 0.69400001 -0.042588469 1.3468883e-38 320 275
0.00121506 0.69300002 -0.042527102 1.3561079e-38 321 275
0.0024231065 0.69099998 -0.042404365 1.3837658e-38 322 275
0.0036188802 0.68800002 -0.042220265 1.4206801e-38 323 275
0.0048181596 0.68699998 -0.042158898 1.4849665e-38 324 275
0.0060226996 0.68699998 -0.042158898 9.594514e-39 325 275
0.0072167199 0.68599999 -0.042097531 3.7055208e-39 326 275
0.0083949603 0.68400002 -0.041974798 7.0245635e-39 327 275
0.0095802136 0.68300003 -0.041913435 8.3095458e-39 328 275
0.01077774 0.68300003 -0.041913435 7.5719807e-39 329 275
0.011957732 0.68199998 -0.041852064 7.4704426e-39 330 275
0.013153506 0.68199998 -0.041852064 7.1016615e-39 331 275
0.01434928 0.68199998 -0.041852064 7.0116323e-39 332 275
0.015499466 0.68000001 -0.041729335 7.0116323e-39 333 275
0.016642639 0.67799997 -0.041606598 6.9165668e-39 334 275
0.0178314 0.67799997 -0.041606598 6.7321741e-39 335 275
0.019020159 0.67799997 -0.041606598 6.1851156e-39 336 275
0.020208918 0.67799997 -0.041606598 8.0290282e-39 337 275
0.021334561 0.676 -0.041483864 9.685307e-39 338 275
0.022519812 0.676 -0.041483864 5.8130905e-39 339 275
0.023705067 0.676 -0.041483864 7.3725031e-39 340 275
0.024890319 0.676 -0.041483864 6.7271337e-39 341 275
0.026075572 0.676 -0.041483864 6.3648153e-39 342 275
0.027260827 0.676 -0.041483864 6.733958e-39 343 275
0.028446076 0.676 -0.041483864 6.0849746e-39 344 275
0.029631332 0.676 -0.041483864 6.545594e-39 345 275
0.030816587 0.676 -0.041483864 7.4643063e-39 346 275
0.031954501 0.67500001 -0.041422497 8.2018728e-39 347 275
0.033137999 0.67500001 -0.041422497 6.5506317e-39 348 275
0.034372345 0.676 -0.041483864 8.3027088e-39 349 275
0.035557602 0.676 -0.041483864 9.4083473e-39 350 275
0.036742851 0.676 -0.041483864 6.5502814e-39 351 275
0.037928104 0.676 -0.041483864 6.2693855e-39 352 275
0.039229076 0.67799997 -0.041606598 6.1768311e-39 353 275
0.040477451 0.67900002 -0.041667968 5.5368497e-39 354 275
0.041667968 0.67900002 -0.041667968 8.5796656e-39 355 275
0.042921599 0.68000001 -0.041729335 8.7636814e-39 356 275
0.044113863 0.68000001 -0.041729335 7.9339193e-39 357 275
0.045439381 0.68199998 -0.041852064 7.0130364e-39 358 275
0.046771921 0.68400002 -0.041974798 7.4740145e-39 359 275
0.048111461 0.68599999 -0.042097531 9.1342477e-39 360 275
0.049386136 0.68699998 -0.042158898 1.0701215e-38 361 275
0.050885238 0.69099998 -0.042404365 1.3185442e-38 362 275
0.05224758 0.69300002 -0.042527102 1.3093247e-38 363 275
0.053462639 0.69300002 -0.042527102 1.2262757e-38 364 275
0.054677699 0.69300002 -0.042527102 1.0787627e-38 365 275
0.055892758 0.69300002 -0.042527102 9.9574966e-39 366 275
0.057107817 0.69300002 -0.042527102 1.5120452e-38 367 275
0.058407038 0.69400001 -0.042588469 1.7699746e-38 368 275
0.059623852 0.69400001 -0.042588469 1.8806094e-38 369 275
-0.006119133 0.69800001 -0.04405776 1.5763305e-38 315 276
-0.0048953067 0.69800001 -0.04405776 1.4015922e-38 316 276
-0.00366622 0.69700003 -0.043994639 1.4292869e-38 317 276
-0.0024441467 0.69700003 -0.043994639 1.3742229e-38 318 276
-0.0012203199 0.69599998 -0.043931518 1.3742229e-38 319 276
0 0.69400001 -0.043805279 1.3100822e-38 320 276
0.00121506 0.69300002 -0.043742158 1.3377409e-38 321 276
0.0024231065 0.69099998 -0.043615919 1.3562153e-38 322 276
0.0036293997 0.69 -0.043552797 1.4022773e-38 323 276
0.0048251734 0.68800002 -0.043426562 1.475782e-38 324 276
0.0060314666 0.68800002 -0.043426562 1.1070353e-38 325 276
0.0072272392 0.68699998 -0.043363437 6.4685016e-39 326 276
0.0084195063 0.68599999 -0.043300316 6.1919133e-39 327 276
0.0095942402 0.68400002 -0.043174081 6.1912071e-39 328 276
0.01077774 0.68300003 -0.043110959 7.3897503e-39 329 276
0.011975267 0.68300003 -0.043110959 7.8406643e-39 330 276
0.013172794 0.68300003 -0.043110959 6.9190681e-39 331 276
0.01434928 0.68199998 -0.043047838 7.0119882e-39 332 276
0.015545053 0.68199998 -0.043047838 7.0119882e-39 333 276
0.016740825 0.68199998 -0.043047838 7.1009581e-39 334 276
0.017883999 0.68000001 -0.042921599 6.2711974e-39 335 276
0.019048214 0.67900002 -0.042858478 4.3447988e-39 336 276
0.020238725 0.67900002 -0.042858478 7.4790914e-39 337 276
0.021397678 0.67799997 -0.042795356 1.0422148e-38 338 276
0.022586439 0.67799997 -0.042795356 4.8904111e-39 339 276
0.023775198 0.67799997 -0.042795356 5.4392661e-39 340 276
0.024963958 0.67799997 -0.042795356 5.9924385e-39 341 276
0.026152719 0.67799997 -0.042795356 8.1165155e-39 342 276
0.027341479 0.67799997 -0.042795356 9.4994499e-39 343 276
0.028530238 0.67799997 -0.042795356 8.0196325e-39 344 276
0.029718997 0.67799997 -0.042795356 7.6512087e-39 345 276
0.030907756 0.67799997 -0.042795356 8.6621307e-39 346 276
0.032001842 0.676 -0.042669121 9.2153044e-39 347 276
0.033187091 0.676 -0.042669121 8.3012613e-39 348 276
0.034372345 0.676 -0.042669121 9.7763914e-39 349 276
0.035557602 0.676 -0.042669121 9.6870684e-39 350 276
0.036851559 0.67799997 -0.042795356 6.8286451e-39 351 276
0.038040318 0.67799997 -0.042795356 7.8363357e-39 352 276
0.039286941 0.67900002 -0.042858478 7.0987706e-39 353 276
0.040477451 0.67900002 -0.042858478 3.5143108e-39 354 276
0.041852064 0.68199998 -0.043047838 5.9113958e-39 355 276
0.043047838 0.68199998 -0.043047838 6.8275942e-39 356 276
0.044308487 0.68300003 -0.043110959 7.1963781e-39 357 276
0.045506012 0.68300003 -0.043110959 8.8544337e-39 358 276
0.046908677 0.68599999 -0.043300316 1.0698346e-38 359 276
0.048181597 0.68699998 -0.043363437 1.2635505e-38 360 276
0.049458027 0.68800002 -0.043426562 1.2912451e-38 361 276
0.050885238 0.69099998 -0.043615919 1.3185793e-38 362 276
0.05224758 0.69300002 -0.043742158 1.2540423e-38 363 276
0.053462639 0.69300002 -0.043742158 1.1434078e-38 364 276
0.054677699 0.69300002 -0.043742158 1.014334e-38 365 276
0.055892758 0.69300002 -0.043742158 1.0141892e-38 366 276
0.057190225 0.69400001 -0.043805279 1.5304847e-38 367 276
0.058407038 0.69400001 -0.043805279 1.7883059e-38 368 276
0.059623852 0.69400001 -0.043805279 1.8805375e-38 369 276
-0.0061103669 0.69700003 -0.045216713 1.6038812e-38 315 277
-0.0048882933 0.69700003 -0.045216713 1.40152e-38 316 277
-0.00366622 0.69700003 -0.045216713 1.4291787e-38 317 277
-0.0024441467 0.69700003 -0.045216713 1.3282692e-38 318 277
-0.0012203199 0.69599998 -0.045151837 1.3374888e-38 319 277
0 0.69400001 -0.045022093 1.2916434e-38 320 277
0.00121506 0.69300002 -0.044957221 1.3008629e-38 321 277
0.0024231065 0.69099998 -0.044827472 1.3193018e-38 322 277
0.0036293997 0.69 -0.0447626 1.3653996e-38 323 277
0.0048391996 0.69 -0.0447626 1.4665261e-38 324 277
0.0060314666 0.68800002 -0.044632856 1.3466718e-38 325 277
0.0072272392 0.68699998 -0.044567976 1.1899032e-38 326 277
0.0084317802 0.68699998 -0.044567976 1.088524e-38 327 277
0.0096222926 0.68599999 -0.044503104 9.1335401e-39 328 277
0.01079352 0.68400002 -0.04437336 8.7647562e-39 329 277
0.011975267 0.68300003 -0.044308487 7.2903646e-39 330 277
0.013172794 0.68300003 -0.044308487 6.3687684e-39 331 277
0.014370319 0.68300003 -0.044308487 6.3658999e-39 332 277
0.015567848 0.68300003 -0.044308487 6.6421281e-39 333 277
0.016740825 0.68199998 -0.044243611 5.9982034e-39 334 277
0.017883999 0.68000001 -0.044113863 6.4591816e-39 335 277
0.019076265 0.68000001 -0.044113863 5.9131979e-39 336 277
0.020268533 0.68000001 -0.044113863 7.3883279e-39 337 277
0.021429239 0.67900002 -0.044048995 9.9615239e-39 338 277
0.022619752 0.67900002 -0.044048995 5.2595454e-39 339 277
0.023775198 0.67799997 -0.043984115 4.9807977e-39 340 277
0.024963958 0.67799997 -0.043984115 5.4414171e-39 341 277
0.026191294 0.67900002 -0.044048995 8.2087083e-39 342 277
0.027381808 0.67900002 -0.044048995 9.9604253e-39 343 277
0.028530238 0.67799997 -0.043984115 7.9292319e-39 344 277
0.029718997 0.67799997 -0.043984115 7.7448407e-39 345 277
0.030907756 0.67799997 -0.043984115 7.9285187e-39 346 277
0.03209652 0.67799997 -0.043984115 9.0345075e-39 347 277
0.033285279 0.67799997 -0.043984115 1.0700496e-38 348 277
0.034474038 0.67799997 -0.043984115 1.1161114e-38 349 277
0.0356628 0.67799997 -0.043984115 9.9650818e-39 350 277
0.036960267 0.68000001 -0.044113863 7.2910498e-39 351 277
0.038152531 0.68000001 -0.044113863 9.4029327e-39 352 277
0.039460517 0.68199998 -0.044243611 9.5876827e-39 353 277
0.040715907 0.68300003 -0.044308487 6.0982898e-39 354 277
0.041913435 0.68300003 -0.044308487 7.3890286e-39 355 277
0.043174081 0.68400002 -0.04437336 9.7778291e-39 356 277
0.04437336 0.68400002 -0.04437336 1.0423198e-38 357 277
0.045705888 0.68599999 -0.044503104 1.1803953e-38 358 277
0.046977058 0.68699998 -0.044567976 1.2449322e-38 359 277
0.048181597 0.68699998 -0.044567976 1.3185076e-38 360 277
0.049458027 0.68800002 -0.044632856 1.3000325e-38 361 277
0.050885238 0.69099998 -0.044827472 1.2540426e-38 362 277
0.05224758 0.69300002 -0.044957221 1.161811e-38 363 277
0.053462639 0.69300002 -0.044957221 1.0879472e-38 364 277
0.054677699 0.69300002 -0.044957221 1.0049712e-38 365 277
0.055973411 0.69400001 -0.045022093 1.0693267e-38 366 277
0.057190225 0.69400001 -0.045022093 1.5671832e-38 367 277
0.05865952 0.69700003 -0.045216713 1.7974535e-38 368 277
0.05988159 0.69700003 -0.045216713 1.8896492e-38 369 277
-0.0061103669 0.69700003 -0.046438783 1.6132443e-38 315 278
-0.0048882933 0.69700003 -0.046438783 1.4291064e-38 316 278
-0.00366622 0.69700003 -0.046438783 1.4198868e-38 317 278
-0.0024441467 0.69700003 -0.046438783 1.3098661e-38 318 278
-0.0012203199 0.69599998 -0.046372157 1.291391e-38 319 278
0 0.69400001 -0.046238903 1.2180313e-38 320 278
0.0012168133 0.69400001 -0.046238903 1.2272509e-38 321 278
0.00243012 0.69300002 -0.04617228 1.2549093e-38 322 278
0.0036346598 0.69099998 -0.046039023 1.3010073e-38 323 278
0.0048391996 0.69 -0.045972396 1.402169e-38 324 278
0.0060314666 0.68800002 -0.045839146 1.3652548e-38 325 278
0.0072377604 0.68800002 -0.045839146 1.3650383e-38 326 278
0.0084317802 0.68699998 -0.045772515 1.3834775e-38 327 278
0.0096363192 0.68699998 -0.045772515 1.3187254e-38 328 278
0.010825079 0.68599999 -0.045705888 1.13437e-38 329 278
0.0119928 0.68400002 -0.045572639 9.1360568e-39 330 278
0.01319208 0.68400002 -0.045572639 8.3984918e-39 331 278
0.014370319 0.68300003 -0.045506012 8.2101601e-39 332 278
0.015567848 0.68300003 -0.045506012 7.5647906e-39 333 278
0.016765373 0.68300003 -0.045506012 5.633381e-39 334 278
0.017936599 0.68199998 -0.045439381 6.2787504e-39 335 278
0.019132372 0.68199998 -0.045439381 7.2939771e-39 336 278
0.020328145 0.68199998 -0.045439381 7.5709241e-39 337 278
0.0214608 0.68000001 -0.045306131 9.1313905e-39 338 278
0.022653066 0.68000001 -0.045306131 6.5499128e-39 339 278
0.023845334 0.68000001 -0.045306131 4.9818683e-39 340 278
0.025037598 0.68000001 -0.045306131 5.2584552e-39 341 278
0.026229866 0.68000001 -0.045306131 7.1056076e-39 342 278
0.027422134 0.68000001 -0.045306131 8.5807376e-39 343 278
0.028572321 0.67900002 -0.045239504 8.5753258e-39 344 278
0.029718997 0.67799997 -0.045172878 8.2987403e-39 345 278
0.030907756 0.67799997 -0.045172878 7.9313871e-39 346 278
0.032143861 0.67900002 -0.045239504 8.2998095e-39 347 278
0.033334374 0.67900002 -0.045239504 1.0977439e-38 348 278
0.034524884 0.67900002 -0.045239504 1.1530612e-38 349 278
0.035767999 0.68000001 -0.045306131 1.0240587e-38 350 278
0.036960267 0.68000001 -0.045306131 9.0424024e-39 351 278
0.038264744 0.68199998 -0.045439381 1.0602905e-38 352 278
0.039518382 0.68300003 -0.045506012 1.1433025e-38 353 278
0.040715907 0.68300003 -0.045506012 1.0517181e-38 354 278
0.041974798 0.68400002 -0.045572639 1.1438777e-38 355 278
0.043174081 0.68400002 -0.045572639 1.3095039e-38 356 278
0.044503104 0.68599999 -0.045705888 1.3187593e-38 357 278
0.045772515 0.68699998 -0.045772515 1.2910285e-38 358 278
0.046977058 0.68699998 -0.045772515 1.2264915e-38 359 278
0.048251733 0.68800002 -0.045839146 1.2080167e-38 360 278
0.049458027 0.68800002 -0.045839146 1.1711386e-38 361 278
0.050885238 0.69099998 -0.046039023 1.1802505e-38 362 278
0.05224758 0.69300002 -0.04617228 1.1341527e-38 363 278
0.053539783 0.69400001 -0.046238903 1.1064221e-38 364 278
0.054756597 0.69400001 -0.046238903 1.0418852e-38 365 278
0.056134716 0.69599998 -0.046372157 1.133863e-38 366 278
0.05743745 0.69700003 -0.046438783 1.6133162e-38 367 278
0.058743682 0.69800001 -0.046505414 1.8251122e-38 368 278
-0.006119133 0.69800001 -0.047729239 1.6593421e-38 315 279
-0.0048953067 0.69800001 -0.047729239 1.4659491e-38 316 279
-0.0036714801 0.69800001 -0.047729239 1.4106317e-38 317 279
-0.0024476533 0.69800001 -0.047729239 1.254585e-38 318 279
-0.0012220733 0.69700003 -0.047660861 1.2269262e-38 319 279
0 0.69599998 -0.047592476 1.1994847e-38 320 279
0.0012168133 0.69400001 -0.047455717 1.2087043e-38 321 279
0.00243012 0.69300002 -0.047387339 1.1997001e-38 322 279
0.0036346598 0.69099998 -0.047250576 1.245762e-38 323 279
0.0048391996 0.69 -0.047182199 1.2732765e-38 324 279
0.0060489997 0.69 -0.047182199 1.1165438e-38 325 279
0.0072377604 0.68800002 -0.047045439 1.1259786e-38 326 279
0.0084317802 0.68699998 -0.046977058 1.2918949e-38 327 279
0.0096363192 0.68699998 -0.046977058 1.4387598e-38 328 279
0.010840859 0.68699998 -0.046977058 1.4479794e-38 329 279
0.012027865 0.68599999 -0.046908677 1.3744747e-38 330 279
0.01319208 0.68400002 -0.046771921 1.3652551e-38 331 279
0.01439136 0.68400002 -0.046771921 1.3466365e-38 332 279
0.01559064 0.68400002 -0.046771921 1.2636604e-38 333 279
0.016765373 0.68300003 -0.04670354 1.1805417e-38 334 279
0.017962901 0.68300003 -0.04670354 1.2173841e-38 335 279
0.019160427 0.68300003 -0.04670354 1.144023e-38 336 279
0.020328145 0.68199998 -0.046635158 9.8725456e-39 337 279
0.021523919 0.68199998 -0.046635158 9.866059e-39 338 279
0.022719691 0.68199998 -0.046635158 8.5753202e-39 339 279
0.023915464 0.68199998 -0.046635158 7.1952668e-39 340 279
0.025037598 0.68000001 -0.046498399 7.4714936e-39 341 279
0.026229866 0.68000001 -0.046498399 8.3091702e-39 342 279
0.027422134 0.68000001 -0.046498399 9.0467352e-39 343 279
0.028614398 0.68000001 -0.046498399 8.4859762e-39 344 279
0.029806666 0.68000001 -0.046498399 9.03915e-39 345 279
0.030998932 0.68000001 -0.046498399 9.2314376e-39 346 279
0.032191198 0.68000001 -0.046498399 8.6782638e-39 347 279
0.033383466 0.68000001 -0.046498399 7.9389261e-39 348 279
0.034677424 0.68199998 -0.046635158 8.9527193e-39 349 279
0.035873197 0.68199998 -0.046635158 1.0238425e-38 350 279
0.037068974 0.68199998 -0.046635158 1.1529163e-38 351 279
0.038320854 0.68300003 -0.04670354 1.2818102e-38 352 279
0.03957624 0.68400002 -0.046771921 1.3094689e-38 353 279
0.040894743 0.68599999 -0.046908677 1.2818099e-38 354 279
0.042097531 0.68599999 -0.046908677 1.2449675e-38 355 279
0.043300316 0.68599999 -0.046908677 1.2450025e-38 356 279
0.044567976 0.68699998 -0.046977058 1.235783e-38 357 279
0.045772515 0.68699998 -0.046977058 1.0423887e-38 358 279
0.047045439 0.68800002 -0.047045439 9.7785171e-39 359 279
0.048251733 0.68800002 -0.047045439 9.1374693e-39 360 279
0.049601797 0.69 -0.047182199 9.96723e-39 361 279
0.051032521 0.69300002 -0.047387339 1.1434446e-38 362 279
0.052322973 0.69400001 -0.047455717 1.1434446e-38 363 279
0.053539783 0.69400001 -0.047455717 1.060648e-38 364 279
0.054756597 0.69400001 -0.047455717 1.0422087e-38 365 279
0.056296028 0.69800001 -0.047729239 1.2444262e-38 366 279
0.057519849 0.69800001 -0.047729239 1.6961846e-38 367 279
0.058743682 0.69800001 -0.047729239 1.8711024e-38 368 279
-0.0061366665 0.69999999 -0.049093332 1.6777812e-38 315 280
-0.0049093333 0.69999999 -0.049093332 1.5119748e-38 316 280
-0.0036714801 0.69800001 -0.048953064 1.4198152e-38 317 280
-0.0024476533 0.69800001 -0.048953064 1.2085597e-38 318 280
-0.0012220733 0.69700003 -0.048882935 1.1901205e-38 319 280
0 0.69599998 -0.048812799 1.080027e-38 320 280
0.0012168133 0.69400001 -0.048672531 1.1169052e-38 321 280
0.0024336267 0.69400001 -0.048672531 1.1261601e-38 322 280
0.0036451798 0.69300002 -0.048602402 1.1445992e-38 323 280
0.0048462129 0.69099998 -0.04846213 1.2364709e-38 324 280
0.0060489997 0.69 -0.048391998 1.0797023e-38 325 280
0.0072377604 0.68800002 -0.048251733 9.5116749e-39 326 280
0.0084440531 0.68800002 -0.048251733 1.0525828e-38 327 280
0.0096363192 0.68699998 -0.048181597 1.3006831e-38 328 280
0.010840859 0.68699998 -0.048181597 1.3744396e-38 329 280
0.012027865 0.68599999 -0.048111461 1.4389393e-38 330 280
0.013230653 0.68599999 -0.048111461 1.448159e-38 331 280
0.01439136 0.68400002 -0.0479712 1.4572342e-38 332 280
0.01559064 0.68400002 -0.0479712 1.4387951e-38 333 280
0.016789921 0.68400002 -0.0479712 1.3835143e-38 334 280
0.017962901 0.68300003 -0.047901068 1.3558916e-38 335 280
0.019160427 0.68300003 -0.047901068 1.365003e-38 336 280
0.020357953 0.68300003 -0.047901068 1.3004661e-38 337 280
0.02155548 0.68300003 -0.047901068 1.1899022e-38 338 280
0.022719691 0.68199998 -0.047830928 1.1529881e-38 339 280
0.023915464 0.68199998 -0.047830928 1.0975991e-38 340 280
0.025111238 0.68199998 -0.047830928 1.1068187e-38 341 280
0.026307013 0.68199998 -0.047830928 1.1071424e-38 342 280
0.027422134 0.68000001 -0.047690667 1.1440565e-38 343 280
0.028614398 0.68000001 -0.047690667 1.1528404e-38 344 280
0.029806666 0.68000001 -0.047690667 1.1343653e-38 345 280
0.030998932 0.68000001 -0.047690667 1.2082277e-38 346 280
0.032285877 0.68199998 -0.047830928 1.2819842e-38 347 280
0.03348165 0.68199998 -0.047830928 1.0885917e-38 348 280
0.034677424 0.68199998 -0.047830928 9.6873753e-39 349 280
0.035925802 0.68300003 -0.047901068 1.0424593e-38 350 280
0.037123326 0.68300003 -0.047901068 1.1899723e-38 351 280
0.038376961 0.68400002 -0.0479712 1.2359626e-38 352 280
0.03957624 0.68400002 -0.0479712 1.1990842e-38 353 280
0.040894743 0.68599999 -0.048111461 1.2080167e-38 354 280
0.042158898 0.68699998 -0.048181597 1.1711386e-38 355 280
0.043363437 0.68699998 -0.048181597 1.1068184e-38 356 280
0.044632856 0.68800002 -0.048251733 1.0975988e-38 357 280
0.045839146 0.68800002 -0.048251733 1.0424258e-38 358 280
0.047045439 0.68800002 -0.048251733 1.0055477e-38 359 280
0.048391998 0.69 -0.048391998 1.0516451e-38 360 280
0.049673684 0.69099998 -0.04846213 1.0700843e-38 361 280
0.051032521 0.69300002 -0.048602402 1.1068184e-38 362 280
0.052322973 0.69400001 -0.048672531 1.0883791e-38 363 280
0.053694077 0.69599998 -0.048812799 1.0607204e-38 364 280
0.054993302 0.69700003 -0.048882935 1.0238422e-38 365 280
0.056296028 0.69800001 -0.048953064 1.1530217e-38 366 280
0.057519849 0.69800001 -0.048953064 1.5679022e-38 367 280
0.058743682 0.69800001 -0.048953064 1.8527709e-38 368 280
-0.0061629666 0.70300001 -0.050536323 1.6871081e-38 315 281
-0.0049093333 0.69999999 -0.050320663 1.5488885e-38 316 281
-0.0036819996 0.69999999 -0.050320663 1.4474732e-38 317 281
-0.0024476533 0.69800001 -0.050176892 1.1440948e-38 318 281
-0.0012238267 0.69800001 -0.050176892 1.0611546e-38 319 281
0 0.69700003 -0.050105009 1.0522614e-38 320 281
0.0012203199 0.69599998 -0.050033119 1.0983232e-38 321 281
0.0024336267 0.69400001 -0.049889345 1.1076136e-38 322 281
0.0036451798 0.69300002 -0.049817458 1.1352364e-38 323 281
0.0048462129 0.69099998 -0.049673684 1.1719702e-38 324 281
0.0060489997 0.69 -0.049601797 1.0428963e-38 325 281
0.0072587994 0.69 -0.049601797 8.6833575e-39 326 281
0.0084440531 0.68800002 -0.049458027 8.2227381e-39 327 281
0.0096503468 0.68800002 -0.049458027 8.5879221e-39 328 281
0.010840859 0.68699998 -0.049386136 9.2332915e-39 329 281
0.012045399 0.68699998 -0.049386136 1.1349475e-38 330 281
0.013249939 0.68699998 -0.049386136 1.1902649e-38 331 281
0.01443344 0.68599999 -0.049314249 1.2268909e-38 332 281
0.01559064 0.68400002 -0.049170479 1.1807932e-38 333 281
0.016789921 0.68400002 -0.049170479 1.1900487e-38 334 281
0.0179892 0.68400002 -0.049170479 1.1900487e-38 335 281
0.019160427 0.68300003 -0.049098592 1.2454011e-38 336 281
0.020357953 0.68300003 -0.049098592 1.3375967e-38 337 281
0.02155548 0.68300003 -0.049098592 1.4113159e-38 338 281
0.022753006 0.68300003 -0.049098592 1.4205355e-38 339 281
0.023950534 0.68300003 -0.049098592 1.4204636e-38 340 281
0.025111238 0.68199998 -0.049026705 1.3559267e-38 341 281
0.026307013 0.68199998 -0.049026705 1.3650736e-38 342 281
