# .PCD v.7 - Point Cloud Data file format
FIELDS x y z rgb imX imY
SIZE 4 4 4 4 4 4
TYPE F F F F F F
COUNT 1 1 1 1 1 1
WIDTH 849
HEIGHT 1
VIEWPOINT 0 0 0 1 0 0 0
POINTS 849
DATA ascii
0.021846535 0.62300003 0.090663113 1.6321498e-38 340 157
0.022938859 0.62300003 0.090663113 1.53999e-38 341 157
0.024031186 0.62300003 0.090663113 1.5771939e-38 342 157
0.025123514 0.62300003 0.090663113 1.7431101e-38 343 157
-0.0032875 0.625 0.089858331 1.7528363e-38 317 158
-0.0021916665 0.625 0.089858331 1.7621279e-38 318 158
-0.0010958333 0.625 0.089858331 1.8174453e-38 319 158
0 0.62400001 0.089714557 1.8909487e-38 320 158
0.0010923267 0.62300003 0.089570791 1.9093518e-38 321 158
0.0021846534 0.62300003 0.089570791 1.927826e-38 322 158
0.00327698 0.62300003 0.089570791 1.927826e-38 323 158
0.0043693068 0.62300003 0.089570791 1.9644872e-38 324 158
0.0054528662 0.62199998 0.089427009 1.9644872e-38 325 158
0.0065434393 0.62199998 0.089427009 2.0102244e-38 326 158
0.0076340134 0.62199998 0.089427009 1.9917852e-38 327 158
0.0087245861 0.62199998 0.089427009 1.9917849e-38 328 158
0.0098151593 0.62199998 0.089427009 2.0010045e-38 329 158
0.010905732 0.62199998 0.089427009 1.9917483e-38 330 158
0.01197702 0.62099999 0.089283235 1.9732733e-38 331 158
0.013065839 0.62099999 0.089283235 1.9733808e-38 332 158
0.014177452 0.62199998 0.089427009 1.9549777e-38 333 158
0.015268027 0.62199998 0.089427009 1.8904052e-38 334 158
0.016358599 0.62199998 0.089427009 1.8535268e-38 335 158
0.017449172 0.62199998 0.089427009 1.7891344e-38 336 158
0.018539745 0.62199998 0.089427009 1.7153779e-38 337 158
0.019661881 0.62300003 0.089570791 1.6691725e-38 338 158
0.020754207 0.62300003 0.089570791 1.5861964e-38 339 158
0.021846535 0.62300003 0.089570791 1.5768693e-38 340 158
0.022938859 0.62300003 0.089570791 1.4939292e-38 341 158
0.024031186 0.62300003 0.089570791 1.5679025e-38 342 158
0.025123514 0.62300003 0.089570791 1.7338186e-38 343 158
-0.0032875 0.625 0.088762499 1.7435802e-38 317 159
-0.0021916665 0.625 0.088762499 1.7252855e-38 318 159
-0.00109408 0.62400001 0.088620484 1.7529084e-38 319 159
0 0.62400001 0.088620484 1.7253574e-38 320 159
0.0010923267 0.62300003 0.088478461 1.7345771e-38 321 159
0.0021846534 0.62300003 0.088478461 1.7622348e-38 322 159
0.0032717197 0.62199998 0.088336438 1.7622348e-38 323 159
0.0043622931 0.62199998 0.088336438 1.8081516e-38 324 159
0.0054528662 0.62199998 0.088336438 1.8450297e-38 325 159
0.0065434393 0.62199998 0.088336438 1.8815837e-38 326 159
0.0076340134 0.62199998 0.088336438 1.853925e-38 327 159
0.0087245861 0.62199998 0.088336438 1.8080426e-38 328 159
0.0098151593 0.62199998 0.088336438 1.8080426e-38 329 159
0.010888199 0.62099999 0.088194415 1.8170102e-38 330 159
0.01197702 0.62099999 0.088194415 1.7893514e-38 331 159
0.013065839 0.62099999 0.088194415 1.7892792e-38 332 159
0.014177452 0.62199998 0.088336438 1.7615846e-38 333 159
0.015268027 0.62199998 0.088336438 1.7061229e-38 334 159
0.016358599 0.62199998 0.088336438 1.6600252e-38 335 159
0.017449172 0.62199998 0.088336438 1.6140715e-38 336 159
0.018539745 0.62199998 0.088336438 1.5956684e-38 337 159
0.019661881 0.62300003 0.088478461 1.5955605e-38 338 159
0.020754207 0.62300003 0.088478461 1.5402431e-38 339 159
0.021881601 0.62400001 0.088620484 1.5860169e-38 340 159
0.022938859 0.62300003 0.088478461 1.5399191e-38 341 159
0.024031186 0.62300003 0.088478461 1.5862337e-38 342 159
-0.0032980198 0.62699997 0.08794719 1.7251771e-38 317 160
-0.0021986798 0.62699997 0.08794719 1.7160304e-38 318 160
-0.00109408 0.62400001 0.087526403 1.7252499e-38 319 160
0 0.62400001 0.087526403 1.7160672e-38 320 160
0.0010923267 0.62300003 0.087386139 1.7160672e-38 321 160
0.0021846534 0.62300003 0.087386139 1.6977708e-38 322 160
0.0032717197 0.62199998 0.087245859 1.7069903e-38 323 160
0.0043622931 0.62199998 0.087245859 1.716101e-38 324 160
0.0054528662 0.62199998 0.087245859 1.716101e-38 325 160
0.0065434393 0.62199998 0.087245859 1.771166e-38 326 160
0.0076340134 0.62199998 0.087245859 1.7527269e-38 327 160
0.0087245861 0.62199998 0.087245859 1.743507e-38 328 160
0.0098151593 0.62199998 0.087245859 1.7342873e-38 329 160
0.010888199 0.62099999 0.087105595 1.7524748e-38 330 160
0.01197702 0.62099999 0.087105595 1.7340357e-38 331 160
0.013065839 0.62099999 0.087105595 1.7063771e-38 332 160
0.014177452 0.62199998 0.087245859 1.6879378e-38 333 160
0.015268027 0.62199998 0.087245859 1.6049968e-38 334 160
0.016358599 0.62199998 0.087245859 1.577374e-38 335 160
0.017449172 0.62199998 0.087245859 1.5864854e-38 336 160
0.018539745 0.62199998 0.087245859 1.5680463e-38 337 160
0.019630319 0.62199998 0.087245859 1.586269e-38 338 160
0.020754207 0.62300003 0.087386139 1.5585743e-38 339 160
0.021881601 0.62400001 0.087526403 1.5860169e-38 340 160
0.022975679 0.62400001 0.087526403 1.5306995e-38 341 160
-0.0044043735 0.62800002 0.086986378 1.7158856e-38 316 161
-0.0033032801 0.62800002 0.086986378 1.7343248e-38 317 161
-0.0021986798 0.62699997 0.086847849 1.7252853e-38 318 161
-0.0010958333 0.625 0.086570829 1.7160657e-38 319 161
0 0.62400001 0.086432323 1.7160304e-38 320 161
0.00109408 0.62400001 0.086432323 1.7160304e-38 321 161
0.0021846534 0.62300003 0.086293809 1.7160301e-38 322 161
0.00327698 0.62300003 0.086293809 1.697591e-38 323 161
0.0043622931 0.62199998 0.086155288 1.679187e-38 324 161
0.0054528662 0.62199998 0.086155288 1.6423089e-38 325 161
0.0065434393 0.62199998 0.086155288 1.6514203e-38 326 161
0.0076340134 0.62199998 0.086155288 1.6514203e-38 327 161
0.0087245861 0.62199998 0.086155288 1.6881543e-38 328 161
0.0098151593 0.62199998 0.086155288 1.651312e-38 329 161
0.010888199 0.62099999 0.086016774 1.6512038e-38 330 161
0.01197702 0.62099999 0.086016774 1.6512038e-38 331 161
0.013065839 0.62099999 0.086016774 1.6236164e-38 332 161
0.01415466 0.62099999 0.086016774 1.614361e-38 333 161
0.015268027 0.62199998 0.086155288 1.58663e-38 334 161
0.016358599 0.62199998 0.086155288 1.5774104e-38 335 161
0.017449172 0.62199998 0.086155288 1.5956333e-38 336 161
0.018539745 0.62199998 0.086155288 1.5771583e-38 337 161
0.019630319 0.62199998 0.086155288 1.586197e-38 338 161
0.020754207 0.62300003 0.086293809 1.5585024e-38 339 161
0.021881601 0.62400001 0.086432323 1.5860169e-38 340 161
0.022975679 0.62400001 0.086432323 1.5399191e-38 341 161
-0.0044043735 0.62800002 0.085885279 1.7158503e-38 316 162
-0.0033032801 0.62800002 0.085885279 1.7343253e-38 317 162
-0.0022021867 0.62800002 0.085885279 1.7160301e-38 318 162
-0.0010958333 0.625 0.085474998 1.7160301e-38 319 162
0 0.625 0.085474998 1.6976629e-38 320 162
0.00109408 0.62400001 0.085338242 1.7068824e-38 321 162
0.0021846534 0.62300003 0.085201479 1.6793316e-38 322 162
0.00327698 0.62300003 0.085201479 1.6701121e-38 323 162
0.0043622931 0.62199998 0.085064717 1.6975188e-38 324 162
0.0054528662 0.62199998 0.085064717 1.66986e-38 325 162
0.0065434393 0.62199998 0.085064717 1.6606401e-38 326 162
0.0076340134 0.62199998 0.085064717 1.6606401e-38 327 162
0.0087245861 0.62199998 0.085064717 1.6606757e-38 328 162
0.0098151593 0.62199998 0.085064717 1.6330172e-38 329 162
0.010888199 0.62099999 0.084927954 1.6420921e-38 330 162
0.01197702 0.62099999 0.084927954 1.6420921e-38 331 162
0.013065839 0.62099999 0.084927954 1.6420195e-38 332 162
0.01415466 0.62099999 0.084927954 1.614361e-38 333 162
0.015268027 0.62199998 0.085064717 1.5958852e-38 334 162
0.016358599 0.62199998 0.085064717 1.577446e-38 335 162
0.017449172 0.62199998 0.085064717 1.6139643e-38 336 162
0.018539745 0.62199998 0.085064717 1.5863056e-38 337 162
0.019661881 0.62300003 0.085201479 1.5769418e-38 338 162
0.020754207 0.62300003 0.085201479 1.5585027e-38 339 162
0.021881601 0.62400001 0.085338242 1.5492829e-38 340 162
0.022975679 0.62400001 0.085338242 1.5124405e-38 341 162
-0.0044113868 0.62900001 0.084919192 1.7066662e-38 316 163
-0.00330854 0.62900001 0.084919192 1.734325e-38 317 163
-0.0022021867 0.62800002 0.084784187 1.7251418e-38 318 163
-0.0010993399 0.62699997 0.084649175 1.7159222e-38 319 163
0 0.625 0.084379166 1.6976629e-38 320 163
0.00109408 0.62400001 0.084244154 1.6976629e-38 321 163
0.0021881601 0.62400001 0.084244154 1.6976626e-38 322 163
0.00327698 0.62300003 0.08410915 1.6792595e-38 323 163
0.0043622931 0.62199998 0.083974138 1.6975544e-38 324 163
0.0054528662 0.62199998 0.083974138 1.6791151e-38 325 163
0.0065434393 0.62199998 0.083974138 1.6330175e-38 326 163
0.0076340134 0.62199998 0.083974138 1.6606401e-38 327 163
0.0087245861 0.62199998 0.083974138 1.6606757e-38 328 163
0.0098151593 0.62199998 0.083974138 1.6514203e-38 329 163
0.010888199 0.62099999 0.083839133 1.6513117e-38 330 163
0.01197702 0.62099999 0.083839133 1.6328726e-38 331 163
0.013065839 0.62099999 0.083839133 1.6236164e-38 332 163
0.01415466 0.62099999 0.083839133 1.5959217e-38 333 163
0.015268027 0.62199998 0.083974138 1.6049971e-38 334 163
0.016358599 0.62199998 0.083974138 1.5773385e-38 335 163
0.017449172 0.62199998 0.083974138 1.5864135e-38 336 163
0.018569553 0.62300003 0.08410915 1.5679744e-38 337 163
0.019661881 0.62300003 0.08410915 1.5769418e-38 338 163
0.020754207 0.62300003 0.08410915 1.5585027e-38 339 163
0.021916665 0.625 0.084379166 1.5584308e-38 340 163
0.023012498 0.625 0.084379166 1.5307361e-38 341 163
-0.0044113868 0.62900001 0.083816342 1.6514932e-38 316 164
-0.00330854 0.62900001 0.083816342 1.6883714e-38 317 164
-0.0022021867 0.62800002 0.083683088 1.6975194e-38 318 164
-0.0010993399 0.62699997 0.083549835 1.7159225e-38 319 164
0 0.62699997 0.083549835 1.6976631e-38 320 164
0.0010958333 0.625 0.083283328 1.6976631e-38 321 164
0.0021881601 0.62400001 0.083150074 1.6976629e-38 322 164
0.00327698 0.62300003 0.083016828 1.6976629e-38 323 164
0.0043693068 0.62300003 0.083016828 1.6882991e-38 324 164
0.0054528662 0.62199998 0.082883567 1.66986e-38 325 164
0.0065434393 0.62199998 0.082883567 1.6238698e-38 326 164
0.0076340134 0.62199998 0.082883567 1.6330893e-38 327 164
0.0087245861 0.62199998 0.082883567 1.6330172e-38 328 164
0.0098151593 0.62199998 0.082883567 1.6330172e-38 329 164
0.010905732 0.62199998 0.082883567 1.6420924e-38 330 164
0.011996306 0.62199998 0.082883567 1.6236174e-38 331 164
0.013086879 0.62199998 0.082883567 1.6234728e-38 332 164
0.014177452 0.62199998 0.082883567 1.5958501e-38 333 164
0.015268027 0.62199998 0.082883567 1.6049968e-38 334 164
0.0163849 0.62300003 0.083016828 1.577374e-38 335 164
0.017477227 0.62300003 0.083016828 1.5864135e-38 336 164
0.018569553 0.62300003 0.083016828 1.5587548e-38 337 164
0.019661881 0.62300003 0.083016828 1.5769421e-38 338 164
0.020787518 0.62400001 0.083150074 1.540028e-38 339 164
0.021916665 0.625 0.083283328 1.5582873e-38 340 164
0.023012498 0.625 0.083283328 1.521445e-38 341 164
-0.0044113868 0.62900001 0.082713492 1.633054e-38 316 165
-0.00330854 0.62900001 0.082713492 1.6514932e-38 317 165
-0.0022021867 0.62800002 0.082582004 1.6607133e-38 318 165
-0.0011010934 0.62800002 0.082582004 1.6883361e-38 319 165
0 0.62699997 0.082450494 1.670077e-38 320 165
0.0010958333 0.625 0.082187496 1.670077e-38 321 165
0.0021916665 0.625 0.082187496 1.6700765e-38 322 165
0.0032822399 0.62400001 0.082055993 1.6700765e-38 323 165
0.0043693068 0.62300003 0.081924498 1.6790795e-38 324 165
0.0054616337 0.62300003 0.081924498 1.6606404e-38 325 165
0.0065434393 0.62199998 0.081792995 1.6605682e-38 326 165
0.0076340134 0.62199998 0.081792995 1.6513487e-38 327 165
0.0087245861 0.62199998 0.081792995 1.6330172e-38 328 165
0.0098151593 0.62199998 0.081792995 1.6237975e-38 329 165
0.010905732 0.62199998 0.081792995 1.6328728e-38 330 165
0.011996306 0.62199998 0.081792995 1.6143978e-38 331 165
0.013086879 0.62199998 0.081792995 1.6141811e-38 332 165
0.014177452 0.62199998 0.081792995 1.6141811e-38 333 165
0.015292573 0.62300003 0.081924498 1.5774104e-38 334 165
0.0163849 0.62300003 0.081924498 1.5589712e-38 335 165
0.017477227 0.62300003 0.081924498 1.5496075e-38 336 165
0.018599359 0.62400001 0.082055993 1.5219487e-38 337 165
0.01969344 0.62400001 0.082055993 1.5584671e-38 338 165
0.020820832 0.625 0.082187496 1.540028e-38 339 165
0.021916665 0.625 0.082187496 1.5216249e-38 340 165
0.023086138 0.62699997 0.082450494 1.4847106e-38 341 165
-0.0044183997 0.63 0.081740394 1.6514209e-38 316 166
-0.00330854 0.62900001 0.08161065 1.66986e-38 317 166
-0.0022056934 0.62900001 0.08161065 1.6607486e-38 318 166
-0.0011010934 0.62800002 0.081480905 1.6514932e-38 319 166
0 0.62800002 0.081480905 1.6423458e-38 320 166
0.0010993399 0.62699997 0.081351154 1.6331262e-38 321 166
0.0021916665 0.625 0.081091665 1.6240143e-38 322 166
0.0032822399 0.62400001 0.08096192 1.6147947e-38 323 166
0.0043763202 0.62400001 0.08096192 1.6697878e-38 324 166
0.0054616337 0.62300003 0.080832176 1.6513487e-38 325 166
0.00655396 0.62300003 0.080832176 1.6330172e-38 326 166
0.0076462864 0.62300003 0.080832176 1.6330172e-38 327 166
0.0087386137 0.62300003 0.080832176 1.642129e-38 328 166
0.0098309405 0.62300003 0.080832176 1.6513487e-38 329 166
0.010923267 0.62300003 0.080832176 1.6328728e-38 330 166
0.012015593 0.62300003 0.080832176 1.586775e-38 331 166
0.01310792 0.62300003 0.080832176 1.5957422e-38 332 166
0.014200246 0.62300003 0.080832176 1.5773032e-38 333 166
0.015292573 0.62300003 0.080832176 1.5681188e-38 334 166
0.0164112 0.62400001 0.08096192 1.5404602e-38 335 166
0.017505281 0.62400001 0.08096192 1.5127289e-38 336 166
0.018629165 0.625 0.081091665 1.4758508e-38 337 166
0.019724999 0.625 0.081091665 1.5216245e-38 338 166
0.020887459 0.62699997 0.081351154 1.5400636e-38 339 166
0.021986797 0.62699997 0.081351154 1.5399913e-38 340 166
0.023122961 0.62800002 0.081480905 1.5215522e-38 341 166
-0.0044183997 0.63 0.080635794 1.6514206e-38 316 167
-0.0033137999 0.63 0.080635794 1.6698597e-38 317 167
-0.0022056934 0.62900001 0.0805078 1.6607486e-38 318 167
-0.0011028467 0.62900001 0.0805078 1.6514932e-38 319 167
0 0.62800002 0.080379814 1.6055751e-38 320 167
0.0010993399 0.62699997 0.08025182 1.6147947e-38 321 167
0.0021986798 0.62699997 0.08025182 1.61483e-38 322 167
0.0032875 0.625 0.079995833 1.61483e-38 323 167
0.0043763202 0.62400001 0.07986784 1.6697878e-38 324 167
0.0054704002 0.62400001 0.07986784 1.6513487e-38 325 167
0.00655396 0.62300003 0.079739846 1.642129e-38 326 167
0.0076462864 0.62300003 0.079739846 1.6329094e-38 327 167
0.0087386137 0.62300003 0.079739846 1.6236899e-38 328 167
0.0098309405 0.62300003 0.079739846 1.6236899e-38 329 167
0.010923267 0.62300003 0.079739846 1.6235455e-38 330 167
0.012015593 0.62300003 0.079739846 1.5958867e-38 331 167
0.01310792 0.62300003 0.079739846 1.6048899e-38 332 167
0.014200246 0.62300003 0.079739846 1.5864148e-38 333 167
0.01531712 0.62400001 0.07986784 1.5496794e-38 334 167
0.016437499 0.625 0.079995833 1.5312403e-38 335 167
0.017533332 0.625 0.079995833 1.5218763e-38 336 167
0.018629165 0.625 0.079995833 1.5034371e-38 337 167
0.019788118 0.62699997 0.08025182 1.5492826e-38 338 167
0.020887459 0.62699997 0.08025182 1.540063e-38 339 167
0.022021867 0.62800002 0.080379814 1.539991e-38 340 167
0.023122961 0.62800002 0.080379814 1.5215519e-38 341 167
-0.0044183997 0.63 0.0795312 1.6605682e-38 316 168
-0.0033137999 0.63 0.0795312 1.6882268e-38 317 168
-0.0022091998 0.63 0.0795312 1.6607483e-38 318 168
-0.0011028467 0.62900001 0.079404958 1.6791514e-38 319 168
0 0.62800002 0.079278722 1.642489e-38 320 168
0.0010993399 0.62699997 0.079152472 1.642489e-38 321 168
0.0021986798 0.62699997 0.079152472 1.642489e-38 322 168
0.0032875 0.625 0.078899994 1.624014e-38 323 168
0.004383333 0.625 0.078899994 1.6237624e-38 324 168
0.0054704002 0.62400001 0.078773759 1.6237624e-38 325 168
0.00655396 0.62300003 0.078647524 1.6328741e-38 326 168
0.0076462864 0.62300003 0.078647524 1.6236545e-38 327 168
0.0087386137 0.62300003 0.078647524 1.5960316e-38 328 168
0.0098309405 0.62300003 0.078647524 1.5960316e-38 329 168
0.010923267 0.62300003 0.078647524 1.6326575e-38 330 168
0.012015593 0.62300003 0.078647524 1.5958151e-38 331 168
0.01310792 0.62300003 0.078647524 1.5773751e-38 332 168
0.014200246 0.62300003 0.078647524 1.5589359e-38 333 168
0.01531712 0.62400001 0.078773759 1.5588993e-38 334 168
0.016437499 0.625 0.078899994 1.5404602e-38 335 168
0.017533332 0.625 0.078899994 1.5863056e-38 336 168
0.018688779 0.62699997 0.079152472 1.5679025e-38 337 168
0.019788118 0.62699997 0.079152472 1.5585024e-38 338 168
0.020920772 0.62800002 0.079278722 1.5400633e-38 339 168
0.022021867 0.62800002 0.079278722 1.5399916e-38 340 168
0.023122961 0.62800002 0.079278722 1.4846743e-38 341 168
0.024262626 0.62900001 0.079404958 1.5310608e-38 342 168
-0.004425413 0.63099998 0.078551084 1.6513487e-38 316 169
-0.0033190597 0.63099998 0.078551084 1.7066659e-38 317 169
-0.0022127065 0.63099998 0.078551084 1.6608202e-38 318 169
-0.0011045999 0.63 0.0784266 1.6608202e-38 319 169
0 0.62900001 0.078302108 1.6608202e-38 320 169
0.0011010934 0.62800002 0.078177623 1.6608202e-38 321 169
0.0021986798 0.62699997 0.078053132 1.6700402e-38 322 169
0.0032980198 0.62699997 0.078053132 1.651565e-38 323 169
0.004383333 0.625 0.077804163 1.633054e-38 324 169
0.0054791663 0.625 0.077804163 1.633054e-38 325 169
0.0065644798 0.62400001 0.077679679 1.6514209e-38 326 169
0.0076585598 0.62400001 0.077679679 1.6237622e-38 327 169
0.0087526403 0.62400001 0.077679679 1.6328373e-38 328 169
0.0098467199 0.62400001 0.077679679 1.6328373e-38 329 169
0.0109408 0.62400001 0.077679679 1.6326928e-38 330 169
0.01203488 0.62400001 0.077679679 1.6050341e-38 331 169
0.01312896 0.62400001 0.077679679 1.5958498e-38 332 169
0.01422304 0.62400001 0.077679679 1.5774107e-38 333 169
0.015341667 0.625 0.077804163 1.5772302e-38 334 169
0.016490098 0.62699997 0.078053132 1.5496075e-38 335 169
0.017589439 0.62699997 0.078053132 1.5494992e-38 336 169
0.018688779 0.62699997 0.078053132 1.5218766e-38 337 169
0.019819681 0.62800002 0.078177623 1.530916e-38 338 169
0.020920772 0.62800002 0.078177623 1.5124768e-38 339 169
0.022056932 0.62900001 0.078302108 1.5307361e-38 340 169
0.02315978 0.62900001 0.078302108 1.4938939e-38 341 169
0.024262626 0.62900001 0.078302108 1.5217333e-38 342 169
-0.004425413 0.63099998 0.077444725 1.5962111e-38 316 170
-0.0033190597 0.63099998 0.077444725 1.7068458e-38 317 170
-0.0022127065 0.63099998 0.077444725 1.679296e-38 318 170
-0.0011063532 0.63099998 0.077444725 1.6608569e-38 319 170
0 0.63 0.077321991 1.6607849e-38 320 170
0.0011028467 0.62900001 0.077199265 1.6700046e-38 321 170
0.0022021867 0.62800002 0.077076539 1.6607849e-38 322 170
0.0032980198 0.62699997 0.076953799 1.6515653e-38 323 170
0.0043973597 0.62699997 0.076953799 1.6515288e-38 324 170
0.0054791663 0.625 0.076708332 1.6423092e-38 325 170
0.006575 0.625 0.076708332 1.6605682e-38 326 170
0.0076708333 0.625 0.076708332 1.6513487e-38 327 170
0.0087666661 0.625 0.076708332 1.6421287e-38 328 170
0.0098467199 0.62400001 0.076585598 1.6329091e-38 329 170
0.0109408 0.62400001 0.076585598 1.6326925e-38 330 170
0.012054166 0.625 0.076708332 1.6234728e-38 331 170
0.01315 0.625 0.076708332 1.6049971e-38 332 170
0.014245833 0.625 0.076708332 1.5957417e-38 333 170
0.015390759 0.62699997 0.076953799 1.5864138e-38 334 170
0.016490098 0.62699997 0.076953799 1.5587192e-38 335 170
0.017589439 0.62699997 0.076953799 1.5309879e-38 336 170
0.018718587 0.62800002 0.077076539 1.5217684e-38 337 170
0.019819681 0.62800002 0.077076539 1.5124768e-38 338 170
0.020954086 0.62900001 0.077199265 1.5124768e-38 339 170
0.022056932 0.62900001 0.077199265 1.5399561e-38 340 170
0.023233417 0.63099998 0.077444725 1.5122973e-38 341 170
0.024339773 0.63099998 0.077444725 1.4481566e-38 342 170
-0.0044324268 0.63200003 0.076459363 1.3845933e-38 316 171
-0.0033243201 0.63200003 0.076459363 1.6242661e-38 317 171
-0.0022162134 0.63200003 0.076459363 1.7253585e-38 318 171
-0.0011063532 0.63099998 0.076338373 1.6977357e-38 319 171
0 0.63099998 0.076338373 1.6792244e-38 320 171
0.0011045999 0.63 0.076217398 1.6700049e-38 321 171
0.0022056934 0.62900001 0.076096416 1.6607849e-38 322 171
0.0033032801 0.62800002 0.07597544 1.6515653e-38 323 171
0.0044043735 0.62800002 0.07597544 1.6422739e-38 324 171
0.0054966994 0.62699997 0.07585445 1.6238347e-38 325 171
0.0065960395 0.62699997 0.07585445 1.6145429e-38 326 171
0.0076953797 0.62699997 0.07585445 1.6145429e-38 327 171
0.0087947194 0.62699997 0.07585445 1.6052509e-38 328 171
0.0098624993 0.625 0.0756125 1.5960313e-38 329 171
0.010958333 0.625 0.0756125 1.6050344e-38 330 171
0.012092739 0.62699997 0.07585445 1.5958148e-38 331 171
0.01315 0.625 0.0756125 1.6048896e-38 332 171
0.014245833 0.625 0.0756125 1.6048896e-38 333 171
0.015390759 0.62699997 0.07585445 1.5956333e-38 334 171
0.016490098 0.62699997 0.07585445 1.5771583e-38 335 171
0.017589439 0.62699997 0.07585445 1.6138201e-38 336 171
0.018718587 0.62800002 0.07597544 1.5861614e-38 337 171
0.019819681 0.62800002 0.07597544 1.567722e-38 338 171
0.020954086 0.62900001 0.076096416 1.567722e-38 339 171
0.022127066 0.63099998 0.076338373 1.5675425e-38 340 171
0.023233417 0.63099998 0.076338373 1.4384686e-38 341 171
0.024339773 0.63099998 0.076338373 1.1906204e-38 342 171
-0.0033243201 0.63200003 0.075351253 1.3297796e-38 317 172
-0.0022162134 0.63200003 0.075351253 1.6607852e-38 318 172
-0.0011081067 0.63200003 0.075351253 1.7621645e-38 319 172
0 0.63099998 0.075232022 1.7069906e-38 320 172
0.0011045999 0.63 0.075112797 1.6885515e-38 321 172
0.0022056934 0.62900001 0.074993573 1.6976275e-38 322 172
0.00330854 0.62900001 0.074993573 1.6607852e-38 323 172
0.0044043735 0.62800002 0.074874349 1.6514932e-38 324 172
0.0054966994 0.62699997 0.074755117 1.633054e-38 325 172
0.0065960395 0.62699997 0.074755117 1.6330175e-38 326 172
0.0076953797 0.62699997 0.074755117 1.6237978e-38 327 172
0.0088087469 0.62800002 0.074874349 1.6328373e-38 328 172
0.009894059 0.62699997 0.074755117 1.6143981e-38 329 172
0.010993399 0.62699997 0.074755117 1.605106e-38 330 172
0.012092739 0.62699997 0.074755117 1.5958864e-38 331 172
0.013192079 0.62699997 0.074755117 1.6049971e-38 332 172
0.01429142 0.62699997 0.074755117 1.6049971e-38 333 172
0.015390759 0.62699997 0.074755117 1.5957417e-38 334 172
0.016516401 0.62800002 0.074874349 1.5957417e-38 335 172
0.017617494 0.62800002 0.074874349 1.6506634e-38 336 172
0.018718587 0.62800002 0.074874349 1.6322242e-38 337 172
0.019819681 0.62800002 0.074874349 1.650626e-38 338 172
0.020954086 0.62900001 0.074993573 1.5860891e-38 339 172
0.022127066 0.63099998 0.075232022 1.4386837e-38 340 172
0.023233417 0.63099998 0.075232022 1.1713164e-38 341 172
0.024339773 0.63099998 0.075232022 9.8804069e-39 342 172
-0.0022162134 0.63200003 0.074243151 9.1479342e-39 318 173
-0.0011081067 0.63200003 0.074243151 1.2098196e-38 319 173
0 0.63099998 0.07412567 1.5595869e-38 320 173
0.0011063532 0.63099998 0.07412567 1.6702215e-38 321 173
0.0022056934 0.62900001 0.073890723 1.7713841e-38 322 173
0.00330854 0.62900001 0.073890723 1.7437614e-38 323 173
0.0044043735 0.62800002 0.07377325 1.7436884e-38 324 173
0.0055054668 0.62800002 0.07377325 1.7252853e-38 325 173
0.0066065602 0.62800002 0.07377325 1.7343603e-38 326 173
0.0077076531 0.62800002 0.07377325 1.7158853e-38 327 173
0.0088087469 0.62800002 0.07377325 1.7525114e-38 328 173
0.0099098403 0.62800002 0.07377325 1.7341083e-38 329 173
0.011010934 0.62800002 0.07377325 1.7340357e-38 330 173
0.012092739 0.62699997 0.073655777 1.6971574e-38 331 173
0.013192079 0.62699997 0.073655777 1.6512388e-38 332 173
0.01429142 0.62699997 0.073655777 1.6420193e-38 333 173
0.015415306 0.62800002 0.07377325 1.6695338e-38 334 173
0.016516401 0.62800002 0.07377325 1.6234359e-38 335 173
0.017617494 0.62800002 0.07377325 1.6323311e-38 336 173
0.018718587 0.62800002 0.07377325 1.5032572e-38 337 173
0.019851239 0.62900001 0.073890723 1.3922612e-38 338 173
0.020987399 0.63 0.074008197 1.1156743e-38 339 173
0.022127066 0.63099998 0.07412567 6.2847718e-39 340 173
0.023233417 0.63099998 0.07412567 6.1925747e-39 341 173
0.024339773 0.63099998 0.07412567 1.2362867e-38 342 173
0 0.63200003 0.073135041 1.2087043e-38 320 174
0.0011063532 0.63099998 0.073019318 1.4023151e-38 321 174
0.0022091998 0.63 0.072903596 1.5407511e-38 322 174
0.00330854 0.62900001 0.072787881 1.6237271e-38 323 174
0.0044043735 0.62800002 0.072672158 1.6606048e-38 324 174
0.0055054668 0.62800002 0.072672158 1.6975191e-38 325 174
0.0066065602 0.62800002 0.072672158 1.7251052e-38 326 174
0.0077076531 0.62800002 0.072672158 1.7066659e-38 327 174
0.0088087469 0.62800002 0.072672158 1.7525467e-38 328 174
0.0099098403 0.62800002 0.072672158 1.7341436e-38 329 174
0.011010934 0.62800002 0.072672158 1.7523303e-38 330 174
0.012092739 0.62699997 0.072556436 1.6970129e-38 331 174
0.013192079 0.62699997 0.072556436 1.6877567e-38 332 174
0.01429142 0.62699997 0.072556436 1.6508425e-38 333 174
0.015415306 0.62800002 0.072672158 1.6138195e-38 334 174
0.016516401 0.62800002 0.072672158 1.5216598e-38 335 174
0.017617494 0.62800002 0.072672158 1.3834735e-38 336 174
0.018718587 0.62800002 0.072672158 1.2359246e-38 337 174
0.019851239 0.62900001 0.072787881 9.8749895e-39 338 174
0.021120653 0.634 0.073366478 7.75449e-39 339 174
0.022162134 0.63200003 0.073135041 6.8343526e-39 340 174
0.02327024 0.63200003 0.073135041 1.1167546e-38 341 174
0.0055054668 0.62800002 0.071571067 1.1539963e-38 325 175
0.0066065602 0.62800002 0.071571067 1.2919299e-38 326 175
0.0077076531 0.62800002 0.071571067 1.328844e-38 327 175
0.0088087469 0.62800002 0.071571067 1.3747251e-38 328 175
0.0099098403 0.62800002 0.071571067 1.3747251e-38 329 175
0.011010934 0.62800002 0.071571067 1.4020592e-38 330 175
0.012112026 0.62800002 0.071571067 1.3375223e-38 331 175
0.01321312 0.62800002 0.071571067 1.2820966e-38 332 175
0.014314214 0.62800002 0.071571067 1.189937e-38 333 175
0.015415306 0.62800002 0.071571067 1.0975599e-38 334 175
0.016516401 0.62800002 0.071571067 9.0394905e-39 335 175
0.017617494 0.62800002 0.071571067 7.1080514e-39 336 175
0.018718587 0.62800002 0.071571067 7.0154971e-39 337 175
0.0066065602 0.62800002 0.070469975 9.5970223e-39 326 176
0.0076953797 0.62699997 0.070357755 1.005764e-38 327 176
0.0087947194 0.62699997 0.070357755 1.0517884e-38 328 176
0.0099098403 0.62800002 0.070469975 1.0794111e-38 329 176
0.011010934 0.62800002 0.070469975 1.106889e-38 330 176
0.012112026 0.62800002 0.070469975 1.0607552e-38 331 176
0.01321312 0.62800002 0.070469975 1.0054381e-38 332 176
0.014314214 0.62800002 0.070469975 9.6855998e-39 333 176
0.015415306 0.62800002 0.070469975 9.7785017e-39 334 176
0.016516401 0.62800002 0.070469975 9.1331323e-39 335 176
0.0076953797 0.62699997 0.069258414 9.2271482e-39 327 177
0.0087947194 0.62699997 0.069258414 9.1353015e-39 328 177
0.0099098403 0.62800002 0.069368884 9.1353015e-39 329 177
0.011010934 0.62800002 0.069368884 9.318611e-39 330 177
0.012112026 0.62800002 0.069368884 9.318611e-39 331 177
0.01321312 0.62800002 0.069368884 9.6863215e-39 332 177
0.014314214 0.62800002 0.069368884 1.0239495e-38 333 177
0.015415306 0.62800002 0.069368884 1.1436597e-38 334 177
0.016569 0.63 0.069589794 1.2358193e-38 335 177
0.0088087469 0.62800002 0.068267785 1.3835834e-38 328 178
0.0099098403 0.62800002 0.068267785 1.3558888e-38 329 178
0.010993399 0.62699997 0.068159074 1.3467772e-38 330 178
0.012092739 0.62699997 0.068159074 1.3559967e-38 331 178
0.013192079 0.62699997 0.068159074 1.3928392e-38 332 178
0.014314214 0.62800002 0.068267785 1.4020589e-38 333 178
0.015415306 0.62800002 0.068267785 1.4847112e-38 334 178
0.010993399 0.62699997 0.067059733 1.5126214e-38 330 179
0.012092739 0.62699997 0.067059733 1.5310964e-38 331 179
0.013192079 0.62699997 0.067059733 1.5494999e-38 332 179
0.0046989331 0.67000002 -0.0058736666 1.484963e-38 324 245
0.0058736666 0.67000002 -0.0058736666 1.484963e-38 325 245
0.0011747333 0.67000002 -0.0070483997 1.4846743e-38 321 246
0.0023494666 0.67000002 -0.0070483997 1.4940021e-38 322 246
0.0035241998 0.67000002 -0.0070483997 1.5309163e-38 323 246
0.0046989331 0.67000002 -0.0070483997 1.530916e-38 324 246
0.0058561331 0.66799998 -0.0070273597 1.5032572e-38 325 246
0.0070273597 0.66799998 -0.0070273597 1.4663794e-38 326 246
0.0011747333 0.67000002 -0.0082231332 1.365107e-38 321 247
0.0023494666 0.67000002 -0.0082231332 1.3836184e-38 322 247
0.0035241998 0.67000002 -0.0082231332 1.4389358e-38 323 247
0.0046989331 0.67000002 -0.0082231332 1.4571951e-38 324 247
0.0058561331 0.66799998 -0.0081985854 1.4295004e-38 325 247
0.0070273597 0.66799998 -0.0081985854 1.429536e-38 326 247
0.019881045 0.667 -0.0081863133 1.3832932e-38 337 247
0.0011747333 0.67000002 -0.0093978662 8.862983e-39 321 248
0.0023494666 0.67000002 -0.0093978662 9.9675551e-39 322 248
0.0035241998 0.67000002 -0.0093978662 1.0612924e-38 323 248
0.0047059464 0.671 -0.0094118929 1.144089e-38 324 248
0.0058824331 0.671 -0.0094118929 1.1809673e-38 325 248
0.018711573 0.667 -0.0093557863 1.1714918e-38 336 248
0.019881045 0.667 -0.0093557863 1.1254299e-38 337 248
0.021050518 0.667 -0.0093557863 9.7845483e-39 338 248
0.0011694733 0.667 -0.010525259 7.4829044e-39 321 249
0.0023529732 0.671 -0.01058838 7.1163079e-39 322 249
0.0035294599 0.671 -0.01058838 7.2085035e-39 323 249
0.0047059464 0.671 -0.01058838 7.1159519e-39 324 249
0.0058824331 0.671 -0.01058838 7.6691257e-39 325 249
0.0175421 0.667 -0.010525259 9.3239261e-39 335 249
0.018711573 0.667 -0.010525259 9.5075789e-39 336 249
0.019881045 0.667 -0.010525259 9.4150245e-39 337 249
0.021050518 0.667 -0.010525259 8.8639821e-39 338 249
0.038152531 0.68000001 -0.0107304 9.3164277e-39 352 249
0.039344799 0.68000001 -0.0107304 1.014583e-38 353 249
0.040656291 0.68199998 -0.010761959 1.0788331e-38 354 249
0.041852064 0.68199998 -0.010761959 1.3001384e-38 355 249
0.042858478 0.67900002 -0.010714619 1.6869267e-38 356 249
0.044048995 0.67900002 -0.010714619 1.9726971e-38 357 249
-0.0130185 0.67500001 -0.011835 1.1993533e-38 309 250
-0.011817466 0.67400002 -0.011817466 1.1073079e-38 310 250
-0.01063572 0.67400002 -0.011817466 1.1165633e-38 311 250
-0.0094259195 0.67199999 -0.011782399 1.0799764e-38 312 250
-0.00824768 0.67199999 -0.011782399 1.1260741e-38 313 250
-0.0070589199 0.671 -0.011764866 1.1904697e-38 314 250
-0.0058824331 0.671 -0.011764866 1.1904697e-38 315 250
-0.0046989331 0.67000002 -0.011747333 1.0616117e-38 316 250
-0.0035241998 0.67000002 -0.011747333 9.6938002e-39 317 250
-0.0011712266 0.66799998 -0.011712266 8.6807245e-39 319 250
0 0.66799998 -0.011712266 9.510139e-39 320 250
0.0011694733 0.667 -0.011694733 9.510139e-39 321 250
0.0023389466 0.667 -0.011694733 8.2215638e-39 322 250
0.0035084197 0.667 -0.011694733 6.7464337e-39 323 250
0.0046778931 0.667 -0.011694733 3.8033412e-39 324 250
0.0058824331 0.671 -0.011764866 3.8955369e-39 325 250
0.016348081 0.66600001 -0.011677199 7.0225876e-39 334 250
0.017515799 0.66600001 -0.011677199 7.667957e-39 335 250
0.018711573 0.667 -0.011694733 7.944195e-39 336 250
0.019881045 0.667 -0.011694733 8.2207805e-39 337 250
0.021050518 0.667 -0.011694733 8.5877497e-39 338 250
0.036905911 0.67900002 -0.011905133 9.2302829e-39 351 250
0.038096428 0.67900002 -0.011905133 1.0696135e-38 352 250
0.039344799 0.68000001 -0.011922667 1.0419907e-38 353 250
0.040656291 0.68199998 -0.011957732 1.0142961e-38 354 250
0.041852064 0.68199998 -0.011957732 1.3646754e-38 355 250
0.042858478 0.67900002 -0.011905133 1.7330961e-38 356 250
0.044048995 0.67900002 -0.011905133 1.9543656e-38 357 250
-0.021713281 0.68800002 -0.013269227 1.759312e-38 302 251
-0.020477179 0.68699998 -0.013249939 1.611763e-38 303 251
-0.019244585 0.68599999 -0.013230653 1.2452754e-38 304 251
-0.018041799 0.68599999 -0.013230653 1.2268721e-38 305 251
-0.015567848 0.68300003 -0.013172794 1.1720176e-38 307 251
-0.014307199 0.68000001 -0.013114933 1.1531125e-38 308 251
-0.0130185 0.67500001 -0.0130185 1.1808071e-38 309 251
-0.011817466 0.67400002 -0.012999214 1.1531872e-38 310 251
-0.01063572 0.67400002 -0.012999214 1.199285e-38 311 251
-0.0094259195 0.67199999 -0.012960639 1.2360934e-38 312 251
-0.00824768 0.67199999 -0.012960639 1.282191e-38 313 251
-0.0070589199 0.671 -0.012941353 1.1811741e-38 314 251
-0.0058824331 0.671 -0.012941353 1.1258569e-38 315 251
-0.0046989331 0.67000002 -0.012922067 9.9714451e-39 316 251
-0.0035241998 0.67000002 -0.012922067 9.7870538e-39 317 251
-0.0023494666 0.67000002 -0.012922067 9.8785488e-39 318 251
-0.0011712266 0.66799998 -0.012883492 9.7863532e-39 319 251
0 0.66799998 -0.012883492 1.0431735e-38 320 251
0.0011694733 0.667 -0.012864206 1.0523931e-38 321 251
0.0023389466 0.667 -0.012864206 1.0706514e-38 322 251
0.0035084197 0.667 -0.012864206 8.4934592e-39 323 251
0.0046778931 0.667 -0.012864206 4.905e-39 324 251
0.0058473665 0.667 -0.012864206 5.1815883e-39 325 251
0.0070168395 0.667 -0.012864206 6.1031579e-39 326 251
0.0081126727 0.66100001 -0.012748486 6.6563317e-39 327 251
0.0092716264 0.66100001 -0.012748486 6.5651996e-39 328 251
0.01043058 0.66100001 -0.012748486 6.2889729e-39 329 251
0.011677199 0.66600001 -0.01284492 6.653082e-39 330 251
0.01284492 0.66600001 -0.01284492 6.1921053e-39 331 251
0.014012639 0.66600001 -0.01284492 6.3754204e-39 332 251
0.01518036 0.66600001 -0.01284492 6.5598116e-39 333 251
0.016348081 0.66600001 -0.01284492 7.6657892e-39 334 251
0.017515799 0.66600001 -0.01284492 8.1267674e-39 335 251
0.018711573 0.667 -0.012864206 8.1289198e-39 336 251
0.019881045 0.667 -0.012864206 8.313311e-39 337 251
0.021050518 0.667 -0.012864206 8.404778e-39 338 251
0.023529733 0.671 -0.012941353 7.9445089e-39 340 251
0.024706218 0.671 -0.012941353 7.3913351e-39 341 251
0.025882706 0.671 -0.012941353 6.4711865e-39 342 251
0.027059194 0.671 -0.012941353 6.2871554e-39 343 251
0.028235679 0.671 -0.012941353 6.1953283e-39 344 251
0.029543666 0.67400002 -0.012999214 6.7485021e-39 345 251
0.030725412 0.67400002 -0.012999214 6.7492055e-39 346 251
0.03190716 0.67400002 -0.012999214 7.0257924e-39 347 251
0.033088908 0.67400002 -0.012999214 7.5775214e-39 348 251
0.035715401 0.67900002 -0.013095647 9.3199632e-39 350 251
0.036905911 0.67900002 -0.013095647 9.9653326e-39 351 251
0.038096428 0.67900002 -0.013095647 1.0696138e-38 352 251
0.039344799 0.68000001 -0.013114933 9.4975946e-39 353 251
0.040656291 0.68199998 -0.013153506 9.6819831e-39 354 251
0.041852064 0.68199998 -0.013153506 1.4292123e-38 355 251
0.042921599 0.68000001 -0.013114933 1.7699746e-38 356 251
0.044113863 0.68000001 -0.013114933 1.9451463e-38 357 251
-0.021713281 0.68800002 -0.014475521 1.6388103e-38 302 252
-0.020477179 0.68699998 -0.014454478 1.6572854e-38 303 252
-0.019244585 0.68599999 -0.01443344 1.2269835e-38 304 252
-0.018041799 0.68599999 -0.01443344 1.2638259e-38 305 252
-0.016789921 0.68400002 -0.01439136 1.2546031e-38 306 252
-0.015567848 0.68300003 -0.014370319 1.2453836e-38 307 252
-0.014307199 0.68000001 -0.014307199 1.1439311e-38 308 252
-0.013037786 0.676 -0.014223038 1.1347115e-38 309 252
-0.011835 0.67500001 -0.014202001 1.1624759e-38 310 252
-0.01063572 0.67400002 -0.01418096 1.2177932e-38 311 252
-0.0094539737 0.67400002 -0.01418096 1.29144e-38 312 252
-0.00824768 0.67199999 -0.01413888 1.3006596e-38 313 252
-0.0070694401 0.67199999 -0.01413888 1.2822217e-38 314 252
-0.0058824331 0.671 -0.01411784 1.190062e-38 315 252
-0.0047059464 0.671 -0.01411784 1.0981222e-38 316 252
-0.0035241998 0.67000002 -0.014096799 1.1441842e-38 317 252
-0.0023494666 0.67000002 -0.014096799 1.0797611e-38 318 252
-0.0011747333 0.67000002 -0.014096799 1.061322e-38 319 252
0 0.67000002 -0.014096799 1.0063311e-38 320 252
0.0011712266 0.66799998 -0.014054719 1.0155508e-38 321 252
0.0023424532 0.66799998 -0.014054719 1.0891622e-38 322 252
0.0035084197 0.667 -0.014033679 9.232099e-39 323 252
0.0046778931 0.667 -0.014033679 5.1819387e-39 324 252
0.0058473665 0.667 -0.014033679 5.5507198e-39 325 252
0.0070168395 0.667 -0.014033679 7.1151336e-39 326 252
0.0081126727 0.66100001 -0.01390744 7.8530574e-39 327 252
0.0092716264 0.66100001 -0.01390744 7.7608407e-39 328 252
0.01043058 0.66100001 -0.01390744 6.93108e-39 329 252
0.011677199 0.66600001 -0.014012639 6.4697516e-39 330 252
0.01284492 0.66600001 -0.014012639 6.6537827e-39 331 252
0.014012639 0.66600001 -0.014012639 7.2037321e-39 332 252
0.01518036 0.66600001 -0.014012639 7.4806791e-39 333 252
0.016348081 0.66600001 -0.014012639 7.7590583e-39 334 252
0.017515799 0.66600001 -0.014012639 7.9434495e-39 335 252
0.018711573 0.667 -0.014033679 8.588079e-39 336 252
0.019910853 0.66799998 -0.014054719 8.6802761e-39 337 252
0.021082079 0.66799998 -0.014054719 8.9564846e-39 338 252
0.022253305 0.66799998 -0.014054719 8.7724521e-39 339 252
0.023494666 0.67000002 -0.014096799 8.8635603e-39 340 252
0.024669399 0.67000002 -0.014096799 8.5866189e-39 341 252
0.025844134 0.67000002 -0.014096799 7.9441292e-39 342 252
0.027059194 0.671 -0.01411784 7.6675465e-39 343 252
0.028235679 0.671 -0.01411784 7.1176097e-39 344 252
0.029455997 0.67199999 -0.01413888 7.3019981e-39 345 252
0.030725412 0.67400002 -0.01418096 7.5778634e-39 346 252
0.03190716 0.67400002 -0.01418096 7.6700576e-39 347 252
0.033088908 0.67400002 -0.01418096 7.945225e-39 348 252
0.034372345 0.676 -0.014223038 8.3143676e-39 349 252
0.035715401 0.67900002 -0.01428616 9.9628257e-39 350 252
0.036905911 0.67900002 -0.01428616 1.0147576e-38 351 252
0.038096428 0.67900002 -0.01428616 1.06025e-38 352 252
0.039344799 0.68000001 -0.014307199 9.6801852e-39 353 252
0.040656291 0.68199998 -0.01434928 1.0691099e-38 354 252
0.041852064 0.68199998 -0.01434928 1.5577469e-38 355 252
0.043047838 0.68199998 -0.01434928 1.7792665e-38 356 252
0.044243611 0.68199998 -0.01434928 1.9267795e-38 357 252
-0.021776399 0.69 -0.015727401 1.8518332e-38 302 253
-0.020506985 0.68800002 -0.015681813 1.6858812e-38 303 253
-0.019272638 0.68699998 -0.015659019 1.3469149e-38 304 253
-0.018041799 0.68599999 -0.015636226 1.4114519e-38 305 253
-0.016789921 0.68400002 -0.01559064 1.4482209e-38 306 253
-0.015567848 0.68300003 -0.015567848 1.3099275e-38 307 253
-0.014307199 0.68000001 -0.015499466 1.2450258e-38 308 253
-0.013095647 0.67900002 -0.015476674 1.2634649e-38 309 253
-0.011852534 0.676 -0.015408293 1.245344e-38 310 253
-0.0106515 0.67500001 -0.0153855 1.2637833e-38 311 253
-0.0094539737 0.67400002 -0.015362706 1.2732879e-38 312 253
-0.0082722269 0.67400002 -0.015362706 1.2825075e-38 313 253
-0.0070694401 0.67199999 -0.01531712 1.3832747e-38 314 253
-0.0058911997 0.67199999 -0.01531712 1.3832747e-38 315 253
-0.0047059464 0.671 -0.015294326 1.346615e-38 316 253
-0.0035294599 0.671 -0.015294326 1.3373955e-38 317 253
-0.0023529732 0.671 -0.015294326 1.1531172e-38 318 253
-0.0011747333 0.67000002 -0.015271533 1.0793607e-38 319 253
0 0.67000002 -0.015271533 9.8781564e-39 320 253
0.0011712266 0.66799998 -0.015225946 9.7856021e-39 321 253
0.0023424532 0.66799998 -0.015225946 9.8788697e-39 322 253
0.0035136798 0.66799998 -0.015225946 9.2335003e-39 323 253
0.0046849065 0.66799998 -0.015225946 7.5778942e-39 324 253
0.0058561331 0.66799998 -0.015225946 6.8403292e-39 325 253
0.0070273597 0.66799998 -0.015225946 7.6682681e-39 326 253
0.0081985854 0.66799998 -0.015225946 8.0370521e-39 327 253
0.0093557863 0.667 -0.015203152 7.6704205e-39 328 253
0.010525259 0.667 -0.015203152 7.3016394e-39 329 253
0.011694733 0.667 -0.015203152 7.2098109e-39 330 253
0.012864206 0.667 -0.015203152 6.8410298e-39 331 253
0.014033679 0.667 -0.015203152 6.7488496e-39 332 253
0.015203152 0.667 -0.015203152 7.2101879e-39 333 253
0.016372627 0.667 -0.015203152 7.3938533e-39 334 253
0.0175421 0.667 -0.015203152 7.947027e-39 335 253
0.018711573 0.667 -0.015203152 8.7731878e-39 336 253
0.019881045 0.667 -0.015203152 8.9579378e-39 337 253
0.021082079 0.66799998 -0.015225946 9.3252783e-39 338 253
0.022253305 0.66799998 -0.015225946 9.232724e-39 339 253
0.023494666 0.67000002 -0.015271533 8.9568405e-39 340 253
0.024669399 0.67000002 -0.015271533 8.9568405e-39 341 253
0.025844134 0.67000002 -0.015271533 7.5785808e-39 342 253
0.027059194 0.671 -0.015294326 7.4863866e-39 343 253
0.028235679 0.671 -0.015294326 7.3034331e-39 344 253
0.029455997 0.67199999 -0.01531712 7.3956273e-39 345 253
0.030725412 0.67400002 -0.015362706 7.5785808e-39 346 253
0.031954501 0.67500001 -0.0153855 7.7629693e-39 347 253
0.033137999 0.67500001 -0.0153855 8.0356508e-39 348 253
0.034372345 0.676 -0.015408293 9.049444e-39 349 253
0.0356628 0.67799997 -0.015453878 1.1250349e-38 350 253
0.036851559 0.67799997 -0.015453878 1.0328394e-38 351 253
0.038040318 0.67799997 -0.015453878 1.0417037e-38 352 253
0.039286941 0.67900002 -0.015476674 1.0324841e-38 353 253
0.040477451 0.67900002 -0.015476674 1.2074037e-38 354 253
0.041729335 0.68000001 -0.015499466 1.5761502e-38 355 253
0.042921599 0.68000001 -0.015499466 1.7700469e-38 356 253
0.044113863 0.68000001 -0.015499466 1.9267795e-38 357 253
-0.020506985 0.68800002 -0.016888106 1.6863852e-38 303 254
-0.019272638 0.68699998 -0.01686356 1.4296411e-38 304 254
-0.018041799 0.68599999 -0.016839013 1.5126172e-38 305 254
-0.016789921 0.68400002 -0.016789921 1.5402769e-38 306 254
-0.015567848 0.68300003 -0.016765373 1.4388257e-38 307 254
-0.01434928 0.68199998 -0.016740825 1.3190006e-38 308 254
-0.013114933 0.68000001 -0.016691733 1.2637193e-38 309 254
-0.011852534 0.676 -0.016593546 1.3283558e-38 310 254
-0.0106515 0.67500001 -0.016569 1.3559785e-38 311 254
-0.0094539737 0.67400002 -0.016544454 1.2919082e-38 312 254
-0.0082722269 0.67400002 -0.016544454 1.3011636e-38 313 254
-0.0070904801 0.67400002 -0.016544454 1.3743435e-38 314 254
-0.0058911997 0.67199999 -0.01649536 1.3282457e-38 315 254
-0.0047059464 0.671 -0.016470812 1.3282442e-38 316 254
-0.0035294599 0.671 -0.016470812 1.3466473e-38 317 254
-0.0023529732 0.671 -0.016470812 1.2175412e-38 318 254
-0.0011747333 0.67000002 -0.016446266 1.1160901e-38 319 254
0 0.67000002 -0.016446266 1.0520599e-38 320 254
0.0011712266 0.66799998 -0.016397171 1.0428402e-38 321 254
0.0023424532 0.66799998 -0.016397171 1.0981554e-38 322 254
0.0035136798 0.66799998 -0.016397171 1.0797163e-38 323 254
0.0046849065 0.66799998 -0.016397171 9.7869417e-39 324 254
0.0058561331 0.66799998 -0.016397171 9.6021903e-39 325 254
0.0070273597 0.66799998 -0.016397171 9.6018316e-39 326 254
0.0081985854 0.66799998 -0.016397171 9.7858613e-39 327 254
0.0093698129 0.66799998 -0.016397171 9.8776968e-39 328 254
0.01054104 0.66799998 -0.016397171 9.6007554e-39 329 254
0.011694733 0.667 -0.016372627 8.7731597e-39 330 254
0.012864206 0.667 -0.016372627 8.5887713e-39 331 254
0.014033679 0.667 -0.016372627 8.0388345e-39 332 254
0.015203152 0.667 -0.016372627 8.223223e-39 333 254
0.016372627 0.667 -0.016372627 8.5905663e-39 334 254
0.0175421 0.667 -0.016372627 8.9589887e-39 335 254
0.018711573 0.667 -0.016372627 9.6929833e-39 336 254
0.019881045 0.667 -0.016372627 9.96921e-39 337 254
0.021082079 0.66799998 -0.016397171 1.0518778e-38 338 254
0.022253305 0.66799998 -0.016397171 1.024219e-38 339 254
0.023494666 0.67000002 -0.016446266 9.6003967e-39 340 254
0.024669399 0.67000002 -0.016446266 9.2319785e-39 341 254
0.025882706 0.671 -0.016470812 8.5902062e-39 342 254
0.027059194 0.671 -0.016470812 8.498012e-39 343 254
0.028235679 0.671 -0.016470812 8.3136235e-39 344 254
0.029543666 0.67400002 -0.016544454 8.3136235e-39 345 254
0.030771 0.67500001 -0.016569 8.3136235e-39 346 254
0.031954501 0.67500001 -0.016569 8.2214293e-39 347 254
0.033187091 0.676 -0.016593546 8.3115314e-39 348 254
0.034372345 0.676 -0.016593546 9.3256833e-39 349 254
0.0356628 0.67799997 -0.016642639 1.1713143e-38 350 254
0.036851559 0.67799997 -0.016642639 1.0238011e-38 351 254
0.038040318 0.67799997 -0.016642639 9.4997624e-39 352 254
0.039286941 0.67900002 -0.016667187 9.6841537e-39 353 254
0.040477451 0.67900002 -0.016667187 1.1801406e-38 354 254
0.041729335 0.68000001 -0.016691733 1.5028253e-38 355 254
0.042921599 0.68000001 -0.016691733 1.7700467e-38 356 254
0.04437336 0.68400002 -0.016789921 1.9267792e-38 357 254
-0.0180944 0.68800002 -0.0180944 1.5124399e-38 305 255
-0.016839013 0.68599999 -0.018041799 1.4852131e-38 306 255
-0.015567848 0.68300003 -0.017962901 1.4667381e-38 307 255
-0.014370319 0.68300003 -0.017962901 1.4113465e-38 308 255
-0.013153506 0.68199998 -0.017936599 1.3929434e-38 309 255
-0.011922667 0.68000001 -0.017883999 1.4207094e-38 310 255
-0.01066728 0.676 -0.017778801 1.4483679e-38 311 255
-0.0094820261 0.676 -0.017778801 1.3840472e-38 312 255
-0.0082844999 0.67500001 -0.0177525 1.4117418e-38 313 255
-0.0070904801 0.67400002 -0.0177262 1.3653878e-38 314 255
-0.0058911997 0.67199999 -0.017673599 1.2363139e-38 315 255
-0.0047129598 0.67199999 -0.017673599 1.2732227e-38 316 255
-0.0035294599 0.671 -0.0176473 1.2824782e-38 317 255
-0.0023529732 0.671 -0.0176473 1.2636755e-38 318 255
-0.0011747333 0.67000002 -0.017620999 1.1714801e-38 319 255
0 0.67000002 -0.017620999 1.2177187e-38 320 255
0.0011712266 0.66799998 -0.017568398 1.236158e-38 321 255
0.0023424532 0.66799998 -0.017568398 1.2178986e-38 322 255
0.0035136798 0.66799998 -0.017568398 1.2086791e-38 323 255
0.0046849065 0.66799998 -0.017568398 1.1718724e-38 324 255
0.0058561331 0.66799998 -0.017568398 1.1718724e-38 325 255
0.0070273597 0.66799998 -0.017568398 1.1443938e-38 326 255
0.0081985854 0.66799998 -0.017568398 1.1443938e-38 327 255
0.0093698129 0.66799998 -0.017568398 1.116592e-38 328 255
0.01054104 0.66799998 -0.017568398 1.0797497e-38 329 255
0.011694733 0.667 -0.0175421 1.0337604e-38 330 255
0.012864206 0.667 -0.0175421 1.0245409e-38 331 255
0.014033679 0.667 -0.0175421 9.0526123e-39 332 255
0.015203152 0.667 -0.0175421 9.0526123e-39 333 255
0.016372627 0.667 -0.0175421 8.6841997e-39 334 255
0.0175421 0.667 -0.0175421 8.868591e-39 335 255
0.018739626 0.66799998 -0.017568398 9.9688625e-39 336 255
0.019910853 0.66799998 -0.017568398 1.0153254e-38 337 255
0.021082079 0.66799998 -0.017568398 1.0244007e-38 338 255
0.022253305 0.66799998 -0.017568398 9.8752263e-39 339 255
0.023494666 0.67000002 -0.017620999 9.3241811e-39 340 255
0.024706218 0.671 -0.0176473 9.1394297e-39 341 255
0.025882706 0.671 -0.0176473 8.4065352e-39 342 255
0.027059194 0.671 -0.0176473 8.314341e-39 343 255
0.02827776 0.67199999 -0.017673599 8.3136235e-39 344 255
0.029543666 0.67400002 -0.0177262 8.2214293e-39 345 255
0.030771 0.67500001 -0.0177525 8.3129061e-39 346 255
0.032001842 0.676 -0.017778801 8.58913e-39 347 255
0.033187091 0.676 -0.017778801 8.4944975e-39 348 255
0.034474038 0.67799997 -0.0178314 1.0246213e-38 349 255
0.035715401 0.67900002 -0.017857701 1.2081571e-38 350 255
0.036905911 0.67900002 -0.017857701 1.0606441e-38 351 255
0.038096428 0.67900002 -0.017857701 1.0326639e-38 352 255
0.039286941 0.67900002 -0.017857701 9.8653009e-39 353 255
0.040537067 0.68000001 -0.017883999 1.1614131e-38 354 255
0.041852064 0.68199998 -0.017936599 1.5578543e-38 355 255
0.043174081 0.68400002 -0.0179892 1.7699746e-38 356 255
0.04437336 0.68400002 -0.0179892 1.9358909e-38 357 255
-0.0180944 0.68800002 -0.019300694 1.4755266e-38 305 256
-0.016839013 0.68599999 -0.019244585 1.3927298e-38 306 256
-0.01559064 0.68400002 -0.01918848 1.3374124e-38 307 256
-0.014370319 0.68300003 -0.019160427 1.2089127e-38 308 256
-0.013153506 0.68199998 -0.019132372 1.2181322e-38 309 256
-0.011922667 0.68000001 -0.019076265 1.2367521e-38 310 256
-0.010714619 0.67900002 -0.019048214 1.2828141e-38 311 256
-0.0094820261 0.676 -0.018964052 1.3012902e-38 312 256
-0.0082967728 0.676 -0.018964052 1.365827e-38 313 256
-0.0071010003 0.67500001 -0.018935999 1.3011791e-38 314 256
-0.0059087332 0.67400002 -0.018907947 1.0983487e-38 315 256
-0.0047129598 0.67199999 -0.018851839 1.1906127e-38 316 256
-0.00353472 0.67199999 -0.018851839 1.2735887e-38 317 256
-0.0023529732 0.671 -0.018823786 1.3284335e-38 318 256
-0.0011764866 0.671 -0.018823786 1.2270183e-38 319 256
0 0.671 -0.018823786 1.2546693e-38 320 256
0.0011747333 0.67000002 -0.018795732 1.2362301e-38 321 256
0.0023494666 0.67000002 -0.018795732 1.2270801e-38 322 256
0.0035241998 0.67000002 -0.018795732 1.2178606e-38 323 256
0.0046989331 0.67000002 -0.018795732 1.19031e-38 324 256
0.0058561331 0.66799998 -0.018739626 1.1810547e-38 325 256
0.0070273597 0.66799998 -0.018739626 1.1352087e-38 326 256
0.0081985854 0.66799998 -0.018739626 1.1167699e-38 327 256
