# .PCD v.7 - Point Cloud Data file format
FIELDS x y z rgb imX imY
SIZE 4 4 4 4 4 4
TYPE F F F F F F
COUNT 1 1 1 1 1 1
WIDTH 836
HEIGHT 1
VIEWPOINT 0 0 0 1 0 0 0
POINTS 836
DATA ascii
-0.013558527 0.70300001 -0.0061629666 9.3110145e-39 309 245
-0.012290866 0.70099998 -0.0061454331 9.3106474e-39 310 245
-0.011061779 0.70099998 -0.0061454331 1.0509191e-38 311 245
-0.0098326923 0.70099998 -0.0061454331 1.0690708e-38 312 245
-0.0086281532 0.70300001 -0.0061629666 8.5702097e-39 313 245
-0.0073955595 0.70300001 -0.0061629666 6.4529458e-39 314 245
-0.0061717331 0.704 -0.0061717331 8.0206316e-39 315 245
-0.0049373866 0.704 -0.0061717331 9.7691242e-39 316 245
-0.0037030398 0.704 -0.0061717331 9.8613198e-39 317 245
-0.0024686933 0.704 -0.0061717331 9.7687711e-39 318 245
-0.0012343467 0.704 -0.0061717331 9.6765755e-39 319 245
0 0.70599997 -0.0061892662 9.3085146e-39 320 245
0.0012378532 0.70599997 -0.0061892662 9.216319e-39 321 245
0.0024757064 0.70599997 -0.0061892662 8.6649599e-39 322 245
0.0037135598 0.70599997 -0.0061892662 8.0195905e-39 323 245
0.0049584266 0.70700002 -0.0061980332 8.0167192e-39 324 245
0.0062067998 0.708 -0.0062067998 8.0167192e-39 325 245
0.0074691991 0.70999998 -0.0062243328 8.1110672e-39 326 245
0.0087263398 0.71100003 -0.0062330998 8.664241e-39 327 245
0.0099729598 0.71100003 -0.0062330998 8.4791239e-39 328 245
0.011266919 0.71399999 -0.0062593995 7.8337545e-39 329 245
0.012518799 0.71399999 -0.0062593995 6.7277797e-39 330 245
0.013809253 0.71600002 -0.0062769335 6.0824103e-39 331 245
0.015085679 0.71700001 -0.0062857 5.7125515e-39 332 245
0.016342819 0.71700001 -0.0062857 5.1593778e-39 333 245
0.017599959 0.71700001 -0.0062857 7.5586025e-39 334 245
0.0188308 0.71600002 -0.0062769335 1.0139721e-38 335 245
0.020086186 0.71600002 -0.0062769335 1.4932079e-38 336 245
-0.045446403 0.72000003 -0.0075743999 1.4656957e-38 284 246
-0.044122629 0.71899998 -0.0075638802 1.2167675e-38 285 246
-0.042742759 0.71700001 -0.0075428397 9.5937727e-39 286 246
-0.041427758 0.71600002 -0.00753232 9.1327946e-39 287 246
-0.040172372 0.71600002 -0.00753232 9.4997848e-39 288 246
-0.038808275 0.71399999 -0.0075112795 9.5919805e-39 289 246
-0.037503798 0.713 -0.0075007593 9.1335163e-39 290 246
-0.036151983 0.71100003 -0.0074797203 8.4881468e-39 291 246
-0.034856264 0.70999998 -0.0074691991 4.8921684e-39 292 246
-0.033611398 0.70999998 -0.0074691991 4.8921684e-39 293 246
-0.03227536 0.708 -0.0074481601 5.4403059e-39 294 246
-0.030990168 0.70700002 -0.0074376399 6.6388491e-39 295 246
-0.029708479 0.70599997 -0.0074271196 8.0260771e-39 296 246
-0.028470624 0.70599997 -0.0074271196 7.6572946e-39 297 246
-0.027155625 0.704 -0.0074060797 6.91721e-39 298 246
-0.02592128 0.704 -0.0074060797 6.7328173e-39 299 246
-0.024686933 0.704 -0.0074060797 6.1861274e-39 300 246
-0.023452586 0.704 -0.0074060797 7.6616176e-39 301 246
-0.022218239 0.704 -0.0074060797 9.9596672e-39 302 246
-0.021043506 0.70599997 -0.0074271196 1.0697232e-38 303 246
-0.019805651 0.70599997 -0.0074271196 1.0971653e-38 304 246
-0.018515198 0.704 -0.0074060797 1.0695066e-38 305 246
-0.017256306 0.70300001 -0.0073955595 1.0878728e-38 306 246
-0.016023712 0.70300001 -0.0073955595 1.0510305e-38 307 246
-0.014812159 0.704 -0.0074060797 9.6787208e-39 308 246
-0.013577812 0.704 -0.0074060797 9.5865252e-39 309 246
-0.012325933 0.70300001 -0.0073955595 9.5890293e-39 310 246
-0.011061779 0.70099998 -0.0073745195 1.0234399e-38 311 246
-0.0098326923 0.70099998 -0.0073745195 1.0326964e-38 312 246
-0.0086281532 0.70300001 -0.0073955595 9.6815949e-39 313 246
-0.0073955595 0.70300001 -0.0073955595 8.5705656e-39 314 246
-0.0061717331 0.704 -0.0074060797 8.2936186e-39 315 246
-0.0049373866 0.704 -0.0074060797 8.4826986e-39 316 246
-0.0037030398 0.704 -0.0074060797 7.8373292e-39 317 246
-0.0024757064 0.70599997 -0.0074271196 7.5546495e-39 318 246
-0.0012378532 0.70599997 -0.0074271196 7.0936727e-39 319 246
0 0.70599997 -0.0074271196 6.72813e-39 320 246
0.0012378532 0.70599997 -0.0074271196 7.1891081e-39 321 246
0.0024757064 0.70599997 -0.0074271196 7.8298098e-39 322 246
0.0037188199 0.70700002 -0.0074376399 7.3688331e-39 323 246
0.0049654399 0.708 -0.0074481601 7.1855208e-39 324 246
0.0062067998 0.708 -0.0074481601 7.6464976e-39 325 246
0.0074691991 0.70999998 -0.0074691991 7.6515282e-39 326 246
0.0087140659 0.70999998 -0.0074691991 8.0206695e-39 327 246
0.0099729598 0.71100003 -0.0074797203 8.1117861e-39 328 246
0.011266919 0.71399999 -0.0075112795 7.4664167e-39 329 246
0.012518799 0.71399999 -0.0075112795 6.8199809e-39 330 246
0.013809253 0.71600002 -0.00753232 5.9898615e-39 331 246
0.015085679 0.71700001 -0.0075428397 5.5281631e-39 332 246
0.016342819 0.71700001 -0.0075428397 5.7125543e-39 333 246
0.017599959 0.71700001 -0.0075428397 7.8341076e-39 334 246
0.0188308 0.71600002 -0.00753232 9.7702158e-39 335 246
0.020086186 0.71600002 -0.00753232 1.5206145e-38 336 246
-0.044183999 0.72000003 -0.0088367993 1.2717602e-38 285 247
-0.042861983 0.71899998 -0.0088245263 9.3182606e-39 286 247
-0.041485619 0.71700001 -0.0087999795 9.1338694e-39 287 247
-0.040172372 0.71600002 -0.0087877065 8.8576552e-39 288 247
-0.038808275 0.71399999 -0.0087631596 8.8576552e-39 289 247
-0.037556399 0.71399999 -0.0087631596 8.7650911e-39 290 247
-0.036253672 0.713 -0.0087508867 8.672894e-39 291 247
-0.034905359 0.71100003 -0.0087263398 6.8289828e-39 292 247
-0.033611398 0.70999998 -0.0087140659 4.8928746e-39 293 247
-0.032366529 0.70999998 -0.0087140659 4.8021237e-39 294 247
-0.031034 0.708 -0.008689519 5.0783505e-39 295 247
-0.029750559 0.70700002 -0.008677247 8.020322e-39 296 247
-0.028470624 0.70599997 -0.0086649731 7.4671496e-39 297 247
-0.027232772 0.70599997 -0.0086649731 5.628625e-39 298 247
-0.02592128 0.704 -0.0086404262 5.628625e-39 299 247
-0.024686933 0.704 -0.0086404262 5.6293635e-39 300 247
-0.023452586 0.704 -0.0086404262 7.2888848e-39 301 247
-0.022218239 0.704 -0.0086404262 7.7491441e-39 302 247
-0.021043506 0.70599997 -0.0086649731 8.2101208e-39 303 247
-0.019805651 0.70599997 -0.0086649731 9.12811e-39 304 247
-0.018515198 0.704 -0.0086404262 8.9437174e-39 305 247
-0.017280852 0.704 -0.0086404262 9.4975918e-39 306 247
-0.016046507 0.704 -0.0086404262 9.6819831e-39 307 247
-0.014812159 0.704 -0.0086404262 8.4826986e-39 308 247
-0.013577812 0.704 -0.0086404262 8.2983073e-39 309 247
-0.012325933 0.70300001 -0.0086281532 9.7716381e-39 310 247
-0.01109334 0.70300001 -0.0086281532 1.0048585e-38 311 247
-0.0098607466 0.70300001 -0.0086281532 9.6819677e-39 312 247
-0.0086404262 0.704 -0.0086404262 9.4053808e-39 313 247
-0.0074060797 0.704 -0.0086404262 9.1241023e-39 314 247
-0.0061892662 0.70599997 -0.0086649731 8.4787329e-39 315 247
-0.0049514128 0.70599997 -0.0086649731 8.4819825e-39 316 247
-0.0037135598 0.70599997 -0.0086649731 8.3897869e-39 317 247
-0.0024757064 0.70599997 -0.0086649731 7.2809506e-39 318 247
-0.0012378532 0.70599997 -0.0086649731 6.8203312e-39 319 247
0 0.70700002 -0.008677247 6.7285013e-39 320 247
0.0012396066 0.70700002 -0.008677247 6.820697e-39 321 247
0.0024792133 0.70700002 -0.008677247 7.1887578e-39 322 247
0.0037188199 0.70700002 -0.008677247 7.3731491e-39 323 247
0.0049654399 0.708 -0.008689519 7.4656978e-39 324 247
0.0062243328 0.70999998 -0.0087140659 7.926676e-39 325 247
0.0074691991 0.70999998 -0.0087140659 7.6544009e-39 326 247
0.0087140659 0.70999998 -0.0087140659 7.8387935e-39 327 247
0.0099729598 0.71100003 -0.0087263398 8.0210198e-39 328 247
0.011266919 0.71399999 -0.0087631596 7.3756504e-39 329 247
0.012518799 0.71399999 -0.0087631596 7.2787884e-39 330 247
0.013809253 0.71600002 -0.0087877065 6.448669e-39 331 247
0.015085679 0.71700001 -0.0087999795 5.6221566e-39 332 247
0.016342819 0.71700001 -0.0087999795 6.4519186e-39 333 247
0.017599959 0.71700001 -0.0087999795 7.9245054e-39 334 247
0.0188308 0.71600002 -0.0087877065 9.8606136e-39 335 247
0.020086186 0.71600002 -0.0087877065 1.5482011e-38 336 247
0.021341572 0.71600002 -0.0087877065 1.6311771e-38 337 247
-0.044306733 0.722 -0.010127253 1.2992747e-38 285 248
-0.042861983 0.71899998 -0.010085173 9.0409521e-39 286 248
-0.041485619 0.71700001 -0.01005712 9.1331477e-39 287 248
-0.040228479 0.71700001 -0.01005712 8.7636645e-39 288 248
-0.038916986 0.71600002 -0.010043093 8.7636645e-39 289 248
-0.037556399 0.71399999 -0.01001504 8.5810697e-39 290 248
-0.036253672 0.713 -0.010001013 8.7654596e-39 291 248
-0.034905359 0.71100003 -0.0099729598 8.3970302e-39 292 248
-0.033611398 0.70999998 -0.0099589331 8.3970302e-39 293 248
-0.032366529 0.70999998 -0.0099589331 8.8580028e-39 294 248
-0.031034 0.708 -0.0099308798 8.489579e-39 295 248
-0.029750559 0.70700002 -0.0099168532 9.0369892e-39 296 248
-0.028470624 0.70599997 -0.0099028256 8.3916198e-39 297 248
-0.027232772 0.70599997 -0.0099028256 7.1966737e-39 298 248
-0.02592128 0.704 -0.0098747732 7.4729005e-39 299 248
-0.024686933 0.704 -0.0098747732 7.7476979e-39 300 248
-0.023452586 0.704 -0.0098747732 7.5629479e-39 301 248
-0.022218239 0.704 -0.0098747732 6.4573249e-39 302 248
-0.021043506 0.70599997 -0.0099028256 5.166586e-39 303 248
-0.019805651 0.70599997 -0.0099028256 5.71689e-39 304 248
-0.018567799 0.70599997 -0.0099028256 6.3622594e-39 305 248
-0.017329946 0.70599997 -0.0099028256 7.5643801e-39 306 248
-0.016092092 0.70599997 -0.0099028256 8.578532e-39 307 248
-0.014854239 0.70599997 -0.0099028256 8.299036e-39 308 248
-0.013577812 0.704 -0.0098747732 7.561471e-39 309 248
-0.012343466 0.704 -0.0098747732 7.9309766e-39 310 248
-0.011109119 0.704 -0.0098747732 7.8387795e-39 311 248
-0.0098747732 0.704 -0.0098747732 6.0906569e-39 312 248
-0.0086404262 0.704 -0.0098747732 5.9059055e-39 313 248
-0.0074271196 0.70599997 -0.0099028256 7.927727e-39 314 248
-0.0061892662 0.70599997 -0.0099028256 8.4808993e-39 315 248
-0.0049514128 0.70599997 -0.0099028256 8.7592939e-39 316 248
-0.0037135598 0.70599997 -0.0099028256 8.5745439e-39 317 248
-0.0024792133 0.70700002 -0.0099168532 7.5614836e-39 318 248
-0.0012396066 0.70700002 -0.0099168532 7.2852568e-39 319 248
0 0.70700002 -0.0099168532 7.1937773e-39 320 248
0.0012396066 0.70700002 -0.0099168532 7.4707229e-39 321 248
0.0024792133 0.70700002 -0.0099168532 7.5636374e-39 322 248
0.0037188199 0.70700002 -0.0099168532 7.6558344e-39 323 248
0.0049654399 0.708 -0.0099308798 7.7469496e-39 324 248
0.0062243328 0.70999998 -0.0099589331 7.9313423e-39 325 248
0.0074691991 0.70999998 -0.0099589331 8.0242596e-39 326 248
0.0087263398 0.71100003 -0.0099729598 7.7480328e-39 327 248
0.010001013 0.713 -0.010001013 7.9291899e-39 328 248
0.011266919 0.71399999 -0.01001504 7.3763763e-39 329 248
0.012553867 0.71600002 -0.010043093 6.8206942e-39 330 248
0.013809253 0.71600002 -0.010043093 5.899098e-39 331 248
0.015085679 0.71700001 -0.01005712 5.9923684e-39 332 248
0.016388407 0.71899998 -0.010085173 6.7299335e-39 333 248
0.017649053 0.71899998 -0.010085173 8.4765833e-39 334 248
0.018909698 0.71899998 -0.010085173 1.068928e-38 335 248
0.020170346 0.71899998 -0.010085173 1.5666028e-38 336 248
-0.044306733 0.722 -0.01139316 1.308494e-38 285 249
-0.042921603 0.72000003 -0.011361601 9.1313484e-39 286 249
-0.041601337 0.71899998 -0.01134582 9.1313484e-39 287 249
-0.040228479 0.71700001 -0.01131426 8.579995e-39 288 249
-0.038916986 0.71600002 -0.01129848 8.579995e-39 289 249
-0.037661601 0.71600002 -0.01129848 8.1215321e-39 290 249
-0.036304519 0.71399999 -0.011266919 8.3062835e-39 291 249
-0.035003547 0.713 -0.011251139 8.4899489e-39 292 249
-0.033658739 0.71100003 -0.01121958 8.4899489e-39 293 249
-0.032366529 0.70999998 -0.011203799 8.7668917e-39 294 249
-0.031034 0.708 -0.01117224 8.7668917e-39 295 249
-0.02979264 0.708 -0.01117224 8.9487565e-39 296 249
-0.028510952 0.70700002 -0.011156459 8.6721696e-39 297 249
-0.027271347 0.70700002 -0.011156459 8.4870594e-39 298 249
-0.025994917 0.70599997 -0.011140679 8.6710906e-39 299 249
-0.024757065 0.70599997 -0.011140679 9.038078e-39 300 249
-0.023519212 0.70599997 -0.011140679 8.8536868e-39 301 249
-0.022281358 0.70599997 -0.011140679 8.4852602e-39 302 249
-0.021073313 0.70700002 -0.011156459 7.7476951e-39 303 249
-0.019805651 0.70599997 -0.011140679 7.1894991e-39 304 249
-0.018567799 0.70599997 -0.011140679 6.9129122e-39 305 249
-0.017329946 0.70599997 -0.011140679 7.8395376e-39 306 249
-0.016092092 0.70599997 -0.011140679 9.0380808e-39 307 249
-0.014854239 0.70599997 -0.011140679 8.667464e-39 308 249
-0.013616386 0.70599997 -0.011140679 7.929899e-39 309 249
-0.012378532 0.70599997 -0.011140679 7.8366257e-39 310 249
-0.011140679 0.70599997 -0.011140679 7.0990607e-39 311 249
-0.0099028256 0.70599997 -0.011140679 5.6278823e-39 312 249
-0.0086649731 0.70599997 -0.011140679 5.9963061e-39 313 249
-0.0074376399 0.70700002 -0.011156459 7.0111685e-39 314 249
-0.0061892662 0.70599997 -0.011140679 8.0249602e-39 315 249
-0.0049514128 0.70599997 -0.011140679 8.4841461e-39 316 249
-0.0037135598 0.70599997 -0.011140679 8.3919505e-39 317 249
-0.0024792133 0.70700002 -0.011156459 8.2990388e-39 318 249
-0.0012396066 0.70700002 -0.011156459 8.2064845e-39 319 249
0 0.70700002 -0.011156459 7.6561875e-39 320 249
0.0012396066 0.70700002 -0.011156459 7.7483832e-39 321 249
0.0024792133 0.70700002 -0.011156459 8.1160895e-39 322 249
0.00372408 0.708 -0.01117224 8.1160895e-39 323 249
0.0049794666 0.70999998 -0.011203799 8.2072089e-39 324 249
0.0062243328 0.70999998 -0.011203799 8.2072089e-39 325 249
0.0074797203 0.71100003 -0.01121958 7.9309892e-39 326 249
0.0087508867 0.713 -0.011251139 7.8387935e-39 327 249
0.01001504 0.71399999 -0.011266919 7.8369943e-39 328 249
0.01129848 0.71600002 -0.01129848 7.3763763e-39 329 249
0.012553867 0.71600002 -0.01129848 7.0979915e-39 330 249
0.013828539 0.71700001 -0.01131426 6.8214032e-39 331 249
0.01512776 0.71899998 -0.01134582 7.2816597e-39 332 249
0.016388407 0.71899998 -0.01134582 7.8344747e-39 333 249
0.017649053 0.71899998 -0.01134582 1.0134663e-38 334 249
0.018909698 0.71899998 -0.01134582 1.2070771e-38 335 249
0.020170346 0.71899998 -0.01134582 1.6034089e-38 336 249
-0.044490833 0.72500002 -0.012711667 1.336224e-38 285 250
-0.042921603 0.72000003 -0.012624 9.5894399e-39 286 250
-0.041601337 0.71899998 -0.012606465 9.4972443e-39 287 250
-0.040340692 0.71899998 -0.012606465 8.2122858e-39 288 250
-0.038971342 0.71700001 -0.0125714 8.3044815e-39 289 250
-0.037661601 0.71600002 -0.012553867 7.846027e-39 290 250
-0.036304519 0.71399999 -0.012518799 7.9382227e-39 291 250
-0.035052639 0.71399999 -0.012518799 8.0304155e-39 292 250
-0.033753417 0.713 -0.012501267 8.0304155e-39 293 250
-0.032412119 0.71100003 -0.0124662 8.2148012e-39 294 250
-0.031121666 0.70999998 -0.012448666 8.2148012e-39 295 250
-0.02979264 0.708 -0.0124136 8.4902992e-39 296 250
-0.02855128 0.708 -0.0124136 8.4902992e-39 297 250
-0.027271347 0.70700002 -0.012396066 8.7654442e-39 298 250
-0.025994917 0.70599997 -0.012378532 8.9498355e-39 299 250
-0.024757065 0.70599997 -0.012378532 9.31646e-39 300 250
-0.023519212 0.70599997 -0.012378532 9.31646e-39 301 250
-0.022281358 0.70599997 -0.012378532 9.9596672e-39 302 250
-0.021073313 0.70700002 -0.012396066 9.9596672e-39 303 250
-0.019805651 0.70599997 -0.012378532 8.5738587e-39 304 250
-0.018567799 0.70599997 -0.012378532 6.8221431e-39 305 250
-0.017329946 0.70599997 -0.012378532 8.2072313e-39 306 250
-0.016092092 0.70599997 -0.012378532 9.6820027e-39 307 250
-0.014854239 0.70599997 -0.012378532 9.9557015e-39 308 250
-0.013616386 0.70599997 -0.012378532 8.8493539e-39 309 250
-0.012378532 0.70599997 -0.012378532 7.2849065e-39 310 250
-0.011140679 0.70599997 -0.012378532 6.1781988e-39 311 250
-0.0099028256 0.70599997 -0.012378532 5.8122904e-39 312 250
-0.008677247 0.70700002 -0.012396066 6.7342481e-39 313 250
-0.0074376399 0.70700002 -0.012396066 7.9320612e-39 314 250
-0.0061980332 0.70700002 -0.012396066 8.3012038e-39 315 250
-0.0049584266 0.70700002 -0.012396066 8.3008479e-39 316 250
-0.0037188199 0.70700002 -0.012396066 8.3008479e-39 317 250
-0.0024792133 0.70700002 -0.012396066 8.3919659e-39 318 250
-0.00124136 0.708 -0.0124136 8.1157392e-39 319 250
0 0.70700002 -0.012396066 7.7483986e-39 320 250
0.0012396066 0.70700002 -0.012396066 7.7483986e-39 321 250
0.00248272 0.708 -0.0124136 7.9309948e-39 322 250
0.00372408 0.708 -0.0124136 7.9309948e-39 323 250
0.0049794666 0.70999998 -0.012448666 7.8387991e-39 324 250
0.0062243328 0.70999998 -0.012448666 7.8387991e-39 325 250
0.0074797203 0.71100003 -0.0124662 7.8387991e-39 326 250
0.0087508867 0.713 -0.012501267 7.7462448e-39 327 250
0.01001504 0.71399999 -0.012518799 7.653682e-39 328 250
0.01129848 0.71600002 -0.012553867 7.4692908e-39 329 250
0.012553867 0.71600002 -0.012553867 7.0075937e-39 330 250
0.013828539 0.71700001 -0.0125714 6.8232025e-39 331 250
0.01512776 0.71899998 -0.012606465 7.6493632e-39 332 250
0.0164112 0.72000003 -0.012624 8.5716782e-39 333 250
0.017649053 0.71899998 -0.012606465 1.1241736e-38 334 250
0.018909698 0.71899998 -0.012606465 1.2993453e-38 335 250
0.020170346 0.71899998 -0.012606465 1.6034812e-38 336 250
-0.044490833 0.72500002 -0.013982833 1.3915409e-38 285 251
-0.043040827 0.722 -0.013924973 1.0785106e-38 286 251
-0.041659199 0.72000003 -0.0138864 8.6646068e-39 287 251
-0.040340692 0.71899998 -0.013867113 7.6591149e-39 288 251
-0.038971342 0.71700001 -0.013828539 7.9357031e-39 289 251
-0.037661601 0.71600002 -0.013809253 7.7534755e-39 290 251
-0.036406212 0.71600002 -0.013809253 7.7534755e-39 291 251
-0.035052639 0.71399999 -0.01377068 8.1215321e-39 292 251
-0.033753417 0.713 -0.013751393 8.1215321e-39 293 251
-0.032503292 0.713 -0.013751393 8.3977519e-39 294 251
-0.031121666 0.70999998 -0.013693533 8.3977519e-39 295 251
-0.029876797 0.70999998 -0.013693533 8.5814229e-39 296 251
-0.02855128 0.708 -0.013654959 8.5814229e-39 297 251
-0.027271347 0.70700002 -0.013635674 8.7650911e-39 298 251
-0.02603174 0.70700002 -0.013635674 8.7650911e-39 299 251
-0.024792133 0.70700002 -0.013635674 8.9484005e-39 300 251
-0.023519212 0.70599997 -0.013616386 8.9484005e-39 301 251
-0.022281358 0.70599997 -0.013616386 9.1327848e-39 302 251
-0.021073313 0.70700002 -0.013635674 9.3168159e-39 303 251
-0.019833706 0.70700002 -0.013635674 9.0384311e-39 304 251
-0.018594101 0.70700002 -0.013635674 7.839888e-39 305 251
-0.017354494 0.70700002 -0.013635674 7.9346045e-39 306 251
-0.016092092 0.70599997 -0.013616386 7.3817895e-39 307 251
-0.014854239 0.70599997 -0.013616386 8.2032783e-39 308 251
-0.013616386 0.70599997 -0.013616386 7.7426603e-39 309 251
-0.012378532 0.70599997 -0.013616386 6.6377504e-39 310 251
-0.011140679 0.70599997 -0.013616386 5.7161543e-39 311 251
-0.0099028256 0.70599997 -0.013616386 5.3498801e-39 312 251
-0.008677247 0.70700002 -0.013635674 7.655131e-39 313 251
-0.0074376399 0.70700002 -0.013635674 8.7596736e-39 314 251
-0.0061980332 0.70700002 -0.013635674 8.8518693e-39 315 251
-0.0049584266 0.70700002 -0.013635674 8.2100998e-39 316 251
-0.0037188199 0.70700002 -0.013635674 8.1179042e-39 317 251
-0.00248272 0.708 -0.013654959 8.3916142e-39 318 251
-0.00124136 0.708 -0.013654959 8.115386e-39 319 251
0 0.708 -0.013654959 8.0231904e-39 320 251
0.00124136 0.708 -0.013654959 7.9309948e-39 321 251
0.00248272 0.708 -0.013654959 7.838446e-39 322 251
0.0037345996 0.70999998 -0.013693533 7.838446e-39 323 251
0.0049794666 0.70999998 -0.013693533 7.8377272e-39 324 251
0.0062330998 0.71100003 -0.01371282 7.7455301e-39 325 251
0.0074797203 0.71100003 -0.01371282 7.7455273e-39 326 251
0.0087508867 0.713 -0.013751393 7.6533317e-39 327 251
0.01001504 0.71399999 -0.01377068 7.4700166e-39 328 251
0.01129848 0.71600002 -0.013809253 7.2856254e-39 329 251
0.0125714 0.71700001 -0.013828539 7.0072406e-39 330 251
0.013828539 0.71700001 -0.013828539 6.3618712e-39 331 251
0.015085679 0.71700001 -0.013828539 6.8188837e-39 332 251
0.016388407 0.71899998 -0.013867113 7.74084e-39 333 251
0.017649053 0.71899998 -0.013867113 1.1702712e-38 334 251
0.018909698 0.71899998 -0.013867113 1.3362593e-38 335 251
0.020170346 0.71899998 -0.013867113 1.5943335e-38 336 251
-0.047162913 0.727 -0.015296079 1.6403244e-38 283 252
-0.045888241 0.727 -0.015296079 1.6220297e-38 284 252
-0.044490833 0.72500002 -0.015254001 1.4376385e-38 285 252
-0.043040827 0.722 -0.015190879 1.2258797e-38 286 252
-0.041659199 0.72000003 -0.0151488 8.2943851e-39 287 252
-0.040396802 0.72000003 -0.0151488 7.1967046e-39 288 252
-0.039080046 0.71899998 -0.01512776 8.0264666e-39 289 252
-0.037714198 0.71700001 -0.015085679 7.6605638e-39 290 252
-0.036406212 0.71600002 -0.01506464 7.7527594e-39 291 252
-0.035052639 0.71399999 -0.015022559 7.7527566e-39 292 252
-0.033800758 0.71399999 -0.015022559 7.9367877e-39 293 252
-0.032503292 0.713 -0.015001519 8.1208161e-39 294 252
-0.031165501 0.71100003 -0.014959441 8.1208161e-39 295 252
-0.029876797 0.70999998 -0.014938398 8.1215321e-39 296 252
-0.028631933 0.70999998 -0.014938398 8.0293365e-39 297 252
-0.027309919 0.708 -0.01489632 8.0293365e-39 298 252
-0.026068559 0.708 -0.01489632 7.7531097e-39 299 252
-0.024827199 0.708 -0.01489632 7.7531069e-39 300 252
-0.023552528 0.70700002 -0.01487528 8.1218881e-39 301 252
-0.022312919 0.70700002 -0.01487528 8.3059066e-39 302 252
-0.021103119 0.708 -0.01489632 8.3059066e-39 303 252
-0.019833706 0.70700002 -0.01487528 8.5810459e-39 304 252
-0.018594101 0.70700002 -0.01487528 8.2126235e-39 305 252
-0.017354494 0.70700002 -0.01487528 7.379986e-39 306 252
-0.016114887 0.70700002 -0.01487528 6.1814428e-39 307 252
-0.01487528 0.70700002 -0.01487528 5.9012686e-39 308 252
-0.013635674 0.70700002 -0.01487528 5.9012686e-39 309 252
-0.012396066 0.70700002 -0.01487528 4.8878355e-39 310 252
-0.011156459 0.70700002 -0.01487528 3.9658792e-39 311 252
-0.0099168532 0.70700002 -0.01487528 3.1397101e-39 312 252
-0.008689519 0.708 -0.01489632 7.0119252e-39 313 252
-0.0074376399 0.70700002 -0.01487528 9.6794691e-39 314 252
-0.0061980332 0.70700002 -0.01487528 9.5872721e-39 315 252
-0.0049584266 0.70700002 -0.01487528 9.1291652e-39 316 252
-0.0037188199 0.70700002 -0.01487528 8.944774e-39 317 252
-0.00248272 0.708 -0.01489632 8.942623e-39 318 252
-0.00124136 0.708 -0.01489632 8.7585904e-39 319 252
0 0.708 -0.01489632 7.7473238e-39 320 252
0.00124136 0.708 -0.01489632 7.7473238e-39 321 252
0.0024897333 0.70999998 -0.014938398 7.3792671e-39 322 252
0.0037345996 0.70999998 -0.014938398 7.2870701e-39 323 252
0.0049864799 0.71100003 -0.014959441 7.285638e-39 324 252
0.0062330998 0.71100003 -0.014959441 7.0094112e-39 325 252
0.0075007593 0.713 -0.015001519 6.9172128e-39 326 252
0.0087631596 0.71399999 -0.015022559 7.4703852e-39 327 252
0.010043093 0.71600002 -0.01506464 7.6544009e-39 328 252
0.01129848 0.71600002 -0.01506464 7.6544009e-39 329 252
0.0125714 0.71700001 -0.015085679 8.0174199e-39 330 252
0.013828539 0.71700001 -0.015085679 7.4646048e-39 331 252
0.015085679 0.71700001 -0.015085679 6.3586118e-39 332 252
0.016388407 0.71899998 -0.01512776 6.7270342e-39 333 252
0.017649053 0.71899998 -0.01512776 1.179526e-38 334 252
0.018909698 0.71899998 -0.01512776 1.3362587e-38 335 252
-0.047162913 0.727 -0.016570752 1.6310692e-38 283 253
-0.045888241 0.727 -0.016570752 1.5943715e-38 284 253
-0.044490833 0.72500002 -0.016525166 1.5113953e-38 285 253
-0.043100435 0.72299999 -0.01647958 1.3178587e-38 286 253
-0.041774917 0.722 -0.016456785 8.2922173e-39 287 253
-0.040396802 0.72000003 -0.0164112 6.5505981e-39 288 253
-0.039080046 0.71899998 -0.016388407 8.1179224e-39 289 253
-0.037714198 0.71700001 -0.016342819 7.3832482e-39 290 253
-0.036406212 0.71600002 -0.016320027 7.3832482e-39 291 253
-0.035052639 0.71399999 -0.016274439 7.5683626e-39 292 253
-0.033800758 0.71399999 -0.016274439 7.9371437e-39 293 253
-0.032548878 0.71399999 -0.016274439 8.0293365e-39 294 253
-0.031253166 0.713 -0.016251646 7.9371409e-39 295 253
-0.029918881 0.71100003 -0.01620606 8.0286176e-39 296 253
-0.028631933 0.70999998 -0.016183265 8.0286176e-39 297 253
-0.027387066 0.70999998 -0.016183265 7.6598309e-39 298 253
-0.026068559 0.708 -0.01613768 6.6456804e-39 299 253
-0.024827199 0.708 -0.01613768 6.3730452e-39 300 253
-0.023585839 0.708 -0.01613768 7.1106102e-39 301 253
-0.022344479 0.708 -0.01613768 7.9367751e-39 302 253
-0.021103119 0.708 -0.01613768 7.9367751e-39 303 253
-0.01986176 0.708 -0.01613768 7.9349731e-39 304 253
-0.0186204 0.708 -0.01613768 6.9211813e-39 305 253
-0.017379038 0.708 -0.01613768 3.6946972e-39 306 253
-0.01613768 0.708 -0.01613768 2.6809054e-39 307 253
-0.01489632 0.708 -0.01613768 2.8617023e-39 308 253
-0.013654959 0.708 -0.01613768 2.8617023e-39 309 253
-0.0124136 0.708 -0.01613768 3.5020466e-39 310 253
-0.01117224 0.708 -0.01613768 2.9488729e-39 311 253
-0.0099308798 0.708 -0.01613768 7.4444401e-40 312 253
-0.008689519 0.708 -0.01613768 5.9073993e-39 313 253
-0.0074481601 0.708 -0.01613768 1.05078e-38 314 253
-0.0062067998 0.708 -0.01613768 1.1245366e-38 315 253
-0.0049654399 0.708 -0.01613768 9.6841411e-39 316 253
-0.00372408 0.708 -0.01613768 9.2228028e-39 317 253
-0.0024897333 0.70999998 -0.016183265 8.6703549e-39 318 253
-0.0012448666 0.70999998 -0.016183265 8.0249869e-39 319 253
0 0.70999998 -0.016183265 7.2899442e-39 320 253
0.0012448666 0.70999998 -0.016183265 7.0129986e-39 321 253
0.0024897333 0.70999998 -0.016183265 7.2870701e-39 322 253
0.0037345996 0.70999998 -0.016183265 7.0104832e-39 323 253
0.0049864799 0.71100003 -0.01620606 6.9146919e-39 324 253
0.0062330998 0.71100003 -0.01620606 6.2693224e-39 325 253
0.0075007593 0.713 -0.016251646 6.5477044e-39 326 253
0.0087631596 0.71399999 -0.016274439 8.0228345e-39 327 253
0.010043093 0.71600002 -0.016320027 7.7476797e-39 328 253
0.01129848 0.71600002 -0.016320027 7.9317108e-39 329 253
0.0125714 0.71700001 -0.016342819 8.5745495e-39 330 253
0.013828539 0.71700001 -0.016342819 8.3897995e-39 331 253
0.015085679 0.71700001 -0.016342819 9.1212367e-39 332 253
0.016388407 0.71899998 -0.016388407 1.0043194e-38 333 253
0.017649053 0.71899998 -0.016388407 1.1980728e-38 334 253
-0.047162913 0.727 -0.017845426 1.6127377e-38 283 254
-0.045761999 0.72500002 -0.017796334 1.5483811e-38 284 254
-0.044490833 0.72500002 -0.017796334 1.4561496e-38 285 254
-0.043100435 0.72299999 -0.017747238 1.3548788e-38 286 254
-0.041774917 0.722 -0.017722692 1.0691083e-38 287 254
-0.040509012 0.722 -0.017722692 8.4816448e-39 288 254
-0.039080046 0.71899998 -0.017649053 9.1270142e-39 289 254
-0.037714198 0.71700001 -0.017599959 8.3927114e-39 290 254
-0.036457058 0.71700001 -0.017599959 8.8536896e-39 291 254
-0.035150826 0.71600002 -0.017575413 9.5905385e-39 292 254
-0.033800758 0.71399999 -0.017526319 9.8667653e-39 293 254
-0.032548878 0.71399999 -0.017526319 8.7640205e-39 294 254
-0.031253166 0.713 -0.017501773 8.3026836e-39 295 254
-0.030003037 0.713 -0.017501773 7.5661948e-39 296 254
-0.028672259 0.71100003 -0.01745268 7.3818021e-39 297 254
-0.027387066 0.70999998 -0.017428132 6.9201009e-39 298 254
-0.026142199 0.70999998 -0.017428132 5.3527766e-39 299 254
-0.024897331 0.70999998 -0.017428132 5.0787036e-39 300 254
-0.023585839 0.708 -0.017379038 8.0293239e-39 301 254
-0.022344479 0.708 -0.017379038 9.3128698e-39 302 254
-0.021162732 0.70999998 -0.017428132 8.8522504e-39 303 254
-0.019917866 0.70999998 -0.017428132 7.9306571e-39 304 254
-0.018672999 0.70999998 -0.017428132 6.9165065e-39 305 254
-0.017379038 0.708 -0.017379038 4.2453556e-39 306 254
-0.01613768 0.708 -0.017379038 3.2312051e-39 307 254
-0.01489632 0.708 -0.017379038 3.9655415e-39 308 254
-0.013654959 0.708 -0.017379038 3.6893148e-39 309 254
-0.0124136 0.708 -0.017379038 3.5034914e-39 310 254
-0.01117224 0.708 -0.017379038 3.4112958e-39 311 254
-0.0099308798 0.708 -0.017379038 2.4907688e-39 312 254
-0.0087140659 0.70999998 -0.017428132 5.5332246e-39 313 254
-0.0074691991 0.70999998 -0.017428132 8.7604051e-39 314 254
-0.0062243328 0.70999998 -0.017428132 1.0419568e-38 315 254
-0.0049654399 0.708 -0.017379038 1.1336818e-38 316 254
-0.00372408 0.708 -0.017379038 1.0875842e-38 317 254
-0.0024897333 0.70999998 -0.017428132 1.0691446e-38 318 254
-0.0012448666 0.70999998 -0.017428132 1.0323024e-38 319 254
0 0.70999998 -0.017428132 9.9535309e-39 320 254
0.0012448666 0.70999998 -0.017428132 9.4003571e-39 321 254
0.0024897333 0.70999998 -0.017428132 8.6656661e-39 322 254
0.0037398601 0.71100003 -0.01745268 7.1905375e-39 323 254
0.0049864799 0.71100003 -0.01745268 5.5356838e-39 324 254
0.0062506334 0.713 -0.017501773 5.5356838e-39 325 254
0.0075112795 0.71399999 -0.017526319 7.9244956e-39 326 254
0.0087877065 0.71600002 -0.017575413 1.0413419e-38 327 254
0.01005712 0.71700001 -0.017599959 1.0321225e-38 328 254
0.01131426 0.71700001 -0.017599959 1.0413422e-38 329 254
0.0125714 0.71700001 -0.017599959 1.0321939e-38 330 254
0.013828539 0.71700001 -0.017599959 1.0045711e-38 331 254
0.015085679 0.71700001 -0.017599959 1.0597436e-38 332 254
0.0164112 0.72000003 -0.017673599 1.0966579e-38 333 254
0.017722692 0.722 -0.017722692 1.1428626e-38 334 254
0.0189886 0.722 -0.017722692 1.2442779e-38 335 254
-0.045761999 0.72500002 -0.0190675 1.5116102e-38 284 255
-0.044368099 0.72299999 -0.019014901 1.4009395e-38 285 255
-0.043040827 0.722 -0.0189886 1.3089965e-38 286 255
-0.041774917 0.722 -0.0189886 1.2905573e-38 287 255
-0.040509012 0.722 -0.0189886 1.1983637e-38 288 255
-0.039134402 0.72000003 -0.018935999 1.1246072e-38 289 255
-0.037819397 0.71899998 -0.018909698 1.0787259e-38 290 255
-0.036457058 0.71700001 -0.018857099 1.1432628e-38 291 255
-0.035150826 0.71600002 -0.0188308 1.2078e-38 292 255
-0.03389544 0.71600002 -0.0188308 1.1524826e-38 293 255
-0.032548878 0.71399999 -0.018778199 9.4061403e-39 294 255
-0.031296998 0.71399999 -0.018778199 8.0232058e-39 295 255
-0.030003037 0.713 -0.018751899 5.2595145e-39 296 255
-0.028672259 0.71100003 -0.0186993 4.1528069e-39 297 255
-0.027387066 0.70999998 -0.018672999 3.2322925e-39 298 255
-0.026142199 0.70999998 -0.018672999 1.4805769e-39 299 255
-0.024897331 0.70999998 -0.018672999 4.9836381e-39 300 255
-0.023585839 0.708 -0.0186204 9.6856152e-39 301 255
-0.022344479 0.708 -0.0186204 1.06018e-38 302 255
-0.021162732 0.70999998 -0.018672999 9.3110608e-39 303 255
-0.019917866 0.70999998 -0.018672999 7.7455413e-39 304 255
-0.018672999 0.70999998 -0.018672999 6.8239438e-39 305 255
-0.017428132 0.70999998 -0.018672999 5.5335777e-39 306 255
-0.016183265 0.70999998 -0.018672999 4.8882083e-39 307 255
-0.014938398 0.70999998 -0.018672999 4.3353974e-39 308 255
-0.013654959 0.708 -0.0186204 4.0591707e-39 309 255
-0.0124136 0.708 -0.0186204 4.2428389e-39 310 255
-0.01117224 0.708 -0.0186204 4.4272301e-39 311 255
-0.0099308798 0.708 -0.0186204 5.9916762e-39 312 255
-0.0087140659 0.70999998 -0.018672999 5.0700786e-39 313 255
-0.0074691991 0.70999998 -0.018672999 6.1817987e-39 314 255
-0.0062243328 0.70999998 -0.018672999 9.4086458e-39 315 255
-0.0049794666 0.70999998 -0.018672999 1.1336818e-38 316 255
-0.0037345996 0.70999998 -0.018672999 1.1060592e-38 317 255
-0.0024897333 0.70999998 -0.018672999 1.1519762e-38 318 255
-0.0012448666 0.70999998 -0.018672999 1.115134e-38 319 255
0 0.71100003 -0.0186993 1.1333929e-38 320 255
0.00124662 0.71100003 -0.0186993 1.0872951e-38 321 255
0.0024932399 0.71100003 -0.0186993 9.4936135e-39 322 255
0.0037398601 0.71100003 -0.0186993 7.5575053e-39 323 255
0.0050005065 0.713 -0.018751899 5.1661755e-39 324 255
0.0062593995 0.71399999 -0.018778199 5.8115449e-39 325 255
0.0075112795 0.71399999 -0.018778199 8.9375685e-39 326 255
0.0087877065 0.71600002 -0.0188308 1.142685e-38 327 255
0.01005712 0.71700001 -0.018857099 1.1794907e-38 328 255
0.01131426 0.71700001 -0.018857099 1.1702712e-38 329 255
0.0125714 0.71700001 -0.018857099 1.151975e-38 330 255
0.013867113 0.71899998 -0.018909698 1.1427554e-38 331 255
0.01512776 0.71899998 -0.018909698 1.1612298e-38 332 255
0.016388407 0.71899998 -0.018909698 1.1427907e-38 333 255
0.017722692 0.722 -0.0189886 1.0507374e-38 334 255
0.0189886 0.722 -0.0189886 1.1521525e-38 335 255
-0.047033165 0.72500002 -0.020338668 1.6126657e-38 283 256
-0.045761999 0.72500002 -0.020338668 1.5300121e-38 284 256
-0.044368099 0.72299999 -0.020282559 1.3271817e-38 285 256
-0.043040827 0.722 -0.020254506 1.1435104e-38 286 256
-0.041774917 0.722 -0.020254506 1.2080474e-38 287 256
-0.040509012 0.722 -0.020254506 1.2814469e-38 288 256
-0.039134402 0.72000003 -0.020198401 1.2445688e-38 289 256
-0.037819397 0.71899998 -0.020170346 1.2169467e-38 290 256
-0.036457058 0.71700001 -0.020114239 1.2446413e-38 291 256
-0.035150826 0.71600002 -0.020086186 1.1986874e-38 292 256
-0.03389544 0.71600002 -0.020086186 1.14337e-38 293 256
-0.032548878 0.71399999 -0.020030079 8.9455167e-39 294 256
-0.031296998 0.71399999 -0.020030079 7.4703852e-39 295 256
-0.030003037 0.713 -0.020002026 4.7981735e-39 296 256
-0.028672259 0.71100003 -0.01994592 4.0606084e-39 297 256
-0.027425639 0.71100003 -0.01994592 3.5067186e-39 298 256
-0.026142199 0.70999998 -0.019917866 2.6765992e-39 299 256
-0.024897331 0.70999998 -0.019917866 5.1651483e-39 300 256
-0.023585839 0.708 -0.01986176 1.060433e-38 301 256
-0.022344479 0.708 -0.01986176 1.2073684e-38 302 256
-0.021162732 0.70999998 -0.019917866 1.0967337e-38 303 256
-0.019917866 0.70999998 -0.019917866 9.8599101e-39 304 256
-0.018672999 0.70999998 -0.019917866 8.8461183e-39 305 256
-0.017428132 0.70999998 -0.019917866 6.6377532e-39 306 256
-0.016183265 0.70999998 -0.019917866 5.7157983e-39 307 256
-0.014938398 0.70999998 -0.019917866 5.4388583e-39 308 256
-0.013654959 0.708 -0.01986176 5.2544657e-39 309 256
-0.0124136 0.708 -0.01986176 4.7960057e-39 310 256
-0.01117224 0.708 -0.01986176 5.5335721e-39 311 256
-0.0099308798 0.708 -0.01986176 6.8221459e-39 312 256
-0.0087140659 0.70999998 -0.019917866 5.7157983e-39 313 256
-0.0074691991 0.70999998 -0.019917866 7.3709869e-39 314 256
-0.0062243328 0.70999998 -0.019917866 1.1242845e-38 315 256
-0.0049794666 0.70999998 -0.019917866 1.1612684e-38 316 256
-0.0037345996 0.70999998 -0.019917866 1.1336097e-38 317 256
-0.0024897333 0.70999998 -0.019917866 1.1336806e-38 318 256
-0.00124662 0.71100003 -0.01994592 1.1152056e-38 319 256
0 0.71100003 -0.01994592 1.1152406e-38 320 256
0.00124662 0.71100003 -0.01994592 1.0968014e-38 321 256
0.0024932399 0.71100003 -0.01994592 1.0782547e-38 322 256
0.0037503797 0.713 -0.020002026 1.0044982e-38 323 256
0.0050075199 0.71399999 -0.020030079 8.8478882e-39 324 256
0.0062593995 0.71399999 -0.020030079 8.8478882e-39 325 256
0.00753232 0.71600002 -0.020086186 1.0044629e-38 326 256
0.0087877065 0.71600002 -0.020086186 1.105914e-38 327 256
0.01005712 0.71700001 -0.020114239 1.1518671e-38 328 256
0.01131426 0.71700001 -0.020114239 1.1518671e-38 329 256
0.0125714 0.71700001 -0.020114239 1.1335706e-38 330 256
0.013867113 0.71899998 -0.020170346 1.1427901e-38 331 256
0.01512776 0.71899998 -0.020170346 1.0785755e-38 332 256
0.016388407 0.71899998 -0.020170346 1.0140386e-38 333 256
0.017722692 0.722 -0.020254506 8.8510691e-39 334 256
0.0189886 0.722 -0.020254506 1.0603146e-38 335 256
0.020254506 0.722 -0.020254506 1.5390855e-38 336 256
-0.046838548 0.722 -0.021520413 1.6311048e-38 283 257
-0.045572639 0.722 -0.021520413 1.5668533e-38 284 257
-0.044306733 0.722 -0.021520413 1.2626078e-38 285 257
-0.043040827 0.722 -0.021520413 9.7777142e-39 286 257
-0.041774917 0.722 -0.021520413 1.1068453e-38 287 257
-0.040509012 0.722 -0.021520413 1.207976e-38 288 257
-0.039134402 0.72000003 -0.021460801 1.272513e-38 289 257
-0.037871998 0.72000003 -0.021460801 1.272407e-38 290 257
-0.036558751 0.71899998 -0.021430992 1.2539678e-38 291 257
-0.035199918 0.71700001 -0.021371379 1.1986508e-38 292 257
-0.03389544 0.71600002 -0.021341572 1.1248942e-38 293 257
-0.032640055 0.71600002 -0.021341572 9.5890742e-39 294 257
-0.031296998 0.71399999 -0.021281958 8.1135854e-39 295 257
-0.030045118 0.71399999 -0.021281958 6.3622426e-39 296 257
-0.028752912 0.713 -0.021252153 5.4399275e-39 297 257
-0.027425639 0.71100003 -0.021192541 4.6087403e-39 298 257
-0.026142199 0.70999998 -0.021162732 3.7793398e-39 299 257
-0.024897331 0.70999998 -0.021162732 4.059521e-39 300 257
-0.023652466 0.70999998 -0.021162732 9.5912574e-39 301 257
-0.022407599 0.70999998 -0.021162732 1.2075482e-38 302 257
-0.021162732 0.70999998 -0.021162732 1.1798537e-38 303 257
-0.019917866 0.70999998 -0.021162732 1.1426147e-38 304 257
-0.018672999 0.70999998 -0.021162732 1.0227604e-38 305 257
-0.017428132 0.70999998 -0.021162732 8.2940292e-39 306 257
-0.016183265 0.70999998 -0.021162732 7.095486e-39 307 257
-0.014938398 0.70999998 -0.021162732 6.0845809e-39 308 257
-0.013693533 0.70999998 -0.021162732 5.8998295e-39 309 257
-0.0124136 0.708 -0.021103119 5.992381e-39 310 257
-0.01117224 0.708 -0.021103119 6.0845781e-39 311 257
-0.0099589331 0.70999998 -0.021162732 6.450841e-39 312 257
-0.0087140659 0.70999998 -0.021162732 5.9898643e-39 313 257
-0.0074691991 0.70999998 -0.021162732 7.278801e-39 314 257
-0.0062243328 0.70999998 -0.021162732 1.0229421e-38 315 257
-0.0049794666 0.70999998 -0.021162732 1.1153156e-38 316 257
-0.0037345996 0.70999998 -0.021162732 1.1153156e-38 317 257
-0.0024932399 0.71100003 -0.021192541 1.133645e-38 318 257
-0.00124662 0.71100003 -0.021192541 1.1244254e-38 319 257
0 0.71100003 -0.021192541 1.1244605e-38 320 257
0.00124662 0.71100003 -0.021192541 1.1244605e-38 321 257
0.0025002533 0.713 -0.021252153 1.1335721e-38 322 257
0.0037503797 0.713 -0.021252153 1.1427917e-38 323 257
0.0050075199 0.71399999 -0.021281958 1.1335002e-38 324 257
0.0062593995 0.71399999 -0.021281958 1.115061e-38 325 257
0.00753232 0.71600002 -0.021341572 1.105949e-38 326 257
0.0087999795 0.71700001 -0.021371379 1.1151687e-38 327 257
0.01005712 0.71700001 -0.021371379 1.1152043e-38 328 257
0.01131426 0.71700001 -0.021371379 1.1336074e-38 329 257
0.0125714 0.71700001 -0.021371379 1.0968714e-38 330 257
0.013867113 0.71899998 -0.021430992 1.0692487e-38 331 257
0.01512776 0.71899998 -0.021430992 9.590418e-39 332 257
0.016388407 0.71899998 -0.021430992 8.9450486e-39 333 257
0.017649053 0.71899998 -0.021430992 8.6673659e-39 334 257
0.0189886 0.722 -0.021520413 1.0880061e-38 335 257
-0.045572639 0.722 -0.022786319 1.5944041e-38 284 258
-0.044306733 0.722 -0.022786319 1.3086337e-38 285 258
-0.043040827 0.722 -0.022786319 9.9613613e-39 286 258
-0.041659199 0.72000003 -0.022723202 9.9613613e-39 287 258
-0.040396802 0.72000003 -0.022723202 1.0147576e-38 288 258
-0.039134402 0.72000003 -0.022723202 1.0885141e-38 289 258
-0.037871998 0.72000003 -0.022723202 1.2080126e-38 290 258
-0.036558751 0.71899998 -0.022691639 1.2448909e-38 291 258
-0.035199918 0.71700001 -0.02262852 1.2722624e-38 292 258
-0.033942781 0.71700001 -0.02262852 1.216945e-38 293 258
-0.032640055 0.71600002 -0.022596961 1.2166581e-38 294 258
-0.031384666 0.71600002 -0.022596961 1.1244623e-38 295 258
-0.030045118 0.71399999 -0.022533838 9.8609821e-39 296 258
-0.028752912 0.713 -0.022502279 8.1092666e-39 297 258
-0.027502786 0.713 -0.022502279 6.6334316e-39 298 258
-0.026179021 0.71100003 -0.022439159 4.6973234e-39 299 258
-0.024897331 0.70999998 -0.022407599 2.4039583e-39 300 258
-0.023652466 0.70999998 -0.022407599 5.9077524e-39 301 258
-0.022407599 0.70999998 -0.022407599 1.005151e-38 302 258
-0.021192541 0.71100003 -0.022439159 1.1250053e-38 303 258
-0.019917866 0.70999998 -0.022407599 1.1980763e-38 304 258
-0.018672999 0.70999998 -0.022407599 1.0966611e-38 305 258
-0.017428132 0.70999998 -0.022407599 9.675872e-39 306 258
-0.016183265 0.70999998 -0.022407599 8.6617201e-39 307 258
-0.014938398 0.70999998 -0.022407599 7.8341272e-39 308 258
-0.013693533 0.70999998 -0.022407599 7.7419302e-39 309 258
-0.012448666 0.70999998 -0.022407599 7.3738707e-39 310 258
-0.011203799 0.70999998 -0.022407599 7.097644e-39 311 258
-0.0099589331 0.70999998 -0.022407599 7.3713526e-39 312 258
-0.0087140659 0.70999998 -0.022407599 7.0947671e-39 313 258
-0.0074691991 0.70999998 -0.022407599 6.1742556e-39 314 258
-0.0062243328 0.70999998 -0.022407599 6.9118206e-39 315 258
-0.0049794666 0.70999998 -0.022407599 8.4838098e-39 316 258
-0.0037398601 0.71100003 -0.022439159 9.6823516e-39 317 258
-0.0024932399 0.71100003 -0.022439159 1.133358e-38 318 258
-0.00124662 0.71100003 -0.022439159 1.1610166e-38 319 258
0 0.71100003 -0.022439159 1.1335368e-38 320 258
0.0012501266 0.713 -0.022502279 1.1335368e-38 321 258
0.0025002533 0.713 -0.022502279 1.1335368e-38 322 258
0.0037556398 0.71399999 -0.022533838 1.1335368e-38 323 258
0.0050075199 0.71399999 -0.022533838 1.1059493e-38 324 258
0.0062593995 0.71399999 -0.022533838 1.115169e-38 325 258
0.00753232 0.71600002 -0.022596961 1.1059843e-38 326 258
0.0087999795 0.71700001 -0.02262852 1.0967648e-38 327 258
0.010085173 0.71899998 -0.022691639 1.0783604e-38 328 258
0.01134582 0.71899998 -0.022691639 1.0507377e-38 329 258
0.012606465 0.71899998 -0.022691639 9.5907866e-39 330 258
0.013867113 0.71899998 -0.022691639 9.5907866e-39 331 258
0.0151488 0.72000003 -0.022723202 9.3148835e-39 332 258
0.016456785 0.722 -0.022786319 8.8539068e-39 333 258
0.017722692 0.722 -0.022786319 9.8644672e-39 334 258
0.0189886 0.722 -0.022786319 1.2168999e-38 335 258
-0.05202841 0.80199999 -0.026717292 1.612666e-38 283 259
-0.05062224 0.80199999 -0.026717292 1.5943322e-38 284 259
-0.044183999 0.72000003 -0.0239856 1.3822823e-38 285 259
-0.042921603 0.72000003 -0.0239856 1.1064807e-38 286 259
-0.041659199 0.72000003 -0.0239856 1.0050295e-38 287 259
-0.040396802 0.72000003 -0.0239856 9.4103161e-39 288 259
-0.039134402 0.72000003 -0.0239856 1.0055686e-38 289 259
-0.037871998 0.72000003 -0.0239856 1.0792239e-38 290 259
-0.036558751 0.71899998 -0.023952285 1.1898586e-38 291 259
-0.035199918 0.71700001 -0.02388566 1.2540031e-38 292 259
-0.03389544 0.71600002 -0.023852346 1.2632226e-38 293 259
-0.032640055 0.71600002 -0.023852346 1.2998138e-38 294 259
-0.031384666 0.71600002 -0.023852346 1.2721552e-38 295 259
-0.030045118 0.71399999 -0.02378572 1.1706324e-38 296 259
-0.028793238 0.71399999 -0.02378572 1.0507781e-38 297 259
-0.027502786 0.713 -0.023752406 9.6758692e-39 298 259
-0.026179021 0.71100003 -0.023685781 7.924511e-39 299 259
-0.024932399 0.71100003 -0.023685781 4.3339387e-39 300 259
-0.023652466 0.70999998 -0.023652466 4.9793081e-39 301 259
-0.022407599 0.70999998 -0.023652466 6.9200953e-39 302 259
-0.021192541 0.71100003 -0.023685781 9.2253461e-39 303 259
-0.01994592 0.71100003 -0.023685781 1.1153167e-38 304 259
-0.0186993 0.71100003 -0.023685781 1.0784743e-38 305 259
-0.017428132 0.70999998 -0.023652466 9.4954268e-39 306 259
-0.016183265 0.70999998 -0.023652466 9.0344501e-39 307 259
-0.014938398 0.70999998 -0.023652466 8.7582121e-39 308 259
-0.013693533 0.70999998 -0.023652466 8.4819853e-39 309 259
-0.012448666 0.70999998 -0.023652466 8.2050411e-39 310 259
-0.011203799 0.70999998 -0.023652466 8.2050411e-39 311 259
-0.0099589331 0.70999998 -0.023652466 8.204688e-39 312 259
-0.0087140659 0.70999998 -0.023652466 7.8359069e-39 313 259
-0.0074691991 0.70999998 -0.023652466 6.7302866e-39 314 259
-0.0062243328 0.70999998 -0.023652466 6.2689497e-39 315 259
-0.0049864799 0.71100003 -0.023685781 7.6511681e-39 316 259
-0.0037398601 0.71100003 -0.023685781 9.4025249e-39 317 259
-0.0024932399 0.71100003 -0.023685781 1.0414869e-38 318 259
-0.00124662 0.71100003 -0.023685781 1.0783293e-38 319 259
0 0.713 -0.023752406 1.1151703e-38 320 259
0.0012501266 0.713 -0.023752406 1.1151703e-38 321 259
0.0025037599 0.71399999 -0.02378572 1.1152056e-38 322 259
0.0037556398 0.71399999 -0.02378572 1.1152056e-38 323 259
0.0050215465 0.71600002 -0.023852346 1.0968016e-38 324 259
0.0062769335 0.71600002 -0.023852346 1.0783626e-38 325 259
0.00753232 0.71600002 -0.023852346 1.060066e-38 326 259
0.0087999795 0.71700001 -0.02388566 1.0416629e-38 327 259
0.010099201 0.72000003 -0.0239856 9.8663001e-39 328 259
0.011361601 0.72000003 -0.0239856 9.5897146e-39 329 259
0.012659066 0.722 -0.024052227 9.0386666e-39 330 259
0.013924973 0.722 -0.024052227 9.1308622e-39 331 259
0.015190879 0.722 -0.024052227 8.8567738e-39 332 259
0.016456785 0.722 -0.024052227 8.6723826e-39 333 259
0.017722692 0.722 -0.024052227 1.1522561e-38 334 259
0.0189886 0.722 -0.024052227 1.3366472e-38 335 259
-0.05062224 0.80199999 -0.028123464 1.5851139e-38 284 260
-0.049216066 0.80199999 -0.028123464 1.45604e-38 285 260
-0.042921603 0.72000003 -0.025248 1.3181362e-38 286 260
-0.041659199 0.72000003 -0.025248 1.1152699e-38 287 260
-0.040396802 0.72000003 -0.025248 9.6854429e-39 288 260
-0.039134402 0.72000003 -0.025248 9.7776385e-39 289 260
-0.037819397 0.71899998 -0.025212931 8.858957e-39 290 260
-0.036558751 0.71899998 -0.025212931 9.2280997e-39 291 260
-0.035199918 0.71700001 -0.0251428 9.8717119e-39 292 260
-0.03389544 0.71600002 -0.025107734 1.033269e-38 293 260
-0.032640055 0.71600002 -0.025107734 1.1342188e-38 294 260
-0.031384666 0.71600002 -0.025107734 1.1895362e-38 295 260
-0.030045118 0.71399999 -0.025037598 1.2446395e-38 296 260
-0.028793238 0.71399999 -0.025037598 1.2722621e-38 297 260
-0.02754136 0.71399999 -0.025037598 1.327041e-38 298 260
-0.026252659 0.713 -0.025002534 1.2717236e-38 299 260
-0.024932399 0.71100003 -0.024932399 9.3070923e-39 300 260
-0.023685781 0.71100003 -0.024932399 5.0657346e-39 301 260
-0.022439159 0.71100003 -0.024932399 2.5001e-39 302 260
-0.021192541 0.71100003 -0.024932399 4.2521771e-39 303 260
-0.01994592 0.71100003 -0.024932399 7.0079749e-39 304 260
-0.0186993 0.71100003 -0.024932399 8.2068782e-39 305 260
-0.01745268 0.71100003 -0.024932399 9.2170589e-39 306 260
-0.01620606 0.71100003 -0.024932399 9.3096132e-39 307 260
-0.014959441 0.71100003 -0.024932399 8.5756397e-39 308 260
-0.01371282 0.71100003 -0.024932399 8.4834427e-39 309 260
-0.0124662 0.71100003 -0.024932399 8.1135854e-39 310 260
-0.01121958 0.71100003 -0.024932399 8.1135854e-39 311 260
-0.0099589331 0.70999998 -0.024897331 8.115386e-39 312 260
-0.0087140659 0.70999998 -0.024897331 8.0231904e-39 313 260
-0.0074691991 0.70999998 -0.024897331 8.2061369e-39 314 260
-0.0062330998 0.71100003 -0.024932399 8.0217457e-39 315 260
-0.0049864799 0.71100003 -0.024932399 8.8464645e-39 316 260
-0.0037398601 0.71100003 -0.024932399 9.3996382e-39 317 260
-0.0024932399 0.71100003 -0.024932399 1.0141147e-38 318 260
-0.00124662 0.71100003 -0.024932399 1.069432e-38 319 260
0 0.713 -0.025002534 1.1152409e-38 320 260
0.0012501266 0.713 -0.025002534 1.1060213e-38 321 260
0.0025037599 0.71399999 -0.025037598 1.1060914e-38 322 260
0.0037556398 0.71399999 -0.025037598 1.069249e-38 323 260
0.0050215465 0.71600002 -0.025107734 1.0141811e-38 324 260
0.0062769335 0.71600002 -0.025107734 9.8652253e-39 325 260
0.0075428397 0.71700001 -0.0251428 9.4989385e-39 326 260
0.0088245263 0.71899998 -0.025212931 9.4067428e-39 327 260
0.010099201 0.72000003 -0.025248 8.7652999e-39 328 260
0.011361601 0.72000003 -0.025248 8.7652999e-39 329 260
0.012659066 0.722 -0.025318133 8.8578332e-39 330 260
0.013924973 0.722 -0.025318133 8.7656376e-39 331 260
0.015211919 0.72299999 -0.025353199 8.5809128e-39 332 260
0.01647958 0.72299999 -0.025353199 9.8716516e-39 333 260
0.017747238 0.72299999 -0.025353199 1.4011155e-38 334 260
0.019014901 0.72299999 -0.025353199 1.4472493e-38 335 260
-0.040340692 0.71899998 -0.02647358 1.1707263e-38 288 261
-0.039080046 0.71899998 -0.02647358 1.0969698e-38 289 261
-0.037819397 0.71899998 -0.02647358 8.8588996e-39 290 261
-0.036558751 0.71899998 -0.02647358 8.9510952e-39 291 261
-0.035199918 0.71700001 -0.02639994 9.4113965e-39 292 261
-0.03389544 0.71600002 -0.026363119 9.8723733e-39 293 261
-0.032640055 0.71600002 -0.026363119 1.0055728e-38 294 261
-0.031384666 0.71600002 -0.026363119 1.0608901e-38 295 261
-0.030045118 0.71399999 -0.026289478 1.106883e-38 296 261
-0.028793238 0.71399999 -0.026289478 1.1437611e-38 297 261
-0.02754136 0.71399999 -0.026289478 1.2171603e-38 298 261
-0.026252659 0.713 -0.026252659 1.180246e-38 299 261
-0.025002534 0.713 -0.026252659 1.1156022e-38 300 261
-0.023685781 0.71100003 -0.026179021 7.7447832e-39 301 261
-0.022439159 0.71100003 -0.026179021 4.8017286e-39 302 261
-0.021192541 0.71100003 -0.026179021 6.5534455e-39 303 261
-0.01994592 0.71100003 -0.026179021 8.3908939e-39 304 261
-0.0186993 0.71100003 -0.026179021 8.8518721e-39 305 261
-0.01745268 0.71100003 -0.026179021 9.4954268e-39 306 261
-0.01620606 0.71100003 -0.026179021 9.4954268e-39 307 261
