# .PCD v.7 - Point Cloud Data file format
FIELDS x y z rgb imX imY
SIZE 4 4 4 4 4 4
TYPE F F F F F F
COUNT 1 1 1 1 1 1
WIDTH 833
HEIGHT 1
VIEWPOINT 0 0 0 1 0 0 0
POINTS 833
DATA ascii
0.021713281 0.68800002 -0.010856641 1.013863e-38 338 249
0.022986198 0.69 -0.010888199 1.013863e-38 339 249
0.024301201 0.69300002 -0.010935539 9.492187e-39 340 249
0.025553079 0.69400001 -0.01095132 8.1092526e-39 341 249
0.026885614 0.69700003 -0.01099866 7.0958391e-39 342 249
0.028107686 0.69700003 -0.01099866 6.4504697e-39 343 249
0.02932976 0.69700003 -0.01099866 6.5459051e-39 344 249
0.030595668 0.69800001 -0.01101444 7.2834702e-39 345 249
0.031819493 0.69800001 -0.01101444 8.1085267e-39 346 249
0.033137999 0.69999999 -0.011045999 9.12268e-39 347 249
0.034365334 0.69999999 -0.011045999 1.5297966e-38 348 249
-0.029498078 0.70099998 -0.012290866 1.0137929e-38 296 250
-0.028228667 0.69999999 -0.012273333 1.0598547e-38 297 250
-0.026924185 0.69800001 -0.012238266 1.0511754e-38 298 250
-0.025700359 0.69800001 -0.012238266 1.0880176e-38 299 250
-0.024441468 0.69700003 -0.012220734 9.7770682e-39 300 250
-0.023186078 0.69599998 -0.0122032 7.7487643e-39 301 250
-0.021965759 0.69599998 -0.0122032 8.7586045e-39 302 250
-0.020685827 0.69400001 -0.012168133 9.8649506e-39 303 250
-0.01944096 0.69300002 -0.012150601 1.0970211e-38 304 250
-0.0181733 0.69099998 -0.012115533 1.1523024e-38 305 250
-0.0169372 0.69 -0.012097999 1.1615577e-38 306 250
-0.015727401 0.69 -0.012097999 1.1615577e-38 307 250
-0.014517599 0.69 -0.012097999 1.170669e-38 308 250
-0.013269227 0.68800002 -0.012062933 1.1246072e-38 309 250
-0.012062933 0.68800002 -0.012062933 1.1154955e-38 310 250
-0.010840859 0.68699998 -0.012045399 1.1338986e-38 311 250
-0.0096363192 0.68699998 -0.012045399 1.0970208e-38 312 250
-0.0084317802 0.68699998 -0.012045399 1.0693261e-38 313 250
-0.0072167199 0.68599999 -0.012027865 1.06007e-38 314 250
-0.0060139326 0.68599999 -0.012027865 1.0508504e-38 315 250
-0.0047971201 0.68400002 -0.0119928 1.0691452e-38 316 250
-0.00359784 0.68400002 -0.0119928 9.4929101e-39 317 250
-0.0023985601 0.68400002 -0.0119928 7.4671047e-39 318 250
-0.00119928 0.68400002 -0.0119928 7.1905164e-39 319 250
0 0.68300003 -0.011975267 7.1001033e-39 320 250
0.0011975267 0.68300003 -0.011975267 6.8231576e-39 321 250
0.0023950534 0.68300003 -0.011975267 5.8997776e-39 322 250
0.0035925799 0.68300003 -0.011975267 5.1618539e-39 323 250
0.004783093 0.68199998 -0.011957732 6.1756653e-39 324 250
0.005978866 0.68199998 -0.011957732 8.6649473e-39 325 250
0.00717464 0.68199998 -0.011957732 1.0413434e-38 326 250
0.0083704125 0.68199998 -0.011957732 1.004501e-38 327 250
0.0095802136 0.68300003 -0.011975267 9.402878e-39 328 250
0.01077774 0.68300003 -0.011975267 9.7720207e-39 329 250
0.012027865 0.68599999 -0.012027865 1.0323392e-38 330 250
0.013230653 0.68599999 -0.012027865 1.0415588e-38 331 250
0.014454478 0.68699998 -0.012045399 1.0599253e-38 332 250
0.015659019 0.68699998 -0.012045399 1.0599253e-38 333 250
0.01686356 0.68699998 -0.012045399 9.8634877e-39 334 250
0.0180944 0.68800002 -0.012062933 9.7712906e-39 335 250
0.019300694 0.68800002 -0.012062933 9.3121089e-39 336 250
0.020506985 0.68800002 -0.012062933 9.2199133e-39 337 250
0.021776399 0.69 -0.012097999 9.8627646e-39 338 250
0.023019511 0.69099998 -0.012115533 9.4939821e-39 339 250
0.024301201 0.69300002 -0.012150601 8.5716754e-39 340 250
0.025626717 0.69599998 -0.0122032 6.9117954e-39 341 250
0.026924185 0.69800001 -0.012238266 6.0824159e-39 342 250
0.028148014 0.69800001 -0.012238266 5.6214377e-39 343 250
0.029371841 0.69800001 -0.012238266 5.7161515e-39 344 250
0.030683333 0.69999999 -0.012273333 6.6377476e-39 345 250
0.031910665 0.69999999 -0.012273333 8.1081708e-39 346 250
0.033137999 0.69999999 -0.012273333 9.5836596e-39 347 250
-0.031034 0.708 -0.013654959 1.4835924e-38 295 251
-0.029498078 0.70099998 -0.013519952 1.0322318e-38 296 251
-0.028228667 0.69999999 -0.013500666 1.0691099e-38 297 251
-0.026924185 0.69800001 -0.013462093 1.0512472e-38 298 251
-0.025700359 0.69800001 -0.013462093 1.0789059e-38 299 251
-0.024441468 0.69700003 -0.013442807 1.0144776e-38 300 251
-0.023186078 0.69599998 -0.013423519 7.9324395e-39 301 251
-0.021965759 0.69599998 -0.013423519 5.9995711e-39 302 251
-0.020685827 0.69400001 -0.013384946 5.63079e-39 303 251
-0.01944096 0.69300002 -0.01336566 7.8334098e-39 304 251
-0.018225901 0.69300002 -0.01336566 8.6631718e-39 305 251
-0.016961746 0.69099998 -0.013327086 9.1273828e-39 306 251
-0.015727401 0.69 -0.0133078 8.7586017e-39 307 251
-0.014517599 0.69 -0.0133078 8.2979794e-39 308 251
-0.013269227 0.68800002 -0.013269227 8.2979794e-39 309 251
-0.012062933 0.68800002 -0.013269227 9.2210119e-39 310 251
-0.010840859 0.68699998 -0.013249939 1.0327358e-38 311 251
-0.0096363192 0.68699998 -0.013249939 1.087981e-38 312 251
-0.0084317802 0.68699998 -0.013249939 1.087981e-38 313 251
-0.0072272392 0.68699998 -0.013249939 1.1063478e-38 314 251
-0.0060139326 0.68599999 -0.013230653 1.0878728e-38 315 251
-0.0048111463 0.68599999 -0.013230653 1.0693246e-38 316 251
-0.00360836 0.68599999 -0.013230653 9.4025067e-39 317 251
-0.0024055731 0.68599999 -0.013230653 7.0979495e-39 318 251
-0.00119928 0.68400002 -0.01319208 7.3748951e-39 319 251
0 0.68400002 -0.01319208 9.7726975e-39 320 251
0.0011975267 0.68300003 -0.013172794 9.8648932e-39 321 251
0.0023950534 0.68300003 -0.013172794 9.3992501e-39 322 251
0.0035925799 0.68300003 -0.013172794 6.9099681e-39 323 251
0.0047901068 0.68300003 -0.013172794 6.6337511e-39 324 251
0.0059876335 0.68300003 -0.013172794 9.4918143e-39 325 251
0.00717464 0.68199998 -0.013153506 9.5869008e-39 326 251
0.0083704125 0.68199998 -0.013153506 9.2181182e-39 327 251
0.0095802136 0.68300003 -0.013172794 9.2170421e-39 328 251
0.010825079 0.68599999 -0.013230653 9.3095978e-39 329 251
0.012045399 0.68699998 -0.013249939 9.6773013e-39 330 251
0.013249939 0.68699998 -0.013249939 9.9535281e-39 331 251
0.014454478 0.68699998 -0.013249939 9.5858246e-39 332 251
0.015681813 0.68800002 -0.013269227 8.9404552e-39 333 251
0.016888106 0.68800002 -0.013269227 8.6620704e-39 334 251
0.0180944 0.68800002 -0.013269227 8.201451e-39 335 251
0.019300694 0.68800002 -0.013269227 8.1124896e-39 336 251
0.020506985 0.68800002 -0.013269227 8.3894366e-39 337 251
0.021776399 0.69 -0.0133078 8.757859e-39 338 251
0.023019511 0.69099998 -0.013327086 8.2046852e-39 339 251
0.024336265 0.69400001 -0.013384946 7.8337573e-39 340 251
0.025626717 0.69599998 -0.013423519 6.2664316e-39 341 251
0.026924185 0.69800001 -0.013462093 5.9891454e-39 342 251
0.028148014 0.69800001 -0.013462093 5.7121984e-39 343 251
0.029371841 0.69800001 -0.013462093 5.6218006e-39 344 251
0.030683333 0.69999999 -0.013500666 6.3597258e-39 345 251
0.031910665 0.69999999 -0.013500666 7.3742057e-39 346 251
0.033137999 0.69999999 -0.013500666 9.4947051e-39 347 251
-0.032412119 0.71100003 -0.014959441 1.6679834e-38 294 252
-0.031034 0.708 -0.01489632 1.5296899e-38 295 252
-0.029750559 0.70700002 -0.01487528 1.1150999e-38 296 252
-0.028268991 0.70099998 -0.014749039 1.1150999e-38 297 252
-0.027001332 0.69999999 -0.014727999 1.078798e-38 298 252
-0.025700359 0.69800001 -0.01468592 1.0972372e-38 299 252
-0.024476532 0.69800001 -0.01468592 1.0146211e-38 300 252
-0.023219392 0.69700003 -0.01466488 8.5785264e-39 301 252
-0.02199732 0.69700003 -0.01466488 6.5520232e-39 302 252
-0.020745439 0.69599998 -0.014643839 5.35348e-39 303 252
-0.019469013 0.69400001 -0.01460176 6.0845809e-39 304 252
-0.018225901 0.69300002 -0.014580719 6.1767765e-39 305 252
-0.01701084 0.69300002 -0.014580719 7.1898676e-39 306 252
-0.015750192 0.69099998 -0.014538639 7.0058365e-39 307 252
-0.014538639 0.69099998 -0.014538639 6.362988e-39 308 252
-0.0133078 0.69 -0.014517599 6.8236075e-39 309 252
-0.012062933 0.68800002 -0.014475521 8.1154043e-39 310 252
-0.010856641 0.68800002 -0.014475521 9.2213931e-39 311 252
-0.0096503468 0.68800002 -0.014475521 1.0234809e-38 312 252
-0.0084317802 0.68699998 -0.014454478 1.0511398e-38 313 252
-0.0072272392 0.68699998 -0.014454478 1.0695416e-38 314 252
-0.0060226996 0.68699998 -0.014454478 1.0511023e-38 315 252
-0.0048181596 0.68699998 -0.014454478 1.0600684e-38 316 252
-0.00360836 0.68599999 -0.01443344 9.3099453e-39 317 252
-0.0024055731 0.68599999 -0.01443344 7.0979467e-39 318 252
-0.0012027866 0.68599999 -0.01443344 8.2042942e-39 319 252
0 0.68400002 -0.01439136 1.06014e-38 320 252
0.00119928 0.68400002 -0.01439136 1.06014e-38 321 252
0.0023985601 0.68400002 -0.01439136 1.1151703e-38 322 252
0.00359784 0.68400002 -0.01439136 8.4780295e-39 323 252
0.0047901068 0.68300003 -0.014370319 6.6341043e-39 324 252
0.0059876335 0.68300003 -0.014370319 9.1233863e-39 325 252
0.0071851597 0.68300003 -0.014370319 8.4830699e-39 326 252
0.0083826864 0.68300003 -0.014370319 7.4689194e-39 327 252
0.0095942402 0.68400002 -0.01439136 8.2940138e-39 328 252
0.010840859 0.68699998 -0.014454478 8.1096225e-39 329 252
0.012045399 0.68699998 -0.014454478 8.202537e-39 330 252
0.013249939 0.68699998 -0.014454478 8.8479064e-39 331 252
0.014454478 0.68699998 -0.014454478 8.2025398e-39 332 252
0.015681813 0.68800002 -0.014475521 7.0961922e-39 333 252
0.016888106 0.68800002 -0.014475521 6.5433912e-39 334 252
0.0180944 0.68800002 -0.014475521 6.7277825e-39 335 252
0.019300694 0.68800002 -0.014475521 6.6377476e-39 336 252
0.020566599 0.69 -0.014517599 7.3756728e-39 337 252
0.021807959 0.69099998 -0.014538639 8.0195877e-39 338 252
0.023019511 0.69099998 -0.014538639 7.6511653e-39 339 252
0.024336265 0.69400001 -0.01460176 7.1883907e-39 340 252
0.025626717 0.69599998 -0.014643839 6.0820445e-39 341 252
0.026924185 0.69800001 -0.01468592 5.6210846e-39 342 252
0.028148014 0.69800001 -0.01468592 5.4366933e-39 343 252
0.029371841 0.69800001 -0.01468592 5.2548132e-39 344 252
0.030683333 0.69999999 -0.014727999 5.9923782e-39 345 252
0.031956252 0.70099998 -0.014749039 7.7422679e-39 346 252
0.03318534 0.70099998 -0.014749039 9.9549644e-39 347 252
-0.032412119 0.71100003 -0.01620606 1.6588357e-38 294 253
-0.031121666 0.70999998 -0.016183265 1.5389814e-38 295 253
-0.02979264 0.708 -0.01613768 1.2072233e-38 296 253
-0.028470624 0.70599997 -0.016092092 1.1796006e-38 297 253
-0.027001332 0.69999999 -0.015955333 1.0605031e-38 298 253
-0.025773998 0.69999999 -0.015955333 1.0605031e-38 299 253
-0.024476532 0.69800001 -0.015909746 1.0053662e-38 300 253
-0.023219392 0.69700003 -0.015886955 9.5004883e-39 301 253
-0.02199732 0.69700003 -0.015886955 9.5908861e-39 302 253
-0.020745439 0.69599998 -0.015864158 9.4986904e-39 303 253
-0.019469013 0.69400001 -0.015818574 9.1306268e-39 304 253
-0.0182522 0.69400001 -0.015818574 8.4852574e-39 305 253
-0.01701084 0.69300002 -0.015795778 7.5629479e-39 306 253
-0.015795778 0.69300002 -0.015795778 6.9175785e-39 307 253
-0.014538639 0.69099998 -0.015750192 6.7349851e-39 308 253
-0.013327086 0.69099998 -0.015750192 6.8271808e-39 309 253
-0.012097999 0.69 -0.015727401 7.7469735e-39 310 253
-0.010856641 0.68800002 -0.015681813 7.1016041e-39 311 253
-0.0096503468 0.68800002 -0.015681813 6.5495051e-39 312 253
-0.0084440531 0.68800002 -0.015681813 7.1948745e-39 313 253
-0.0072377604 0.68800002 -0.015681813 7.3781839e-39 314 253
-0.0060226996 0.68699998 -0.015659019 7.9313577e-39 315 253
-0.0048181596 0.68699998 -0.015659019 9.2177651e-39 316 253
-0.0036136196 0.68699998 -0.015659019 8.8493413e-39 317 253
-0.0024055731 0.68599999 -0.015636226 8.0202785e-39 318 253
-0.0012027866 0.68599999 -0.015636226 8.5734523e-39 319 253
0 0.68400002 -0.01559064 1.0693599e-38 320 253
0.00119928 0.68400002 -0.01559064 1.041701e-38 321 253
0.0023985601 0.68400002 -0.01559064 9.7727214e-39 322 253
0.00359784 0.68400002 -0.01559064 7.5596661e-39 323 253
0.0047971201 0.68400002 -0.01559064 6.3593152e-39 324 253
0.0059964 0.68400002 -0.01559064 8.5716502e-39 325 253
0.0071956799 0.68400002 -0.01559064 8.760733e-39 326 253
0.0083949603 0.68400002 -0.01559064 5.8104729e-39 327 253
0.0096363192 0.68699998 -0.015659019 5.439545e-39 328 253
0.010840859 0.68699998 -0.015659019 5.439545e-39 329 253
0.012045399 0.68699998 -0.015659019 5.7150599e-39 330 253
0.013249939 0.68699998 -0.015659019 5.7150599e-39 331 253
0.014454478 0.68699998 -0.015659019 5.2544503e-39 332 253
0.015681813 0.68800002 -0.015681813 5.622874e-39 333 253
0.016888106 0.68800002 -0.015681813 5.9902174e-39 334 253
0.0180944 0.68800002 -0.015681813 6.7277825e-39 335 253
0.019300694 0.68800002 -0.015681813 6.9150422e-39 336 253
0.020566599 0.69 -0.015727401 7.468216e-39 337 253
0.021807959 0.69099998 -0.015750192 7.6529632e-39 338 253
0.02308614 0.69300002 -0.015795778 7.3763763e-39 339 253
0.024336265 0.69400001 -0.015818574 6.9125297e-39 340 253
0.025626717 0.69599998 -0.015864158 6.1746059e-39 341 253
0.026924185 0.69800001 -0.015909746 5.1608267e-39 342 253
0.028148014 0.69800001 -0.015909746 5.2533811e-39 343 253
0.029455997 0.69999999 -0.015955333 5.5299609e-39 344 253
0.030683333 0.69999999 -0.015955333 6.5441143e-39 345 253
0.031956252 0.70099998 -0.015978126 8.2950829e-39 346 253
0.03318534 0.70099998 -0.015978126 9.6780174e-39 347 253
-0.032412119 0.71100003 -0.01745268 1.6587282e-38 294 254
-0.031121666 0.70999998 -0.017428132 1.5481293e-38 295 254
-0.02979264 0.708 -0.017379038 1.1888567e-38 296 254
-0.028510952 0.70700002 -0.017354494 1.161198e-38 297 254
-0.027039904 0.70099998 -0.017207211 1.078763e-38 298 254
-0.025773998 0.69999999 -0.017182667 1.0511044e-38 299 254
-0.024476532 0.69800001 -0.017133573 9.9611105e-39 300 254
-0.023219392 0.69700003 -0.017109027 9.5926867e-39 301 254
-0.02199732 0.69700003 -0.017109027 9.5926867e-39 302 254
-0.020775247 0.69700003 -0.017109027 9.7767179e-39 303 254
-0.019525118 0.69599998 -0.017084479 9.5015575e-39 304 254
-0.0182522 0.69400001 -0.017035386 9.1331351e-39 305 254
-0.01701084 0.69300002 -0.01701084 9.0384185e-39 306 254
-0.015795778 0.69300002 -0.01701084 8.5770803e-39 307 254
-0.014538639 0.69099998 -0.016961746 8.117551e-39 308 254
-0.013327086 0.69099998 -0.016961746 7.9331598e-39 309 254
-0.012097999 0.69 -0.0169372 8.3912499e-39 310 254
-0.010888199 0.69 -0.0169372 7.7458804e-39 311 254
-0.0096783992 0.69 -0.0169372 6.7299335e-39 312 254
-0.0084440531 0.68800002 -0.016888106 7.0061616e-39 313 254
-0.0072377604 0.68800002 -0.016888106 6.3618866e-39 314 254
-0.0060314666 0.68800002 -0.016888106 7.5604298e-39 315 254
-0.0048251734 0.68800002 -0.016888106 7.7476797e-39 316 254
-0.0036136196 0.68699998 -0.01686356 8.0239065e-39 317 254
-0.0024090798 0.68699998 -0.01686356 8.1139245e-39 318 254
-0.0012045399 0.68699998 -0.01686356 8.4823483e-39 319 254
0 0.68599999 -0.016839013 9.1295155e-39 320 254
0.0012027866 0.68599999 -0.016839013 8.5763432e-39 321 254
0.0024055731 0.68599999 -0.016839013 7.6543701e-39 322 254
0.00360836 0.68599999 -0.016839013 6.5476624e-39 323 254
0.0048111463 0.68599999 -0.016839013 6.7280908e-39 324 254
0.0060139326 0.68599999 -0.016839013 8.5720033e-39 325 254
0.0072272392 0.68699998 -0.01686356 8.4823483e-39 326 254
0.0084317802 0.68699998 -0.01686356 7.0072182e-39 327 254
0.0096363192 0.68699998 -0.01686356 5.90017e-39 328 254
0.010840859 0.68699998 -0.01686356 6.4533438e-39 329 254
0.012045399 0.68699998 -0.01686356 6.9114479e-39 330 254
0.013269227 0.68800002 -0.016888106 7.0036435e-39 331 254
0.014475521 0.68800002 -0.016888106 6.4529878e-39 332 254
0.015681813 0.68800002 -0.016888106 6.6377378e-39 333 254
0.016888106 0.68800002 -0.016888106 6.640256e-39 334 254
0.018146999 0.69 -0.0169372 7.0086783e-39 335 254
0.019356798 0.69 -0.0169372 7.4692908e-39 336 254
0.020596405 0.69099998 -0.016961746 7.5614864e-39 337 254
0.021871079 0.69300002 -0.01701084 7.8366313e-39 338 254
0.023119451 0.69400001 -0.017035386 7.4678502e-39 339 254
0.0244064 0.69599998 -0.017084479 7.4639028e-39 340 254
0.025663542 0.69700003 -0.017109027 6.2653596e-39 341 254
0.026924185 0.69800001 -0.017133573 5.4366933e-39 342 254
0.028148014 0.69800001 -0.017133573 5.4366933e-39 343 254
0.029455997 0.69999999 -0.017182667 5.7161543e-39 344 254
0.030727165 0.70099998 -0.017207211 6.6377504e-39 345 254
0.031956252 0.70099998 -0.017207211 7.3734868e-39 346 254
0.03318534 0.70099998 -0.017207211 9.5858218e-39 347 254
-0.032412119 0.71100003 -0.0186993 1.6402891e-38 294 255
-0.031121666 0.70999998 -0.018672999 1.5296543e-38 295 255
-0.02979264 0.708 -0.0186204 1.1520864e-38 296 255
-0.028510952 0.70700002 -0.018594101 1.1336112e-38 297 255
-0.027155625 0.704 -0.018515198 1.0512485e-38 298 255
-0.025773998 0.69999999 -0.018409999 1.0236258e-38 299 255
-0.024476532 0.69800001 -0.0183574 9.5930525e-39 300 255
-0.023219392 0.69700003 -0.018331099 9.4086612e-39 301 255
-0.02199732 0.69700003 -0.018331099 9.1327946e-39 302 255
-0.020775247 0.69700003 -0.018331099 9.1327946e-39 303 255
-0.019525118 0.69599998 -0.018304799 8.8576398e-39 304 255
-0.0182522 0.69400001 -0.0182522 8.7654442e-39 305 255
-0.017035386 0.69400001 -0.0182522 9.3153754e-39 306 255
-0.015795778 0.69300002 -0.018225901 9.4994065e-39 307 255
-0.014580719 0.69300002 -0.018225901 9.1331351e-39 308 255
-0.013327086 0.69099998 -0.0181733 8.8561881e-39 309 255
-0.012115533 0.69099998 -0.0181733 8.8554692e-39 310 255
-0.01090398 0.69099998 -0.0181733 8.7632736e-39 311 255
-0.0096783992 0.69 -0.018146999 9.4021746e-39 312 255
-0.0084686 0.69 -0.018146999 8.2958284e-39 313 255
-0.0072377604 0.68800002 -0.0180944 7.1912773e-39 314 255
-0.0060314666 0.68800002 -0.0180944 7.9288424e-39 315 255
-0.0048251734 0.68800002 -0.0180944 8.1153832e-39 316 255
-0.0036188802 0.68800002 -0.0180944 8.1153832e-39 317 255
-0.0024090798 0.68699998 -0.018068098 8.1142916e-39 318 255
-0.0012045399 0.68699998 -0.018068098 8.0220946e-39 319 255
0 0.68699998 -0.018068098 6.6431104e-39 320 255
0.0012045399 0.68699998 -0.018068098 5.6285997e-39 321 255
0.0024090798 0.68699998 -0.018068098 4.6151513e-39 322 255
0.0036136196 0.68699998 -0.018068098 4.9839338e-39 323 255
0.0048181596 0.68699998 -0.018068098 7.0990453e-39 324 255
0.0060226996 0.68699998 -0.018068098 8.9429565e-39 325 255
0.0072272392 0.68699998 -0.018068098 8.4845189e-39 326 255
0.0084317802 0.68699998 -0.018068098 7.7469524e-39 327 255
0.0096503468 0.68800002 -0.0180944 7.6536848e-39 328 255
0.010856641 0.68800002 -0.0180944 7.7458804e-39 329 255
0.012062933 0.68800002 -0.0180944 8.1128665e-39 330 255
0.013269227 0.68800002 -0.0180944 8.389452e-39 331 255
0.014475521 0.68800002 -0.0180944 8.206853e-39 332 255
0.015681813 0.68800002 -0.0180944 8.2990486e-39 333 255
0.016888106 0.68800002 -0.0180944 8.2072089e-39 334 255
0.018146999 0.69 -0.018146999 8.1146546e-39 335 255
0.019356798 0.69 -0.018146999 7.5632815e-39 336 255
0.020596405 0.69099998 -0.0181733 7.4710858e-39 337 255
0.021871079 0.69300002 -0.018225901 7.5604144e-39 338 255
0.023119451 0.69400001 -0.0182522 7.2838261e-39 339 255
0.0244064 0.69599998 -0.018304799 6.8203438e-39 340 255
0.025663542 0.69700003 -0.018331099 6.0827788e-39 341 255
0.026924185 0.69800001 -0.0183574 5.528889e-39 342 255
0.028148014 0.69800001 -0.0183574 5.9898671e-39 343 255
0.029455997 0.69999999 -0.018409999 6.1771268e-39 344 255
0.030727165 0.70099998 -0.018436298 6.7303006e-39 345 255
0.031956252 0.70099998 -0.018436298 6.8188669e-39 346 255
0.033422034 0.70599997 -0.018567799 9.3081489e-39 347 255
-0.032503292 0.713 -0.020002026 1.6402888e-38 294 256
-0.031165501 0.71100003 -0.01994592 1.548129e-38 295 256
-0.029876797 0.70999998 -0.019917866 1.2256264e-38 296 256
-0.028510952 0.70700002 -0.019833706 1.1979318e-38 297 256
-0.027155625 0.704 -0.019749546 1.0604318e-38 298 256
-0.025773998 0.69999999 -0.019637333 1.0327372e-38 299 256
-0.024546666 0.69999999 -0.019637333 9.499782e-39 300 256
-0.023252707 0.69800001 -0.019581227 9.3153908e-39 301 256
-0.02202888 0.69800001 -0.019581227 9.1327974e-39 302 256
-0.020805053 0.69800001 -0.019581227 9.0406018e-39 303 256
-0.019553173 0.69700003 -0.019553173 8.9484005e-39 304 256
-0.018304799 0.69599998 -0.019525118 8.764368e-39 305 256
-0.017035386 0.69400001 -0.019469013 8.8558406e-39 306 256
-0.015795778 0.69300002 -0.01944096 8.8558406e-39 307 256
-0.014580719 0.69300002 -0.01944096 8.6725227e-39 308 256
-0.013327086 0.69099998 -0.019384852 8.6725227e-39 309 256
-0.012115533 0.69099998 -0.019384852 9.0395059e-39 310 256
-0.01090398 0.69099998 -0.019384852 9.0395059e-39 311 256
-0.0096783992 0.69 -0.019356798 9.1306296e-39 312 256
-0.0084686 0.69 -0.019356798 7.9320864e-39 313 256
-0.0072587994 0.69 -0.019356798 6.7353383e-39 314 256
-0.0060314666 0.68800002 -0.019300694 7.4729033e-39 315 256
-0.0048251734 0.68800002 -0.019300694 8.0249897e-39 316 256
-0.0036188802 0.68800002 -0.019300694 7.9327926e-39 317 256
-0.0024125867 0.68800002 -0.019300694 8.5745495e-39 318 256
-0.0012062934 0.68800002 -0.019300694 8.2976039e-39 319 256
0 0.68699998 -0.019272638 6.9168176e-39 320 256
0.0012045399 0.68699998 -0.019272638 5.9030244e-39 321 256
0.0024090798 0.68699998 -0.019272638 5.5353181e-39 322 256
0.0036136196 0.68699998 -0.019272638 6.4569143e-39 323 256
0.0048251734 0.68800002 -0.019300694 8.0213757e-39 324 256
0.0060314666 0.68800002 -0.019300694 8.9429733e-39 325 256
0.0072377604 0.68800002 -0.019300694 8.4834469e-39 326 256
0.0084440531 0.68800002 -0.019300694 8.2064999e-39 327 256
0.0096503468 0.68800002 -0.019300694 7.7476797e-39 328 256
0.010856641 0.68800002 -0.019300694 8.0239065e-39 329 256
0.012062933 0.68800002 -0.019300694 8.0239065e-39 330 256
0.013269227 0.68800002 -0.019300694 8.0239065e-39 331 256
0.014475521 0.68800002 -0.019300694 8.0235379e-39 332 256
0.015681813 0.68800002 -0.019300694 7.8391467e-39 333 256
0.0169372 0.69 -0.019356798 7.9309794e-39 334 256
0.018146999 0.69 -0.019356798 7.8384236e-39 335 256
0.019384852 0.69099998 -0.019384852 7.7458776e-39 336 256
0.020656019 0.69300002 -0.01944096 7.5614864e-39 337 256
0.021871079 0.69300002 -0.01944096 7.2845506e-39 338 256
0.023119451 0.69400001 -0.019469013 7.0079623e-39 339 256
0.0244064 0.69599998 -0.019525118 7.0962049e-39 340 256
0.025663542 0.69700003 -0.019553173 6.5433912e-39 341 256
0.026924185 0.69800001 -0.019581227 6.2678791e-39 342 256
0.028228667 0.69999999 -0.019637333 6.7284985e-39 343 256
0.029455997 0.69999999 -0.019637333 7.2838233e-39 344 256
0.030727165 0.70099998 -0.019665385 7.468216e-39 345 256
0.032184184 0.70599997 -0.019805651 8.1074421e-39 346 256
0.033422034 0.70599997 -0.019805651 9.9509945e-39 347 256
0.034659892 0.70599997 -0.019805651 1.5758222e-38 348 256
-0.032503292 0.713 -0.021252153 1.6310692e-38 294 257
-0.031253166 0.713 -0.021252153 1.5757519e-38 295 257
-0.029876797 0.70999998 -0.021162732 1.2717236e-38 296 257
-0.028510952 0.70700002 -0.021073313 1.2164062e-38 297 257
-0.027232772 0.70599997 -0.021043506 1.0696864e-38 298 257
-0.025773998 0.69999999 -0.020864666 1.0051494e-38 299 257
-0.024546666 0.69999999 -0.020864666 9.040236e-39 300 257
-0.023252707 0.69800001 -0.020805053 9.1324316e-39 301 257
-0.02202888 0.69800001 -0.020805053 9.0406018e-39 302 257
-0.020805053 0.69800001 -0.020805053 8.9484061e-39 303 257
-0.019553173 0.69700003 -0.020775247 8.5803425e-39 304 257
-0.018304799 0.69599998 -0.020745439 8.4881468e-39 305 257
-0.017035386 0.69400001 -0.020685827 8.3041157e-39 306 257
-0.015818574 0.69400001 -0.020685827 8.3041157e-39 307 257
-0.014580719 0.69300002 -0.020656019 8.2119201e-39 308 257
-0.01336566 0.69300002 -0.020656019 8.2119201e-39 309 257
-0.012115533 0.69099998 -0.020596405 8.3030367e-39 310 257
-0.01090398 0.69099998 -0.020596405 8.3030367e-39 311 257
-0.0096924258 0.69099998 -0.020596405 8.3023136e-39 312 257
-0.0084686 0.69 -0.020566599 8.0257268e-39 313 257
-0.0072587994 0.69 -0.020566599 7.8416928e-39 314 257
-0.0060489997 0.69 -0.020566599 7.6569414e-39 315 257
-0.0048251734 0.68800002 -0.020506985 7.5650989e-39 316 257
-0.0036188802 0.68800002 -0.020506985 7.4729033e-39 317 257
-0.0024125867 0.68800002 -0.020506985 8.3912499e-39 318 257
-0.0012062934 0.68800002 -0.020506985 8.1143042e-39 319 257
0 0.68800002 -0.020506985 5.9026853e-39 320 257
0.0012062934 0.68800002 -0.020506985 5.5342615e-39 321 257
0.0024125867 0.68800002 -0.020506985 6.9175631e-39 322 257
0.0036188802 0.68800002 -0.020506985 8.3004976e-39 323 257
0.0048251734 0.68800002 -0.020506985 8.9433488e-39 324 257
0.0060314666 0.68800002 -0.020506985 8.7589576e-39 325 257
0.0072377604 0.68800002 -0.020506985 8.5756453e-39 326 257
0.0084440531 0.68800002 -0.020506985 8.2986983e-39 327 257
0.0096503468 0.68800002 -0.020506985 7.7480427e-39 328 257
0.010856641 0.68800002 -0.020506985 7.655847e-39 329 257
0.012062933 0.68800002 -0.020506985 7.3803391e-39 330 257
0.0133078 0.69 -0.020566599 7.3803391e-39 331 257
0.014517599 0.69 -0.020566599 7.3796231e-39 332 257
0.015727401 0.69 -0.020566599 7.2870673e-39 333 257
0.0169372 0.69 -0.020566599 7.4707383e-39 334 257
0.0181733 0.69099998 -0.020596405 7.2859883e-39 335 257
0.01944096 0.69300002 -0.020656019 7.1019572e-39 336 257
0.020656019 0.69300002 -0.020656019 7.0097616e-39 337 257
0.021902639 0.69400001 -0.020685827 6.6417007e-39 338 257
0.023119451 0.69400001 -0.020685827 6.3651138e-39 339 257
0.0244064 0.69599998 -0.020745439 6.4544354e-39 340 257
0.025663542 0.69700003 -0.020775247 5.901263e-39 341 257
0.026885614 0.69700003 -0.020775247 5.9952523e-39 342 257
0.028228667 0.69999999 -0.020864666 6.6406217e-39 343 257
0.029498078 0.70099998 -0.020894472 8.756787e-39 344 257
0.030814834 0.70300001 -0.020954086 9.2177651e-39 345 257
0.032184184 0.70599997 -0.021043506 9.7651515e-39 346 257
0.033422034 0.70599997 -0.021043506 1.105589e-38 347 257
-0.032503292 0.713 -0.022502279 1.6311048e-38 294 258
-0.031253166 0.713 -0.022502279 1.5942266e-38 295 258
-0.029918881 0.71100003 -0.022439159 1.3362959e-38 296 258
-0.02855128 0.708 -0.022344479 1.2532838e-38 297 258
-0.027232772 0.70599997 -0.022281358 1.1523378e-38 298 258
-0.025810819 0.70099998 -0.022123558 1.0232639e-38 299 258
-0.024546666 0.69999999 -0.022091998 8.6707276e-39 300 258
-0.023252707 0.69800001 -0.02202888 9.316097e-39 301 258
-0.02202888 0.69800001 -0.02202888 8.8580056e-39 302 258
-0.020805053 0.69800001 -0.02202888 8.489223e-39 303 258
-0.019553173 0.69700003 -0.02199732 8.3048346e-39 304 258
-0.018331099 0.69700003 -0.02199732 8.1200846e-39 305 258
-0.017084479 0.69599998 -0.021965759 8.2119201e-39 306 258
-0.015818574 0.69400001 -0.021902639 8.1193657e-39 307 258
-0.01460176 0.69400001 -0.021902639 8.1186455e-39 308 258
-0.01336566 0.69300002 -0.021871079 7.9342542e-39 309 258
-0.012150601 0.69300002 -0.021871079 8.1175665e-39 310 258
-0.01090398 0.69099998 -0.021807959 8.2101208e-39 311 258
-0.0096924258 0.69099998 -0.021807959 8.0268058e-39 312 258
-0.0084686 0.69 -0.021776399 8.0268058e-39 313 258
-0.0072587994 0.69 -0.021776399 7.5647514e-39 314 258
-0.0060489997 0.69 -0.021776399 5.8130358e-39 315 258
-0.0048251734 0.68800002 -0.021713281 4.4301014e-39 316 258
-0.0036188802 0.68800002 -0.021713281 4.0609587e-39 317 258
-0.0024125867 0.68800002 -0.021713281 5.1655014e-39 318 258
-0.0012062934 0.68800002 -0.021713281 4.7041631e-39 319 258
0 0.68800002 -0.021713281 1.2061242e-39 320 258
0.0012062934 0.68800002 -0.021713281 2.8652868e-39 321 258
0.0024125867 0.68800002 -0.021713281 5.9984963e-39 322 258
0.0036188802 0.68800002 -0.021713281 7.7502133e-39 323 258
0.0048251734 0.68800002 -0.021713281 8.7614771e-39 324 258
0.0060314666 0.68800002 -0.021713281 8.5767271e-39 325 258
0.0072377604 0.68800002 -0.021713281 8.391617e-39 326 258
0.0084440531 0.68800002 -0.021713281 8.2075845e-39 327 258
0.0096503468 0.68800002 -0.021713281 7.6558526e-39 328 258
0.010888199 0.69 -0.021776399 7.5632983e-39 329 258
0.012097999 0.69 -0.021776399 7.2877932e-39 330 258
0.0133078 0.69 -0.021776399 7.1952374e-39 331 258
0.014538639 0.69099998 -0.021807959 7.1948745e-39 332 258
0.015750192 0.69099998 -0.021807959 7.1026788e-39 333 258
0.016961746 0.69099998 -0.021807959 7.102676e-39 334 258
0.018225901 0.69300002 -0.021871079 6.9182848e-39 335 258
0.01944096 0.69300002 -0.021871079 6.7338977e-39 336 258
0.020685827 0.69400001 -0.021902639 6.6417007e-39 337 258
0.021902639 0.69400001 -0.021902639 6.0910479e-39 338 258
0.023119451 0.69400001 -0.021902639 5.7219066e-39 339 258
0.0244064 0.69599998 -0.021965759 5.9012658e-39 340 258
0.025663542 0.69700003 -0.02199732 5.2558964e-39 341 258
0.026885614 0.69700003 -0.02199732 5.3498801e-39 342 258
0.028228667 0.69999999 -0.022091998 6.7328145e-39 343 258
0.029498078 0.70099998 -0.022123558 1.0228673e-38 344 258
0.030814834 0.70300001 -0.02218668 1.1058435e-38 345 258
0.032229774 0.70700002 -0.022312919 1.151615e-38 346 258
0.033469379 0.70700002 -0.022312919 1.2161519e-38 347 258
-0.032503292 0.713 -0.023752406 1.6311048e-38 294 259
-0.031165501 0.71100003 -0.023685781 1.5942266e-38 295 259
-0.029918881 0.71100003 -0.023685781 1.4008681e-38 296 259
-0.02855128 0.708 -0.023585839 1.3270757e-38 297 259
-0.027271347 0.70700002 -0.023552528 1.2626836e-38 298 259
-0.025994917 0.70599997 -0.023519212 1.1151706e-38 299 259
-0.024581732 0.70099998 -0.023352645 8.8536741e-39 300 259
-0.023319334 0.69999999 -0.023319334 9.9596616e-39 301 259
-0.022091998 0.69999999 -0.023319334 1.0142986e-38 302 259
-0.020805053 0.69800001 -0.023252707 9.7742039e-39 303 259
-0.019581227 0.69800001 -0.023252707 8.3941576e-39 304 259
-0.018331099 0.69700003 -0.023219392 8.3019605e-39 305 259
-0.017084479 0.69599998 -0.023186078 8.7625729e-39 306 259
-0.015864158 0.69599998 -0.023186078 8.5778229e-39 307 259
-0.01460176 0.69400001 -0.023119451 7.1066445e-39 308 259
-0.013384946 0.69400001 -0.023119451 7.0144489e-39 309 259
-0.012150601 0.69300002 -0.02308614 7.8420586e-39 310 259
-0.010935539 0.69300002 -0.02308614 7.8420586e-39 311 259
-0.0096924258 0.69099998 -0.023019511 7.7498629e-39 312 259
-0.008480873 0.69099998 -0.023019511 7.3810804e-39 313 259
-0.0072587994 0.69 -0.022986198 7.1023411e-39 314 259
-0.0060489997 0.69 -0.022986198 4.7974518e-39 315 259
-0.0048251734 0.68800002 -0.022919573 3.0464593e-39 316 259
-0.0036188802 0.68800002 -0.022919573 2.5854825e-39 317 259
-0.0024125867 0.68800002 -0.022919573 3.1364941e-39 318 259
-0.0012062934 0.68800002 -0.022919573 2.4911247e-39 319 259
0 0.68800002 -0.022919573 2.0287116e-39 320 259
0.0012062934 0.68800002 -0.022919573 2.7666354e-39 321 259
0.0024125867 0.68800002 -0.022919573 5.8105149e-39 322 259
0.0036188802 0.68800002 -0.022919573 8.1154043e-39 323 259
0.0048251734 0.68800002 -0.022919573 1.0232286e-38 324 259
0.0060489997 0.69 -0.022986198 9.6794719e-39 325 259
0.0072587994 0.69 -0.022986198 9.4025249e-39 326 259
0.0084686 0.69 -0.022986198 8.9415482e-39 327 259
0.0096783992 0.69 -0.022986198 7.9306388e-39 328 259
0.010888199 0.69 -0.022986198 7.8384432e-39 329 259
0.012115533 0.69099998 -0.023019511 7.5625794e-39 330 259
0.013327086 0.69099998 -0.023019511 7.3781867e-39 331 259
0.014538639 0.69099998 -0.023019511 6.7346194e-39 332 259
0.015750192 0.69099998 -0.023019511 6.6424238e-39 333 259
0.01701084 0.69300002 -0.02308614 6.4569591e-39 334 259
0.018225901 0.69300002 -0.02308614 6.3644048e-39 335 259
0.019469013 0.69400001 -0.023119451 6.1814484e-39 336 259
0.020685827 0.69400001 -0.023119451 6.1814484e-39 337 259
0.021902639 0.69400001 -0.023119451 6.1814484e-39 338 259
0.023186078 0.69599998 -0.023186078 5.536079e-39 339 259
0.024441468 0.69700003 -0.023219392 5.8061989e-39 340 259
0.025700359 0.69800001 -0.023252707 5.2530251e-39 341 259
0.026924185 0.69800001 -0.023252707 4.8892579e-39 342 259
0.028228667 0.69999999 -0.023319334 6.4569437e-39 343 259
0.029498078 0.70099998 -0.023352645 1.0321578e-38 344 259
0.030727165 0.70099998 -0.023352645 1.1611958e-38 345 259
0.032229774 0.70700002 -0.023552528 1.2070402e-38 346 259
0.033469379 0.70700002 -0.023552528 1.2531381e-38 347 259
0.034708988 0.70700002 -0.023552528 1.492954e-38 348 259
-0.032503292 0.713 -0.025002534 1.6311045e-38 294 260
-0.031165501 0.71100003 -0.024932399 1.5850067e-38 295 260
-0.029876797 0.70999998 -0.024897331 1.4375663e-38 296 260
-0.02855128 0.708 -0.024827199 1.4191272e-38 297 260
-0.027271347 0.70700002 -0.024792133 1.3455873e-38 298 260
-0.025994917 0.70599997 -0.024757065 1.2349526e-38 299 260
-0.024686933 0.704 -0.024686933 1.1616293e-38 300 260
-0.023319334 0.69999999 -0.024546666 1.2446413e-38 301 260
-0.022091998 0.69999999 -0.024546666 1.2167325e-38 302 260
-0.020805053 0.69800001 -0.024476532 1.1060618e-38 303 260
-0.019581227 0.69800001 -0.024476532 7.9328095e-39 304 260
-0.018331099 0.69700003 -0.024441468 6.5498736e-39 305 260
-0.017109027 0.69700003 -0.024441468 6.3622566e-39 306 260
-0.015864158 0.69599998 -0.0244064 4.7952896e-39 307 260
-0.01460176 0.69400001 -0.024336265 3.227608e-39 308 260
-0.013384946 0.69400001 -0.024336265 6.0856725e-39 309 260
-0.012150601 0.69300002 -0.024301201 7.8413425e-39 310 260
-0.010935539 0.69300002 -0.024301201 8.0253736e-39 311 260
-0.0097204801 0.69300002 -0.024301201 7.1970423e-39 312 260
-0.008480873 0.69099998 -0.024231065 5.9063035e-39 313 260
-0.0072693196 0.69099998 -0.024231065 6.3615363e-39 314 260
-0.0060577663 0.69099998 -0.024231065 5.43958e-39 315 260
-0.0048391996 0.69 -0.024195999 4.9782487e-39 316 260
-0.0036293997 0.69 -0.024195999 4.4250749e-39 317 260
-0.0024195998 0.69 -0.024195999 3.9651758e-39 318 260
-0.0012097999 0.69 -0.024195999 3.3198064e-39 319 260
0 0.68800002 -0.024125867 2.4893226e-39 320 260
0.0012062934 0.68800002 -0.024125867 2.5815197e-39 321 260
0.0024125867 0.68800002 -0.024125867 5.7143564e-39 322 260
0.0036188802 0.68800002 -0.024125867 8.7564521e-39 323 260
0.0048251734 0.68800002 -0.024125867 1.11528e-38 324 260
0.0060489997 0.69 -0.024195999 1.0507431e-38 325 260
0.0072587994 0.69 -0.024195999 9.4050304e-39 326 260
0.0084686 0.69 -0.024195999 8.9440523e-39 327 260
0.0096783992 0.69 -0.024195999 8.484163e-39 328 260
0.01090398 0.69099998 -0.024231065 8.0235435e-39 329 260
0.012115533 0.69099998 -0.024231065 7.2877876e-39 330 260
0.013327086 0.69099998 -0.024231065 7.1033949e-39 331 260
0.014580719 0.69300002 -0.024301201 6.7349823e-39 332 260
0.015795778 0.69300002 -0.024301201 5.7211891e-39 333 260
0.01701084 0.69300002 -0.024301201 6.2689749e-39 334 260
0.0182522 0.69400001 -0.024336265 6.0842249e-39 335 260
0.019469013 0.69400001 -0.024336265 6.1774982e-39 336 260
0.020685827 0.69400001 -0.024336265 6.6384777e-39 337 260
0.021965759 0.69599998 -0.0244064 6.3644048e-39 338 260
0.023219392 0.69700003 -0.024441468 5.6268397e-39 339 260
0.024441468 0.69700003 -0.024441468 5.6239586e-39 340 260
0.025700359 0.69800001 -0.024476532 4.7938392e-39 341 260
0.026924185 0.69800001 -0.024476532 4.6094312e-39 342 260
0.028228667 0.69999999 -0.024546666 6.2685938e-39 343 260
0.029498078 0.70099998 -0.024581732 9.4028598e-39 344 260
0.030727165 0.70099998 -0.024581732 1.0785794e-38 345 260
-0.031165501 0.71100003 -0.026179021 1.5665673e-38 295 261
-0.029876797 0.70999998 -0.026142199 1.3273627e-38 296 261
-0.02855128 0.708 -0.026068559 1.2997401e-38 297 261
-0.027271347 0.70700002 -0.02603174 1.3274357e-38 298 261
-0.025994917 0.70599997 -0.025994917 1.2813019e-38 299 261
-0.024686933 0.704 -0.02592128 1.2444965e-38 300 261
-0.023352645 0.70099998 -0.025810819 1.2721552e-38 301 261
-0.022123558 0.70099998 -0.025810819 1.1617741e-38 302 261
-0.020864666 0.69999999 -0.025773998 1.0234807e-38 303 261
-0.019581227 0.69800001 -0.025700359 7.0115776e-39 304 261
-0.0183574 0.69800001 -0.025700359 5.4438932e-39 305 261
-0.017109027 0.69700003 -0.025663542 4.5219467e-39 306 261
-0.015864158 0.69599998 -0.025626717 3.2312079e-39 307 261
-0.01460176 0.69400001 -0.025553079 2.4936372e-39 308 261
-0.013384946 0.69400001 -0.025553079 5.9052343e-39 309 261
-0.012168133 0.69400001 -0.025553079 1.041705e-38 310 261
-0.01095132 0.69400001 -0.025553079 9.9564302e-39 311 261
-0.0097204801 0.69300002 -0.02551626 8.6667591e-39 312 261
-0.008480873 0.69099998 -0.025442619 7.468216e-39 313 261
-0.0072693196 0.69099998 -0.025442619 6.4529906e-39 314 261
-0.0060577663 0.69099998 -0.025442619 6.0842081e-39 315 261
-0.0048391996 0.69 -0.025405798 5.8987477e-39 316 261
-0.0036293997 0.69 -0.025405798 5.4374094e-39 317 261
-0.0024195998 0.69 -0.025405798 4.4257784e-39 318 261
-0.0012097999 0.69 -0.025405798 4.2413871e-39 319 261
0 0.68800002 -0.02533216 3.780409e-39 320 261
0.0012062934 0.68800002 -0.02533216 3.9651604e-39 321 261
0.0024125867 0.68800002 -0.02533216 5.254816e-39 322 261
0.0036188802 0.68800002 -0.02533216 7.1909242e-39 323 261
0.0048391996 0.69 -0.025405798 9.9567749e-39 324 261
0.0060489997 0.69 -0.025405798 1.0417753e-38 325 261
0.0072587994 0.69 -0.025405798 1.0232623e-38 326 261
0.008480873 0.69099998 -0.025442619 1.0140428e-38 327 261
0.0096924258 0.69099998 -0.025442619 1.0230828e-38 328 261
0.01090398 0.69099998 -0.025442619 9.8616856e-39 329 261
0.012150601 0.69300002 -0.02551626 9.1255681e-39 330 261
0.01336566 0.69300002 -0.02551626 8.756787e-39 331 261
0.014580719 0.69300002 -0.02551626 7.3756672e-39 332 261
0.015795778 0.69300002 -0.02551626 6.1774827e-39 333 261
0.017035386 0.69400001 -0.025553079 5.4402834e-39 334 261
0.0182522 0.69400001 -0.025553079 5.809066e-39 335 261
0.019469013 0.69400001 -0.025553079 7.3738679e-39 336 261
0.020685827 0.69400001 -0.025553079 8.111433e-39 337 261
0.021965759 0.69599998 -0.025626717 8.6638753e-39 338 261
0.023219392 0.69700003 -0.025663542 8.4791239e-39 339 261
0.024476532 0.69800001 -0.025700359 9.0276131e-39 340 261
0.025700359 0.69800001 -0.025700359 7.8290699e-39 341 261
0.027001332 0.69999999 -0.025773998 6.73099e-39 342 261
0.028228667 0.69999999 -0.025773998 8.5745439e-39 343 261
0.029498078 0.70099998 -0.025810819 1.0507042e-38 344 261
0.030727165 0.70099998 -0.025810819 1.1059857e-38 345 261
-0.029876797 0.70999998 -0.027387066 1.2075788e-38 296 262
-0.02855128 0.708 -0.027309919 1.1983592e-38 297 262
-0.027271347 0.70700002 -0.027271347 1.2262352e-38 298 262
-0.025994917 0.70599997 -0.027232772 1.2815526e-38 299 262
-0.024686933 0.704 -0.027155625 1.281519e-38 300 262
-0.023352645 0.70099998 -0.027039904 1.2354212e-38 301 262
-0.022123558 0.70099998 -0.027039904 1.124787e-38 302 262
-0.020864666 0.69999999 -0.027001332 9.7727396e-39 303 262
-0.019637333 0.69999999 -0.027001332 7.1930738e-39 304 262
-0.0183574 0.69800001 -0.026924185 6.0867263e-39 305 262
-0.017109027 0.69700003 -0.026885614 4.3371827e-39 306 262
-0.015864158 0.69599998 -0.026847038 3.507422e-39 307 262
-0.014643839 0.69599998 -0.026847038 3.8729746e-39 308 262
-0.013384946 0.69400001 -0.026769891 6.8235934e-39 309 262
-0.012168133 0.69400001 -0.026769891 1.1522311e-38 310 262
-0.01095132 0.69400001 -0.026769891 1.1522311e-38 311 262
-0.0097204801 0.69300002 -0.02673132 1.0876207e-38 312 262
-0.0085054198 0.69300002 -0.02673132 9.2170449e-39 313 262
-0.0072693196 0.69099998 -0.026654173 8.0181527e-39 314 262
-0.0060577663 0.69099998 -0.026654173 7.1883907e-39 315 262
-0.0048462129 0.69099998 -0.026654173 6.084934e-39 316 262
-0.0036293997 0.69 -0.026615599 5.5317602e-39 317 262
-0.0024195998 0.69 -0.026615599 4.5197761e-39 318 262
-0.0012097999 0.69 -0.026615599 4.5197761e-39 319 262
0 0.69 -0.026615599 5.533928e-39 320 262
0.0012097999 0.69 -0.026615599 5.994546e-39 321 262
0.0024195998 0.69 -0.026615599 4.9818262e-39 322 262
0.0036293997 0.69 -0.026615599 5.9037825e-39 323 262
0.0048391996 0.69 -0.026615599 9.0373381e-39 324 262
0.0060577663 0.69099998 -0.026654173 9.8671002e-39 325 262
0.0072693196 0.69099998 -0.026654173 1.0325542e-38 326 262
0.008480873 0.69099998 -0.026654173 1.0233345e-38 327 262
0.0096924258 0.69099998 -0.026654173 1.0691799e-38 328 262
0.010935539 0.69300002 -0.02673132 1.0599604e-38 329 262
0.012150601 0.69300002 -0.02673132 1.068928e-38 330 262
0.01336566 0.69300002 -0.02673132 1.0136465e-38 331 262
0.014580719 0.69300002 -0.02673132 7.6543855e-39 332 262
0.015795778 0.69300002 -0.02673132 5.4413316e-39 333 262
0.017035386 0.69400001 -0.026769891 5.1647531e-39 334 262
0.0182522 0.69400001 -0.026769891 5.8101225e-39 335 262
0.019469013 0.69400001 -0.026769891 8.753543e-39 336 262
0.020745439 0.69599998 -0.026847038 1.0044282e-38 337 262
0.021965759 0.69599998 -0.026847038 1.0506324e-38 338 262
0.023219392 0.69700003 -0.026885614 1.0874746e-38 339 262
0.024476532 0.69800001 -0.026924185 1.1240289e-38 340 262
0.025773998 0.69999999 -0.027001332 1.0502724e-38 341 262
0.027001332 0.69999999 -0.027001332 1.0139696e-38 342 262
0.028228667 0.69999999 -0.027001332 1.0969816e-38 343 262
0.029498078 0.70099998 -0.027039904 1.115204e-38 344 262
-0.02855128 0.708 -0.02855128 1.1337128e-38 297 263
-0.027309919 0.708 -0.02855128 1.0146869e-38 298 263
-0.02603174 0.70700002 -0.028510952 1.1345413e-38 299 263
-0.024686933 0.704 -0.028389972 1.2538956e-38 300 263
-0.023419274 0.70300001 -0.028349647 1.2354565e-38 301 263
-0.02218668 0.70300001 -0.028349647 1.2076902e-38 302 263
-0.020894472 0.70099998 -0.028268991 1.1339337e-38 303 263
-0.019637333 0.69999999 -0.028228667 1.0413787e-38 304 263
-0.0183574 0.69800001 -0.028148014 9.0308529e-39 305 263
-0.017133573 0.69800001 -0.028148014 6.635584e-39 306 263
-0.015886955 0.69700003 -0.028107686 4.8838671e-39 307 263
-0.014643839 0.69599998 -0.028067358 2.3092446e-39 308 263
-0.013423519 0.69599998 -0.028067358 4.2453528e-39 309 263
-0.012168133 0.69400001 -0.027986705 9.2203085e-39 310 263
-0.01095132 0.69400001 -0.027986705 1.0787274e-38 311 263
-0.0097204801 0.69300002 -0.027946379 1.1248589e-38 312 263
-0.0085054198 0.69300002 -0.027946379 1.0050047e-38 313 263
-0.0072903596 0.69300002 -0.027946379 9.6751517e-39 314 263
-0.0060753003 0.69300002 -0.027946379 8.47661e-39 315 263
-0.0048462129 0.69099998 -0.027865725 7.4639028e-39 316 263
-0.0036346598 0.69099998 -0.027865725 6.910729e-39 317 263
-0.0024231065 0.69099998 -0.027865725 6.0827816e-39 318 263
-0.0012115532 0.69099998 -0.027865725 5.5296078e-39 319 263
0 0.69099998 -0.027865725 4.98112e-39 320 263
0.0012115532 0.69099998 -0.027865725 4.8889244e-39 321 263
0.0024195998 0.69 -0.027825398 4.4283021e-39 322 263
0.0036293997 0.69 -0.027825398 5.7190409e-39 323 263
0.0048391996 0.69 -0.027825398 8.9433516e-39 324 263
0.0060577663 0.69099998 -0.027865725 1.0141895e-38 325 263
0.0072693196 0.69099998 -0.027865725 1.0417738e-38 326 263
0.008480873 0.69099998 -0.027865725 1.0325542e-38 327 263
0.0096924258 0.69099998 -0.027865725 1.096766e-38 328 263
0.010935539 0.69300002 -0.027946379 1.096766e-38 329 263
0.012150601 0.69300002 -0.027946379 1.0599235e-38 330 263
0.01336566 0.69300002 -0.027946379 1.0414844e-38 331 263
0.014580719 0.69300002 -0.027946379 9.7683997e-39 332 263
0.015818574 0.69400001 -0.027986705 8.7542464e-39 333 263
0.017035386 0.69400001 -0.027986705 8.2032404e-39 334 263
0.0182522 0.69400001 -0.027986705 8.2032404e-39 335 263
0.019525118 0.69599998 -0.028067358 9.5829351e-39 336 263
0.020745439 0.69599998 -0.028067358 1.0228305e-38 337 263
0.02199732 0.69700003 -0.028107686 1.0322641e-38 338 263
0.023252707 0.69800001 -0.028148014 1.0599588e-38 339 263
0.024476532 0.69800001 -0.028148014 1.1150244e-38 340 263
0.025773998 0.69999999 -0.028228667 1.0873298e-38 341 263
0.027001332 0.69999999 -0.028228667 1.0507027e-38 342 263
0.028228667 0.69999999 -0.028228667 1.0875449e-38 343 263
0.029498078 0.70099998 -0.028268991 1.0508093e-38 344 263
-0.02603174 0.70700002 -0.029750559 1.0148627e-38 299 264
-0.024757065 0.70599997 -0.029708479 1.1343262e-38 300 264
-0.023419274 0.70300001 -0.029582238 1.1988631e-38 301 264
-0.02218668 0.70300001 -0.029582238 1.217125e-38 302 264
-0.020894472 0.70099998 -0.029498078 1.2263445e-38 303 264
-0.019637333 0.69999999 -0.029455997 1.2258776e-38 304 264
-0.018409999 0.69999999 -0.029455997 1.0968037e-38 305 264
-0.017133573 0.69800001 -0.029371841 9.2152498e-39 306 264
-0.015886955 0.69700003 -0.02932976 7.1865872e-39 307 264
-0.01466488 0.69700003 -0.02932976 3.8726088e-39 308 264
-0.013423519 0.69599998 -0.029287677 3.8726088e-39 309 264
-0.012168133 0.69400001 -0.029203519 6.6406455e-39 310 264
-0.01095132 0.69400001 -0.029203519 9.1299261e-39 311 264
-0.0097345067 0.69400001 -0.029203519 1.1247882e-38 312 264
-0.0085054198 0.69300002 -0.029161438 1.0602513e-38 313 264
-0.0072903596 0.69300002 -0.029161438 1.0414866e-38 314 264
-0.0060753003 0.69300002 -0.029161438 9.2159631e-39 315 264
-0.0048462129 0.69099998 -0.029077278 8.5705992e-39 316 264
-0.0036346598 0.69099998 -0.029077278 7.9252298e-39 317 264
-0.0024231065 0.69099998 -0.029077278 7.1880403e-39 318 264
-0.0012115532 0.69099998 -0.029077278 6.7270636e-39 319 264
0 0.69099998 -0.029077278 5.2555433e-39 320 264
0.0012115532 0.69099998 -0.029077278 4.6101739e-39 321 264
0.0024231065 0.69099998 -0.029077278 4.4254281e-39 322 264
0.0036346598 0.69099998 -0.029077278 5.43958e-39 323 264
0.0048462129 0.69099998 -0.029077278 7.5607829e-39 324 264
0.0060577663 0.69099998 -0.029077278 9.2203057e-39 325 264
0.0072903596 0.69300002 -0.029161438 1.0692895e-38 326 264
0.0085054198 0.69300002 -0.029161438 1.0416307e-38 327 264
0.0097204801 0.69300002 -0.029161438 1.0691799e-38 328 264
0.010935539 0.69300002 -0.029161438 1.0783996e-38 329 264
0.012150601 0.69300002 -0.029161438 1.0691431e-38 330 264
0.01336566 0.69300002 -0.029161438 1.0599235e-38 331 264
0.01460176 0.69400001 -0.029203519 1.0690339e-38 332 264
0.015818574 0.69400001 -0.029203519 1.0690339e-38 333 264
0.017035386 0.69400001 -0.029203519 1.0507743e-38 334 264
0.018304799 0.69599998 -0.029287677 1.032335e-38 335 264
0.019525118 0.69599998 -0.029287677 1.0321922e-38 336 264
0.020775247 0.69700003 -0.02932976 1.0414477e-38 337 264
0.02199732 0.69700003 -0.02932976 1.0507042e-38 338 264
0.023252707 0.69800001 -0.029371841 1.0507042e-38 339 264
0.024476532 0.69800001 -0.029371841 1.0507037e-38 340 264
0.025773998 0.69999999 -0.029455997 1.0507037e-38 341 264
0.027001332 0.69999999 -0.029455997 9.956723e-39 342 264
0.028228667 0.69999999 -0.029455997 9.8641687e-39 343 264
-0.024757065 0.70599997 -0.030946331 9.5954529e-39 300 265
-0.023419274 0.70300001 -0.030814834 1.0056431e-38 301 265
-0.02218668 0.70300001 -0.030814834 1.0699327e-38 302 265
-0.020894472 0.70099998 -0.030727165 1.1252142e-38 303 265
-0.019637333 0.69999999 -0.030683333 1.2169806e-38 304 265
-0.018409999 0.69999999 -0.030683333 1.2169806e-38 305 265
-0.017133573 0.69800001 -0.030595668 1.2166581e-38 306 265
-0.015886955 0.69700003 -0.030551834 1.0875842e-38 307 265
-0.01466488 0.69700003 -0.030551834 9.2141778e-39 308 265
-0.013423519 0.69599998 -0.030507999 6.1713619e-39 309 265
-0.012168133 0.69400001 -0.030420333 2.9574824e-39 310 265
-0.01095132 0.69400001 -0.030420333 5.8159057e-39 311 265
-0.0097345067 0.69400001 -0.030420333 9.309623e-39 312 265
-0.0085054198 0.69300002 -0.0303765 9.4021774e-39 313 265
-0.0072903596 0.69300002 -0.0303765 9.4947206e-39 314 265
-0.0060753003 0.69300002 -0.0303765 8.9415482e-39 315 265
-0.00486024 0.69300002 -0.0303765 8.4816476e-39 316 265
-0.0036451798 0.69300002 -0.0303765 8.2968976e-39 317 265
-0.0024231065 0.69099998 -0.030288832 8.3869339e-39 318 265
-0.0012115532 0.69099998 -0.030288832 7.9259571e-39 319 265
0 0.69099998 -0.030288832 7.7412085e-39 320 265
0.0012115532 0.69099998 -0.030288832 7.6490129e-39 321 265
0.0024231065 0.69099998 -0.030288832 7.0962077e-39 322 265
0.0036346598 0.69099998 -0.030288832 6.2668071e-39 323 265
0.0048462129 0.69099998 -0.030288832 4.2500093e-39 324 265
0.0060753003 0.69300002 -0.0303765 6.3701487e-39 325 265
0.0072903596 0.69300002 -0.0303765 9.4943548e-39 326 265
0.0085054198 0.69300002 -0.0303765 1.0047529e-38 327 265
0.0097204801 0.69300002 -0.0303765 1.0415936e-38 328 265
0.010935539 0.69300002 -0.0303765 1.050849e-38 329 265
0.012150601 0.69300002 -0.0303765 1.0783632e-38 330 265
0.013384946 0.69400001 -0.030420333 1.0691436e-38 331 265
0.01460176 0.69400001 -0.030420333 1.0782547e-38 332 265
0.015818574 0.69400001 -0.030420333 1.0782547e-38 333 265
0.017035386 0.69400001 -0.030420333 1.0507393e-38 334 265
0.018304799 0.69599998 -0.030507999 1.0507393e-38 335 265
0.019525118 0.69599998 -0.030507999 1.0507393e-38 336 265
0.020775247 0.69700003 -0.030551834 1.0507393e-38 337 265
