# .PCD v.7 - Point Cloud Data file format
FIELDS x y z rgb imX imY
SIZE 4 4 4 4 4 4
TYPE F F F F F F
COUNT 1 1 1 1 1 1
WIDTH 846
HEIGHT 1
VIEWPOINT 0 0 0 1 0 0 0
POINTS 846
DATA ascii
-0.0075954394 0.722 0.013924973 1.0982744e-38 314 229
-0.0063295332 0.722 0.013924973 1.1351528e-38 315 229
-0.0050636264 0.722 0.013924973 1.2543275e-38 316 229
-0.0037977197 0.722 0.013924973 1.2358884e-38 317 229
0.022975679 0.72799999 0.014040692 9.5125703e-39 338 229
0.024252106 0.72799999 0.014040692 9.1441465e-39 339 229
0.025528532 0.72799999 0.014040692 8.868633e-39 340 229
0.026804959 0.72799999 0.014040692 8.2232636e-39 341 229
0.028081384 0.72799999 0.014040692 9.4171503e-39 342 229
0.029438468 0.73000002 0.014079267 9.6940973e-39 343 229
0.03076048 0.73100001 0.014098554 1.042809e-38 344 229
0.032042164 0.73100001 0.014098554 1.0704317e-38 345 229
0.033323854 0.73100001 0.014098554 1.0515279e-38 346 229
-0.02869856 0.74400002 0.0130448 1.6227522e-38 298 230
-0.027173158 0.73799998 0.012939599 1.5397762e-38 299 230
-0.025738932 0.73400003 0.012869466 1.4389661e-38 300 230
-0.024451986 0.73400003 0.012869466 1.2638302e-38 301 230
-0.02307036 0.73100001 0.012816866 1.0622514e-38 302 230
-0.021788673 0.73100001 0.012816866 1.0438122e-38 303 230
-0.020506985 0.73100001 0.012816866 9.977126e-39 304 230
-0.019199001 0.73000002 0.012799333 9.977126e-39 305 230
-0.017919067 0.73000002 0.012799333 1.0711842e-38 306 230
-0.016593546 0.72799999 0.012764266 1.0619647e-38 307 230
-0.015296079 0.727 0.012746733 1.0342742e-38 308 230
-0.013982833 0.72500002 0.012711667 1.0250546e-38 309 230
-0.012676599 0.72299999 0.012676599 1.0160852e-38 310 230
-0.01140894 0.72299999 0.012676599 1.0068656e-38 311 230
-0.01014128 0.72299999 0.012676599 1.0252306e-38 312 230
-0.0088613462 0.722 0.012659066 1.0068273e-38 313 230
-0.0075954394 0.722 0.012659066 9.9746709e-39 314 230
-0.0063295332 0.722 0.012659066 1.0250899e-38 315 230
-0.0050636264 0.722 0.012659066 1.0708325e-38 316 230
-0.0037819401 0.71899998 0.012606465 1.0616129e-38 317 230
-0.0025212932 0.71899998 0.012606465 1.1165009e-38 318 230
0.022975679 0.72799999 0.012764266 8.7756919e-39 338 230
0.024252106 0.72799999 0.012764266 8.8678875e-39 339 230
0.025528532 0.72799999 0.012764266 9.2352631e-39 340 230
0.026804959 0.72799999 0.012764266 9.2352631e-39 341 230
0.028158534 0.73000002 0.012799333 9.418602e-39 342 230
0.029438468 0.73000002 0.012799333 9.6029933e-39 343 230
0.03076048 0.73100001 0.012816866 1.0612124e-38 344 230
0.032042164 0.73100001 0.012816866 1.0980908e-38 345 230
0.033323854 0.73100001 0.012816866 1.0882987e-38 346 230
-0.030204674 0.74900001 0.01181922 1.75161e-38 297 231
-0.02869856 0.74400002 0.011740319 1.6503389e-38 298 231
-0.027394081 0.74400002 0.011740319 1.5858021e-38 299 231
-0.025809066 0.736 0.01161408 1.4574058e-38 300 231
-0.024518613 0.736 0.01161408 1.2822342e-38 301 231
-0.023133477 0.73299998 0.011566739 1.0621792e-38 302 231
-0.021848286 0.73299998 0.011566739 1.0437401e-38 303 231
-0.020506985 0.73100001 0.01153518 9.7923844e-39 304 231
-0.019199001 0.73000002 0.011519399 9.88458e-39 305 231
-0.017919067 0.73000002 0.011519399 1.1723884e-38 306 231
-0.016593546 0.72799999 0.01148784 1.1816079e-38 307 231
-0.01531712 0.72799999 0.01148784 1.0616524e-38 308 231
-0.013982833 0.72500002 0.0114405 1.0339577e-38 309 231
-0.012676599 0.72299999 0.01140894 1.0709774e-38 310 231
-0.01140894 0.72299999 0.01140894 1.0617578e-38 311 231
-0.01014128 0.72299999 0.01140894 1.006794e-38 312 231
-0.0088613462 0.722 0.01139316 9.8831885e-39 313 231
-0.0075954394 0.722 0.01139316 9.241391e-39 314 231
-0.0063295332 0.722 0.01139316 9.0573599e-39 315 231
-0.0050496003 0.72000003 0.011361601 9.6058645e-39 316 231
-0.0037819401 0.71899998 0.01134582 9.5136675e-39 317 231
-0.0025212932 0.71899998 0.01134582 1.0248015e-38 318 231
0.01647958 0.72299999 0.01140894 9.6051064e-39 333 231
0.017747238 0.72299999 0.01140894 9.5136129e-39 334 231
0.019014901 0.72299999 0.01140894 9.4210585e-39 335 231
0.020282559 0.72299999 0.01140894 9.1451975e-39 336 231
0.021550218 0.72299999 0.01140894 8.6845781e-39 337 231
0.022944121 0.727 0.01147206 8.1303617e-39 338 231
0.024252106 0.72799999 0.01148784 8.4069472e-39 339 231
0.025528532 0.72799999 0.01148784 8.8661499e-39 340 231
0.026804959 0.72799999 0.01148784 9.0505412e-39 341 231
0.028158534 0.73000002 0.011519399 9.6930435e-39 342 231
0.029478792 0.73100001 0.01153518 9.7852392e-39 343 231
0.03076048 0.73100001 0.01153518 1.0520306e-38 344 231
0.032042164 0.73100001 0.01153518 1.0888728e-38 345 231
0.03815604 0.83700001 0.013207859 1.1526207e-38 346 231
-0.030124018 0.74699998 0.010477919 1.75161e-38 297 232
-0.028775707 0.74599999 0.010463892 1.659523e-38 298 232
-0.027467718 0.74599999 0.010463892 1.6042415e-38 299 232
-0.026089599 0.74400002 0.01043584 1.5216573e-38 300 232
-0.024618553 0.73900002 0.010365707 1.3925834e-38 301 232
-0.023228159 0.736 0.010323626 1.1080267e-38 302 232
-0.021878093 0.73400003 0.010295574 1.0342702e-38 303 232
-0.020563092 0.73299998 0.010281546 9.5161828e-39 304 232
-0.019225299 0.73100001 0.010253493 1.0161552e-38 305 232
-0.017943613 0.73100001 0.010253493 1.2645532e-38 306 232
-0.016639132 0.73000002 0.010239467 1.2645532e-38 307 232
-0.01531712 0.72799999 0.010211413 1.135125e-38 308 232
-0.014021406 0.727 0.010197386 1.0798077e-38 309 232
-0.012711667 0.72500002 0.010169334 1.1256884e-38 310 232
-0.01140894 0.72299999 0.01014128 1.0796265e-38 311 232
-0.01014128 0.72299999 0.01014128 9.5144733e-39 312 232
-0.0088736191 0.72299999 0.01014128 9.8828956e-39 313 232
-0.0075954394 0.722 0.010127253 9.6073443e-39 314 232
-0.0063295332 0.722 0.010127253 9.3311162e-39 315 232
-0.0050496003 0.72000003 0.010099201 9.6977098e-39 316 232
-0.0037872 0.72000003 0.010099201 9.6055142e-39 317 232
-0.0025248001 0.72000003 0.010099201 9.972852e-39 318 232
-0.0012624001 0.72000003 0.010099201 1.0156883e-38 319 232
0 0.71899998 0.010085173 1.0157239e-38 320 232
0.0012606466 0.71899998 0.010085173 9.7884565e-39 321 232
0.010099201 0.72000003 0.010099201 9.2392288e-39 328 232
0.011361601 0.72000003 0.010099201 9.3314244e-39 329 232
0.012659066 0.722 0.010127253 9.8809675e-39 330 232
0.013924973 0.722 0.010127253 9.5121849e-39 331 232
0.015211919 0.72299999 0.01014128 9.5132387e-39 332 232
0.01647958 0.72299999 0.01014128 9.4210431e-39 333 232
0.017747238 0.72299999 0.01014128 9.4210487e-39 334 232
0.019014901 0.72299999 0.01014128 9.4210487e-39 335 232
0.020282559 0.72299999 0.01014128 9.2356135e-39 336 232
0.021550218 0.72299999 0.01014128 8.8668323e-39 337 232
0.022944121 0.727 0.010197386 8.5866932e-39 338 232
0.024252106 0.72799999 0.010211413 8.8632786e-39 339 232
0.025528532 0.72799999 0.010211413 8.8647276e-39 340 232
0.026804959 0.72799999 0.010211413 9.0491189e-39 341 232
0.028158534 0.73000002 0.010239467 9.9664018e-39 342 232
0.029478792 0.73100001 0.010253493 1.024299e-38 343 232
0.030844638 0.73299998 0.010281546 1.0611065e-38 344 232
0.032129832 0.73299998 0.010281546 1.1072403e-38 345 232
-0.031433757 0.74699998 0.0091681797 1.8067116e-38 296 233
-0.030124018 0.74699998 0.0091681797 1.779089e-38 297 233
-0.028775707 0.74599999 0.0091559067 1.6780343e-38 298 233
-0.027467718 0.74599999 0.0091559067 1.6319725e-38 299 233
-0.026089599 0.74400002 0.0091313599 1.5770125e-38 300 233
-0.024718491 0.74199998 0.009106813 1.4479386e-38 301 233
-0.023228159 0.736 0.0090331733 1.2090126e-38 302 233
-0.021878093 0.73400003 0.0090086265 1.0522801e-38 303 233
-0.020563092 0.73299998 0.0089963535 9.5176472e-39 304 233
-0.019225299 0.73100001 0.0089718066 1.0624355e-38 305 233
-0.017943613 0.73100001 0.0089718066 1.3933429e-38 306 233
-0.016639132 0.73000002 0.0089595336 1.3749398e-38 307 233
-0.0153592 0.73000002 0.0089595336 1.1351632e-38 308 233
-0.014040692 0.72799999 0.0089349858 1.1074686e-38 309 233
-0.012746733 0.727 0.0089227129 1.1164366e-38 310 233
-0.0114405 0.72500002 0.0088981669 1.0979616e-38 311 233
-0.010169334 0.72500002 0.0088981669 9.7871701e-39 312 233
-0.0088736191 0.72299999 0.0088736191 9.6949745e-39 313 233
-0.0076059597 0.72299999 0.0088736191 9.1453544e-39 314 233
-0.0063382997 0.72299999 0.0088736191 9.1453544e-39 315 233
-0.0050636264 0.722 0.0088613462 9.6959554e-39 316 233
-0.0037872 0.72000003 0.0088367993 9.6034011e-39 317 233
-0.0025248001 0.72000003 0.0088367993 9.6980756e-39 318 233
-0.0012624001 0.72000003 0.0088367993 9.6980756e-39 319 233
0 0.71899998 0.0088245263 9.4211033e-39 320 233
0.0012606466 0.71899998 0.0088245263 9.2367121e-39 321 233
0.0025248001 0.72000003 0.0088367993 9.1455534e-39 322 233
0.0037872 0.72000003 0.0088367993 8.9608034e-39 323 233
0.0088613462 0.722 0.0088613462 9.4210459e-39 327 233
0.010099201 0.72000003 0.0088367993 9.5146778e-39 328 233
0.011361601 0.72000003 0.0088367993 9.2384497e-39 329 233
0.012659066 0.722 0.0088613462 9.1455478e-39 330 233
0.013924973 0.722 0.0088613462 9.1455478e-39 331 233
0.015211919 0.72299999 0.0088736191 9.0526515e-39 332 233
0.01647958 0.72299999 0.0088736191 9.0526515e-39 333 233
0.017747238 0.72299999 0.0088736191 9.7859132e-39 334 233
0.019014901 0.72299999 0.0088736191 9.601882e-39 335 233
0.020338668 0.72500002 0.0088981669 9.599043e-39 336 233
0.021699252 0.72799999 0.0089349858 9.1384236e-39 337 233
0.022975679 0.72799999 0.0089349858 8.4016139e-39 338 233
0.024252106 0.72799999 0.0089349858 8.5863639e-39 339 233
0.025528532 0.72799999 0.0089349858 8.6789238e-39 340 233
0.026878599 0.73000002 0.0089595336 8.8636738e-39 341 233
0.028197108 0.73100001 0.0089718066 9.4139735e-39 342 233
0.029478792 0.73100001 0.0089718066 9.7823973e-39 343 233
0.030886721 0.73400003 0.0090086265 9.8756747e-39 344 233
-0.031433757 0.74699998 0.0078584393 1.7884526e-38 296 234
-0.030124018 0.74699998 0.0078584393 1.7515745e-38 297 234
-0.028775707 0.74599999 0.0078479191 1.6780349e-38 298 234
-0.027467718 0.74599999 0.0078479191 1.6595599e-38 299 234
-0.026159734 0.74599999 0.0078479191 1.5310608e-38 300 234
-0.02478512 0.74400002 0.0078268806 1.5126217e-38 301 234
-0.023228159 0.736 0.0077427197 1.3745393e-38 302 234
-0.021937706 0.736 0.0077427197 1.2639045e-38 303 234
-0.020591147 0.73400003 0.0077216802 1.2645529e-38 304 234
-0.019277899 0.73299998 0.0077111595 1.3936268e-38 305 234
-0.017992707 0.73299998 0.0077111595 1.4945804e-38 306 234
-0.016661927 0.73100001 0.00769012 1.3932012e-38 307 234
-0.0153592 0.73000002 0.0076795998 1.0338568e-38 308 234
-0.014079267 0.73000002 0.0076795998 1.0061623e-38 309 234
-0.012764266 0.72799999 0.0076585598 1.1346972e-38 310 234
-0.01147206 0.727 0.0076480396 1.1162581e-38 311 234
-0.010197386 0.727 0.0076480396 1.070483e-38 312 234
-0.0088981669 0.72500002 0.0076270006 1.0428245e-38 313 234
-0.0076059597 0.72299999 0.0076059597 9.3279941e-39 314 234
-0.0063382997 0.72299999 0.0076059597 9.1436028e-39 315 234
-0.0050636264 0.722 0.0075954394 9.8775525e-39 316 234
-0.0037977197 0.722 0.0075954394 9.8775525e-39 317 234
-0.0025318132 0.722 0.0075954394 1.043178e-38 318 234
-0.0012659066 0.722 0.0075954394 1.0708367e-38 319 234
0 0.72000003 0.0075743999 1.0062608e-38 320 234
0.0012624001 0.72000003 0.0075743999 1.0062608e-38 321 234
0.0025248001 0.72000003 0.0075743999 1.0523934e-38 322 234
0.0037872 0.72000003 0.0075743999 1.0616129e-38 323 234
0.0050496003 0.72000003 0.0075743999 1.0063662e-38 324 234
0.0063295332 0.722 0.0075954394 9.6945205e-39 325 234
0.0076059597 0.72299999 0.0076059597 9.6034011e-39 326 234
0.0088613462 0.722 0.0075954394 1.107889e-38 327 234
0.010127253 0.722 0.0075954394 1.0157983e-38 328 234
0.01140894 0.72299999 0.0076059597 8.3140719e-39 329 234
0.012676599 0.72299999 0.0076059597 8.4980708e-39 330 234
0.01394426 0.72299999 0.0076059597 8.959049e-39 331 234
0.015211919 0.72299999 0.0076059597 9.7841559e-39 332 234
0.016525166 0.72500002 0.0076270006 9.876353e-39 333 234
0.017796334 0.72500002 0.0076270006 1.0059325e-38 334 234
0.0190675 0.72500002 0.0076270006 9.6905408e-39 335 234
0.020394772 0.727 0.0076480396 9.5043713e-39 336 234
0.021699252 0.72799999 0.0076585598 9.1359475e-39 337 234
0.022975679 0.72799999 0.0076585598 8.7678979e-39 338 234
0.024318734 0.73000002 0.0076795998 8.8604522e-39 339 234
0.025598666 0.73000002 0.0076795998 9.1366678e-39 340 234
0.026878599 0.73000002 0.0076795998 9.2288634e-39 341 234
0.028274251 0.73299998 0.0077111595 9.5965669e-39 342 234
0.029680425 0.736 0.0077427197 9.5965669e-39 343 234
0.030970879 0.736 0.0077427197 9.2306739e-39 344 234
-0.030204674 0.74900001 0.0065662335 1.7423545e-38 297 235
-0.028775707 0.74599999 0.0065399334 1.622969e-38 298 235
-0.027467718 0.74599999 0.0065399334 1.5676516e-38 299 235
-0.026159734 0.74599999 0.0065399334 1.5310261e-38 300 235
-0.024851745 0.74599999 0.0065399334 1.5678684e-38 301 235
-0.023228159 0.736 0.0064522666 1.4851062e-38 302 235
-0.021937706 0.736 0.0064522666 1.4020943e-38 303 235
-0.020647252 0.736 0.0064522666 1.3565721e-38 304 235
-0.019304199 0.73400003 0.006434733 1.4488037e-38 305 235
-0.017992707 0.73299998 0.0064259665 1.4854337e-38 306 235
-0.016707512 0.73299998 0.0064259665 1.3563598e-38 307 235
-0.01538024 0.73100001 0.006408433 1.0796673e-38 308 235
-0.014098554 0.73100001 0.006408433 9.9669119e-39 309 235
-0.012799333 0.73000002 0.0063996664 1.0793803e-38 310 235
-0.01148784 0.72799999 0.0063821329 1.0793803e-38 311 235
-0.010197386 0.727 0.0063733663 1.0612281e-38 312 235
-0.0089227129 0.727 0.0063733663 1.042825e-38 313 235
-0.0076270006 0.72500002 0.0063558333 9.8783106e-39 314 235
-0.0063558333 0.72500002 0.0063558333 9.786115e-39 315 235
-0.0050706398 0.72299999 0.0063382997 1.0336052e-38 316 235
-0.0038029798 0.72299999 0.0063382997 1.0336052e-38 317 235
-0.0025318132 0.722 0.0063295332 1.0889925e-38 318 235
-0.0012659066 0.722 0.0063295332 1.1535294e-38 319 235
0 0.722 0.0063295332 1.0889183e-38 320 235
0.0012659066 0.722 0.0063295332 1.0428205e-38 321 235
0.0025248001 0.72000003 0.0063120001 1.0519319e-38 322 235
0.0037872 0.72000003 0.0063120001 1.0704069e-38 323 235
0.0050496003 0.72000003 0.0063120001 9.6938605e-39 324 235
0.0063295332 0.722 0.0063295332 9.1406881e-39 325 235
0.0076059597 0.72299999 0.0063382997 9.4187029e-39 326 235
0.0088736191 0.72299999 0.0063382997 1.1354811e-38 327 235
0.01014128 0.72299999 0.0063382997 1.0617578e-38 328 235
0.0114405 0.72500002 0.0063558333 8.3123273e-39 329 235
0.012711667 0.72500002 0.0063558333 8.6807119e-39 330 235
0.013982833 0.72500002 0.0063558333 9.5101124e-39 331 235
0.015254001 0.72500002 0.0063558333 1.0793661e-38 332 235
0.016525166 0.72500002 0.0063558333 1.0517434e-38 333 235
0.017796334 0.72500002 0.0063558333 9.8742328e-39 334 235
0.0190675 0.72500002 0.0063558333 9.4132547e-39 335 235
0.020422826 0.72799999 0.0063821329 9.1359615e-39 336 235
0.021699252 0.72799999 0.0063821329 9.0437645e-39 337 235
0.022975679 0.72799999 0.0063821329 8.6753491e-39 338 235
0.024318734 0.73000002 0.0063996664 8.7679035e-39 339 235
0.025598666 0.73000002 0.0063996664 8.8600963e-39 340 235
0.026915418 0.73100001 0.006408433 8.9522933e-39 341 235
0.028467119 0.73799998 0.0064697997 9.2281571e-39 342 235
0.029801406 0.73900002 0.0064785667 9.2281571e-39 343 235
0.03109712 0.73900002 0.0064785667 1.0976647e-38 344 235
0.032524332 0.74199998 0.0065048663 1.2267386e-38 345 235
0.033825304 0.74199998 0.0065048663 1.5303383e-38 346 235
-0.028814279 0.74699998 0.0052389596 1.5493926e-38 298 236
-0.027504537 0.74699998 0.0052389596 1.4664165e-38 299 236
-0.026194798 0.74699998 0.0052389596 1.4849655e-38 300 236
-0.024885058 0.74699998 0.0052389596 1.540247e-38 301 236
-0.023575317 0.74699998 0.0052389596 1.5219877e-38 302 236
-0.021997318 0.73799998 0.0051758396 1.5035486e-38 303 236
-0.020647252 0.736 0.005161813 1.4484828e-38 304 236
-0.019304199 0.73400003 0.0051477868 1.466958e-38 305 236
-0.018017253 0.73400003 0.0051477868 1.4668874e-38 306 236
-0.016730307 0.73400003 0.0051477868 1.347033e-38 307 236
-0.015422319 0.73299998 0.005140773 1.1349127e-38 308 236
-0.014137126 0.73299998 0.005140773 1.0519367e-38 309 236
-0.012816866 0.73100001 0.0051267464 1.0426098e-38 310 236
-0.011519399 0.73000002 0.0051197335 1.0426098e-38 311 236
-0.010211413 0.72799999 0.0051057064 1.0059833e-38 312 236
-0.0089227129 0.727 0.0050986931 1.0059833e-38 313 236
-0.0076480396 0.727 0.0050986931 1.006091e-38 314 236
-0.0063733663 0.727 0.0050986931 1.006091e-38 315 236
-0.0050846669 0.72500002 0.0050846669 1.042825e-38 316 236
-0.0038029798 0.72299999 0.0050706398 1.0796673e-38 317 236
-0.0025353199 0.72299999 0.0050706398 1.1349475e-38 318 236
-0.0012676599 0.72299999 0.0050706398 1.1718256e-38 319 236
0 0.72299999 0.0050706398 1.1900837e-38 320 236
0.0012676599 0.72299999 0.0050706398 1.1347663e-38 321 236
0.0025318132 0.722 0.0050636264 1.0333151e-38 322 236
0.0037977197 0.722 0.0050636264 1.0425348e-38 323 236
0.0050706398 0.72299999 0.0050706398 9.5995391e-39 324 236
0.0063382997 0.72299999 0.0050706398 9.5073434e-39 325 236
0.0076059597 0.72299999 0.0050706398 9.9690222e-39 326 236
0.0088736191 0.72299999 0.0050706398 1.1720739e-38 327 236
0.010169334 0.72500002 0.0050846669 1.1075345e-38 328 236
0.0114405 0.72500002 0.0050846669 9.0470407e-39 329 236
0.012711667 0.72500002 0.0050846669 1.015265e-38 330 236
0.014021406 0.727 0.0050986931 1.1166802e-38 331 236
0.015296079 0.727 0.0050986931 1.1253242e-38 332 236
0.016570752 0.727 0.0050986931 1.0607873e-38 333 236
0.017845426 0.727 0.0050986931 9.9653719e-39 334 236
0.019120099 0.727 0.0050986931 9.4121981e-39 335 236
0.020422826 0.72799999 0.0051057064 8.859746e-39 336 236
0.021699252 0.72799999 0.0051057064 8.7675503e-39 337 236
0.023038799 0.73000002 0.0051197335 8.7671944e-39 338 236
0.024318734 0.73000002 0.0051197335 8.8597488e-39 339 236
0.025633732 0.73100001 0.0051267464 9.1352581e-39 340 236
0.02709952 0.736 0.005161813 9.1352581e-39 341 236
0.028505694 0.73900002 0.0051828534 9.8710266e-39 342 236
0.029882059 0.741 0.0051968796 1.0516396e-38 343 236
0.031223357 0.74199998 0.0052038929 1.2448558e-38 344 236
0.032524332 0.74199998 0.0052038929 1.3186125e-38 345 236
0.033825304 0.74199998 0.0052038929 1.5488143e-38 346 236
-0.027688639 0.75199997 0.0039555198 1.3465622e-38 299 237
-0.0263 0.75 0.003945 1.3101544e-38 300 237
-0.024984999 0.75 0.003945 1.4300087e-38 301 237
-0.023733119 0.75199997 0.0039555198 1.4943665e-38 302 237
-0.022414612 0.75199997 0.0039555198 1.4943665e-38 303 237
-0.020955838 0.74699998 0.0039292197 1.4576675e-38 304 237
-0.019356798 0.736 0.0038713599 1.4576675e-38 305 237
-0.018066347 0.736 0.0038713599 1.4393366e-38 306 237
-0.016730307 0.73400003 0.0038608401 1.3286658e-38 307 237
-0.01544336 0.73400003 0.0038608401 1.098214e-38 308 237
-0.014156413 0.73400003 0.0038608401 1.0060184e-38 309 237
-0.012851933 0.73299998 0.0038555798 1.0333902e-38 310 237
-0.01153518 0.73100001 0.00384506 1.0426098e-38 311 237
-0.010239467 0.73000002 0.0038397999 1.0243146e-38 312 237
-0.0089349858 0.72799999 0.0038292799 1.0243146e-38 313 237
-0.0076585598 0.72799999 0.0038292799 1.0150953e-38 314 237
-0.0063733663 0.727 0.0038240198 9.9665616e-39 315 237
-0.0050986931 0.727 0.0038240198 9.7825276e-39 316 237
-0.0038240198 0.727 0.0038240198 1.015095e-38 317 237
-0.0025493465 0.727 0.0038240198 1.0060184e-38 318 237
-0.0012764266 0.72799999 0.0038292799 1.0889944e-38 319 237
0 0.727 0.0038240198 1.2085594e-38 320 237
0.0012711667 0.72500002 0.0038135003 1.1809007e-38 321 237
0.0025353199 0.72299999 0.0038029798 1.1348385e-38 322 237
0.0038029798 0.72299999 0.0038029798 1.144058e-38 323 237
0.0050846669 0.72500002 0.0038135003 1.1439859e-38 324 237
0.0063558333 0.72500002 0.0038135003 1.1439859e-38 325 237
0.0076480396 0.727 0.0038240198 1.1348011e-38 326 237
0.0089227129 0.727 0.0038240198 1.199338e-38 327 237
0.010197386 0.727 0.0038240198 1.1256518e-38 328 237
0.01147206 0.727 0.0038240198 1.0518953e-38 329 237
0.012746733 0.727 0.0038240198 1.1623133e-38 330 237
0.014021406 0.727 0.0038240198 1.189972e-38 331 237
0.015296079 0.727 0.0038240198 1.0978117e-38 332 237
0.016570752 0.727 0.0038240198 1.024055e-38 333 237
0.017845426 0.727 0.0038240198 1.1067776e-38 334 237
0.0191464 0.72799999 0.0038292799 1.0606438e-38 335 237
0.020422826 0.72799999 0.0038292799 8.7664812e-39 336 237
0.021758866 0.73000002 0.0038397999 8.9505123e-39 337 237
0.023038799 0.73000002 0.0038397999 8.7675644e-39 338 237
0.024352046 0.73100001 0.00384506 8.5835318e-39 339 237
0.025738932 0.73400003 0.0038608401 8.7668469e-39 340 237
0.027283618 0.741 0.0038976599 9.5044133e-39 341 237
0.028582839 0.741 0.0038976599 1.097488e-38 342 237
0.030003037 0.74400002 0.0039134403 1.1620249e-38 343 237
0.031307522 0.74400002 0.0039134403 1.2173789e-38 344 237
0.032612 0.74400002 0.0039134403 1.2173789e-38 345 237
0.034053236 0.74699998 0.0039292197 1.5029332e-38 346 237
-0.027688639 0.75199997 0.0026370131 1.3003568e-38 299 238
-0.02637013 0.75199997 0.0026370131 1.1166882e-38 300 238
-0.025051624 0.75199997 0.0026370131 1.310299e-38 301 238
-0.023733119 0.75199997 0.0026370131 1.4666721e-38 302 238
-0.022414612 0.75199997 0.0026370131 1.4943668e-38 303 238
-0.021011947 0.74900001 0.0026264933 1.4576675e-38 304 238
-0.019488299 0.741 0.0025984398 1.448448e-38 305 238
-0.018115439 0.73799998 0.0025879198 1.4393366e-38 306 238
-0.016775893 0.736 0.0025809065 1.3102627e-38 307 238
-0.015485439 0.736 0.0025809065 1.1350197e-38 308 238
-0.014194986 0.736 0.0025809065 1.0243849e-38 309 238
-0.012869466 0.73400003 0.0025738934 1.060976e-38 310 238
-0.011566739 0.73299998 0.0025703865 1.0794153e-38 311 238
-0.010253493 0.73100001 0.0025633732 1.0244219e-38 312 238
-0.0089595336 0.73000002 0.0025598668 1.0244219e-38 313 238
-0.0076795998 0.73000002 0.0025598668 1.0519367e-38 314 238
-0.0063821329 0.72799999 0.0025528532 1.0334615e-38 315 238
-0.0051057064 0.72799999 0.0025528532 9.5981294e-39 316 238
-0.0038292799 0.72799999 0.0025528532 9.1375114e-39 317 238
-0.0025528532 0.72799999 0.0025528532 9.5052177e-39 318 238
-0.0012764266 0.72799999 0.0025528532 1.0058391e-38 319 238
0 0.72799999 0.0025528532 1.1438076e-38 320 238
0.0012764266 0.72799999 0.0025528532 1.1622468e-38 321 238
0.0025493465 0.727 0.0025493465 1.1532777e-38 322 238
0.0038240198 0.727 0.0025493465 1.1532777e-38 323 238
0.0050986931 0.727 0.0025493465 1.1257265e-38 324 238
0.0063733663 0.727 0.0025493465 1.116507e-38 325 238
0.0076585598 0.72799999 0.0025528532 1.1163635e-38 326 238
0.0089349858 0.72799999 0.0025528532 1.0610461e-38 327 238
0.010211413 0.72799999 0.0025528532 9.5991831e-39 328 238
0.01148784 0.72799999 0.0025528532 1.0337107e-38 329 238
0.012764266 0.72799999 0.0025528532 1.1531682e-38 330 238
0.014040692 0.72799999 0.0025528532 1.1439486e-38 331 238
0.01531712 0.72799999 0.0025528532 1.0977058e-38 332 238
0.016593546 0.72799999 0.0025528532 1.005546e-38 333 238
0.017869972 0.72799999 0.0025528532 1.1529498e-38 334 238
0.019199001 0.73000002 0.0025598668 1.106816e-38 335 238
0.020478934 0.73000002 0.0025598668 8.7661308e-39 336 238
0.021788673 0.73100001 0.0025633732 8.950162e-39 337 238
0.023133477 0.73299998 0.0025703865 8.9512396e-39 338 238
0.024518613 0.736 0.0025809065 8.6746513e-39 339 238
0.025984399 0.741 0.0025984398 9.1342015e-39 340 238
0.027320439 0.74199998 0.0026019465 1.060969e-38 341 238
0.028621411 0.74199998 0.0026019465 1.1896123e-38 342 238
0.030003037 0.74400002 0.00260896 1.217307e-38 343 238
0.031391677 0.74599999 0.0026159731 1.1529864e-38 344 238
0.032699663 0.74599999 0.0026159731 1.0792299e-38 345 238
0.034053236 0.74699998 0.0026194798 1.5120099e-38 346 238
0.035362978 0.74699998 0.0026194798 1.7978523e-38 347 238
-0.025118252 0.75400001 0.0013220133 1.1351632e-38 301 239
-0.02379624 0.75400001 0.0013220133 1.383804e-38 302 239
-0.022474226 0.75400001 0.0013220133 1.4851833e-38 303 239
-0.021096105 0.75199997 0.0013185065 1.4575959e-38 304 239
-0.019488299 0.741 0.0012992199 1.4575959e-38 305 239
-0.018139986 0.73900002 0.0012957134 1.4208617e-38 306 239
-0.016821479 0.73799998 0.0012939599 1.3378856e-38 307 239
-0.015527519 0.73799998 0.0012939599 1.2729897e-38 308 239
-0.014194986 0.736 0.0012904532 1.1715386e-38 309 239
-0.012904533 0.736 0.0012904532 1.0887068e-38 310 239
-0.011582521 0.73400003 0.0012869467 1.0887068e-38 311 239
-0.010281546 0.73299998 0.0012851933 1.0245301e-38 312 239
-0.0089718066 0.73100001 0.0012816866 1.0153105e-38 313 239
-0.0076795998 0.73000002 0.0012799334 1.0795956e-38 314 239
-0.0063996664 0.73000002 0.0012799334 1.0888152e-38 315 239
-0.0051197335 0.73000002 0.0012799334 1.1166531e-38 316 239
-0.0038397999 0.73000002 0.0012799334 1.1258727e-38 317 239
-0.0025598668 0.73000002 0.0012799334 1.1347681e-38 318 239
-0.0012764266 0.72799999 0.0012764266 1.0886705e-38 319 239
0 0.72799999 0.0012764266 1.0519717e-38 320 239
0.0012799334 0.73000002 0.0012799334 1.107289e-38 321 239
0.0025528532 0.72799999 0.0012764266 1.1073967e-38 322 239
0.0038292799 0.72799999 0.0012764266 1.0797379e-38 323 239
0.0051057064 0.72799999 0.0012764266 1.0246001e-38 324 239
0.0063821329 0.72799999 0.0012764266 8.8630671e-39 325 239
0.0076585598 0.72799999 0.0012764266 9.779278e-39 326 239
0.0089595336 0.73000002 0.0012799334 9.8714737e-39 327 239
0.010239467 0.73000002 0.0012799334 9.8725485e-39 328 239
0.011519399 0.73000002 0.0012799334 1.0517918e-38 329 239
0.012799333 0.73000002 0.0012799334 1.116147e-38 330 239
0.014079267 0.73000002 0.0012799334 1.1253665e-38 331 239
0.0153592 0.73000002 0.0012799334 1.0700843e-38 332 239
0.016639132 0.73000002 0.0012799334 1.0608646e-38 333 239
0.017943613 0.73100001 0.0012816866 1.1714978e-38 334 239
0.019225299 0.73100001 0.0012816866 1.0977413e-38 335 239
0.020506985 0.73100001 0.0012816866 8.5810305e-39 336 239
0.021878093 0.73400003 0.0012869467 9.0420087e-39 337 239
0.023228159 0.736 0.0012904532 9.1367238e-39 338 239
0.024618553 0.73900002 0.0012957134 1.0058682e-38 339 239
0.025984399 0.741 0.0012992199 1.1896126e-38 340 239
0.027320439 0.74199998 0.0013009732 1.226491e-38 341 239
0.02869856 0.74400002 0.00130448 1.226491e-38 342 239
0.03008369 0.74599999 0.0013079866 1.226491e-38 343 239
0.031433757 0.74699998 0.0013097399 1.1619543e-38 344 239
0.032743499 0.74699998 0.0013097399 1.0697585e-38 345 239
0.034144413 0.74900001 0.0013132467 1.4936784e-38 346 239
-0.026545467 0.75700003 -0 1.1255112e-38 300 240
-0.025151566 0.755 -0 1.0702297e-38 301 240
-0.023827799 0.755 -0 1.181297e-38 302 240
-0.022474226 0.75400001 -0 1.4118221e-38 303 240
-0.021152213 0.75400001 -0 1.4668874e-38 304 240
-0.0197776 0.75199997 -0 1.4484482e-38 305 240
-0.018336359 0.74699998 -0 1.4483406e-38 306 240
-0.016889861 0.741 -0 1.3653645e-38 307 240
-0.01554856 0.73900002 -0 1.2915011e-38 308 240
-0.014233559 0.73799998 -0 1.2269642e-38 309 240
-0.012939599 0.73799998 -0 1.125621e-38 310 240
-0.01161408 0.736 -0 1.1164013e-38 311 240
-0.010295574 0.73400003 -0 1.0521165e-38 312 240
-0.0090086265 0.73400003 -0 1.0521165e-38 313 240
-0.0077111595 0.73299998 -0 1.0888149e-38 314 240
-0.006408433 0.73100001 -0 1.1164736e-38 315 240
-0.0051267464 0.73100001 -0 1.1809383e-38 316 240
-0.00384506 0.73100001 -0 1.2546948e-38 317 240
-0.0025633732 0.73100001 -0 1.2362909e-38 318 240
-0.0012816866 0.73100001 -0 1.2085964e-38 319 240
0 0.73100001 -0 1.1350547e-38 320 240
0.0012816866 0.73100001 -0 1.1535297e-38 321 240
0.0025633732 0.73100001 -0 1.1351979e-38 322 240
0.0038397999 0.73000002 -0 1.1351979e-38 323 240
0.0051197335 0.73000002 -0 1.1534573e-38 324 240
0.0063996664 0.73000002 -0 1.0797007e-38 325 240
0.00769012 0.73100001 -0 1.0887052e-38 326 240
0.0089718066 0.73100001 -0 1.0241683e-38 327 240
0.010253493 0.73100001 -0 9.6910355e-39 328 240
0.01153518 0.73100001 -0 9.5984797e-39 329 240
0.012816866 0.73100001 -0 1.0059445e-38 330 240
0.014098554 0.73100001 -0 1.0335672e-38 331 240
0.01538024 0.73100001 -0 1.1067104e-38 332 240
0.016661927 0.73100001 -0 1.1436246e-38 333 240
0.017992707 0.73299998 -0 1.2818452e-38 334 240
0.019277899 0.73299998 -0 1.1712104e-38 335 240
0.020591147 0.73400003 -0 9.5033596e-39 336 240
0.021937706 0.736 -0 9.8717819e-39 337 240
0.023322839 0.73900002 -0 1.0699029e-38 338 240
0.024685178 0.741 -0 1.1529148e-38 339 240
0.026019465 0.74199998 -0 1.272517e-38 340 240
0.027320439 0.74199998 -0 1.2448225e-38 341 240
0.028775707 0.74599999 -0 1.2081237e-38 342 240
0.03008369 0.74599999 -0 1.1897205e-38 343 240
0.031433757 0.74699998 -0 1.1527347e-38 344 240
0.032831166 0.74900001 -0 1.0881978e-38 345 240
0.034144413 0.74900001 -0 1.548851e-38 346 240
-0.027872739 0.75700003 -0.0013272733 1.4843519e-38 299 241
-0.026545467 0.75700003 -0.0013272733 1.1162566e-38 300 241
-0.025151566 0.755 -0.0013237667 9.318653e-39 301 241
-0.023827799 0.755 -0.0013237667 1.0155989e-38 302 241
-0.022474226 0.75400001 -0.0013220133 1.2737467e-38 303 241
-0.021152213 0.75400001 -0.0013220133 1.4391932e-38 304 241
-0.0197776 0.75199997 -0.0013185065 1.4484129e-38 305 241
-0.018385453 0.74900001 -0.0013132467 1.4116421e-38 306 241
-0.017026618 0.74699998 -0.0013097399 1.3010075e-38 307 241
-0.015611678 0.74199998 -0.0013009732 1.208669e-38 308 241
-0.01429142 0.741 -0.0012992199 1.1533875e-38 309 241
-0.012957133 0.73900002 -0.0012957134 1.1256213e-38 310 241
-0.011645639 0.73799998 -0.0012939599 1.1164016e-38 311 241
-0.010323626 0.736 -0.0012904532 1.0705556e-38 312 241
-0.0090331733 0.736 -0.0012904532 1.0705556e-38 313 241
-0.0077216802 0.73400003 -0.0012869467 1.1255133e-38 314 241
-0.006434733 0.73400003 -0.0012869467 1.1347328e-38 315 241
-0.005140773 0.73299998 -0.0012851933 1.125621e-38 316 241
-0.0038555798 0.73299998 -0.0012851933 1.1717187e-38 317 241
-0.0025703865 0.73299998 -0.0012851933 1.1627863e-38 318 241
-0.0012816866 0.73100001 -0.0012816866 1.1535307e-38 319 241
0 0.73100001 -0.0012816866 1.135235e-38 320 241
0.0012851933 0.73299998 -0.0012851933 1.135235e-38 321 241
0.0025703865 0.73299998 -0.0012851933 1.1627137e-38 322 241
0.0038555798 0.73299998 -0.0012851933 1.1627137e-38 323 241
0.005140773 0.73299998 -0.0012851933 1.1625695e-38 324 241
0.0064259665 0.73299998 -0.0012851933 1.1072521e-38 325 241
0.0077111595 0.73299998 -0.0012851933 1.1070003e-38 326 241
0.0089963535 0.73299998 -0.0012851933 1.0793057e-38 327 241
0.010281546 0.73299998 -0.0012851933 1.0149488e-38 328 241
0.011566739 0.73299998 -0.0012851933 1.0057293e-38 329 241
0.012851933 0.73299998 -0.0012851933 1.0885243e-38 330 241
0.014137126 0.73299998 -0.0012851933 1.116147e-38 331 241
0.015422319 0.73299998 -0.0012851933 1.106819e-38 332 241
0.016707512 0.73299998 -0.0012851933 1.1344416e-38 333 241
0.017992707 0.73299998 -0.0012851933 1.1714628e-38 334 241
0.019304199 0.73400003 -0.0012869467 1.1622433e-38 335 241
0.020647252 0.736 -0.0012904532 1.1344754e-38 336 241
0.022027127 0.73900002 -0.0012957134 1.1897569e-38 337 241
0.023385961 0.741 -0.0012992199 1.2263476e-38 338 241
0.02478512 0.74400002 -0.00130448 1.1710662e-38 339 241
0.026089599 0.74400002 -0.00130448 1.1711386e-38 340 241
0.027467718 0.74599999 -0.0013079866 1.1711386e-38 341 241
0.028814279 0.74699998 -0.0013097399 1.2079448e-38 342 241
0.030204674 0.74900001 -0.0013132467 1.1987252e-38 343 241
0.031517919 0.74900001 -0.0013132467 1.1801056e-38 344 241
0.032874998 0.75 -0.001315 1.1617025e-38 345 241
0.034189999 0.75 -0.001315 1.6223913e-38 346 241
-0.026475333 0.755 -0.0026475333 1.1898331e-38 300 242
-0.023827799 0.755 -0.0026475333 9.6924956e-39 302 242
-0.022504034 0.755 -0.0026475333 1.1720799e-38 303 242
-0.021152213 0.75400001 -0.0026440267 1.3380305e-38 304 242
-0.0197776 0.75199997 -0.0026370131 1.4025316e-38 305 242
-0.018409999 0.75 -0.00263 1.4115347e-38 306 242
-0.017072206 0.74900001 -0.0026264933 1.3101193e-38 307 242
-0.015695838 0.74599999 -0.0026159731 1.1074336e-38 308 242
-0.01434928 0.74400002 -0.00260896 1.0705553e-38 309 242
-0.0129922 0.741 -0.0025984398 1.0888149e-38 310 242
-0.01166142 0.73900002 -0.0025914267 1.1164736e-38 311 242
-0.010365707 0.73900002 -0.0025914267 1.0705553e-38 312 242
-0.0090699932 0.73900002 -0.0025914267 1.0705553e-38 313 242
-0.0077427197 0.736 -0.0025809065 1.107218e-38 314 242
-0.0064522666 0.736 -0.0025809065 1.107218e-38 315 242
-0.005161813 0.736 -0.0025809065 1.0705556e-38 316 242
-0.0038713599 0.736 -0.0025809065 1.0981784e-38 317 242
-0.0025738934 0.73400003 -0.0025738934 1.1535307e-38 318 242
-0.0012869467 0.73400003 -0.0025738934 1.1535307e-38 319 242
0 0.73400003 -0.0025738934 1.2086314e-38 320 242
0.0012869467 0.73400003 -0.0025738934 1.2086314e-38 321 242
0.0025738934 0.73400003 -0.0025738934 1.2454011e-38 322 242
0.0038608401 0.73400003 -0.0025738934 1.2638402e-38 323 242
0.0051477868 0.73400003 -0.0025738934 1.2544407e-38 324 242
0.006434733 0.73400003 -0.0025738934 1.0977083e-38 325 242
0.0077216802 0.73400003 -0.0025738934 1.005729e-38 326 242
0.0090086265 0.73400003 -0.0025738934 1.0518268e-38 327 242
0.010295574 0.73400003 -0.0025738934 1.051683e-38 328 242
0.011582521 0.73400003 -0.0025738934 1.0424633e-38 329 242
0.012869466 0.73400003 -0.0025738934 1.0610098e-38 330 242
0.014156413 0.73400003 -0.0025738934 1.0610098e-38 331 242
0.01544336 0.73400003 -0.0025738934 1.106675e-38 332 242
0.016730307 0.73400003 -0.0025738934 1.1435893e-38 333 242
0.018066347 0.736 -0.0025809065 1.1531676e-38 334 242
0.019409399 0.73799998 -0.0025879198 1.143948e-38 335 242
0.020787518 0.741 -0.0025984398 1.1805378e-38 336 242
0.022116546 0.74199998 -0.0026019465 1.1712823e-38 337 242
0.023417519 0.74199998 -0.0026019465 1.1618837e-38 338 242
0.024851745 0.74599999 -0.0026159731 1.1250053e-38 339 242
0.026194798 0.74699998 -0.0026194798 1.1066741e-38 340 242
0.027578179 0.74900001 -0.0026264933 1.171211e-38 341 242
0.028891427 0.74900001 -0.0026264933 1.2080167e-38 342 242
0.030244999 0.75 -0.00263 1.1987971e-38 343 242
0.03156 0.75 -0.00263 1.1525545e-38 344 242
0.032874998 0.75 -0.00263 1.1709937e-38 345 242
0.034189999 0.75 -0.00263 1.6132793e-38 346 242
-0.025151566 0.755 -0.0039712996 1.0883808e-38 301 243
-0.023827799 0.755 -0.0039712996 9.7828808e-39 302 243
-0.022504034 0.755 -0.0039712996 1.0981065e-38 303 243
-0.021152213 0.75400001 -0.00396604 1.2459068e-38 304 243
-0.019830201 0.75400001 -0.00396604 1.3657611e-38 305 243
-0.018508185 0.75400001 -0.00396604 1.4115349e-38 306 243
-0.017095 0.75 -0.003945 1.3285589e-38 307 243
-0.015716879 0.74699998 -0.0039292197 1.0521884e-38 308 243
-0.014387853 0.74599999 -0.0039239596 1.0153102e-38 309 243
-0.0130448 0.74400002 -0.0039134403 1.0428616e-38 310 243
-0.01170876 0.74199998 -0.0039029196 1.0613007e-38 311 243
-0.010407786 0.74199998 -0.0039029196 1.0613004e-38 312 243
-0.0090945391 0.741 -0.0038976599 1.0613004e-38 313 243
-0.0077742799 0.73900002 -0.00388714 1.0888868e-38 314 243
-0.0064785667 0.73900002 -0.00388714 1.0981065e-38 315 243
-0.0051758396 0.73799998 -0.0038818798 1.0981421e-38 316 243
-0.0038818798 0.73799998 -0.0038818798 1.079667e-38 317 243
-0.0025809065 0.736 -0.0038713599 1.1810452e-38 318 243
-0.0012904532 0.736 -0.0038713599 1.1902649e-38 319 243
0 0.736 -0.0038713599 1.2177791e-38 320 243
0.0012904532 0.736 -0.0038713599 1.2362541e-38 321 243
0.0025809065 0.736 -0.0038713599 1.2914631e-38 322 243
0.0038713599 0.736 -0.0038713599 1.319122e-38 323 243
0.005161813 0.736 -0.0038713599 1.3097225e-38 324 243
0.0064522666 0.736 -0.0038713599 1.0977086e-38 325 243
0.0077427197 0.736 -0.0038713599 9.1385651e-39 326 243
0.0090331733 0.736 -0.0038713599 1.0152357e-38 327 243
0.010323626 0.736 -0.0038713599 1.088489e-38 328 243
0.01161408 0.736 -0.0038713599 1.070014e-38 329 243
0.012904533 0.736 -0.0038713599 1.0702294e-38 330 243
0.014194986 0.736 -0.0038713599 1.0610098e-38 331 243
0.015485439 0.736 -0.0038713599 1.0700129e-38 332 243
0.016821479 0.73799998 -0.0038818798 1.1160748e-38 333 243
0.018189078 0.741 -0.0038976599 1.1531682e-38 334 243
0.0195146 0.74199998 -0.0039029196 1.1346932e-38 335 243
0.020815572 0.74199998 -0.0039029196 1.1344767e-38 336 243
0.022235774 0.74599999 -0.0039239596 1.0883788e-38 337 243
0.023543758 0.74599999 -0.0039239596 1.0973473e-38 338 243
0.024885058 0.74699998 -0.0039292197 1.060433e-38 339 243
0.026264934 0.74900001 -0.0039397399 1.0422815e-38 340 243
0.027578179 0.74900001 -0.0039397399 1.1529161e-38 341 243
0.028929999 0.75 -0.003945 1.1897575e-38 342 243
0.030325651 0.75199997 -0.0039555198 1.1528792e-38 343 243
0.031644158 0.75199997 -0.0039555198 1.1893605e-38 344 243
0.032962665 0.75199997 -0.0039555198 1.2631171e-38 345 243
0.034281172 0.75199997 -0.0039555198 1.6409377e-38 346 243
-0.023827799 0.755 -0.0052950666 1.1162568e-38 302 244
-0.022504034 0.755 -0.0052950666 1.1623186e-38 303 244
-0.021180267 0.755 -0.0052950666 1.2365074e-38 304 244
-0.0198565 0.755 -0.0052950666 1.3287031e-38 305 244
-0.018508185 0.75400001 -0.0052880533 1.3655094e-38 306 244
-0.017140586 0.75199997 -0.0052740262 1.2917528e-38 307 244
-0.01578 0.75 -0.00526 1.0981784e-38 308 244
-0.014445714 0.74900001 -0.0052529867 1.0521165e-38 309 244
-0.013097399 0.74699998 -0.0052389596 1.0428613e-38 310 244
-0.011771879 0.74599999 -0.0052319462 1.0428613e-38 311 244
-0.01043584 0.74400002 -0.0052179201 1.0703405e-38 312 244
-0.0091313599 0.74400002 -0.0052179201 1.0703405e-38 313 244
-0.0078268806 0.74400002 -0.0052179201 1.061336e-38 314 244
-0.0064960998 0.741 -0.0051968796 1.0889588e-38 315 244
-0.0051828534 0.73900002 -0.0051828534 1.1164366e-38 316 244
-0.00388714 0.73900002 -0.0051828534 1.0979616e-38 317 244
-0.0025914267 0.73900002 -0.0051828534 1.2268912e-38 318 244
-0.0012939599 0.73799998 -0.0051758396 1.2637696e-38 319 244
0 0.73799998 -0.0051758396 1.2361462e-38 320 244
0.0012904532 0.736 -0.005161813 1.2638049e-38 321 244
0.0025809065 0.736 -0.005161813 1.2730963e-38 322 244
0.0038713599 0.736 -0.005161813 1.2915715e-38 323 244
0.0051758396 0.73799998 -0.0051758396 1.3006105e-38 324 244
0.0064697997 0.73799998 -0.0051758396 1.2084149e-38 325 244
0.0077637597 0.73799998 -0.0051758396 1.1621726e-38 326 244
0.0090577193 0.73799998 -0.0051758396 1.1806118e-38 327 244
0.010351679 0.73799998 -0.0051758396 1.1345142e-38 328 244
0.011645639 0.73799998 -0.0051758396 1.1068555e-38 329 244
0.012939599 0.73799998 -0.0051758396 1.0793413e-38 330 244
0.014233559 0.73799998 -0.0051758396 1.0516828e-38 331 244
0.015527519 0.73799998 -0.0051758396 1.0883808e-38 332 244
0.016889861 0.741 -0.0051968796 1.0976004e-38 333 244
0.01826272 0.74400002 -0.0052179201 1.1345495e-38 334 244
0.019567199 0.74400002 -0.0052179201 1.0976354e-38 335 244
0.020927785 0.74599999 -0.0052319462 1.0330622e-38 336 244
0.022235774 0.74599999 -0.0052319462 9.6852523e-39 337 244
0.023575317 0.74699998 -0.0052389596 1.0143356e-38 338 244
0.024885058 0.74699998 -0.0052389596 1.0051159e-38 339 244
0.026264934 0.74900001 -0.0052529867 9.8710813e-39 340 244
0.027615 0.75 -0.00526 1.1438767e-38 341 244
0.029007144 0.75199997 -0.0052740262 1.1805022e-38 342 244
0.030446632 0.755 -0.0052950666 1.1251849e-38 343 244
0.031770397 0.755 -0.0052950666 1.1803206e-38 344 244
0.033181835 0.75700003 -0.0053090933 1.3093944e-38 345 244
0.034509107 0.75700003 -0.0053090933 1.6868914e-38 346 244
-0.02389092 0.75700003 -0.0066363667 1.2268912e-38 302 245
-0.022563647 0.75700003 -0.0066363667 1.1992326e-38 303 245
-0.021236373 0.75700003 -0.0066363667 1.1721506e-38 304 245
-0.019909101 0.75700003 -0.0066363667 1.2459071e-38 305 245
-0.018532733 0.755 -0.0066188332 1.2917892e-38 306 245
-0.017186172 0.75400001 -0.0066100666 1.2549469e-38 307 245
-0.015822079 0.75199997 -0.0065925326 1.1717906e-38 308 245
-0.014465 0.75 -0.006575 1.1164733e-38 309 245
-0.013132467 0.74900001 -0.0065662335 1.1254414e-38 310 245
-0.011787659 0.74699998 -0.0065486995 1.1254414e-38 311 245
-0.010477919 0.74699998 -0.0065486995 1.0611562e-38 312 245
-0.0091559067 0.74599999 -0.0065399334 1.0795954e-38 313 245
-0.0078479191 0.74599999 -0.0065399334 1.0521881e-38 314 245
-0.0065223998 0.74400002 -0.0065223998 1.0614076e-38 315 245
-0.0051968796 0.741 -0.0064960998 1.1072534e-38 316 245
-0.0038976599 0.741 -0.0064960998 1.0888502e-38 317 245
-0.0025984398 0.741 -0.0064960998 1.1717184e-38 318 245
-0.0012957134 0.73900002 -0.0064785667 1.2270358e-38 319 245
0 0.73900002 -0.0064785667 1.2270711e-38 320 245
0.0012939599 0.73799998 -0.0064697997 1.273133e-38 321 245
0.0025879198 0.73799998 -0.0064697997 1.2547648e-38 322 245
0.0038818798 0.73799998 -0.0064697997 1.2455453e-38 323 245
0.0051828534 0.73900002 -0.0064785667 1.2730247e-38 324 245
0.0064697997 0.73799998 -0.0064697997 1.1807932e-38 325 245
0.0077637597 0.73799998 -0.0064697997 1.2634452e-38 326 245
0.0090699932 0.73900002 -0.0064785667 1.2081278e-38 327 245
0.010365707 0.73900002 -0.0064785667 1.162101e-38 328 245
0.01166142 0.73900002 -0.0064785667 1.1344063e-38 329 245
0.0129922 0.741 -0.0064960998 1.079341e-38 330 245
0.01429142 0.741 -0.0064960998 1.0701215e-38 331 245
0.015653761 0.74400002 -0.0065223998 1.0883808e-38 332 245
0.016958239 0.74400002 -0.0065223998 1.1068199e-38 333 245
0.018311813 0.74599999 -0.0065399334 1.0885243e-38 334 245
0.019619798 0.74599999 -0.0065399334 1.0147319e-38 335 245
0.020955838 0.74699998 -0.0065486995 9.5923462e-39 336 245
0.022265578 0.74699998 -0.0065486995 9.1317282e-39 337 245
0.02363844 0.74900001 -0.0065662335 9.4976367e-39 338 245
0.024951685 0.74900001 -0.0065662335 9.9582547e-39 339 245
0.02637013 0.75199997 -0.0065925326 1.0238069e-38 340 245
0.027688639 0.75199997 -0.0065925326 1.1713559e-38 341 245
0.029277159 0.759 -0.0066538998 1.1712473e-38 342 245
0.030728921 0.76200002 -0.0066801999 1.1067104e-38 343 245
0.032064959 0.76200002 -0.0066801999 1.2356026e-38 344 245
0.033401001 0.76200002 -0.0066801999 1.3831515e-38 345 245
-0.02389092 0.75700003 -0.0079636406 1.3100828e-38 302 246
-0.022563647 0.75700003 -0.0079636406 1.2731686e-38 303 246
-0.021236373 0.75700003 -0.0079636406 1.1446725e-38 304 246
-0.019909101 0.75700003 -0.0079636406 1.1631475e-38 305 246
-0.018581826 0.75700003 -0.0079636406 1.2548034e-38 306 246
-0.017208965 0.755 -0.0079425992 1.2271807e-38 307 246
-0.01586416 0.75400001 -0.00793208 1.2638064e-38 308 246
-0.014503572 0.75199997 -0.0079110395 1.1900499e-38 309 246
-0.01315 0.75 -0.00789 1.1529922e-38 310 246
-0.01181922 0.74900001 -0.0078794798 1.1437726e-38 311 246
-0.010505973 0.74900001 -0.0078794798 1.0888505e-38 312 246
-0.0091681797 0.74699998 -0.0078584393 1.0888505e-38 313 246
-0.0078584393 0.74699998 -0.0078584393 1.0797026e-38 314 246
-0.0065399334 0.74599999 -0.0078479191 1.0889221e-38 315 246
-0.0052319462 0.74599999 -0.0078479191 1.1164013e-38 316 246
-0.0039134403 0.74400002 -0.0078268806 1.125621e-38 317 246
-0.0026019465 0.74199998 -0.0078058392 1.0706995e-38 318 246
-0.0013009732 0.74199998 -0.0078058392 1.0983582e-38 319 246
0 0.74199998 -0.0078058392 1.1996645e-38 320 246
0.0012992199 0.741 -0.0077953199 1.2273232e-38 321 246
0.0025984398 0.741 -0.0077953199 1.2547651e-38 322 246
0.0038976599 0.741 -0.0077953199 1.2547651e-38 323 246
0.0051968796 0.741 -0.0077953199 1.1994844e-38 324 246
0.0064960998 0.741 -0.0077953199 9.5059211e-39 325 246
0.0077953199 0.741 -0.0077953199 1.0147337e-38 326 246
0.0090945391 0.741 -0.0077953199 1.0977098e-38 327 246
0.010393759 0.741 -0.0077953199 1.1252596e-38 328 246
0.01170876 0.74199998 -0.0078058392 1.1160401e-38 329 246
0.013009733 0.74199998 -0.0078058392 1.0517547e-38 330 246
0.014387853 0.74599999 -0.0078479191 1.0425351e-38 331 246
0.015695838 0.74599999 -0.0078479191 1.0883805e-38 332 246
0.017003827 0.74599999 -0.0078479191 1.1160751e-38 333 246
0.018336359 0.74699998 -0.0078584393 1.0608293e-38 334 246
0.0196987 0.74900001 -0.0078794798 9.4101102e-39 335 246
0.021011947 0.74900001 -0.0078794798 9.3143244e-39 336 246
0.022325192 0.74900001 -0.0078794798 9.4983555e-39 337 246
0.023733119 0.75199997 -0.0079110395 1.0141204e-38 338 246
0.025118252 0.75400001 -0.00793208 1.0418151e-38 339 246
0.026545467 0.75700003 -0.0079636406 1.0331341e-38 340 246
0.028020019 0.76099998 -0.0080057196 1.1161101e-38 341 246
0.029354304 0.76099998 -0.0080057196 1.1159654e-38 342 246
0.030809574 0.764 -0.0080372803 1.0514284e-38 343 246
0.032233275 0.76599997 -0.0080583189 1.2816634e-38 344 246
-0.02442744 0.77399999 -0.0094995592 1.402026e-38 302 247
-0.023040552 0.773 -0.0094872871 1.383587e-38 303 247
-0.021573013 0.76899999 -0.0094381925 1.2548036e-38 304 247
-0.020014299 0.76099998 -0.0093400059 1.2087058e-38 305 247
-0.01863092 0.759 -0.00931546 1.1169415e-38 306 247
-0.017254554 0.75700003 -0.0092909131 1.1354165e-38 307 247
-0.015885198 0.755 -0.0092663663 1.2361835e-38 308 247
-0.014542146 0.75400001 -0.0092540924 1.1808301e-38 309 247
-0.013185065 0.75199997 -0.0092295464 1.1347325e-38 310 247
-0.011835 0.75 -0.0092049995 1.1347325e-38 311 247
-0.01052 0.75 -0.0092049995 1.1072536e-38 312 247
-0.0091927266 0.74900001 -0.0091927266 1.0888505e-38 313 247
-0.0078794798 0.74900001 -0.0091927266 1.1162934e-38 314 247
-0.0065662335 0.74900001 -0.0091927266 1.1162934e-38 315 247
-0.0052389596 0.74699998 -0.0091681797 1.0888149e-38 316 247
-0.0039292197 0.74699998 -0.0091681797 1.107218e-38 317 247
-0.00260896 0.74400002 -0.0091313599 1.1350923e-38 318 247
-0.00130448 0.74400002 -0.0091313599 1.1811901e-38 319 247
0 0.74400002 -0.0091313599 1.2823882e-38 320 247
0.00130448 0.74400002 -0.0091313599 1.2916078e-38 321 247
0.0026019465 0.74199998 -0.009106813 1.2732037e-38 322 247
0.0039029196 0.74199998 -0.009106813 1.2548004e-38 323 247
0.0052038929 0.74199998 -0.009106813 1.1627139e-38 324 247
0.0065048663 0.74199998 -0.009106813 8.8612706e-39 325 247
0.0078058392 0.74199998 -0.009106813 9.3190187e-39 326 247
0.009106813 0.74199998 -0.009106813 1.0517562e-38 327 247
0.01043584 0.74400002 -0.0091313599 1.0793413e-38 328 247
0.011740319 0.74400002 -0.0091313599 1.0885609e-38 329 247
0.013079867 0.74599999 -0.0091559067 1.0976004e-38 330 247
0.014407139 0.74699998 -0.0091681797 1.0515384e-38 331 247
0.015716879 0.74699998 -0.0091681797 1.060758e-38 332 247
0.017072206 0.74900001 -0.0091927266 1.0976004e-38 333 247
0.018385453 0.74900001 -0.0091927266 1.0880568e-38 334 247
0.0196987 0.74900001 -0.0091927266 9.866415e-39 335 247
0.02104 0.75 -0.0092049995 9.7735005e-39 336 247
0.022355 0.75 -0.0092049995 9.8656961e-39 337 247
0.02379624 0.75400001 -0.0092540924 9.407955e-39 338 247
0.025284819 0.759 -0.00931546 9.7770976e-39 339 247
0.026685731 0.76099998 -0.0093400059 9.688132e-39 340 247
0.028056841 0.76200002 -0.0093522798 1.0333501e-38 341 247
0.029392879 0.76200002 -0.0093522798 1.1160005e-38 342 247
0.030809574 0.764 -0.0093768267 1.106781e-38 343 247
-0.02442744 0.77399999 -0.01085664 1.3929844e-38 302 248
-0.023040552 0.773 -0.010842613 1.4483018e-38 303 248
-0.021685226 0.773 -0.010842613 1.3466027e-38 304 248
-0.020093199 0.764 -0.010716373 1.2175288e-38 305 248
-0.01870456 0.76200002 -0.01068832 1.1074701e-38 306 248
-0.017300138 0.759 -0.01064624 1.089067e-38 307 248
-0.015927281 0.75700003 -0.010618187 1.1254777e-38 308 248
-0.014561433 0.755 -0.010590133 1.1162581e-38 309 248
-0.013220133 0.75400001 -0.010576107 1.1071464e-38 310 248
-0.011866559 0.75199997 -0.010548052 1.0979269e-38 311 248
-0.01052 0.75 -0.01052 1.0795954e-38 312 248
-0.0092049995 0.75 -0.01052 1.107218e-38 313 248
-0.0078794798 0.74900001 -0.010505973 1.1164013e-38 314 248
-0.0065662335 0.74900001 -0.010505973 1.1164013e-38 315 248
-0.0052529867 0.74900001 -0.010505973 1.1071818e-38 316 248
-0.0039397399 0.74900001 -0.010505973 1.0887068e-38 317 248
-0.0026194798 0.74699998 -0.010477919 1.1810099e-38 318 248
-0.0013097399 0.74699998 -0.010477919 1.2455468e-38 319 248
0 0.74699998 -0.010477919 1.3191223e-38 320 248
0.0013097399 0.74699998 -0.010477919 1.3099027e-38 321 248
0.00260896 0.74400002 -0.01043584 1.2640923e-38 322 248
0.0039134403 0.74400002 -0.01043584 1.2363976e-38 323 248
0.0052179201 0.74400002 -0.01043584 1.1442745e-38 324 248
0.0065223998 0.74400002 -0.01043584 9.0456604e-39 325 248
0.0078268806 0.74400002 -0.01043584 1.0146616e-38 326 248
0.0091559067 0.74599999 -0.010463892 1.1160766e-38 327 248
