# .PCD v.7 - Point Cloud Data file format
FIELDS x y z rgb imX imY
SIZE 4 4 4 4 4 4
TYPE F F F F F F
COUNT 1 1 1 1 1 1
WIDTH 841
HEIGHT 1
VIEWPOINT 0 0 0 1 0 0 0
POINTS 841
DATA ascii
0.058543798 0.74199998 -0.050737958 1.6189711e-38 365 279
0.05984477 0.74199998 -0.050737958 1.6007118e-38 366 279
0.061310563 0.74400002 -0.050874721 1.6099313e-38 367 279
0.062615044 0.74400002 -0.050874721 1.6469541e-38 368 279
0.063747689 0.74199998 -0.050737958 1.6469541e-38 369 279
0.065048665 0.74199998 -0.050737958 1.647026e-38 370 279
0.066349633 0.74199998 -0.050737958 1.647026e-38 371 279
0.06737709 0.73900002 -0.050532822 1.5366789e-38 372 279
0.068672806 0.73900002 -0.050532822 1.684192e-38 373 279
0.069968522 0.73900002 -0.050532822 1.7599291e-38 374 279
0.07126423 0.73900002 -0.050532822 1.9903823e-38 375 279
0.072756313 0.741 -0.050669577 1.9637685e-38 376 279
0.074055538 0.741 -0.050669577 1.9361458e-38 377 279
0.075354755 0.741 -0.050669577 1.8811152e-38 378 279
0.076653972 0.741 -0.050669577 1.8718957e-38 379 279
0.077953197 0.741 -0.050669577 1.8443442e-38 380 279
0.079252414 0.741 -0.050669577 1.7982464e-38 381 279
0.080551639 0.741 -0.050669577 1.5120029e-38 382 279
0.081850857 0.741 -0.050669577 9.7723234e-39 383 279
0.083150074 0.741 -0.050669577 1.3422728e-38 384 279
0.084449299 0.741 -0.050669577 1.2777359e-38 385 279
0.085748516 0.741 -0.050669577 1.4801407e-38 386 279
0.087047733 0.741 -0.050669577 1.9411189e-38 387 279
0.088346958 0.741 -0.050669577 1.5665717e-38 388 279
0.089646183 0.741 -0.050669577 1.7509629e-38 389 279
0.0905772 0.73799998 -0.050464436 1.7608659e-38 390 279
0.091871157 0.73799998 -0.050464436 1.7885605e-38 391 279
0.093165115 0.73799998 -0.050464436 1.761153e-38 392 279
0.094459072 0.73799998 -0.050464436 1.7703726e-38 393 279
0.095493548 0.736 -0.050327681 1.7335299e-38 394 279
0.096783996 0.736 -0.050327681 1.7058712e-38 395 279
0.098074451 0.736 -0.050327681 1.7057994e-38 396 279
0.098959878 0.73299998 -0.050122537 1.7057994e-38 397 279
0.10024507 0.73299998 -0.050122537 1.6966517e-38 398 279
0.10166879 0.73400003 -0.050190922 1.7058712e-38 399 279
0.10281546 0.73299998 -0.050122537 1.6782846e-38 400 279
0.10410065 0.73299998 -0.050122537 1.6782846e-38 401 279
0.10552963 0.73400003 -0.050190922 1.6783568e-38 402 279
0.10681657 0.73400003 -0.050190922 1.6967959e-38 403 279
0.10795623 0.73299998 -0.050122537 1.7243104e-38 404 279
0.10924143 0.73299998 -0.050122537 1.7243104e-38 405 279
0.11052662 0.73299998 -0.050122537 1.7609718e-38 406 279
0.11150674 0.73100001 -0.049985781 1.7424968e-38 407 279
0.11278843 0.73100001 -0.049985781 1.7782588e-38 408 279
0.11391407 0.73000002 -0.0499174 1.4924524e-38 409 279
0.11519401 0.73000002 -0.0499174 1.4985772e-38 410 279
0.11647393 0.73000002 -0.0499174 1.2128067e-38 411 279
0.11775387 0.73000002 -0.0499174 1.3872932e-38 412 279
0.11870768 0.72799999 -0.049780637 1.3780736e-38 413 279
0.1199841 0.72799999 -0.049780637 1.3873279e-38 414 279
0.12109397 0.727 -0.049712259 1.3965475e-38 415 279
0.12236863 0.727 -0.049712259 1.3690333e-38 416 279
0.12296301 0.72299999 -0.049438741 1.3690333e-38 417 279
0.12423067 0.72299999 -0.049438741 1.3964774e-38 418 279
0.12549832 0.72299999 -0.049438741 1.3688186e-38 419 279
0.12659065 0.722 -0.04937036 1.3780383e-38 420 279
0.1275024 0.72000003 -0.0492336 1.3780383e-38 421 279
0.12876479 0.72000003 -0.0492336 1.3688904e-38 422 279
0.1298466 0.71899998 -0.049165215 1.3781099e-38 423 279
0.13074255 0.71700001 -0.04902846 1.2954931e-38 424 279
0.1319997 0.71700001 -0.04902846 1.2125171e-38 425 279
0.13307099 0.71600002 -0.048960082 1.111354e-38 426 279
0.13432637 0.71600002 -0.048960082 1.111354e-38 427 279
0.13558176 0.71600002 -0.048960082 9.0956882e-39 428 279
0.13645491 0.71399999 -0.048823316 9.0034926e-39 429 279
0.13751394 0.713 -0.048754938 6.1580383e-39 430 279
0.13837482 0.71100003 -0.048618179 5.6974203e-39 431 279
0.13962144 0.71100003 -0.048618179 2.2958944e-39 432 279
0.14066993 0.70999998 -0.048549797 2.4799269e-39 433 279
0.14131515 0.70700002 -0.048344657 2.0243354e-39 434 279
0.14255476 0.70700002 -0.048344657 2.4853135e-39 435 279
0.14379437 0.70700002 -0.048344657 2.7654905e-39 436 279
0.14503399 0.70700002 -0.048344657 3.5034143e-39 437 279
0.14606668 0.70599997 -0.048276275 4.2431444e-39 438 279
-0.1445711 0.71700001 -0.0502856 7.1120339e-39 205 280
-0.14311408 0.71600002 -0.050215468 1.0700511e-38 206 280
-0.1418587 0.71600002 -0.050215468 1.1807219e-38 207 280
-0.14079967 0.71700001 -0.0502856 1.180938e-38 208 280
-0.13954253 0.71700001 -0.0502856 1.2178162e-38 209 280
-0.1382854 0.71700001 -0.0502856 1.2638052e-38 210 280
-0.12697992 0.73900002 -0.051828533 1.7872298e-38 222 280
-0.12568419 0.73900002 -0.051828533 1.9255232e-38 223 280
-0.12438848 0.73900002 -0.051828533 2.0822538e-38 224 280
-0.1229262 0.73799998 -0.051758397 2.1652301e-38 225 280
-0.1213026 0.736 -0.051618133 2.2847583e-38 226 280
-0.11968604 0.73400003 -0.051477864 2.2202214e-38 227 280
-0.11839909 0.73400003 -0.051477864 2.035326e-38 228 280
-0.11711214 0.73400003 -0.051477864 1.8324957e-38 229 280
-0.11582521 0.73400003 -0.051477864 1.7214649e-38 230 280
-0.11453826 0.73400003 -0.051477864 1.7122453e-38 231 280
-0.11355989 0.736 -0.051618133 1.7212495e-38 232 280
-0.11226943 0.736 -0.051618133 1.6382733e-38 233 280
-0.11097898 0.736 -0.051618133 1.7022011e-38 234 280
-0.10968854 0.736 -0.051618133 1.6561033e-38 235 280
-0.10839808 0.736 -0.051618133 1.6745054e-38 236 280
-0.10739867 0.73799998 -0.051758397 1.6745054e-38 237 280
-0.10610472 0.73799998 -0.051758397 1.6560995e-38 238 280
-0.10481076 0.73799998 -0.051758397 1.6284407e-38 239 280
-0.10351679 0.73799998 -0.051758397 1.6463758e-38 240 280
-0.10222283 0.73799998 -0.051758397 1.6371562e-38 241 280
-0.10092887 0.73799998 -0.051758397 1.6093186e-38 242 280
-0.099634908 0.73799998 -0.051758397 1.5908436e-38 243 280
-0.098340951 0.73799998 -0.051758397 1.5908088e-38 244 280
-0.097046994 0.73799998 -0.051758397 1.5723338e-38 245 280
-0.095753036 0.73799998 -0.051758397 1.5815183e-38 246 280
-0.094459072 0.73799998 -0.051758397 1.544676e-38 247 280
-0.093165115 0.73799998 -0.051758397 1.5628277e-38 248 280
-0.091871157 0.73799998 -0.051758397 1.5443887e-38 249 280
-0.0905772 0.73799998 -0.051758397 1.5442088e-38 250 280
-0.089283235 0.73799998 -0.051758397 1.5349892e-38 251 280
-0.087989271 0.73799998 -0.051758397 1.5256978e-38 252 280
-0.086460374 0.736 -0.051618133 1.5256978e-38 253 280
-0.085169919 0.736 -0.051618133 1.5348091e-38 254 280
-0.084107392 0.73799998 -0.051758397 1.5348091e-38 255 280
-0.082813434 0.73799998 -0.051758397 1.5348445e-38 256 280
-0.081519477 0.73799998 -0.051758397 1.544064e-38 257 280
-0.080225512 0.73799998 -0.051758397 1.5533545e-38 258 280
-0.079038516 0.73900002 -0.051828533 1.5901967e-38 259 280
-0.0777428 0.73900002 -0.051828533 1.5352744e-38 260 280
-0.076447085 0.73900002 -0.051828533 1.5629331e-38 261 280
-0.075151369 0.73900002 -0.051828533 1.5630763e-38 262 280
-0.073855661 0.73900002 -0.051828533 1.5814794e-38 263 280
-0.072559945 0.73900002 -0.051828533 1.5906268e-38 264 280
-0.071167797 0.73799998 -0.051758397 1.5906268e-38 265 280
-0.069873832 0.73799998 -0.051758397 1.5815871e-38 266 280
-0.068579875 0.73799998 -0.051758397 1.6184653e-38 267 280
-0.067285918 0.73799998 -0.051758397 1.6187524e-38 268 280
-0.065813117 0.736 -0.051618133 1.6371915e-38 269 280
-0.064522661 0.736 -0.051618133 1.6372286e-38 270 280
-0.063404039 0.73799998 -0.051758397 1.674107e-38 271 280
-0.062110078 0.73799998 -0.051758397 1.6376979e-38 272 280
-0.060816113 0.73799998 -0.051758397 1.6745402e-38 273 280
-0.059522156 0.73799998 -0.051758397 1.6654291e-38 274 280
-0.058228195 0.73799998 -0.051758397 1.7022715e-38 275 280
-0.056934237 0.73799998 -0.051758397 1.7209983e-38 276 280
-0.055640277 0.73799998 -0.051758397 1.7762798e-38 277 280
-0.054419957 0.73900002 -0.051828533 1.7672047e-38 278 280
-0.053124249 0.73900002 -0.051828533 1.7672047e-38 279 280
-0.051758397 0.73799998 -0.051758397 1.8042624e-38 280 280
-0.050464436 0.73799998 -0.051758397 1.7858233e-38 281 280
-0.049170475 0.73799998 -0.051758397 1.8224481e-38 282 280
-0.047941394 0.73900002 -0.051828533 1.8593265e-38 283 280
-0.046645679 0.73900002 -0.051828533 1.8042965e-38 284 280
-0.045349967 0.73900002 -0.051828533 1.7581627e-38 285 280
-0.043994635 0.73799998 -0.051758397 1.7762785e-38 286 280
-0.042700678 0.73799998 -0.051758397 1.7762785e-38 287 280
-0.041406717 0.73799998 -0.051758397 1.7485841e-38 288 280
-0.040112756 0.73799998 -0.051758397 1.7393645e-38 289 280
-0.038818799 0.73799998 -0.051758397 1.7482251e-38 290 280
-0.037524838 0.73799998 -0.051758397 1.7297859e-38 291 280
-0.036230877 0.73799998 -0.051758397 1.6835081e-38 292 280
-0.034842238 0.736 -0.051618133 1.6558492e-38 293 280
-0.033551786 0.736 -0.051618133 1.6372663e-38 294 280
-0.032348998 0.73799998 -0.051758397 1.6003521e-38 295 280
-0.031055039 0.73799998 -0.051758397 1.5908454e-38 296 280
-0.029761078 0.73799998 -0.051758397 1.5540031e-38 297 280
-0.028505694 0.73900002 -0.051828533 1.5905933e-38 298 280
-0.027209979 0.73900002 -0.051828533 1.553751e-38 299 280
-0.025914267 0.73900002 -0.051828533 1.5993813e-38 300 280
-0.024618553 0.73900002 -0.051828533 1.562539e-38 301 280
-0.023385961 0.741 -0.051968798 1.5625034e-38 302 280
-0.02208674 0.741 -0.051968798 1.5440643e-38 303 280
-0.020787518 0.741 -0.051968798 1.5440276e-38 304 280
-0.019488299 0.741 -0.051968798 1.5255885e-38 305 280
-0.018189078 0.741 -0.051968798 1.5256232e-38 306 280
-0.016889861 0.741 -0.051968798 1.5164036e-38 307 280
-0.01559064 0.741 -0.051968798 1.5071475e-38 308 280
-0.01429142 0.741 -0.051968798 1.4978919e-38 309 280
-0.0129922 0.741 -0.051968798 1.506932e-38 310 280
-0.01170876 0.74199998 -0.05203893 1.5161515e-38 311 280
-0.010365707 0.73900002 -0.051828533 1.506932e-38 312 280
-0.0090699932 0.73900002 -0.051828533 1.506932e-38 313 280
-0.0077637597 0.73799998 -0.051758397 1.4976768e-38 314 280
-0.0064697997 0.73799998 -0.051758397 1.4976768e-38 315 280
-0.0051758396 0.73799998 -0.051758397 1.5067169e-38 316 280
-0.0038818798 0.73799998 -0.051758397 1.5067169e-38 317 280
-0.0025879198 0.73799998 -0.051758397 1.4883136e-38 318 280
-0.0012939599 0.73799998 -0.051758397 1.4790941e-38 319 280
0 0.73900002 -0.051828533 1.4974253e-38 320 280
0.0012939599 0.73799998 -0.051758397 1.4974253e-38 321 280
0.0025879198 0.73799998 -0.051758397 1.4883134e-38 322 280
0.00388714 0.73900002 -0.051828533 1.4883134e-38 323 280
0.0051828534 0.73900002 -0.051828533 1.4790938e-38 324 280
0.0064785667 0.73900002 -0.051828533 1.4790938e-38 325 280
0.0077742799 0.73900002 -0.051828533 1.4882055e-38 326 280
0.0090699932 0.73900002 -0.051828533 1.4882055e-38 327 280
0.010365707 0.73900002 -0.051828533 1.4882055e-38 328 280
0.01166142 0.73900002 -0.051828533 1.497425e-38 329 280
0.012957133 0.73900002 -0.051828533 1.4699461e-38 330 280
0.01429142 0.741 -0.051968798 1.4699461e-38 331 280
0.01559064 0.741 -0.051968798 1.4699458e-38 332 280
0.016844273 0.73900002 -0.051828533 1.4699458e-38 333 280
0.018139986 0.73900002 -0.051828533 1.4698739e-38 334 280
0.0194357 0.73900002 -0.051828533 1.4698739e-38 335 280
0.020731414 0.73900002 -0.051828533 1.4882057e-38 336 280
0.022027127 0.73900002 -0.051828533 1.4882057e-38 337 280
0.023322839 0.73900002 -0.051828533 1.4790585e-38 338 280
0.024618553 0.73900002 -0.051828533 1.4698389e-38 339 280
0.025914267 0.73900002 -0.051828533 1.4515796e-38 340 280
0.027209979 0.73900002 -0.051828533 1.4515796e-38 341 280
0.028582839 0.741 -0.051968798 1.4699111e-38 342 280
0.029882059 0.741 -0.051968798 1.4883503e-38 343 280
0.03118128 0.741 -0.051968798 1.4700191e-38 344 280
0.032348998 0.73799998 -0.051758397 1.4792387e-38 345 280
0.033642959 0.73799998 -0.051758397 1.4700194e-38 346 280
0.035078939 0.741 -0.051968798 1.479239e-38 347 280
0.036378156 0.741 -0.051968798 1.4976418e-38 348 280
0.037677377 0.741 -0.051968798 1.5068614e-38 349 280
0.038976599 0.741 -0.051968798 1.4794904e-38 350 280
0.040167112 0.73900002 -0.051828533 1.507149e-38 351 280
0.041462827 0.73900002 -0.051828533 1.4980021e-38 352 280
0.042874258 0.741 -0.051968798 1.5072216e-38 353 280
0.044173479 0.741 -0.051968798 1.498074e-38 354 280
0.045472696 0.741 -0.051968798 1.5257328e-38 355 280
0.046771921 0.741 -0.051968798 1.5166933e-38 356 280
0.048136011 0.74199998 -0.05203893 1.544316e-38 357 280
0.049436983 0.74199998 -0.05203893 1.5169101e-38 358 280
0.050737958 0.74199998 -0.05203893 1.5537523e-38 359 280
0.05203893 0.74199998 -0.05203893 1.5263814e-38 360 280
0.053268019 0.741 -0.051968798 1.5540041e-38 361 280
0.054567236 0.741 -0.051968798 1.5449281e-38 362 280
0.055866458 0.741 -0.051968798 1.59099e-38 363 280
0.057165679 0.741 -0.051968798 1.5819502e-38 364 280
0.0583071 0.73900002 -0.051828533 1.5819502e-38 365 280
0.059602812 0.73900002 -0.051828533 1.5358527e-38 366 280
0.060898528 0.73900002 -0.051828533 1.5727309e-38 367 280
0.062194239 0.73900002 -0.051828533 1.5454683e-38 368 280
0.063404039 0.73799998 -0.051758397 1.5823824e-38 369 280
0.064697996 0.73799998 -0.051758397 1.5824171e-38 370 280
0.06599196 0.73799998 -0.051758397 1.5455387e-38 371 280
0.067103572 0.736 -0.051618133 1.5366067e-38 372 280
0.06839402 0.736 -0.051618133 1.7855349e-38 373 280
0.069684476 0.736 -0.051618133 2.0276555e-38 374 280
0.071167797 0.73799998 -0.051758397 2.0921924e-38 375 280
0.072265387 0.736 -0.051618133 1.9454723e-38 376 280
0.073555835 0.736 -0.051618133 1.8993746e-38 377 280
0.07484629 0.736 -0.051618133 1.8350893e-38 378 280
0.076136746 0.736 -0.051618133 1.8258698e-38 379 280
0.077427194 0.736 -0.051618133 1.8533843e-38 380 280
0.078931555 0.73799998 -0.051758397 1.8441647e-38 381 280
0.080225512 0.73799998 -0.051758397 1.6964334e-38 382 280
0.081519477 0.73799998 -0.051758397 1.3552735e-38 383 280
0.082589008 0.736 -0.051618133 1.2796834e-38 384 280
0.083879463 0.736 -0.051618133 8.8324207e-39 385 280
0.085169919 0.736 -0.051618133 1.2219594e-38 386 280
0.086460374 0.736 -0.051618133 1.2864964e-38 387 280
0.087750822 0.736 -0.051618133 1.2514877e-38 388 280
0.08879932 0.73400003 -0.051477864 1.5557333e-38 389 280
0.090086266 0.73400003 -0.051477864 1.5938698e-38 390 280
0.091373213 0.73400003 -0.051477864 1.7505664e-38 391 280
0.092660166 0.73400003 -0.051477864 1.7880207e-38 392 280
0.093947105 0.73400003 -0.051477864 1.8709968e-38 393 280
0.095234051 0.73400003 -0.051477864 1.7885602e-38 394 280
0.096521005 0.73400003 -0.051477864 1.7793406e-38 395 280
0.09767469 0.73299998 -0.051407732 1.7150555e-38 396 280
0.098689869 0.73100001 -0.051267464 1.6966164e-38 397 280
0.099971563 0.73100001 -0.051267464 1.7058357e-38 398 280
0.10125324 0.73100001 -0.051267464 1.6966161e-38 399 280
0.10281546 0.73299998 -0.051407732 1.6782846e-38 400 280
0.10410065 0.73299998 -0.051407732 1.6782846e-38 401 280
0.10538585 0.73299998 -0.051407732 1.6783202e-38 402 280
0.10667104 0.73299998 -0.051407732 1.6783202e-38 403 280
0.10795623 0.73299998 -0.051407732 1.7242378e-38 404 280
0.10924143 0.73299998 -0.051407732 1.7703716e-38 405 280
0.11052662 0.73299998 -0.051407732 1.7705154e-38 406 280
0.11150674 0.73100001 -0.051267464 1.7889545e-38 407 280
0.11278843 0.73100001 -0.051267464 1.8066751e-38 408 280
0.11391407 0.73000002 -0.051197331 1.5116489e-38 409 280
0.11519401 0.73000002 -0.051197331 1.3436461e-38 410 280
0.11615483 0.72799999 -0.051057063 8.8266795e-39 411 280
0.11743125 0.72799999 -0.051057063 1.3414487e-38 412 280
0.11854462 0.727 -0.050986931 1.3506683e-38 413 280
0.11948966 0.72500002 -0.050846666 1.3781805e-38 414 280
0.12076083 0.72500002 -0.050846666 1.3505219e-38 415 280
0.12169535 0.72299999 -0.050706398 1.3596335e-38 416 280
0.12279294 0.722 -0.050636265 1.350414e-38 417 280
0.12405884 0.722 -0.050636265 1.3964396e-38 418 280
0.12532476 0.722 -0.050636265 1.3872199e-38 419 280
0.12659065 0.722 -0.050636265 1.405478e-38 420 280
0.1275024 0.72000003 -0.050496001 1.405478e-38 421 280
0.12876479 0.72000003 -0.050496001 1.3871823e-38 422 280
0.1298466 0.71899998 -0.050425861 1.4056212e-38 423 280
0.13056022 0.71600002 -0.050215468 1.3597393e-38 424 280
0.1318156 0.71600002 -0.050215468 1.3412646e-38 425 280
0.13307099 0.71600002 -0.050215468 1.304387e-38 426 280
0.13395114 0.71399999 -0.050075196 1.3228263e-38 427 280
0.13463496 0.71100003 -0.049864799 1.2126255e-38 428 280
0.13588157 0.71100003 -0.049864799 1.184931e-38 429 280
0.13712819 0.71100003 -0.049864799 1.1206812e-38 430 280
0.1381802 0.70999998 -0.049794663 1.0469247e-38 431 280
0.13942505 0.70999998 -0.049794663 9.4590561e-39 432 280
0.14007555 0.70700002 -0.049584266 9.1835496e-39 433 280
0.14111526 0.70599997 -0.04951413 8.0815237e-39 434 280
0.14235312 0.70599997 -0.04951413 8.0815237e-39 435 280
0.14379437 0.70700002 -0.049584266 6.7039912e-39 436 280
0.14503399 0.70700002 -0.049584266 6.7039912e-39 437 280
0.14606668 0.70599997 -0.04951413 5.6070015e-39 438 280
0.14730453 0.70599997 -0.04951413 6.2523709e-39 439 280
-0.1445711 0.71700001 -0.051542737 6.3650984e-39 205 281
-0.14311408 0.71600002 -0.051470853 5.7276758e-39 206 281
-0.1418587 0.71600002 -0.051470853 8.216599e-39 207 281
-0.14079967 0.71700001 -0.051542737 1.0795581e-38 208 281
-0.13954253 0.71700001 -0.051542737 1.2455102e-38 209 281
-0.1382854 0.71700001 -0.051542737 1.2269636e-38 210 281
-0.13683714 0.71600002 -0.051470853 1.2269636e-38 211 281
-0.13558176 0.71600002 -0.051470853 1.2546575e-38 212 281
-0.1229262 0.73799998 -0.053052358 2.1287114e-38 225 281
-0.12097298 0.73400003 -0.052764814 2.1741602e-38 226 281
-0.11968604 0.73400003 -0.052764814 2.1373179e-38 227 281
-0.11839909 0.73400003 -0.052764814 2.1370658e-38 228 281
-0.11695258 0.73299998 -0.052692924 1.8512593e-38 229 281
-0.1156674 0.73299998 -0.052692924 1.693626e-38 230 281
-0.1143822 0.73299998 -0.052692924 1.5737717e-38 231 281
-0.113097 0.73299998 -0.052692924 1.6470244e-38 232 281
-0.11181182 0.73299998 -0.052692924 1.656244e-38 233 281
-0.11052662 0.73299998 -0.052692924 1.646665e-38 234 281
-0.10924143 0.73299998 -0.052692924 1.5913476e-38 235 281
-0.10795623 0.73299998 -0.052692924 1.6279013e-38 236 281
-0.10681657 0.73400003 -0.052764814 1.6002786e-38 237 281
-0.10552963 0.73400003 -0.052764814 1.5817688e-38 238 281
-0.10424268 0.73400003 -0.052764814 1.5725492e-38 239 281
-0.10295573 0.73400003 -0.052764814 1.6273278e-38 240 281
-0.10166879 0.73400003 -0.052764814 1.5996331e-38 241 281
-0.10038184 0.73400003 -0.052764814 1.5812655e-38 242 281
-0.099364907 0.736 -0.052908584 1.5996687e-38 243 281
-0.098074451 0.736 -0.052908584 1.5720104e-38 244 281
-0.096783996 0.736 -0.052908584 1.5443516e-38 245 281
-0.095493548 0.736 -0.052908584 1.5533911e-38 246 281
-0.094203092 0.736 -0.052908584 1.5349879e-38 247 281
-0.092912637 0.736 -0.052908584 1.5349879e-38 248 281
-0.091622181 0.736 -0.052908584 1.5257684e-38 249 281
-0.090331733 0.736 -0.052908584 1.5348796e-38 250 281
-0.08879932 0.73400003 -0.052764814 1.5348796e-38 251 281
-0.087512374 0.73400003 -0.052764814 1.5440629e-38 252 281
-0.086225428 0.73400003 -0.052764814 1.5440629e-38 253 281
-0.084938474 0.73400003 -0.052764814 1.5440626e-38 254 281
-0.083651535 0.73400003 -0.052764814 1.5716854e-38 255 281
-0.082364589 0.73400003 -0.052764814 1.5534264e-38 256 281
-0.081077635 0.73400003 -0.052764814 1.5718655e-38 257 281
-0.079790697 0.73400003 -0.052764814 1.5628975e-38 258 281
-0.07850375 0.73400003 -0.052764814 1.5813725e-38 259 281
-0.077216797 0.73400003 -0.052764814 1.554218e-38 260 281
-0.07592985 0.73400003 -0.052764814 1.5818406e-38 261 281
-0.07484629 0.736 -0.052908584 1.5818409e-38 262 281
-0.073555835 0.736 -0.052908584 1.5541824e-38 263 281
-0.072265387 0.736 -0.052908584 1.5632577e-38 264 281
-0.070974931 0.736 -0.052908584 1.6001e-38 265 281
-0.069684476 0.736 -0.052908584 1.5819487e-38 266 281
-0.06839402 0.736 -0.052908584 1.6280464e-38 267 281
-0.066921227 0.73400003 -0.052764814 1.6191136e-38 268 281
-0.06563428 0.73400003 -0.052764814 1.6283332e-38 269 281
-0.064347334 0.73400003 -0.052764814 1.6282982e-38 270 281
-0.063060381 0.73400003 -0.052764814 1.6375177e-38 271 281
-0.061773442 0.73400003 -0.052764814 1.6654658e-38 272 281
-0.060486492 0.73400003 -0.052764814 1.7945397e-38 273 281
-0.059199546 0.73400003 -0.052764814 1.776532e-38 274 281
-0.057912603 0.73400003 -0.052764814 1.8225939e-38 275 281
-0.056625653 0.73400003 -0.052764814 1.8322088e-38 276 281
-0.055489492 0.736 -0.052908584 1.8967458e-38 277 281
-0.054051761 0.73400003 -0.052764814 1.878271e-38 278 281
-0.052764814 0.73400003 -0.052764814 1.8229895e-38 279 281
-0.051618133 0.736 -0.052908584 1.85054e-38 280 281
-0.050327681 0.736 -0.052908584 1.7952227e-38 281 281
-0.049037226 0.736 -0.052908584 1.8042259e-38 282 281
-0.047746774 0.736 -0.052908584 1.822629e-38 283 281
-0.046582557 0.73799998 -0.053052358 1.7858589e-38 284 281
-0.0452886 0.73799998 -0.053052358 1.7489807e-38 285 281
-0.043875411 0.736 -0.052908584 1.7763517e-38 286 281
-0.042584959 0.736 -0.052908584 1.7763517e-38 287 281
-0.041182294 0.73400003 -0.052764814 1.7485844e-38 288 281
-0.039895348 0.73400003 -0.052764814 1.6840474e-38 289 281
-0.038608398 0.73400003 -0.052764814 1.6927635e-38 290 281
-0.037321456 0.73400003 -0.052764814 1.6466297e-38 291 281
-0.036034506 0.73400003 -0.052764814 1.6462707e-38 292 281
-0.03474756 0.73400003 -0.052764814 1.6185761e-38 293 281
-0.033460613 0.73400003 -0.052764814 1.6276164e-38 294 281
-0.032173667 0.73400003 -0.052764814 1.5907382e-38 295 281
-0.030886721 0.73400003 -0.052764814 1.5997061e-38 296 281
-0.029680425 0.736 -0.052908584 1.5720472e-38 297 281
-0.028312827 0.73400003 -0.052764814 1.5903419e-38 298 281
-0.02702588 0.73400003 -0.052764814 1.5718669e-38 299 281
-0.025738932 0.73400003 -0.052764814 1.5625753e-38 300 281
-0.024518613 0.736 -0.052908584 1.5349526e-38 301 281
-0.023291279 0.73799998 -0.053052358 1.5348091e-38 302 281
-0.021997318 0.73799998 -0.053052358 1.5255894e-38 303 281
-0.020703359 0.73799998 -0.053052358 1.525481e-38 304 281
-0.0194357 0.73900002 -0.053124249 1.525481e-38 305 281
-0.018139986 0.73900002 -0.053124249 1.5256232e-38 306 281
-0.016844273 0.73900002 -0.053124249 1.5164036e-38 307 281
-0.01554856 0.73900002 -0.053124249 1.5071119e-38 308 281
-0.014252847 0.73900002 -0.053124249 1.4978922e-38 309 281
-0.012939599 0.73799998 -0.053052358 1.5162237e-38 310 281
-0.011645639 0.73799998 -0.053052358 1.5162237e-38 311 281
-0.010351679 0.73799998 -0.053052358 1.5161165e-38 312 281
-0.0090577193 0.73799998 -0.053052358 1.506897e-38 313 281
-0.0077427197 0.736 -0.052908584 1.5068253e-38 314 281
-0.0064522666 0.736 -0.052908584 1.5068253e-38 315 281
-0.005161813 0.736 -0.052908584 1.4975699e-38 316 281
-0.0038713599 0.736 -0.052908584 1.4975699e-38 317 281
-0.0025809065 0.736 -0.052908584 1.4883857e-38 318 281
-0.0012904532 0.736 -0.052908584 1.479166e-38 319 281
0 0.736 -0.052908584 1.5067525e-38 320 281
0.0012904532 0.736 -0.052908584 1.4883134e-38 321 281
0.0025809065 0.736 -0.052908584 1.4974253e-38 322 281
0.0038713599 0.736 -0.052908584 1.4974253e-38 323 281
0.005161813 0.736 -0.052908584 1.4790941e-38 324 281
0.0064522666 0.736 -0.052908584 1.4698745e-38 325 281
0.0077427197 0.736 -0.052908584 1.4882057e-38 326 281
0.0090577193 0.73799998 -0.053052358 1.4882057e-38 327 281
0.010351679 0.73799998 -0.053052358 1.4790938e-38 328 281
0.011645639 0.73799998 -0.053052358 1.4790938e-38 329 281
0.012939599 0.73799998 -0.053052358 1.4699461e-38 330 281
0.014233559 0.73799998 -0.053052358 1.4699461e-38 331 281
0.01554856 0.73900002 -0.053124249 1.4515427e-38 332 281
0.016844273 0.73900002 -0.053124249 1.4515427e-38 333 281
0.018115439 0.73799998 -0.053052358 1.4791294e-38 334 281
0.019409399 0.73799998 -0.053052358 1.4698739e-38 335 281
0.020703359 0.73799998 -0.053052358 1.4882055e-38 336 281
0.021997318 0.73799998 -0.053052358 1.4698023e-38 337 281
0.023291279 0.73799998 -0.053052358 1.451508e-38 338 281
0.024585238 0.73799998 -0.053052358 1.451508e-38 339 281
0.025879199 0.73799998 -0.053052358 1.4698036e-38 340 281
0.027173158 0.73799998 -0.053052358 1.4698036e-38 341 281
0.028467119 0.73799998 -0.053052358 1.4607996e-38 342 281
0.029680425 0.736 -0.052908584 1.4700191e-38 343 281
0.030970879 0.736 -0.052908584 1.4791311e-38 344 281
0.032173667 0.73400003 -0.052764814 1.4883506e-38 345 281
0.033460613 0.73400003 -0.052764814 1.4883153e-38 346 281
0.034936916 0.73799998 -0.053052358 1.4975349e-38 347 281
0.036230877 0.73799998 -0.053052358 1.4793825e-38 348 281
0.037524838 0.73799998 -0.053052358 1.488602e-38 349 281
0.038818799 0.73799998 -0.053052358 1.4978936e-38 350 281
0.040112756 0.73799998 -0.053052358 1.507149e-38 351 281
0.041406717 0.73799998 -0.053052358 1.4887825e-38 352 281
0.042758539 0.73900002 -0.053124249 1.4887825e-38 353 281
0.044054255 0.73900002 -0.053124249 1.498074e-38 354 281
0.0452886 0.73799998 -0.053052358 1.5072935e-38 355 281
0.046582557 0.73799998 -0.053052358 1.5073655e-38 356 281
0.047941394 0.73900002 -0.053124249 1.5258047e-38 357 281
0.049237106 0.73900002 -0.053124249 1.5350248e-38 358 281
0.050464436 0.73799998 -0.053052358 1.5718672e-38 359 281
0.051758397 0.73799998 -0.053052358 1.5352766e-38 360 281
0.053052358 0.73799998 -0.053052358 1.5629353e-38 361 281
0.054346316 0.73799998 -0.053052358 1.544748e-38 362 281
0.055640277 0.73799998 -0.053052358 1.5724067e-38 363 281
0.056934237 0.73799998 -0.053052358 1.5542548e-38 364 281
0.058228195 0.73799998 -0.053052358 1.5173767e-38 365 281
0.059522156 0.73799998 -0.053052358 1.4162505e-38 366 281
0.060816113 0.73799998 -0.053052358 1.4991905e-38 367 281
0.061941758 0.736 -0.052908584 1.4627095e-38 368 281
0.063232213 0.736 -0.052908584 1.4627095e-38 369 281
0.064522661 0.736 -0.052908584 1.4625281e-38 370 281
0.06563428 0.73400003 -0.052764814 1.4348335e-38 371 281
0.066921227 0.73400003 -0.052764814 1.5921775e-38 372 281
0.06839402 0.736 -0.052908584 1.9793991e-38 373 281
0.069684476 0.736 -0.052908584 2.1015937e-38 374 281
0.070974931 0.736 -0.052908584 2.0185818e-38 375 281
0.072265387 0.736 -0.052908584 1.8533495e-38 376 281
0.073555835 0.736 -0.052908584 1.8440941e-38 377 281
0.074642912 0.73400003 -0.052764814 1.8441297e-38 378 281
0.07592985 0.73400003 -0.052764814 1.8349101e-38 379 281
0.077216797 0.73400003 -0.052764814 1.8257979e-38 380 281
0.078717649 0.736 -0.052908584 1.862676e-38 381 281
0.079790697 0.73400003 -0.052764814 1.8808987e-38 382 281
0.081077635 0.73400003 -0.052764814 1.8439845e-38 383 281
0.082252368 0.73299998 -0.052692924 1.8252567e-38 384 281
0.083309628 0.73100001 -0.052549154 1.6869632e-38 385 281
0.084591322 0.73100001 -0.052549154 1.6858108e-38 386 281
0.085873008 0.73100001 -0.052549154 1.2893696e-38 387 281
0.087154694 0.73100001 -0.052549154 1.2131286e-38 388 281
0.088436373 0.73100001 -0.052549154 1.1209328e-38 389 281
0.089718066 0.73100001 -0.052549154 1.1670667e-38 390 281
0.091248721 0.73299998 -0.052692924 1.3422025e-38 391 281
0.092533909 0.73299998 -0.052692924 1.3068752e-38 392 281
0.093563125 0.73100001 -0.052549154 1.647999e-38 393 281
0.094844811 0.73100001 -0.052549154 1.5575686e-38 394 281
0.096126497 0.73100001 -0.052549154 1.7327763e-38 395 281
0.097408183 0.73100001 -0.052549154 1.7423545e-38 396 281
0.098554872 0.73000002 -0.052477267 1.7976718e-38 397 281
0.0998348 0.73000002 -0.052477267 1.7611166e-38 398 281
0.10111474 0.73000002 -0.052477267 1.7426416e-38 399 281
0.10239466 0.73000002 -0.052477267 1.7150908e-38 400 281
0.10381662 0.73100001 -0.052549154 1.7058712e-38 401 281
0.10509831 0.73100001 -0.052549154 1.6966517e-38 402 281
0.10637999 0.73100001 -0.052549154 1.6966517e-38 403 281
0.1075144 0.73000002 -0.052477267 1.7333857e-38 404 281
0.10879433 0.73000002 -0.052477267 1.7241303e-38 405 281
0.11007427 0.73000002 -0.052477267 1.6962197e-38 406 281
0.1113542 0.73000002 -0.052477267 1.5302677e-38 407 281
0.11232553 0.72799999 -0.052333489 1.3457672e-38 408 281
0.11344593 0.727 -0.052261602 9.8616828e-39 409 281
0.1147206 0.727 -0.052261602 8.8338486e-39 410 281
0.11599527 0.727 -0.052261602 7.1743258e-39 411 281
0.11694734 0.72500002 -0.052117832 1.2859168e-38 412 281
0.11789237 0.72299999 -0.051974058 1.2766972e-38 413 281
0.11916003 0.72299999 -0.051974058 1.2859907e-38 414 281
0.12026113 0.722 -0.051902171 1.4519428e-38 415 281
0.12152703 0.722 -0.051902171 1.4067435e-38 416 281
0.12279294 0.722 -0.051902171 1.2777055e-38 417 281
0.12371521 0.72000003 -0.051758397 1.3321196e-38 418 281
0.1249776 0.72000003 -0.051758397 1.2491795e-38 419 281
0.12624 0.72000003 -0.051758397 1.3040653e-38 420 281
0.1273253 0.71899998 -0.05168651 1.3593468e-38 421 281
0.12822828 0.71700001 -0.051542737 1.3410878e-38 422 281
0.12930483 0.71600002 -0.051470853 1.3687464e-38 423 281
0.13019551 0.71399999 -0.05132708 1.3689254e-38 424 281
0.1314474 0.71399999 -0.05132708 1.3505221e-38 425 281
0.13269927 0.71399999 -0.05132708 1.3870414e-38 426 281
0.13376355 0.713 -0.051255193 1.4238838e-38 427 281
0.13463496 0.71100003 -0.051111419 1.396513e-38 428 281
0.13588157 0.71100003 -0.051111419 1.3688183e-38 429 281
0.13693532 0.70999998 -0.051039528 1.4056241e-38 430 281
0.13779095 0.708 -0.050895758 1.4240991e-38 431 281
0.13863957 0.70599997 -0.050751984 1.3782531e-38 432 281
0.13987742 0.70599997 -0.050751984 1.3413389e-38 433 281
0.14111526 0.70599997 -0.050751984 1.2586506e-38 434 281
0.14235312 0.70599997 -0.050751984 1.2309918e-38 435 281
0.14379437 0.70700002 -0.050823875 1.1299373e-38 436 281
0.14482883 0.70599997 -0.050751984 1.1023146e-38 437 281
0.14606668 0.70599997 -0.050751984 8.2727645e-39 438 281
0.14730453 0.70599997 -0.050751984 7.9039819e-39 439 281
-0.1445711 0.71700001 -0.052799881 7.3770727e-39 205 282
-0.14331396 0.71700001 -0.052799881 5.9066384e-39 206 282
-0.14205682 0.71700001 -0.052799881 6.9204302e-39 207 282
-0.14079967 0.71700001 -0.052799881 8.7669043e-39 208 282
-0.13954253 0.71700001 -0.052799881 1.0703013e-38 209 282
-0.1382854 0.71700001 -0.052799881 1.1624267e-38 210 282
-0.13683714 0.71600002 -0.052726239 1.2269636e-38 211 282
-0.13558176 0.71600002 -0.052726239 1.2546219e-38 212 282
-0.12080817 0.73299998 -0.053978115 1.9900214e-38 226 282
-0.11952297 0.73299998 -0.053978115 1.9439235e-38 227 282
-0.11823778 0.73299998 -0.053978115 1.9801178e-38 228 282
-0.11663349 0.73100001 -0.053830836 1.8602635e-38 229 282
-0.1153518 0.73100001 -0.053830836 1.7581273e-38 230 282
-0.1140701 0.73100001 -0.053830836 1.5922112e-38 231 282
-0.11263414 0.73000002 -0.053757198 1.5917426e-38 232 282
-0.1113542 0.73000002 -0.053757198 1.5272057e-38 233 282
-0.11007427 0.73000002 -0.053757198 1.5727641e-38 234 282
-0.10894337 0.73100001 -0.053830836 1.5451053e-38 235 282
-0.10766167 0.73100001 -0.053830836 1.581624e-38 236 282
-0.10637999 0.73100001 -0.053830836 1.5724044e-38 237 282
-0.10538585 0.73299998 -0.053978115 1.5630075e-38 238 282
-0.10381662 0.73100001 -0.053830836 1.5445325e-38 239 282
-0.10253493 0.73100001 -0.053830836 1.5534653e-38 240 282
-0.10153027 0.73299998 -0.053978115 1.5442456e-38 241 282
-0.10024507 0.73299998 -0.053978115 1.5350611e-38 242 282
-0.098959878 0.73299998 -0.053978115 1.5442807e-38 243 282
-0.097807944 0.73400003 -0.054051761 1.5350964e-38 244 282
-0.096521005 0.73400003 -0.054051761 1.5074737e-38 245 282
-0.095234051 0.73400003 -0.054051761 1.5257684e-38 246 282
-0.093947105 0.73400003 -0.054051761 1.5257684e-38 247 282
-0.092660166 0.73400003 -0.054051761 1.5166204e-38 248 282
-0.091373213 0.73400003 -0.054051761 1.5166204e-38 249 282
-0.090086266 0.73400003 -0.054051761 1.5165481e-38 250 282
-0.088678338 0.73299998 -0.053978115 1.5257678e-38 251 282
-0.087393142 0.73299998 -0.053978115 1.5533898e-38 252 282
-0.086107947 0.73299998 -0.053978115 1.5718289e-38 253 282
-0.084822752 0.73299998 -0.053978115 1.5628609e-38 254 282
-0.083309628 0.73100001 -0.053830836 1.599739e-38 255 282
-0.082027942 0.73100001 -0.053830836 1.5906273e-38 256 282
-0.080746263 0.73100001 -0.053830836 1.6090666e-38 257 282
-0.07946457 0.73100001 -0.053830836 1.600134e-38 258 282
-0.078075938 0.73000002 -0.053757198 1.6277567e-38 259 282
-0.076796003 0.73000002 -0.053757198 1.6096069e-38 260 282
-0.075619511 0.73100001 -0.053830836 1.6741439e-38 261 282
-0.074337825 0.73100001 -0.053830836 1.6284428e-38 262 282
-0.073056139 0.73100001 -0.053830836 1.6284428e-38 263 282
-0.071970828 0.73299998 -0.053978115 1.6468099e-38 264 282
-0.070685625 0.73299998 -0.053978115 1.6468099e-38 265 282
-0.069400437 0.73299998 -0.053978115 1.6652856e-38 266 282
-0.067929395 0.73100001 -0.053830836 1.6745051e-38 267 282
-0.066647708 0.73100001 -0.053830836 1.6471343e-38 268 282
-0.065366022 0.73100001 -0.053830836 1.6471343e-38 269 282
-0.064084329 0.73100001 -0.053830836 1.6654655e-38 270 282
-0.062802643 0.73100001 -0.053830836 1.7207827e-38 271 282
-0.06152096 0.73100001 -0.053830836 1.7212148e-38 272 282
-0.06023927 0.73100001 -0.053830836 1.8041908e-38 273 282
-0.058957584 0.73100001 -0.053830836 1.8412486e-38 274 282
-0.057675898 0.73100001 -0.053830836 1.896566e-38 275 282
-0.056548502 0.73299998 -0.053978115 1.8875259e-38 276 282
-0.055263311 0.73299998 -0.053978115 1.9060009e-38 277 282
-0.053978115 0.73299998 -0.053978115 1.8875978e-38 278 282
-0.052764814 0.73400003 -0.054051761 1.841536e-38 279 282
-0.051477864 0.73400003 -0.054051761 1.8598672e-38 280 282
-0.050190922 0.73400003 -0.054051761 1.8045498e-38 281 282
-0.048903972 0.73400003 -0.054051761 1.8227725e-38 282 282
-0.047617026 0.73400003 -0.054051761 1.8135529e-38 283 282
-0.046330083 0.73400003 -0.054051761 1.7950063e-38 284 282
-0.045043133 0.73400003 -0.054051761 1.7120301e-38 285 282
-0.043756187 0.73400003 -0.054051761 1.7117428e-38 286 282
-0.042469237 0.73400003 -0.054051761 1.7117428e-38 287 282
-0.041126184 0.73299998 -0.053978115 1.7204942e-38 288 282
-0.039840993 0.73299998 -0.053978115 1.637518e-38 289 282
-0.038555797 0.73299998 -0.053978115 1.6280464e-38 290 282
-0.037321456 0.73400003 -0.054051761 1.6188268e-38 291 282
-0.035985414 0.73299998 -0.053978115 1.6368713e-38 292 282
-0.034700219 0.73299998 -0.053978115 1.5999931e-38 293 282
-0.033415023 0.73299998 -0.053978115 1.6090331e-38 294 282
-0.032129832 0.73299998 -0.053978115 1.590594e-38 295 282
-0.030844638 0.73299998 -0.053978115 1.5813018e-38 296 282
-0.029559445 0.73299998 -0.053978115 1.5628627e-38 297 282
-0.028274251 0.73299998 -0.053978115 1.5718302e-38 298 282
-0.026989058 0.73299998 -0.053978115 1.5626106e-38 299 282
-0.025703866 0.73299998 -0.053978115 1.5716151e-38 300 282
-0.024451986 0.73400003 -0.054051761 1.5439924e-38 301 282
-0.023165042 0.73400003 -0.054051761 1.5347727e-38 302 282
-0.021878093 0.73400003 -0.054051761 1.5347727e-38 303 282
-0.020591147 0.73400003 -0.054051761 1.5255885e-38 304 282
-0.019356798 0.736 -0.05419904 1.516333e-38 305 282
-0.018066347 0.736 -0.05419904 1.5256235e-38 306 282
-0.016775893 0.736 -0.05419904 1.5071485e-38 307 282
-0.015485439 0.736 -0.05419904 1.5163318e-38 308 282
-0.014194986 0.736 -0.05419904 1.5071122e-38 309 282
-0.012904533 0.736 -0.05419904 1.5161881e-38 310 282
-0.01161408 0.736 -0.05419904 1.497785e-38 311 282
-0.010323626 0.736 -0.05419904 1.5068614e-38 312 282
-0.0090331733 0.736 -0.05419904 1.4976418e-38 313 282
-0.0077216802 0.73400003 -0.054051761 1.515937e-38 314 282
-0.006434733 0.73400003 -0.054051761 1.5251566e-38 315 282
-0.0051477868 0.73400003 -0.054051761 1.4976774e-38 316 282
-0.0038608401 0.73400003 -0.054051761 1.4792743e-38 317 282
-0.0025738934 0.73400003 -0.054051761 1.4792737e-38 318 282
-0.0012869467 0.73400003 -0.054051761 1.4700542e-38 319 282
0 0.73400003 -0.054051761 1.497425e-38 320 282
0.0012869467 0.73400003 -0.054051761 1.497425e-38 321 282
0.0025738934 0.73400003 -0.054051761 1.4790941e-38 322 282
0.0038608401 0.73400003 -0.054051761 1.4790941e-38 323 282
0.0051477868 0.73400003 -0.054051761 1.4790941e-38 324 282
0.006434733 0.73400003 -0.054051761 1.4698745e-38 325 282
0.0077216802 0.73400003 -0.054051761 1.4882055e-38 326 282
0.0090086265 0.73400003 -0.054051761 1.497425e-38 327 282
0.010295574 0.73400003 -0.054051761 1.4698742e-38 328 282
0.01161408 0.736 -0.05419904 1.4698742e-38 329 282
0.012904533 0.736 -0.05419904 1.451543e-38 330 282
0.014194986 0.736 -0.05419904 1.451543e-38 331 282
0.015485439 0.736 -0.05419904 1.4698742e-38 332 282
0.016775893 0.736 -0.05419904 1.4606547e-38 333 282
0.018066347 0.736 -0.05419904 1.4790938e-38 334 282
0.019356798 0.736 -0.05419904 1.4698742e-38 335 282
0.020647252 0.736 -0.05419904 1.4606191e-38 336 282
0.021937706 0.736 -0.05419904 1.4698745e-38 337 282
0.023228159 0.736 -0.05419904 1.4698036e-38 338 282
0.024518613 0.736 -0.05419904 1.4698036e-38 339 282
0.025809066 0.736 -0.05419904 1.4698036e-38 340 282
0.02709952 0.736 -0.05419904 1.479059e-38 341 282
0.028389972 0.736 -0.05419904 1.4607991e-38 342 282
0.029599773 0.73400003 -0.054051761 1.4607991e-38 343 282
0.030886721 0.73400003 -0.054051761 1.4515443e-38 344 282
0.032173667 0.73400003 -0.054051761 1.460764e-38 345 282
0.033460613 0.73400003 -0.054051761 1.4699838e-38 346 282
0.03474756 0.73400003 -0.054051761 1.4792034e-38 347 282
0.036034506 0.73400003 -0.054051761 1.4610515e-38 348 282
0.037270606 0.73299998 -0.053978115 1.4794908e-38 349 282
0.038555797 0.73299998 -0.053978115 1.4978939e-38 350 282
0.039895348 0.73400003 -0.054051761 1.4978939e-38 351 282
0.041182294 0.73400003 -0.054051761 1.4887825e-38 352 282
0.042584959 0.736 -0.05419904 1.4980021e-38 353 282
0.043875411 0.736 -0.05419904 1.4797425e-38 354 282
0.045165867 0.736 -0.05419904 1.488962e-38 355 282
0.046330083 0.73400003 -0.054051761 1.50733e-38 356 282
0.047617026 0.73400003 -0.054051761 1.50733e-38 357 282
0.048903972 0.73400003 -0.054051761 1.5165145e-38 358 282
0.050190922 0.73400003 -0.054051761 1.5534286e-38 359 282
0.051477864 0.73400003 -0.054051761 1.5168745e-38 360 282
0.052764814 0.73400003 -0.054051761 1.526094e-38 361 282
0.054051761 0.73400003 -0.054051761 1.4893956e-38 362 282
0.055338707 0.73400003 -0.054051761 1.4893956e-38 363 282
0.056625653 0.73400003 -0.054051761 1.434582e-38 364 282
0.057912603 0.73400003 -0.054051761 1.5820951e-38 365 282
0.059199546 0.73400003 -0.054051761 1.3810288e-38 366 282
0.060486492 0.73400003 -0.054051761 1.6391766e-38 367 282
0.061773442 0.73400003 -0.054051761 1.6030187e-38 368 282
0.063060381 0.73400003 -0.054051761 1.5661045e-38 369 282
0.064347334 0.73400003 -0.054051761 1.5743144e-38 370 282
0.06563428 0.73400003 -0.054051761 1.3899231e-38 371 282
0.066921227 0.73400003 -0.054051761 1.3987834e-38 372 282
0.068208173 0.73400003 -0.054051761 1.8413583e-38 373 282
0.069495119 0.73400003 -0.054051761 1.9357142e-38 374 282
0.070782073 0.73400003 -0.054051761 1.981776e-38 375 282
0.072069012 0.73400003 -0.054051761 1.844166e-38 376 282
0.073355958 0.73400003 -0.054051761 1.8257628e-38 377 282
0.074541211 0.73299998 -0.053978115 1.8165433e-38 378 282
0.075826399 0.73299998 -0.053978115 1.8165433e-38 379 282
0.077216797 0.73400003 -0.054051761 1.8073234e-38 380 282
0.07850375 0.73400003 -0.054051761 1.8073234e-38 381 282
0.079681985 0.73299998 -0.053978115 1.7981758e-38 382 282
0.080967173 0.73299998 -0.053978115 1.7797725e-38 383 282
0.082027942 0.73100001 -0.053830836 1.8806836e-38 384 282
0.083195664 0.73000002 -0.053757198 1.8529889e-38 385 282
0.084475599 0.73000002 -0.053757198 1.8158203e-38 386 282
0.085755527 0.73000002 -0.053757198 1.6406488e-38 387 282
0.087035462 0.73000002 -0.053757198 1.4925224e-38 388 282
0.088315405 0.73000002 -0.053757198 1.160618e-38 389 282
0.089595333 0.73000002 -0.053757198 1.2508701e-38 390 282
0.090875268 0.73000002 -0.053757198 1.1494907e-38 391 282
0.091902718 0.72799999 -0.053609919 1.1578133e-38 392 282
0.093179137 0.72799999 -0.053609919 1.2776676e-38 393 282
0.09445557 0.72799999 -0.053609919 1.3248477e-38 394 282
0.095731996 0.72799999 -0.053609919 1.5092389e-38 395 282
0.097008422 0.72799999 -0.053609919 1.5472671e-38 396 282
0.098284848 0.72799999 -0.053609919 1.7593172e-38 397 282
0.099561274 0.72799999 -0.053609919 1.7051154e-38 398 282
0.1008377 0.72799999 -0.053609919 1.7604328e-38 399 282
0.10211413 0.72799999 -0.053609919 1.7425347e-38 400 282
0.1036746 0.73000002 -0.053757198 1.7425347e-38 401 282
0.10495453 0.73000002 -0.053757198 1.7150555e-38 402 282
0.10594341 0.72799999 -0.053609919 1.7058359e-38 403 282
0.10707255 0.727 -0.053536277 1.7056542e-38 404 282
0.10834723 0.727 -0.053536277 1.4198477e-38 405 282
0.1096219 0.727 -0.053536277 1.0798025e-38 406 282
0.11089658 0.727 -0.053536277 1.2088405e-38 407 282
0.11155408 0.72299999 -0.053241719 1.3734237e-38 408 282
0.1123536 0.72000003 -0.053020801 1.0968367e-38 409 282
0.113616 0.72000003 -0.053020801 1.2226709e-38 410 282
0.11519751 0.722 -0.053168077 1.0106209e-38 411 282
0.11646342 0.722 -0.053168077 1.2400358e-38 412 282
0.11772932 0.722 -0.053168077 1.4704888e-38 413 282
0.1186656 0.72000003 -0.053020801 1.3163859e-38 414 282
0.119928 0.72000003 -0.053020801 1.5376555e-38 415 282
0.12068544 0.71700001 -0.052799881 1.565923e-38 416 282
0.12194258 0.71700001 -0.052799881 1.4829469e-38 417 282
0.12319972 0.71700001 -0.052799881 1.4361619e-38 418 282
0.12445686 0.71700001 -0.052799881 1.2794295e-38 419 282
0.12553866 0.71600002 -0.052726239 1.3337761e-38 420 282
0.12643987 0.71399999 -0.052578956 1.2508e-38 421 282
0.12769175 0.71399999 -0.052578956 1.3417359e-38 422 282
0.12840186 0.71100003 -0.052358042 1.2771989e-38 423 282
0.12964848 0.71100003 -0.052358042 1.3964396e-38 424 282
0.13071099 0.70999998 -0.052284397 1.3964396e-38 425 282
0.13195585 0.70999998 -0.052284397 1.4054795e-38 426 282
0.13320073 0.70999998 -0.052284397 1.3870764e-38 427 282
0.13406686 0.708 -0.052137118 1.3871483e-38 428 282
0.13511713 0.70700002 -0.05206348 1.3779287e-38 429 282
0.13635674 0.70700002 -0.05206348 1.3871114e-38 430 282
0.13759634 0.70700002 -0.05206348 1.3871114e-38 431 282
0.13863957 0.70599997 -0.051989835 1.3596323e-38 432 282
0.13948117 0.704 -0.051842559 1.3596323e-38 433 282
0.14071551 0.704 -0.051842559 1.3228979e-38 434 282
0.14235312 0.70599997 -0.051989835 1.3321534e-38 435 282
0.14359097 0.70599997 -0.051989835 1.2954568e-38 436 282
0.14482883 0.70599997 -0.051989835 1.2954568e-38 437 282
0.14606668 0.70599997 -0.051989835 1.2035872e-38 438 282
0.14730453 0.70599997 -0.051989835 1.1390502e-38 439 282
-0.1445711 0.71700001 -0.054057021 8.2983073e-39 205 283
-0.14331396 0.71700001 -0.054057021 8.1146448e-39 206 283
-0.14205682 0.71700001 -0.054057021 7.2845239e-39 207 283
-0.14079967 0.71700001 -0.054057021 6.5523889e-39 208 283
-0.13993177 0.71899998 -0.054207806 7.4747054e-39 209 283
-0.1382854 0.71700001 -0.054057021 8.8612706e-39 210 283
-0.13702826 0.71700001 -0.054057021 1.1257998e-38 211 283
-0.13577113 0.71700001 -0.054057021 1.273025e-38 212 283
-0.13657764 0.72799999 -0.054886345 1.2361109e-38 213 283
-0.13530122 0.72799999 -0.054886345 1.1717534e-38 214 283
-0.13402478 0.72799999 -0.054886345 1.2178513e-38 215 283
-0.12080817 0.73299998 -0.055263311 1.8704893e-38 226 283
-0.11919686 0.73100001 -0.055112526 1.73216e-38 227 283
-0.11791517 0.73100001 -0.055112526 1.6937356e-38 228 283
-0.11663349 0.73100001 -0.055112526 1.7306138e-38 229 283
-0.11519401 0.73000002 -0.055037133 1.7768914e-38 230 283
-0.11391407 0.73000002 -0.055037133 1.6754762e-38 231 283
-0.11263414 0.73000002 -0.055037133 1.6105055e-38 232 283
-0.1113542 0.73000002 -0.055037133 1.4168946e-38 233 283
-0.11007427 0.73000002 -0.055037133 1.544746e-38 234 283
-0.10879433 0.73000002 -0.055037133 1.5170873e-38 235 283
-0.1075144 0.73000002 -0.055037133 1.544424e-38 236 283
-0.10623446 0.73000002 -0.055037133 1.5259847e-38 237 283
-0.10495453 0.73000002 -0.055037133 1.5533204e-38 238 283
-0.1036746 0.73000002 -0.055037133 1.5349173e-38 239 283
-0.10239466 0.73000002 -0.055037133 1.5348091e-38 240 283
-0.10111474 0.73000002 -0.055037133 1.5348091e-38 241 283
-0.0998348 0.73000002 -0.055037133 1.5165132e-38 242 283
-0.098554872 0.73000002 -0.055037133 1.5165132e-38 243 283
-0.097408183 0.73100001 -0.055112526 1.5165484e-38 244 283
-0.096126497 0.73100001 -0.055112526 1.5165484e-38 245 283
-0.094844811 0.73100001 -0.055112526 1.5165837e-38 246 283
-0.093563125 0.73100001 -0.055112526 1.5258034e-38 247 283
-0.092533909 0.73299998 -0.055263311 1.5258031e-38 248 283
-0.091248721 0.73299998 -0.055263311 1.5258031e-38 249 283
-0.089963526 0.73299998 -0.055263311 1.5351299e-38 250 283
-0.088678338 0.73299998 -0.055263311 1.572008e-38 251 283
-0.087154694 0.73100001 -0.055112526 1.5446013e-38 252 283
-0.085873008 0.73100001 -0.055112526 1.5999186e-38 253 283
-0.084591322 0.73100001 -0.055112526 1.5908804e-38 254 283
-0.083195664 0.73000002 -0.055037133 1.6554174e-38 255 283
-0.081915736 0.73000002 -0.055037133 1.6097521e-38 256 283
-0.080635801 0.73000002 -0.055037133 1.6281912e-38 257 283
-0.07913845 0.72799999 -0.054886345 1.6192584e-38 258 283
-0.077862024 0.72799999 -0.054886345 1.6192584e-38 259 283
-0.076796003 0.73000002 -0.055037133 1.6376626e-38 260 283
-0.075309172 0.72799999 -0.054886345 1.7575169e-38 261 283
-0.074032739 0.72799999 -0.054886345 1.7028835e-38 262 283
-0.072956197 0.73000002 -0.055037133 1.7489453e-38 263 283
-0.071676269 0.73000002 -0.055037133 1.7582358e-38 264 283
-0.070396334 0.73000002 -0.055037133 1.7489804e-38 265 283
-0.069116399 0.73000002 -0.055037133 1.7304696e-38 266 283
-0.067650609 0.72799999 -0.054886345 1.7212501e-38 267 283
-0.066374183 0.72799999 -0.054886345 1.7121397e-38 268 283
-0.0652766 0.73000002 -0.055037133 1.7674571e-38 269 283
-0.063996665 0.73000002 -0.055037133 1.7952232e-38 270 283
-0.06271673 0.73000002 -0.055037133 1.7952232e-38 271 283
-0.061436798 0.73000002 -0.055037133 1.8228448e-38 272 283
-0.060156867 0.73000002 -0.055037133 1.8505035e-38 273 283
-0.058876935 0.73000002 -0.055037133 1.8875259e-38 274 283
-0.057675898 0.73100001 -0.055112526 1.988941e-38 275 283
-0.056394216 0.73100001 -0.055112526 1.9705743e-38 276 283
-0.055112526 0.73100001 -0.055112526 1.9245123e-38 277 283
-0.053830836 0.73100001 -0.055112526 1.9060729e-38 278 283
-0.052549154 0.73100001 -0.055112526 1.8968174e-38 279 283
-0.051267464 0.73100001 -0.055112526 1.8508628e-38 280 283
-0.049985781 0.73100001 -0.055112526 1.7863258e-38 281 283
-0.048837345 0.73299998 -0.055263311 1.8042977e-38 282 283
-0.047422405 0.73100001 -0.055112526 1.7858586e-38 283 283
-0.046140719 0.73100001 -0.055112526 1.7947545e-38 284 283
-0.044981763 0.73299998 -0.055263311 1.6933033e-38 285 283
-0.043577347 0.73100001 -0.055112526 1.6838674e-38 286 283
-0.042295661 0.73100001 -0.055112526 1.6009272e-38 287 283
-0.041013971 0.73100001 -0.055112526 1.6831121e-38 288 283
-0.039732285 0.73100001 -0.055112526 1.6277947e-38 289 283
-0.038450599 0.73100001 -0.055112526 1.6001005e-38 290 283
-0.037270606 0.73299998 -0.055263311 1.6001005e-38 291 283
-0.035985414 0.73299998 -0.055263311 1.618288e-38 292 283
-0.034605537 0.73100001 -0.055112526 1.6090684e-38 293 283
-0.033323854 0.73100001 -0.055112526 1.5906283e-38 294 283
-0.032042164 0.73100001 -0.055112526 1.5630056e-38 295 283
-0.03076048 0.73100001 -0.055112526 1.5721529e-38 296 283
-0.029438468 0.73000002 -0.055037133 1.5352746e-38 297 283
-0.028158534 0.73000002 -0.055037133 1.562574e-38 298 283
-0.026878599 0.73000002 -0.055037133 1.5533545e-38 299 283
-0.025598666 0.73000002 -0.055037133 1.5623588e-38 300 283
-0.024318734 0.73000002 -0.055037133 1.5531392e-38 301 283
-0.023038799 0.73000002 -0.055037133 1.5348799e-38 302 283
-0.021788673 0.73100001 -0.055112526 1.5348799e-38 303 283
-0.020506985 0.73100001 -0.055112526 1.5348793e-38 304 283
-0.019304199 0.73400003 -0.055338707 1.5256598e-38 305 283
-0.018017253 0.73400003 -0.055338707 1.5256232e-38 306 283
-0.016730307 0.73400003 -0.055338707 1.5164036e-38 307 283
-0.01544336 0.73400003 -0.055338707 1.5163315e-38 308 283
-0.014156413 0.73400003 -0.055338707 1.5163315e-38 309 283
-0.012869466 0.73400003 -0.055338707 1.5162237e-38 310 283
-0.011582521 0.73400003 -0.055338707 1.4978206e-38 311 283
-0.010281546 0.73299998 -0.055263311 1.5160443e-38 312 283
