# .PCD v.7 - Point Cloud Data file format
FIELDS x y z rgb imX imY
SIZE 4 4 4 4 4 4
TYPE F F F F F F
COUNT 1 1 1 1 1 1
WIDTH 842
HEIGHT 1
VIEWPOINT 0 0 0 1 0 0 0
POINTS 842
DATA ascii
-0.0050636264 0.722 -0.062029421 1.4880983e-38 316 289
0.0025318132 0.722 -0.062029421 1.4697676e-38 322 289
0.0037977197 0.722 -0.062029421 1.4881707e-38 323 289
0.0050636264 0.722 -0.062029421 1.4607642e-38 324 289
0.0063120001 0.72000003 -0.061857603 1.4515445e-38 325 289
0.0075743999 0.72000003 -0.061857603 1.4514727e-38 326 289
0.0088367993 0.72000003 -0.061857603 1.4422531e-38 327 289
0.010099201 0.72000003 -0.061857603 1.4605843e-38 328 289
0.011361601 0.72000003 -0.061857603 1.4605843e-38 329 289
0.012624 0.72000003 -0.061857603 1.469732e-38 330 289
0.0138864 0.72000003 -0.061857603 1.469732e-38 331 289
0.0151488 0.72000003 -0.061857603 1.469732e-38 332 289
0.0164112 0.72000003 -0.061857603 1.469732e-38 333 289
0.017673599 0.72000003 -0.061857603 1.469732e-38 334 289
0.018935999 0.72000003 -0.061857603 1.469732e-38 335 289
0.020198401 0.72000003 -0.061857603 1.4697676e-38 336 289
0.021520413 0.722 -0.062029421 1.4697676e-38 337 289
0.022786319 0.722 -0.062029421 1.460584e-38 338 289
0.024052227 0.722 -0.062029421 1.460584e-38 339 289
0.025318133 0.722 -0.062029421 1.4606196e-38 340 289
0.026510401 0.72000003 -0.061857603 1.4606196e-38 341 289
0.027772799 0.72000003 -0.061857603 1.4515077e-38 342 289
0.029035201 0.72000003 -0.061857603 1.4515077e-38 343 289
0.0302976 0.72000003 -0.061857603 1.4606194e-38 344 289
0.031516165 0.71899998 -0.061771683 1.4606194e-38 345 289
0.032776814 0.71899998 -0.061771683 1.460584e-38 346 289
0.03403746 0.71899998 -0.061771683 1.4698036e-38 347 289
0.035199918 0.71700001 -0.061599858 1.4423247e-38 348 289
0.036457058 0.71700001 -0.061599858 1.4423247e-38 349 289
0.037714198 0.71700001 -0.061599858 1.4606194e-38 350 289
0.038971342 0.71700001 -0.061599858 1.4606194e-38 351 289
0.040228479 0.71700001 -0.061599858 1.4515077e-38 352 289
0.041485619 0.71700001 -0.061599858 1.4515077e-38 353 289
0.042742759 0.71700001 -0.061599858 1.4422528e-38 354 289
0.043999899 0.71700001 -0.061599858 1.4514724e-38 355 289
0.045257039 0.71700001 -0.061599858 1.4515443e-38 356 289
0.046514176 0.71700001 -0.061599858 1.460764e-38 357 289
0.04790457 0.71899998 -0.061771683 1.4515443e-38 358 289
0.049165215 0.71899998 -0.061771683 1.4515443e-38 359 289
0.050425861 0.71899998 -0.061771683 1.442325e-38 360 289
0.05168651 0.71899998 -0.061771683 1.4515445e-38 361 289
0.05294716 0.71899998 -0.061771683 1.469876e-38 362 289
0.054283202 0.72000003 -0.061857603 1.469876e-38 363 289
0.055545598 0.72000003 -0.061857603 1.4422894e-38 364 289
0.056729097 0.71899998 -0.061771683 1.451509e-38 365 289
0.057989739 0.71899998 -0.061771683 1.4331777e-38 366 289
0.059250388 0.71899998 -0.061771683 1.4608364e-38 367 289
0.060511041 0.71899998 -0.061771683 1.451581e-38 368 289
0.061599858 0.71700001 -0.061599858 1.451581e-38 369 289
0.062856995 0.71700001 -0.061599858 1.4515813e-38 370 289
0.064114138 0.71700001 -0.061599858 1.4515813e-38 371 289
0.065371275 0.71700001 -0.061599858 1.4424693e-38 372 289
0.066628419 0.71700001 -0.061599858 1.4517248e-38 373 289
0.067790881 0.71600002 -0.061513945 1.4333572e-38 374 289
0.069046266 0.71600002 -0.061513945 1.4425768e-38 375 289
0.070301652 0.71600002 -0.061513945 1.4333572e-38 376 289
0.071557038 0.71600002 -0.061513945 1.4333572e-38 377 289
0.072812423 0.71600002 -0.061513945 1.4425049e-38 378 289
0.07417126 0.71700001 -0.061599858 1.4517245e-38 379 289
0.075323202 0.71600002 -0.061513945 1.4517961e-38 380 289
0.076578587 0.71600002 -0.061513945 1.4517961e-38 381 289
0.077833973 0.71600002 -0.061513945 1.4334649e-38 382 289
0.079089358 0.71600002 -0.061513945 1.4334649e-38 383 289
0.080344744 0.71600002 -0.061513945 1.4334649e-38 384 289
0.08160013 0.71600002 -0.061513945 1.4242453e-38 385 289
0.082855515 0.71600002 -0.061513945 1.4425765e-38 386 289
0.084110901 0.71600002 -0.061513945 1.4517961e-38 387 289
0.085366286 0.71600002 -0.061513945 1.4333572e-38 388 289
0.086621679 0.71600002 -0.061513945 1.4333572e-38 389 289
0.087877065 0.71600002 -0.061513945 1.4424693e-38 390 289
0.089132458 0.71600002 -0.061513945 1.4332498e-38 391 289
0.090387844 0.71600002 -0.061513945 1.4516166e-38 392 289
0.091387235 0.71399999 -0.061342116 1.4516166e-38 393 289
0.092639111 0.71399999 -0.061342116 1.433213e-38 394 289
0.093890995 0.71399999 -0.061342116 1.4516163e-38 395 289
0.095142879 0.71399999 -0.061342116 1.4332133e-38 396 289
0.096394755 0.71399999 -0.061342116 1.4239938e-38 397 289
0.097509876 0.713 -0.061256204 1.4239938e-38 398 289
0.098760001 0.713 -0.061256204 1.4239938e-38 399 289
0.10001013 0.713 -0.061256204 1.4240654e-38 400 289
0.10126025 0.713 -0.061256204 1.4240654e-38 401 289
0.10251039 0.713 -0.061256204 1.4057341e-38 402 289
0.10376051 0.713 -0.061256204 1.3965146e-38 403 289
0.10501064 0.713 -0.061256204 1.4147739e-38 404 289
0.10626076 0.713 -0.061256204 1.4055543e-38 405 289
0.10751089 0.713 -0.061256204 1.4054825e-38 406 289
0.10876101 0.713 -0.061256204 1.4054825e-38 407 289
0.11001115 0.713 -0.061256204 1.4054819e-38 408 289
0.11126127 0.713 -0.061256204 1.4054819e-38 409 289
0.1125114 0.713 -0.061256204 1.3780749e-38 410 289
0.11376153 0.713 -0.061256204 1.3780749e-38 411 289
0.11468904 0.71100003 -0.061084379 1.3780752e-38 412 289
0.11593566 0.71100003 -0.061084379 1.3780752e-38 413 289
0.11718228 0.71100003 -0.061084379 1.3780033e-38 414 289
0.11842891 0.71100003 -0.061084379 1.3872228e-38 415 289
0.11950719 0.70999998 -0.060998458 1.378003e-38 416 289
0.12075205 0.70999998 -0.060998458 1.3964421e-38 417 289
0.12199692 0.70999998 -0.060998458 1.3875098e-38 418 289
0.1232418 0.70999998 -0.060998458 1.2215218e-38 419 289
0.12448666 0.70999998 -0.060998458 3.4955054e-39 420 289
0.12573153 0.70999998 -0.060998458 4.5092986e-39 421 289
-0.13009733 0.69999999 -0.061366666 2.3509886e-38 214 290
-0.12887 0.69999999 -0.061366666 2.3509886e-38 215 290
-0.1281897 0.70300001 -0.061629668 2.3509886e-38 216 290
-0.12695712 0.70300001 -0.061629668 2.3509886e-38 217 290
-0.12536684 0.70099998 -0.06145433 2.3509886e-38 218 290
-0.12413774 0.70099998 -0.06145433 2.3509886e-38 219 290
-0.12290866 0.70099998 -0.06145433 2.3509886e-38 220 290
-0.12167957 0.70099998 -0.06145433 2.3509886e-38 221 290
-0.12079414 0.70300001 -0.061629668 2.3509886e-38 222 290
-0.11973163 0.704 -0.061717331 2.3509886e-38 223 290
-0.11849727 0.704 -0.061717331 2.3509886e-38 224 290
-0.11726292 0.704 -0.061717331 2.3509886e-38 225 290
-0.11602858 0.704 -0.061717331 2.3509886e-38 226 290
-0.11479424 0.704 -0.061717331 2.3509886e-38 227 290
-0.11355989 0.704 -0.061717331 2.3509886e-38 228 290
-0.11232555 0.704 -0.061717331 2.3509886e-38 229 290
-0.1110912 0.704 -0.061717331 2.3509886e-38 230 290
-0.10985684 0.704 -0.061717331 2.3509886e-38 231 290
-0.10893109 0.70599997 -0.061892662 2.3509886e-38 232 290
-0.10769323 0.70599997 -0.061892662 2.3509886e-38 233 290
-0.10675696 0.708 -0.062068 2.3509886e-38 234 290
-0.1055156 0.708 -0.062068 2.3141467e-38 235 290
-0.10427424 0.708 -0.062068 2.3509886e-38 236 290
-0.10303288 0.708 -0.062068 2.3509886e-38 237 290
-0.10179152 0.708 -0.062068 2.2957079e-38 238 290
-0.10055015 0.708 -0.062068 2.2311714e-38 239 290
-0.099308796 0.708 -0.062068 2.1022421e-38 240 290
-0.097928926 0.70700002 -0.061980337 2.0469247e-38 241 290
-0.096689314 0.70700002 -0.061980337 1.8812966e-38 242 290
-0.095584713 0.708 -0.062068 1.7614783e-38 243 290
-0.094343357 0.708 -0.062068 1.7518264e-38 244 290
-0.093101993 0.708 -0.062068 1.7426068e-38 245 290
-0.091860637 0.708 -0.062068 1.74257e-38 246 290
-0.090619281 0.708 -0.062068 1.7794122e-38 247 290
-0.089377917 0.708 -0.062068 1.8901201e-38 248 290
-0.08838553 0.70999998 -0.062243331 1.9546571e-38 249 290
-0.087140657 0.70999998 -0.062243331 1.630677e-38 250 290
-0.085895792 0.70999998 -0.062243331 1.1420403e-38 251 290
-0.084650926 0.70999998 -0.062243331 1.5730906e-38 252 290
-0.083171122 0.708 -0.062068 1.7297872e-38 253 290
-0.081929758 0.708 -0.062068 1.7957266e-38 254 290
-0.08091633 0.70999998 -0.062243331 1.6205907e-38 255 290
-0.079671465 0.70999998 -0.062243331 1.5453962e-38 256 290
-0.0784266 0.70999998 -0.062243331 1.4808593e-38 257 290
-0.077181734 0.70999998 -0.062243331 1.5909533e-38 258 290
-0.075936861 0.70999998 -0.062243331 1.5632946e-38 259 290
-0.074691996 0.70999998 -0.062243331 1.5723338e-38 260 290
-0.073447131 0.70999998 -0.062243331 1.5631141e-38 261 290
-0.072202265 0.70999998 -0.062243331 1.5631497e-38 262 290
-0.070957392 0.70999998 -0.062243331 1.5447466e-38 263 290
-0.069810718 0.71100003 -0.062331002 1.5814093e-38 264 290
-0.068564095 0.71100003 -0.062331002 1.5814093e-38 265 290
-0.067317478 0.71100003 -0.062331002 1.5631144e-38 266 290
-0.066256717 0.713 -0.062506333 1.5447113e-38 267 290
-0.065006584 0.713 -0.062506333 1.5720101e-38 268 290
-0.063756458 0.713 -0.062506333 1.5627905e-38 269 290
-0.062506333 0.713 -0.062506333 1.5628261e-38 270 290
-0.061342116 0.71399999 -0.062593997 1.5628261e-38 271 290
-0.060090236 0.71399999 -0.062593997 1.5536059e-38 272 290
-0.058838356 0.71399999 -0.062593997 1.5351667e-38 273 290
-0.057586476 0.71399999 -0.062593997 1.5258397e-38 274 290
-0.0563346 0.71399999 -0.062593997 1.5074004e-38 275 290
-0.05508272 0.71399999 -0.062593997 1.5348075e-38 276 290
-0.053830836 0.71399999 -0.062593997 1.5163683e-38 277 290
-0.052505318 0.713 -0.062506333 1.5163318e-38 278 290
-0.051111419 0.71100003 -0.062331002 1.5163318e-38 279 290
-0.049864799 0.71100003 -0.062331002 1.5163315e-38 280 290
-0.048618179 0.71100003 -0.062331002 1.5071119e-38 281 290
-0.047371563 0.71100003 -0.062331002 1.5162237e-38 282 290
-0.046124939 0.71100003 -0.062331002 1.5162237e-38 283 290
-0.044878319 0.71100003 -0.062331002 1.506897e-38 284 290
-0.043631699 0.71100003 -0.062331002 1.4976774e-38 285 290
-0.042385083 0.71100003 -0.062331002 1.4975705e-38 286 290
-0.041254178 0.713 -0.062506333 1.488315e-38 287 290
-0.040004052 0.713 -0.062506333 1.488315e-38 288 290
-0.038753927 0.713 -0.062506333 1.488315e-38 289 290
-0.037503798 0.713 -0.062506333 1.4608712e-38 290 290
-0.036253672 0.713 -0.062506333 1.4608712e-38 291 290
-0.035052639 0.71399999 -0.062593997 1.4608347e-38 292 290
-0.033800758 0.71399999 -0.062593997 1.4515793e-38 293 290
-0.032548878 0.71399999 -0.062593997 1.4515077e-38 294 290
-0.031296998 0.71399999 -0.062593997 1.4422881e-38 295 290
-0.03012928 0.71600002 -0.062769331 1.4605122e-38 296 290
-0.028873893 0.71600002 -0.062769331 1.4697676e-38 297 290
-0.02754136 0.71399999 -0.062593997 1.4605843e-38 298 290
-0.026289478 0.71399999 -0.062593997 1.4513648e-38 299 290
-0.025107734 0.71600002 -0.062769331 1.4605846e-38 300 290
-0.023852346 0.71600002 -0.062769331 1.4605846e-38 301 290
-0.02262852 0.71700001 -0.062856995 1.4514727e-38 302 290
-0.021371379 0.71700001 -0.062856995 1.4422531e-38 303 290
-0.020114239 0.71700001 -0.062856995 1.4698036e-38 304 290
-0.018857099 0.71700001 -0.062856995 1.4698036e-38 305 290
-0.017599959 0.71700001 -0.062856995 1.4514724e-38 306 290
-0.016342819 0.71700001 -0.062856995 1.4514724e-38 307 290
-0.01506464 0.71600002 -0.062769331 1.4514724e-38 308 290
-0.013809253 0.71600002 -0.062769331 1.4514724e-38 309 290
-0.012553867 0.71600002 -0.062769331 1.4607991e-38 310 290
-0.01129848 0.71600002 -0.062769331 1.4515796e-38 311 290
-0.01005712 0.71700001 -0.062856995 1.451508e-38 312 290
-0.0087999795 0.71700001 -0.062856995 1.451508e-38 313 290
-0.0075428397 0.71700001 -0.062856995 1.4605843e-38 314 290
0.0037819401 0.71899998 -0.063032329 1.479059e-38 323 290
0.0050425865 0.71899998 -0.063032329 1.4515445e-38 324 290
0.0062857 0.71700001 -0.062856995 1.4515445e-38 325 290
0.0075428397 0.71700001 -0.062856995 1.4514724e-38 326 290
0.0087999795 0.71700001 -0.062856995 1.4514724e-38 327 290
0.01005712 0.71700001 -0.062856995 1.4698036e-38 328 290
0.01131426 0.71700001 -0.062856995 1.4698036e-38 329 290
0.0125714 0.71700001 -0.062856995 1.4697676e-38 330 290
0.013828539 0.71700001 -0.062856995 1.4697676e-38 331 290
0.015085679 0.71700001 -0.062856995 1.4605124e-38 332 290
0.016342819 0.71700001 -0.062856995 1.4605124e-38 333 290
0.017599959 0.71700001 -0.062856995 1.4605843e-38 334 290
0.018857099 0.71700001 -0.062856995 1.4605843e-38 335 290
0.020114239 0.71700001 -0.062856995 1.4514724e-38 336 290
0.021371379 0.71700001 -0.062856995 1.4422528e-38 337 290
0.02262852 0.71700001 -0.062856995 1.4514724e-38 338 290
0.02388566 0.71700001 -0.062856995 1.4514724e-38 339 290
0.025212931 0.71899998 -0.063032329 1.451508e-38 340 290
0.02639994 0.71700001 -0.062856995 1.451508e-38 341 290
0.027657079 0.71700001 -0.062856995 1.4515077e-38 342 290
0.028914221 0.71700001 -0.062856995 1.4422881e-38 343 290
0.030171359 0.71700001 -0.062856995 1.4515077e-38 344 290
0.031428497 0.71700001 -0.062856995 1.4422881e-38 345 290
0.032685637 0.71700001 -0.062856995 1.460584e-38 346 290
0.033942781 0.71700001 -0.062856995 1.460584e-38 347 290
0.035150826 0.71600002 -0.062769331 1.4422528e-38 348 290
0.036406212 0.71600002 -0.062769331 1.4422528e-38 349 290
0.037661601 0.71600002 -0.062769331 1.4606194e-38 350 290
0.038916986 0.71600002 -0.062769331 1.4606194e-38 351 290
0.040172372 0.71600002 -0.062769331 1.4515077e-38 352 290
0.041427758 0.71600002 -0.062769331 1.4422881e-38 353 290
0.042683143 0.71600002 -0.062769331 1.4423247e-38 354 290
0.043938532 0.71600002 -0.062769331 1.4423247e-38 355 290
0.045193922 0.71600002 -0.062769331 1.4515443e-38 356 290
0.046514176 0.71700001 -0.062856995 1.460764e-38 357 290
0.04777132 0.71700001 -0.062856995 1.4515443e-38 358 290
0.04902846 0.71700001 -0.062856995 1.4515443e-38 359 290
0.050215468 0.71600002 -0.062769331 1.4515445e-38 360 290
0.051470853 0.71600002 -0.062769331 1.442325e-38 361 290
0.052799881 0.71700001 -0.062856995 1.4422894e-38 362 290
0.054057021 0.71700001 -0.062856995 1.4422894e-38 363 290
0.055314157 0.71700001 -0.062856995 1.4422894e-38 364 290
0.056571297 0.71700001 -0.062856995 1.4422894e-38 365 290
0.057828441 0.71700001 -0.062856995 1.4332133e-38 366 290
0.059085581 0.71700001 -0.062856995 1.4516166e-38 367 290
0.060342718 0.71700001 -0.062856995 1.4331777e-38 368 290
0.061513945 0.71600002 -0.062769331 1.4331777e-38 369 290
0.062769331 0.71600002 -0.062769331 1.451581e-38 370 290
0.063845873 0.71399999 -0.062593997 1.451581e-38 371 290
0.065097757 0.71399999 -0.062593997 1.4608364e-38 372 290
0.066349633 0.71399999 -0.062593997 1.4608364e-38 373 290
0.067601517 0.71399999 -0.062593997 1.4332498e-38 374 290
0.068853401 0.71399999 -0.062593997 1.4424693e-38 375 290
0.070105277 0.71399999 -0.062593997 1.4425049e-38 376 290
0.071357153 0.71399999 -0.062593997 1.4425049e-38 377 290
0.072609037 0.71399999 -0.062593997 1.4425049e-38 378 290
0.073860914 0.71399999 -0.062593997 1.4517245e-38 379 290
0.075112797 0.71399999 -0.062593997 1.4425412e-38 380 290
0.076364681 0.71399999 -0.062593997 1.4425412e-38 381 290
0.07761655 0.71399999 -0.062593997 1.4517248e-38 382 290
0.078868434 0.71399999 -0.062593997 1.4424693e-38 383 290
0.080120318 0.71399999 -0.062593997 1.4425049e-38 384 290
0.081372194 0.71399999 -0.062593997 1.4425049e-38 385 290
0.082624078 0.71399999 -0.062593997 1.4517242e-38 386 290
0.083758481 0.713 -0.062506333 1.4425046e-38 387 290
0.085008614 0.713 -0.062506333 1.4425046e-38 388 290
0.086258732 0.713 -0.062506333 1.4517242e-38 389 290
0.087508865 0.713 -0.062506333 1.4332853e-38 390 290
0.08875899 0.713 -0.062506333 1.4425049e-38 391 290
0.090009116 0.713 -0.062506333 1.4425046e-38 392 290
0.091259241 0.713 -0.062506333 1.4332851e-38 393 290
0.092509374 0.713 -0.062506333 1.4516163e-38 394 290
0.093759492 0.713 -0.062506333 1.433213e-38 395 290
0.095009625 0.713 -0.062506333 1.4240654e-38 396 290
0.096394755 0.71399999 -0.062593997 1.4240654e-38 397 290
0.097509876 0.713 -0.062506333 1.4148458e-38 398 290
0.098482981 0.71100003 -0.062331002 1.4148458e-38 399 290
0.099729598 0.71100003 -0.062331002 1.4240654e-38 400 290
0.10097622 0.71100003 -0.062331002 1.4148458e-38 401 290
0.10222284 0.71100003 -0.062331002 1.4148102e-38 402 290
0.10346945 0.71100003 -0.062331002 1.3964071e-38 403 290
0.10471608 0.71100003 -0.062331002 1.4147383e-38 404 290
0.10581366 0.70999998 -0.062243331 1.4055188e-38 405 290
0.10705853 0.70999998 -0.062243331 1.4055543e-38 406 290
0.10845594 0.71100003 -0.062331002 1.3962989e-38 407 290
0.10954826 0.70999998 -0.062243331 1.4054819e-38 408 290
0.11079313 0.70999998 -0.062243331 1.4054819e-38 409 290
0.1121958 0.71100003 -0.062331002 1.3872226e-38 410 290
0.11344242 0.71100003 -0.062331002 1.3872226e-38 411 290
0.11468904 0.71100003 -0.062331002 1.3872228e-38 412 290
0.11593566 0.71100003 -0.062331002 1.3780033e-38 413 290
0.11701746 0.70999998 -0.062243331 1.3963345e-38 414 290
0.11826232 0.70999998 -0.062243331 1.4055541e-38 415 290
0.11950719 0.70999998 -0.062243331 1.4055894e-38 416 290
0.12075205 0.70999998 -0.062243331 1.4055894e-38 417 290
0.12199692 0.70999998 -0.062243331 1.3966209e-38 418 290
0.12289464 0.708 -0.062068 1.2307048e-38 419 290
0.124136 0.708 -0.062068 4.3202242e-39 420 290
0.12573153 0.70999998 -0.062243331 5.2421805e-39 421 290
-0.12972562 0.69800001 -0.062415157 2.3509886e-38 214 291
-0.1285018 0.69800001 -0.062415157 2.3509886e-38 215 291
-0.12727797 0.69800001 -0.062415157 2.3509886e-38 216 291
-0.12659591 0.70099998 -0.062683418 2.3509886e-38 217 291
-0.12518799 0.69999999 -0.062593997 2.3509886e-38 218 291
-0.12396066 0.69999999 -0.062593997 2.3509886e-38 219 291
-0.12273333 0.69999999 -0.062593997 2.3509886e-38 220 291
-0.12150599 0.69999999 -0.062593997 2.3509886e-38 221 291
-0.12045049 0.70099998 -0.062683418 2.3509886e-38 222 291
-0.11922139 0.70099998 -0.062683418 2.3509886e-38 223 291
-0.11832895 0.70300001 -0.062862262 2.3509886e-38 224 291
-0.11709637 0.70300001 -0.062862262 2.3509886e-38 225 291
-0.11586377 0.70300001 -0.062862262 2.3509886e-38 226 291
-0.11463118 0.70300001 -0.062862262 2.3509886e-38 227 291
-0.11339859 0.70300001 -0.062862262 2.3509886e-38 228 291
-0.11216599 0.70300001 -0.062862262 2.3509886e-38 229 291
-0.1109334 0.70300001 -0.062862262 2.3509886e-38 230 291
-0.10970081 0.70300001 -0.062862262 2.3509886e-38 231 291
-0.1086225 0.704 -0.062951677 2.3509886e-38 232 291
-0.10738816 0.704 -0.062951677 2.3509886e-38 233 291
-0.10645538 0.70599997 -0.063130513 2.3509886e-38 234 291
-0.10521752 0.70599997 -0.063130513 2.3509168e-38 235 291
-0.10412696 0.70700002 -0.063219935 2.3049273e-38 236 291
-0.10288735 0.70700002 -0.063219935 2.2680854e-38 237 291
-0.10164775 0.70700002 -0.063219935 2.2312794e-38 238 291
-0.10040814 0.70700002 -0.063219935 2.2312794e-38 239 291
-0.099168532 0.70700002 -0.063219935 2.2219159e-38 240 291
-0.097790405 0.70599997 -0.063130513 2.1389759e-38 241 291
-0.096552551 0.70599997 -0.063130513 2.0191937e-38 242 291
-0.095314704 0.70599997 -0.063130513 1.9362177e-38 243 291
-0.09407685 0.70599997 -0.063130513 1.8532413e-38 244 291
-0.092838995 0.70599997 -0.063130513 1.8163631e-38 245 291
-0.091601141 0.70599997 -0.063130513 1.8252585e-38 246 291
-0.090491287 0.70700002 -0.063219935 1.8068195e-38 247 291
-0.089251675 0.70700002 -0.063219935 1.7979968e-38 248 291
-0.088136561 0.708 -0.063309364 1.8256196e-38 249 291
-0.086895198 0.708 -0.063309364 1.5106429e-38 250 291
-0.085653841 0.708 -0.063309364 1.0865789e-38 251 291
-0.084293254 0.70700002 -0.063219935 1.6193327e-38 252 291
-0.083053641 0.70700002 -0.063219935 1.7668097e-38 253 291
-0.081814043 0.70700002 -0.063219935 1.7957268e-38 254 291
-0.080688395 0.708 -0.063309364 1.5560182e-38 255 291
-0.079447038 0.708 -0.063309364 1.5174499e-38 256 291
-0.078205675 0.708 -0.063309364 1.5267053e-38 257 291
-0.076964319 0.708 -0.063309364 1.581734e-38 258 291
-0.075722955 0.708 -0.063309364 1.5540394e-38 259 291
-0.074481599 0.708 -0.063309364 1.5540029e-38 260 291
-0.073240235 0.708 -0.063309364 1.5540029e-38 261 291
-0.071998879 0.708 -0.063309364 1.5630422e-38 262 291
-0.070757516 0.708 -0.063309364 1.5630422e-38 263 291
-0.069712527 0.70999998 -0.063488193 1.5630425e-38 264 291
-0.068467662 0.70999998 -0.063488193 1.5538229e-38 265 291
-0.067222796 0.70999998 -0.063488193 1.5630425e-38 266 291
-0.065977924 0.70999998 -0.063488193 1.5630425e-38 267 291
-0.064733058 0.70999998 -0.063488193 1.572082e-38 268 291
-0.063488193 0.70999998 -0.063488193 1.5444593e-38 269 291
-0.062243331 0.70999998 -0.063488193 1.5535708e-38 270 291
-0.060998458 0.70999998 -0.063488193 1.5535708e-38 271 291
-0.059837762 0.71100003 -0.063577622 1.544351e-38 272 291
-0.058755953 0.713 -0.063756458 1.5351314e-38 273 291
-0.057505824 0.713 -0.063756458 1.5258397e-38 274 291
-0.056255698 0.713 -0.063756458 1.5166201e-38 275 291
-0.054851279 0.71100003 -0.063577622 1.5256598e-38 276 291
-0.053604662 0.71100003 -0.063577622 1.5072567e-38 277 291
-0.052284397 0.70999998 -0.063488193 1.5164039e-38 278 291
-0.051039528 0.70999998 -0.063488193 1.5071485e-38 279 291
-0.049794663 0.70999998 -0.063488193 1.5254437e-38 280 291
-0.048413038 0.708 -0.063309364 1.5161881e-38 281 291
-0.047171678 0.708 -0.063309364 1.5161884e-38 282 291
-0.045930319 0.708 -0.063309364 1.4977853e-38 283 291
-0.044688959 0.708 -0.063309364 1.4885301e-38 284 291
-0.043447599 0.708 -0.063309364 1.4793106e-38 285 291
-0.042325463 0.70999998 -0.063488193 1.4975699e-38 286 291
-0.041080594 0.70999998 -0.063488193 1.4975699e-38 287 291
-0.039891839 0.71100003 -0.063577622 1.4883503e-38 288 291
-0.038645219 0.71100003 -0.063577622 1.4883503e-38 289 291
-0.037398599 0.71100003 -0.063577622 1.4700188e-38 290 291
-0.036151983 0.71100003 -0.063577622 1.4607991e-38 291 291
-0.035003547 0.713 -0.063756458 1.4607991e-38 292 291
-0.033753417 0.713 -0.063756458 1.4515796e-38 293 291
-0.032503292 0.713 -0.063756458 1.460584e-38 294 291
-0.031253166 0.713 -0.063756458 1.460584e-38 295 291
-0.029918881 0.71100003 -0.063577622 1.4605122e-38 296 291
-0.028672259 0.71100003 -0.063577622 1.4697676e-38 297 291
-0.027425639 0.71100003 -0.063577622 1.4605843e-38 298 291
-0.026179021 0.71100003 -0.063577622 1.4605843e-38 299 291
-0.024932399 0.71100003 -0.063577622 1.4605846e-38 300 291
-0.023685781 0.71100003 -0.063577622 1.4605846e-38 301 291
-0.022439159 0.71100003 -0.063577622 1.4605843e-38 302 291
-0.021192541 0.71100003 -0.063577622 1.4698039e-38 303 291
-0.020030079 0.71399999 -0.063845873 1.469732e-38 304 291
-0.018778199 0.71399999 -0.063845873 1.4881351e-38 305 291
-0.017526319 0.71399999 -0.063845873 1.4698039e-38 306 291
-0.016274439 0.71399999 -0.063845873 1.4790234e-38 307 291
-0.015022559 0.71399999 -0.063845873 1.4698755e-38 308 291
-0.01377068 0.71399999 -0.063845873 1.4698755e-38 309 291
-0.012518799 0.71399999 -0.063845873 1.4607991e-38 310 291
-0.011266919 0.71399999 -0.063845873 1.4515796e-38 311 291
-0.01001504 0.71399999 -0.063845873 1.4698036e-38 312 291
-0.0087631596 0.71399999 -0.063845873 1.4698036e-38 313 291
-0.00753232 0.71600002 -0.064024724 1.469732e-38 314 291
-0.0062857 0.71700001 -0.064114138 1.469732e-38 315 291
-0.0050285598 0.71700001 -0.064114138 1.460584e-38 316 291
-0.0037714199 0.71700001 -0.064114138 1.460584e-38 317 291
-0.0025107733 0.71600002 -0.064024724 1.4606196e-38 318 291
-0.0012553866 0.71600002 -0.064024724 1.4606196e-38 319 291
0 0.71600002 -0.064024724 1.4697676e-38 320 291
0.0012553866 0.71600002 -0.064024724 1.4881707e-38 321 291
0.0025107733 0.71600002 -0.064024724 1.469732e-38 322 291
0.00376616 0.71600002 -0.064024724 1.4973547e-38 323 291
0.0050215465 0.71600002 -0.064024724 1.4607642e-38 324 291
0.0062593995 0.71399999 -0.063845873 1.4607642e-38 325 291
0.0075112795 0.71399999 -0.063845873 1.4698039e-38 326 291
0.0087631596 0.71399999 -0.063845873 1.4790234e-38 327 291
0.01001504 0.71399999 -0.063845873 1.4698042e-38 328 291
0.011266919 0.71399999 -0.063845873 1.4605846e-38 329 291
0.012518799 0.71399999 -0.063845873 1.4698039e-38 330 291
0.01377068 0.71399999 -0.063845873 1.4605843e-38 331 291
0.015022559 0.71399999 -0.063845873 1.4697676e-38 332 291
0.016274439 0.71399999 -0.063845873 1.4697676e-38 333 291
0.017526319 0.71399999 -0.063845873 1.460584e-38 334 291
0.0188308 0.71600002 -0.064024724 1.4698036e-38 335 291
0.020030079 0.71399999 -0.063845873 1.4514724e-38 336 291
0.021281958 0.71399999 -0.063845873 1.4422528e-38 337 291
0.022533838 0.71399999 -0.063845873 1.4698039e-38 338 291
0.02378572 0.71399999 -0.063845873 1.4605843e-38 339 291
0.025037598 0.71399999 -0.063845873 1.4605843e-38 340 291
0.026363119 0.71600002 -0.064024724 1.4698039e-38 341 291
0.027618507 0.71600002 -0.064024724 1.4606196e-38 342 291
0.028873893 0.71600002 -0.064024724 1.4606196e-38 343 291
0.03012928 0.71600002 -0.064024724 1.4606194e-38 344 291
0.031384666 0.71600002 -0.064024724 1.4698389e-38 345 291
0.032640055 0.71600002 -0.064024724 1.451508e-38 346 291
0.03389544 0.71600002 -0.064024724 1.451508e-38 347 291
0.035052639 0.71399999 -0.063845873 1.4514724e-38 348 291
0.036304519 0.71399999 -0.063845873 1.4422528e-38 349 291
0.037556399 0.71399999 -0.063845873 1.4606196e-38 350 291
0.038808275 0.71399999 -0.063845873 1.4606196e-38 351 291
0.040060159 0.71399999 -0.063845873 1.4422528e-38 352 291
0.041312039 0.71399999 -0.063845873 1.4514724e-38 353 291
0.042504307 0.713 -0.063756458 1.442325e-38 354 291
0.043754432 0.713 -0.063756458 1.442325e-38 355 291
0.045004558 0.713 -0.063756458 1.442325e-38 356 291
0.046254687 0.713 -0.063756458 1.4515445e-38 357 291
0.047504812 0.713 -0.063756458 1.4515445e-38 358 291
0.048823316 0.71399999 -0.063845873 1.442325e-38 359 291
0.050075196 0.71399999 -0.063845873 1.4514729e-38 360 291
0.05132708 0.71399999 -0.063845873 1.4514729e-38 361 291
0.052578956 0.71399999 -0.063845873 1.4422175e-38 362 291
0.053755447 0.713 -0.063756458 1.4514729e-38 363 291
0.055005573 0.713 -0.063756458 1.4422894e-38 364 291
0.0563346 0.71399999 -0.063845873 1.4422894e-38 365 291
0.057586476 0.71399999 -0.063845873 1.4422894e-38 366 291
0.058755953 0.713 -0.063756458 1.451509e-38 367 291
0.060006075 0.713 -0.063756458 1.4331777e-38 368 291
0.061342116 0.71399999 -0.063845873 1.4331777e-38 369 291
0.062506333 0.713 -0.063756458 1.4331777e-38 370 291
0.063756458 0.713 -0.063756458 1.4331777e-38 371 291
0.065006584 0.713 -0.063756458 1.4515092e-38 372 291
0.066256717 0.713 -0.063756458 1.4515092e-38 373 291
0.067317478 0.71100003 -0.063577622 1.4331777e-38 374 291
0.068564095 0.71100003 -0.063577622 1.4608364e-38 375 291
0.070007093 0.713 -0.063756458 1.4425049e-38 376 291
0.071257219 0.713 -0.063756458 1.4332853e-38 377 291
0.072507344 0.713 -0.063756458 1.4332498e-38 378 291
0.07375747 0.713 -0.063756458 1.4332498e-38 379 291
0.075007595 0.713 -0.063756458 1.4424696e-38 380 291
0.076257721 0.713 -0.063756458 1.43325e-38 381 291
0.077507854 0.713 -0.063756458 1.4515813e-38 382 291
0.078757972 0.713 -0.063756458 1.4515813e-38 383 291
0.079783678 0.71100003 -0.063577622 1.451581e-38 384 291
0.081030294 0.71100003 -0.063577622 1.451581e-38 385 291
0.082276918 0.71100003 -0.063577622 1.4332498e-38 386 291
0.083523542 0.71100003 -0.063577622 1.4424693e-38 387 291
0.084650926 0.70999998 -0.063488193 1.4424693e-38 388 291
0.085895792 0.70999998 -0.063488193 1.4332498e-38 389 291
0.087140657 0.70999998 -0.063488193 1.4332853e-38 390 291
0.08838553 0.70999998 -0.063488193 1.4425049e-38 391 291
0.089630395 0.70999998 -0.063488193 1.4332851e-38 392 291
0.090875261 0.70999998 -0.063488193 1.4332851e-38 393 291
0.092120126 0.70999998 -0.063488193 1.4240654e-38 394 291
0.093364999 0.70999998 -0.063488193 1.4240654e-38 395 291
0.094609864 0.70999998 -0.063488193 1.4240656e-38 396 291
0.095989741 0.71100003 -0.063577622 1.4240656e-38 397 291
0.097099595 0.70999998 -0.063488193 1.4148458e-38 398 291
0.09834446 0.70999998 -0.063488193 1.4148458e-38 399 291
0.099308796 0.708 -0.063309364 1.4148458e-38 400 291
0.10055015 0.708 -0.063309364 1.3964427e-38 401 291
0.10179152 0.708 -0.063309364 1.4147739e-38 402 291
0.10303288 0.708 -0.063309364 1.4055543e-38 403 291
0.10427424 0.708 -0.063309364 1.4055543e-38 404 291
0.10521752 0.70599997 -0.063130513 1.4055543e-38 405 291
0.10645538 0.70599997 -0.063130513 1.3963345e-38 406 291
0.10799832 0.708 -0.063309364 1.3963345e-38 407 291
0.10908539 0.70700002 -0.063219935 1.3962626e-38 408 291
0.11032499 0.70700002 -0.063219935 1.4054822e-38 409 291
0.1115646 0.70700002 -0.063219935 1.3780033e-38 410 291
0.1128042 0.70700002 -0.063219935 1.3872228e-38 411 291
0.11404381 0.70700002 -0.063219935 1.3779677e-38 412 291
0.1157726 0.70999998 -0.063488193 1.3779677e-38 413 291
0.11668784 0.708 -0.063309364 1.3963345e-38 414 291
0.1179292 0.708 -0.063309364 1.3963345e-38 415 291
0.11917056 0.708 -0.063309364 1.3963345e-38 416 291
0.12041192 0.708 -0.063309364 1.3963345e-38 417 291
0.12148146 0.70700002 -0.063219935 1.3782547e-38 418 291
0.12272106 0.70700002 -0.063219935 1.2307417e-38 419 291
0.12343466 0.704 -0.062951677 6.0654644e-39 420 291
0.124669 0.704 -0.062951677 6.6182794e-39 421 291
0.12590335 0.704 -0.062951677 4.0479757e-39 422 291
-0.12953977 0.69700003 -0.06354782 2.3509886e-38 214 292
-0.1283177 0.69700003 -0.06354782 2.3509886e-38 215 292
-0.12709564 0.69700003 -0.06354782 2.3509886e-38 216 292
-0.12605415 0.69800001 -0.063638985 2.3509886e-38 217 292
-0.12483031 0.69800001 -0.063638985 2.3509886e-38 218 292
-0.12360649 0.69800001 -0.063638985 2.3509886e-38 219 292
-0.12238267 0.69800001 -0.063638985 2.3509886e-38 220 292
-0.12115885 0.69800001 -0.063638985 2.3509886e-38 221 292
-0.12027866 0.69999999 -0.063821331 2.3509886e-38 222 292
-0.11905133 0.69999999 -0.063821331 2.3509886e-38 223 292
-0.11782399 0.69999999 -0.063821331 2.3509886e-38 224 292
-0.11676323 0.70099998 -0.063912503 2.3509886e-38 225 292
-0.11553414 0.70099998 -0.063912503 2.3509886e-38 226 292
-0.11463118 0.70300001 -0.064094849 2.3509886e-38 227 292
-0.11307596 0.70099998 -0.063912503 2.3509886e-38 228 292
-0.11184688 0.70099998 -0.063912503 2.3509886e-38 229 292
-0.11061779 0.70099998 -0.063912503 2.3509886e-38 230 292
-0.1093887 0.70099998 -0.063912503 2.3326215e-38 231 292
-0.10815962 0.70099998 -0.063912503 2.2864519e-38 232 292
-0.10693054 0.70099998 -0.063912503 2.2771965e-38 233 292
-0.10600302 0.70300001 -0.064094849 2.2679769e-38 234 292
-0.10477043 0.70300001 -0.064094849 2.20344e-38 235 292
-0.10397967 0.70599997 -0.064368367 2.1207163e-38 236 292
-0.10274182 0.70599997 -0.064368367 2.0930576e-38 237 292
-0.10150397 0.70599997 -0.064368367 2.1021699e-38 238 292
-0.10026611 0.70599997 -0.064368367 2.1205731e-38 239 292
-0.09902826 0.70599997 -0.064368367 2.1666342e-38 240 292
-0.097513385 0.704 -0.064186029 2.1113169e-38 241 292
-0.096279033 0.704 -0.064186029 1.9914979e-38 242 292
-0.095314704 0.70599997 -0.064368367 1.9177414e-38 243 292
-0.09407685 0.70599997 -0.064368367 1.862389e-38 244 292
-0.092575997 0.704 -0.064186029 1.862389e-38 245 292
-0.091341652 0.704 -0.064186029 1.899088e-38 246 292
-0.090363286 0.70599997 -0.064368367 1.8529542e-38 247 292
-0.089125432 0.70599997 -0.064368367 1.8069287e-38 248 292
-0.088012077 0.70700002 -0.064459547 1.7055135e-38 249 292
-0.086772464 0.70700002 -0.064459547 1.5101021e-38 250 292
-0.085411869 0.70599997 -0.064368367 1.1597587e-38 251 292
-0.084174022 0.70599997 -0.064368367 1.6747222e-38 252 292
-0.082936168 0.70599997 -0.064368367 1.8222352e-38 253 292
-0.081814043 0.70700002 -0.064459547 1.7493422e-38 254 292
-0.080574431 0.70700002 -0.064459547 1.5372922e-38 255 292
-0.079334825 0.70700002 -0.064459547 1.5267047e-38 256 292
-0.07809522 0.70700002 -0.064459547 1.5359603e-38 257 292
-0.076855607 0.70700002 -0.064459547 1.5725858e-38 258 292
-0.07561601 0.70700002 -0.064459547 1.5449631e-38 259 292
-0.074376404 0.70700002 -0.064459547 1.5815892e-38 260 292
-0.073136792 0.70700002 -0.064459547 1.5631141e-38 261 292
-0.071897186 0.70700002 -0.064459547 1.5630778e-38 262 292
-0.070557632 0.70599997 -0.064368367 1.5630778e-38 263 292
-0.069319785 0.70599997 -0.064368367 1.5630422e-38 264 292
-0.068274796 0.708 -0.06455072 1.5630422e-38 265 292
-0.066938758 0.70700002 -0.064459547 1.5630425e-38 266 292
-0.065699153 0.70700002 -0.064459547 1.5538229e-38 267 292
-0.064459547 0.70700002 -0.064459547 1.5629703e-38 268 292
-0.063219935 0.70700002 -0.064459547 1.5445312e-38 269 292
-0.062068 0.708 -0.06455072 1.5811574e-38 270 292
-0.060826641 0.708 -0.06455072 1.5719377e-38 271 292
-0.059585281 0.708 -0.06455072 1.5534987e-38 272 292
-0.058343921 0.708 -0.06455072 1.5350595e-38 273 292
-0.057102561 0.708 -0.06455072 1.5350233e-38 274 292
-0.055861197 0.708 -0.06455072 1.5165481e-38 275 292
-0.054774132 0.70999998 -0.064733058 1.5256598e-38 276 292
-0.053529263 0.70999998 -0.064733058 1.5256598e-38 277 292
-0.052137118 0.708 -0.06455072 1.5164039e-38 278 292
-0.050895758 0.708 -0.06455072 1.4979289e-38 279 292
-0.049584266 0.70700002 -0.064459547 1.4978572e-38 280 292
-0.048344657 0.70700002 -0.064459547 1.4978572e-38 281 292
-0.047105055 0.70700002 -0.064459547 1.4977497e-38 282 292
-0.045865446 0.70700002 -0.064459547 1.4885301e-38 283 292
-0.044625837 0.70700002 -0.064459547 1.4976418e-38 284 292
-0.043386232 0.70700002 -0.064459547 1.4976418e-38 285 292
-0.042146627 0.70700002 -0.064459547 1.4883859e-38 286 292
-0.040964879 0.708 -0.06455072 1.4883859e-38 287 292
-0.039723519 0.708 -0.06455072 1.4883859e-38 288 292
-0.038590867 0.70999998 -0.064733058 1.4791304e-38 289 292
-0.037345998 0.70999998 -0.064733058 1.4699111e-38 290 292
-0.036101133 0.70999998 -0.064733058 1.451508e-38 291 292
-0.034856264 0.70999998 -0.064733058 1.4698036e-38 292 292
-0.033611398 0.70999998 -0.064733058 1.460584e-38 293 292
-0.032366529 0.70999998 -0.064733058 1.4605843e-38 294 292
-0.031121666 0.70999998 -0.064733058 1.4605843e-38 295 292
-0.029876797 0.70999998 -0.064733058 1.4513648e-38 296 292
-0.028631933 0.70999998 -0.064733058 1.4605843e-38 297 292
-0.027387066 0.70999998 -0.064733058 1.4605124e-38 298 292
-0.026142199 0.70999998 -0.064733058 1.469732e-38 299 292
-0.024897331 0.70999998 -0.064733058 1.4605843e-38 300 292
-0.023652466 0.70999998 -0.064733058 1.4605843e-38 301 292
-0.022407599 0.70999998 -0.064733058 1.460584e-38 302 292
-0.021162732 0.70999998 -0.064733058 1.460584e-38 303 292
-0.01994592 0.71100003 -0.064824238 1.4605843e-38 304 292
-0.0186993 0.71100003 -0.064824238 1.4698039e-38 305 292
-0.01745268 0.71100003 -0.064824238 1.4790237e-38 306 292
-0.01620606 0.71100003 -0.064824238 1.4698042e-38 307 292
-0.014959441 0.71100003 -0.064824238 1.4698036e-38 308 292
-0.01371282 0.71100003 -0.064824238 1.4882787e-38 309 292
-0.0124662 0.71100003 -0.064824238 1.4607991e-38 310 292
-0.01121958 0.71100003 -0.064824238 1.4515796e-38 311 292
-0.010001013 0.713 -0.065006584 1.4698036e-38 312 292
-0.0087508867 0.713 -0.065006584 1.460584e-38 313 292
-0.0075007593 0.713 -0.065006584 1.469732e-38 314 292
-0.0062506334 0.713 -0.065006584 1.4881351e-38 315 292
-0.0050005065 0.713 -0.065006584 1.4514724e-38 316 292
-0.0037556398 0.71399999 -0.065097757 1.4514724e-38 317 292
-0.0025037599 0.71399999 -0.065097757 1.451508e-38 318 292
-0.0012501266 0.713 -0.065006584 1.451508e-38 319 292
0 0.713 -0.065006584 1.460584e-38 320 292
0.0012501266 0.713 -0.065006584 1.4698036e-38 321 292
0.0025002533 0.713 -0.065006584 1.4514727e-38 322 292
0.0037503797 0.713 -0.065006584 1.4698758e-38 323 292
0.0050005065 0.713 -0.065006584 1.4607642e-38 324 292
0.0062506334 0.713 -0.065006584 1.4607642e-38 325 292
0.0075007593 0.713 -0.065006584 1.4698758e-38 326 292
0.0087508867 0.713 -0.065006584 1.4514727e-38 327 292
0.010001013 0.713 -0.065006584 1.469732e-38 328 292
0.011251139 0.713 -0.065006584 1.4881351e-38 329 292
0.012501267 0.713 -0.065006584 1.460584e-38 330 292
0.013751393 0.713 -0.065006584 1.460584e-38 331 292
0.015001519 0.713 -0.065006584 1.460584e-38 332 292
0.016251646 0.713 -0.065006584 1.4698036e-38 333 292
0.017501773 0.713 -0.065006584 1.460584e-38 334 292
0.0186993 0.71100003 -0.064824238 1.460584e-38 335 292
0.01994592 0.71100003 -0.064824238 1.4605843e-38 336 292
0.021192541 0.71100003 -0.064824238 1.4605843e-38 337 292
0.022439159 0.71100003 -0.064824238 1.4422531e-38 338 292
0.023685781 0.71100003 -0.064824238 1.4514727e-38 339 292
0.024932399 0.71100003 -0.064824238 1.442325e-38 340 292
0.026252659 0.713 -0.065006584 1.442325e-38 341 292
0.02754136 0.71399999 -0.065097757 1.451508e-38 342 292
0.028793238 0.71399999 -0.065097757 1.451508e-38 343 292
0.030045118 0.71399999 -0.065097757 1.4515077e-38 344 292
0.031296998 0.71399999 -0.065097757 1.4515077e-38 345 292
0.032548878 0.71399999 -0.065097757 1.4515796e-38 346 292
0.033800758 0.71399999 -0.065097757 1.4515796e-38 347 292
0.035003547 0.713 -0.065006584 1.451508e-38 348 292
0.036253672 0.713 -0.065006584 1.4422884e-38 349 292
0.037398599 0.71100003 -0.064824238 1.460584e-38 350 292
0.038645219 0.71100003 -0.064824238 1.460584e-38 351 292
0.039891839 0.71100003 -0.064824238 1.4422531e-38 352 292
0.041138459 0.71100003 -0.064824238 1.4514727e-38 353 292
0.042385083 0.71100003 -0.064824238 1.4422531e-38 354 292
0.043631699 0.71100003 -0.064824238 1.4514727e-38 355 292
0.044878319 0.71100003 -0.064824238 1.442325e-38 356 292
0.046124939 0.71100003 -0.064824238 1.4515445e-38 357 292
0.047371563 0.71100003 -0.064824238 1.4422894e-38 358 292
0.048618179 0.71100003 -0.064824238 1.4330698e-38 359 292
0.049864799 0.71100003 -0.064824238 1.4422894e-38 360 292
0.051111419 0.71100003 -0.064824238 1.4422894e-38 361 292
0.052358042 0.71100003 -0.064824238 1.4422894e-38 362 292
0.053604662 0.71100003 -0.064824238 1.4422894e-38 363 292
0.054851279 0.71100003 -0.064824238 1.4422897e-38 364 292
0.056097899 0.71100003 -0.064824238 1.4330701e-38 365 292
0.057344519 0.71100003 -0.064824238 1.4331783e-38 366 292
0.058591139 0.71100003 -0.064824238 1.4331783e-38 367 292
0.059837762 0.71100003 -0.064824238 1.433178e-38 368 292
0.060998458 0.70999998 -0.064733058 1.433178e-38 369 292
0.062243331 0.70999998 -0.064733058 1.451581e-38 370 292
0.063488193 0.70999998 -0.064733058 1.4331777e-38 371 292
0.064733058 0.70999998 -0.064733058 1.4332133e-38 372 292
0.065977924 0.70999998 -0.064733058 1.4516166e-38 373 292
0.067222796 0.70999998 -0.064733058 1.4332853e-38 374 292
0.068467662 0.70999998 -0.064733058 1.4332853e-38 375 292
0.069810718 0.71100003 -0.064824238 1.4332853e-38 376 292
0.071057342 0.71100003 -0.064824238 1.4240656e-38 377 292
0.072303966 0.71100003 -0.064824238 1.4332133e-38 378 292
0.073550582 0.71100003 -0.064824238 1.4516166e-38 379 292
0.074797198 0.71100003 -0.064824238 1.4332498e-38 380 292
0.076043822 0.71100003 -0.064824238 1.4332498e-38 381 292
0.077290438 0.71100003 -0.064824238 1.4332498e-38 382 292
0.078537062 0.71100003 -0.064824238 1.4332498e-38 383 292
0.079671465 0.70999998 -0.064733058 1.4332498e-38 384 292
0.08091633 0.70999998 -0.064733058 1.4332498e-38 385 292
0.081929758 0.708 -0.06455072 1.4424693e-38 386 292
0.083171122 0.708 -0.06455072 1.4424693e-38 387 292
0.084293254 0.70700002 -0.064459547 1.4515813e-38 388 292
0.085532859 0.70700002 -0.064459547 1.4515813e-38 389 292
0.086772464 0.70700002 -0.064459547 1.4332498e-38 390 292
0.087887585 0.70599997 -0.064368367 1.4332498e-38 391 292
0.089125432 0.70599997 -0.064368367 1.4056985e-38 392 292
0.090491287 0.70700002 -0.064459547 1.4056985e-38 393 292
0.091730893 0.70700002 -0.064459547 1.4332133e-38 394 292
0.092970498 0.70700002 -0.064459547 1.4239938e-38 395 292
0.094210111 0.70700002 -0.064459547 1.4240654e-38 396 292
0.095449716 0.70700002 -0.064459547 1.4148458e-38 397 292
0.096689314 0.70700002 -0.064459547 1.4148458e-38 398 292
0.097928926 0.70700002 -0.064459547 1.4148458e-38 399 292
0.099168532 0.70700002 -0.064459547 1.4147383e-38 400 292
0.10040814 0.70700002 -0.064459547 1.4147383e-38 401 292
0.10164775 0.70700002 -0.064459547 1.4055543e-38 402 292
0.10274182 0.70599997 -0.064368367 1.4055543e-38 403 292
0.10397967 0.70599997 -0.064368367 1.4055541e-38 404 292
0.10521752 0.70599997 -0.064368367 1.4055541e-38 405 292
0.10645538 0.70599997 -0.064368367 1.4055538e-38 406 292
0.10769323 0.70599997 -0.064368367 1.3963342e-38 407 292
0.10893109 0.70599997 -0.064368367 1.4054822e-38 408 292
0.11016893 0.70599997 -0.064368367 1.4054822e-38 409 292
0.11140679 0.70599997 -0.064368367 1.4054825e-38 410 292
0.11264464 0.70599997 -0.064368367 1.4054825e-38 411 292
0.1138825 0.70599997 -0.064368367 1.396227e-38 412 292
0.11512035 0.70599997 -0.064368367 1.396227e-38 413 292
0.11635821 0.70599997 -0.064368367 1.3870793e-38 414 292
0.11759606 0.70599997 -0.064368367 1.3870793e-38 415 292
0.11849727 0.704 -0.064186029 1.3779677e-38 416 292
0.11973163 0.704 -0.064186029 1.3779677e-38 417 292
0.12079414 0.70300001 -0.064094849 1.378003e-38 418 292
0.12167957 0.70099998 -0.063912503 1.2858072e-38 419 292
0.12290866 0.70099998 -0.063912503 7.9021841e-39 420 292
0.12413774 0.70099998 -0.063912503 7.4412059e-39 421 292
0.12536684 0.70099998 -0.063912503 3.1303354e-39 422 292
-0.12935391 0.69599998 -0.064676955 2.3509886e-38 214 293
-0.1277654 0.69400001 -0.064491108 2.3509886e-38 215 293
-0.12654859 0.69400001 -0.064491108 2.3509886e-38 216 293
-0.12569295 0.69599998 -0.064676955 2.3509886e-38 217 293
-0.12465148 0.69700003 -0.064769886 2.3509886e-38 218 293
-0.12342941 0.69700003 -0.064769886 2.3509886e-38 219 293
-0.12238267 0.69800001 -0.06486281 2.3509886e-38 220 293
-0.12115885 0.69800001 -0.06486281 2.3509886e-38 221 293
-0.11993501 0.69800001 -0.06486281 2.3509886e-38 222 293
-0.11871119 0.69800001 -0.06486281 2.3509886e-38 223 293
-0.11748736 0.69800001 -0.06486281 2.3509886e-38 224 293
-0.11659666 0.69999999 -0.065048665 2.3509886e-38 225 293
-0.11536932 0.69999999 -0.065048665 2.3509886e-38 226 293
-0.11414199 0.69999999 -0.065048665 2.3509886e-38 227 293
-0.11291467 0.69999999 -0.065048665 2.2958873e-38 228 293
-0.11168733 0.69999999 -0.065048665 2.3234379e-38 229 293
-0.11046 0.69999999 -0.065048665 2.323402e-38 230 293
-0.10923266 0.69999999 -0.065048665 2.323402e-38 231 293
-0.10800533 0.69999999 -0.065048665 2.3232225e-38 232 293
-0.106778 0.69999999 -0.065048665 2.1388314e-38 233 293
-0.10570145 0.70099998 -0.065141588 1.9732033e-38 234 293
-0.10447236 0.70099998 -0.065141588 1.9271054e-38 235 293
-0.10353784 0.70300001 -0.065327443 1.8992312e-38 236 293
-0.10230524 0.70300001 -0.065327443 1.8346943e-38 237 293
-0.10121643 0.704 -0.065420374 1.7976365e-38 238 293
-0.099982075 0.704 -0.065420374 1.7791974e-38 239 293
-0.09874773 0.704 -0.065420374 1.7335315e-38 240 293
-0.097374871 0.70300001 -0.065327443 1.7150924e-38 241 293
-0.096142277 0.70300001 -0.065327443 1.7241674e-38 242 293
-0.095044687 0.704 -0.065420374 1.6688501e-38 243 293
-0.093810342 0.704 -0.065420374 1.687145e-38 244 293
-0.092444502 0.70300001 -0.065327443 1.7424265e-38 245 293
-0.0912119 0.70300001 -0.065327443 1.8160761e-38 246 293
-0.089979313 0.70300001 -0.065327443 1.8898685e-38 247 293
-0.088746719 0.70300001 -0.065327443 1.7885975e-38 248 293
-0.087514125 0.70300001 -0.065327443 1.5119746e-38 249 293
-0.086281531 0.70300001 -0.065327443 1.5097421e-38 250 293
-0.085169919 0.704 -0.065420374 1.2608498e-38 251 293
-0.083816342 0.70300001 -0.065327443 1.702668e-38 252 293
-0.082583755 0.70300001 -0.065327443 1.8409615e-38 253 293
-0.081466876 0.704 -0.065420374 1.684805e-38 254 293
-0.080460466 0.70599997 -0.065606222 1.4635355e-38 255 293
-0.079222605 0.70599997 -0.065606222 1.5724788e-38 256 293
-0.07809522 0.70700002 -0.065699153 1.5816984e-38 257 293
-0.076746903 0.70599997 -0.065606222 1.5725139e-38 258 293
-0.075509049 0.70599997 -0.065606222 1.5632943e-38 259 293
-0.074271195 0.70599997 -0.065606222 1.5815537e-38 260 293
-0.07303334 0.70599997 -0.065606222 1.5723341e-38 261 293
-0.071795486 0.70599997 -0.065606222 1.5722621e-38 262 293
-0.070557632 0.70599997 -0.065606222 1.5722621e-38 263 293
-0.069319785 0.70599997 -0.065606222 1.5631144e-38 264 293
-0.06808193 0.70599997 -0.065606222 1.5447113e-38 265 293
-0.066844068 0.70599997 -0.065606222 1.5630425e-38 266 293
-0.065420374 0.704 -0.065420374 1.5538229e-38 267 293
-0.064186029 0.704 -0.065420374 1.5629703e-38 268 293
-0.063130513 0.70599997 -0.065606222 1.5537508e-38 269 293
-0.061892662 0.70599997 -0.065606222 1.5444593e-38 270 293
-0.060654808 0.70599997 -0.065606222 1.5444593e-38 271 293
-0.059416957 0.70599997 -0.065606222 1.5443513e-38 272 293
-0.058179103 0.70599997 -0.065606222 1.5443513e-38 273 293
-0.056941248 0.70599997 -0.065606222 1.5165128e-38 274 293
-0.055703394 0.70599997 -0.065606222 1.5257684e-38 275 293
-0.054311249 0.704 -0.065420374 1.5165484e-38 276 293
-0.053076904 0.704 -0.065420374 1.4888538e-38 277 293
-0.051989835 0.70599997 -0.065606222 1.516332e-38 278 293
-0.050608214 0.704 -0.065420374 1.4978569e-38 279 293
-0.049373865 0.704 -0.065420374 1.5161518e-38 280 293
-0.048276275 0.70599997 -0.065606222 1.5161518e-38 281 293
-0.047038425 0.70599997 -0.065606222 1.497785e-38 282 293
-0.04580057 0.70599997 -0.065606222 1.497785e-38 283 293
-0.044562716 0.70599997 -0.065606222 1.4976774e-38 284 293
-0.043324865 0.70599997 -0.065606222 1.4792743e-38 285 293
-0.042087011 0.70599997 -0.065606222 1.4883503e-38 286 293
-0.040849157 0.70599997 -0.065606222 1.4791308e-38 287 293
-0.039611302 0.70599997 -0.065606222 1.4791304e-38 288 293
-0.038427804 0.70700002 -0.065699153 1.4791304e-38 289 293
-0.037188202 0.70700002 -0.065699153 1.4698389e-38 290 293
-0.035948593 0.70700002 -0.065699153 1.4606194e-38 291 293
-0.034758076 0.708 -0.065792084 1.4606196e-38 292 293
-0.033516716 0.708 -0.065792084 1.4514001e-38 293 293
-0.03227536 0.708 -0.065792084 1.4514001e-38 294 293
-0.031034 0.708 -0.065792084 1.4606196e-38 295 293
-0.02979264 0.708 -0.065792084 1.4606196e-38 296 293
-0.02855128 0.708 -0.065792084 1.4514001e-38 297 293
-0.027309919 0.708 -0.065792084 1.460584e-38 298 293
-0.026142199 0.70999998 -0.065977924 1.4698036e-38 299 293
-0.024827199 0.708 -0.065792084 1.460584e-38 300 293
-0.023585839 0.708 -0.065792084 1.460584e-38 301 293
-0.022344479 0.708 -0.065792084 1.460584e-38 302 293
-0.021103119 0.708 -0.065792084 1.460584e-38 303 293
-0.019917866 0.70999998 -0.065977924 1.460584e-38 304 293
-0.018672999 0.70999998 -0.065977924 1.4698036e-38 305 293
-0.017428132 0.70999998 -0.065977924 1.4698758e-38 306 293
-0.016183265 0.70999998 -0.065977924 1.4514727e-38 307 293
-0.014938398 0.70999998 -0.065977924 1.4698755e-38 308 293
-0.013693533 0.70999998 -0.065977924 1.4698755e-38 309 293
-0.012448666 0.70999998 -0.065977924 1.4607991e-38 310 293
-0.011203799 0.70999998 -0.065977924 1.4515796e-38 311 293
-0.0099729598 0.71100003 -0.066070862 1.4606196e-38 312 293
-0.0087263398 0.71100003 -0.066070862 1.4606196e-38 313 293
-0.0074797203 0.71100003 -0.066070862 1.4698039e-38 314 293
-0.0062330998 0.71100003 -0.066070862 1.4698039e-38 315 293
-0.0049864799 0.71100003 -0.066070862 1.4698758e-38 316 293
-0.0037398601 0.71100003 -0.066070862 1.4514727e-38 317 293
-0.0024932399 0.71100003 -0.066070862 1.4514727e-38 318 293
-0.00124662 0.71100003 -0.066070862 1.4514727e-38 319 293
0 0.70999998 -0.065977924 1.4514727e-38 320 293
0.0012448666 0.70999998 -0.065977924 1.4422531e-38 321 293
0.0024897333 0.70999998 -0.065977924 1.4698039e-38 322 293
0.0037345996 0.70999998 -0.065977924 1.4698039e-38 323 293
0.0049864799 0.71100003 -0.066070862 1.4515445e-38 324 293
0.0062330998 0.71100003 -0.066070862 1.442325e-38 325 293
0.0074797203 0.71100003 -0.066070862 1.460584e-38 326 293
0.0087263398 0.71100003 -0.066070862 1.4698036e-38 327 293
0.0099729598 0.71100003 -0.066070862 1.460584e-38 328 293
0.01121958 0.71100003 -0.066070862 1.460584e-38 329 293
0.0124662 0.71100003 -0.066070862 1.4514724e-38 330 293
0.01371282 0.71100003 -0.066070862 1.4422528e-38 331 293
0.014959441 0.71100003 -0.066070862 1.4514724e-38 332 293
0.01620606 0.71100003 -0.066070862 1.4422528e-38 333 293
0.01745268 0.71100003 -0.066070862 1.4606196e-38 334 293
0.018672999 0.70999998 -0.065977924 1.4606196e-38 335 293
0.019917866 0.70999998 -0.065977924 1.4422884e-38 336 293
