# .PCD v.7 - Point Cloud Data file format
FIELDS x y z rgb imX imY
SIZE 4 4 4 4 4 4
TYPE F F F F F F
COUNT 1 1 1 1 1 1
WIDTH 843
HEIGHT 1
VIEWPOINT 0 0 0 1 0 0 0
POINTS 843
DATA ascii
0.14194986 0.736 -0.055489492 1.6034817e-38 430 283
0.14324032 0.736 -0.055489492 1.5850067e-38 431 283
-0.17208089 0.727 -0.056085624 1.0700508e-38 185 284
-0.17080621 0.727 -0.056085624 1.0612281e-38 186 284
-0.16953155 0.727 -0.056085624 1.0796673e-38 187 284
-0.167794 0.72500002 -0.055931333 1.0795951e-38 188 284
-0.16652285 0.72500002 -0.055931333 1.1164733e-38 189 284
-0.16479579 0.72299999 -0.055777039 1.1532437e-38 190 284
-0.16352813 0.72299999 -0.055777039 1.125621e-38 191 284
-0.16203605 0.722 -0.055699892 1.1164016e-38 192 284
-0.16077015 0.722 -0.055699892 1.1256213e-38 193 284
-0.15950423 0.722 -0.055699892 1.1715383e-38 194 284
-0.15823832 0.722 -0.055699892 1.1162568e-38 195 284
-0.15653761 0.72000003 -0.055545598 1.1253668e-38 196 284
-0.15527521 0.72000003 -0.055545598 1.0700496e-38 197 284
-0.15379888 0.71899998 -0.055468451 1.0513217e-38 198 284
-0.15211394 0.71700001 -0.055314157 9.8678471e-39 199 284
-0.1506464 0.71600002 -0.055237014 9.2221218e-39 200 284
-0.14939101 0.71600002 -0.055237014 9.1299261e-39 201 284
-0.14813562 0.71600002 -0.055237014 9.3139418e-39 202 284
-0.14646997 0.71399999 -0.05508272 9.3139418e-39 203 284
-0.14521807 0.71399999 -0.05508272 8.9404524e-39 204 284
-0.14436947 0.71600002 -0.055237014 7.0043441e-39 205 284
-0.14311408 0.71600002 -0.055237014 5.7099956e-39 206 284
-0.1418587 0.71600002 -0.055237014 3.6816917e-39 207 284
-0.1406033 0.71600002 -0.055237014 5.791411e-39 208 284
-0.13954253 0.71700001 -0.055314157 6.7133673e-39 209 284
-0.1382854 0.71700001 -0.055314157 1.0386091e-38 210 284
-0.13741048 0.71899998 -0.055468451 1.103146e-38 211 284
-0.13614984 0.71899998 -0.055468451 1.3871522e-38 212 284
-0.13488919 0.71899998 -0.055468451 1.3963718e-38 213 284
-0.13362853 0.71899998 -0.055468451 1.4054469e-38 214 284
-0.13255201 0.72000003 -0.055545598 1.4146664e-38 215 284
-0.1312896 0.72000003 -0.055545598 1.4054822e-38 216 284
-0.1300272 0.72000003 -0.055545598 1.4054822e-38 217 284
-0.12876479 0.72000003 -0.055545598 1.4239191e-38 218 284
-0.1275024 0.72000003 -0.055545598 1.3409429e-38 219 284
-0.12624 0.72000003 -0.055545598 1.4070306e-38 220 284
-0.12532476 0.722 -0.055699892 1.8772642e-38 221 284
-0.12405884 0.722 -0.055699892 1.3281957e-38 222 284
-0.12279294 0.722 -0.055699892 1.5678684e-38 223 284
-0.12152703 0.722 -0.055699892 1.6689582e-38 224 284
-0.12026113 0.722 -0.055699892 1.6597387e-38 225 284
-0.11916003 0.72299999 -0.055777039 1.7701574e-38 226 284
-0.1182185 0.72500002 -0.055931333 1.7701574e-38 227 284
-0.11694734 0.72500002 -0.055931333 1.7701574e-38 228 284
-0.11599527 0.727 -0.056085624 1.7978521e-38 229 284
-0.1147206 0.727 -0.056085624 1.8345132e-38 230 284
-0.11344593 0.727 -0.056085624 1.7699763e-38 231 284
-0.11217125 0.727 -0.056085624 1.7324827e-38 232 284
-0.11089658 0.727 -0.056085624 1.4466764e-38 233 284
-0.1096219 0.727 -0.056085624 1.4996909e-38 234 284
-0.10834723 0.727 -0.056085624 1.2323236e-38 235 284
-0.10707255 0.727 -0.056085624 1.277273e-38 236 284
-0.10579788 0.727 -0.056085624 1.4063469e-38 237 284
-0.10466698 0.72799999 -0.056162767 1.5078362e-38 238 284
-0.10339055 0.72799999 -0.056162767 1.9503753e-38 239 284
-0.10211413 0.72799999 -0.056162767 1.658768e-38 240 284
-0.1008377 0.72799999 -0.056162767 1.8246841e-38 241 284
-0.099561274 0.72799999 -0.056162767 1.8253315e-38 242 284
-0.098554872 0.73000002 -0.056317069 1.8621738e-38 243 284
-0.097274937 0.73000002 -0.056317069 1.8255826e-38 244 284
-0.096126497 0.73100001 -0.056394216 1.8163631e-38 245 284
-0.094844811 0.73100001 -0.056394216 1.8163987e-38 246 284
-0.093563125 0.73100001 -0.056394216 1.8163987e-38 247 284
-0.092533909 0.73299998 -0.056548502 1.8163987e-38 248 284
-0.091248721 0.73299998 -0.056548502 1.8163987e-38 249 284
-0.089963526 0.73299998 -0.056548502 1.8346943e-38 250 284
-0.088678338 0.73299998 -0.056548502 1.8439497e-38 251 284
-0.087393142 0.73299998 -0.056548502 1.8531692e-38 252 284
-0.086107947 0.73299998 -0.056548502 1.8623887e-38 253 284
-0.084822752 0.73299998 -0.056548502 1.8898658e-38 254 284
-0.083195664 0.73000002 -0.056317069 1.8345486e-38 255 284
-0.081915736 0.73000002 -0.056317069 1.8703093e-38 256 284
-0.080635801 0.73000002 -0.056317069 1.5107463e-38 257 284
-0.079355866 0.73000002 -0.056317069 1.3813478e-38 258 284
-0.078075938 0.73000002 -0.056317069 1.0863578e-38 259 284
-0.076796003 0.73000002 -0.056317069 1.5645911e-38 260 284
-0.07551606 0.73000002 -0.056317069 1.8504334e-38 261 284
-0.074337825 0.73100001 -0.056394216 1.7952229e-38 262 284
-0.073056139 0.73100001 -0.056394216 1.5923926e-38 263 284
-0.071774453 0.73100001 -0.056394216 1.4986831e-38 264 284
-0.070685625 0.73299998 -0.056548502 1.3050723e-38 265 284
-0.069400437 0.73299998 -0.056548502 1.479309e-38 266 284
-0.068115242 0.73299998 -0.056548502 1.5346264e-38 267 284
-0.066830046 0.73299998 -0.056548502 1.5255516e-38 268 284
-0.065544859 0.73299998 -0.056548502 1.516332e-38 269 284
-0.064259663 0.73299998 -0.056548502 1.5254437e-38 270 284
-0.062974468 0.73299998 -0.056548502 1.5254437e-38 271 284
-0.061689276 0.73299998 -0.056548502 1.5253714e-38 272 284
-0.060404085 0.73299998 -0.056548502 1.5161518e-38 273 284
-0.059118889 0.73299998 -0.056548502 1.5344112e-38 274 284
-0.057833698 0.73299998 -0.056548502 1.5251916e-38 275 284
-0.056548502 0.73299998 -0.056548502 1.515972e-38 276 284
-0.055112526 0.73100001 -0.056394216 1.515972e-38 277 284
-0.053830836 0.73100001 -0.056394216 1.5159718e-38 278 284
-0.052549154 0.73100001 -0.056394216 1.5159718e-38 279 284
-0.051267464 0.73100001 -0.056394216 1.5158999e-38 280 284
-0.050122537 0.73299998 -0.056548502 1.5066802e-38 281 284
-0.048837345 0.73299998 -0.056548502 1.506573e-38 282 284
-0.04755215 0.73299998 -0.056548502 1.506573e-38 283 284
-0.046140719 0.73100001 -0.056394216 1.5066086e-38 284 284
-0.044859033 0.73100001 -0.056394216 1.4973531e-38 285 284
-0.043577347 0.73100001 -0.056394216 1.4881336e-38 286 284
-0.042295661 0.73100001 -0.056394216 1.4881336e-38 287 284
-0.041013971 0.73100001 -0.056394216 1.4880983e-38 288 284
-0.039732285 0.73100001 -0.056394216 1.4880983e-38 289 284
-0.038450599 0.73100001 -0.056394216 1.488062e-38 290 284
-0.037168913 0.73100001 -0.056394216 1.488062e-38 291 284
-0.035887226 0.73100001 -0.056394216 1.4971733e-38 292 284
-0.034605537 0.73100001 -0.056394216 1.4971733e-38 293 284
-0.033278264 0.73000002 -0.056317069 1.4788421e-38 294 284
-0.031998333 0.73000002 -0.056317069 1.4788421e-38 295 284
-0.030634239 0.72799999 -0.056162767 1.4788068e-38 296 284
-0.029357811 0.72799999 -0.056162767 1.4695872e-38 297 284
-0.028081384 0.72799999 -0.056162767 1.4696591e-38 298 284
-0.026804959 0.72799999 -0.056162767 1.4604396e-38 299 284
-0.025528532 0.72799999 -0.056162767 1.4695872e-38 300 284
-0.024218792 0.727 -0.056085624 1.4695872e-38 301 284
-0.022944121 0.727 -0.056085624 1.4786269e-38 302 284
-0.021699252 0.72799999 -0.056162767 1.4878464e-38 303 284
-0.020422826 0.72799999 -0.056162767 1.4603673e-38 304 284
-0.019199001 0.73000002 -0.056317069 1.4696227e-38 305 284
-0.017992707 0.73299998 -0.056548502 1.4696224e-38 306 284
-0.016707512 0.73299998 -0.056548502 1.4604029e-38 307 284
-0.01538024 0.73100001 -0.056394216 1.4786622e-38 308 284
-0.014098554 0.73100001 -0.056394216 1.4786622e-38 309 284
-0.012816866 0.73100001 -0.056394216 1.4603673e-38 310 284
-0.011519399 0.73000002 -0.056317069 1.4511477e-38 311 284
-0.010239467 0.73000002 -0.056317069 1.4602954e-38 312 284
-0.0089349858 0.72799999 -0.056162767 1.4602954e-38 313 284
-0.0076585598 0.72799999 -0.056162767 1.4511477e-38 314 284
-0.0063821329 0.72799999 -0.056162767 1.4419281e-38 315 284
-0.0051057064 0.72799999 -0.056162767 1.4693713e-38 316 284
-0.0038292799 0.72799999 -0.056162767 1.478555e-38 317 284
-0.0025528532 0.72799999 -0.056162767 1.4694073e-38 318 284
-0.0012764266 0.72799999 -0.056162767 1.4694073e-38 319 284
0 0.727 -0.056085624 1.4694426e-38 320 284
0.0012746733 0.727 -0.056085624 1.4694426e-38 321 284
0.0025493465 0.727 -0.056085624 1.4603307e-38 322 284
0.0038240198 0.727 -0.056085624 1.4787338e-38 323 284
0.0050986931 0.727 -0.056085624 1.4604026e-38 324 284
0.0063733663 0.727 -0.056085624 1.4604026e-38 325 284
0.0076270006 0.72500002 -0.055931333 1.4603307e-38 326 284
0.0088981669 0.72500002 -0.055931333 1.4603307e-38 327 284
0.010169334 0.72500002 -0.055931333 1.4511111e-38 328 284
0.0114405 0.72500002 -0.055931333 1.4603307e-38 329 284
0.012746733 0.727 -0.056085624 1.4420713e-38 330 284
0.01394426 0.72299999 -0.055777039 1.4604745e-38 331 284
0.015211919 0.72299999 -0.055777039 1.4421432e-38 332 284
0.016570752 0.727 -0.056085624 1.4421432e-38 333 284
0.017845426 0.727 -0.056085624 1.4604745e-38 334 284
0.019120099 0.727 -0.056085624 1.4420713e-38 335 284
0.020422826 0.72799999 -0.056162767 1.4603307e-38 336 284
0.021669446 0.727 -0.056085624 1.4787338e-38 337 284
0.022944121 0.727 -0.056085624 1.4604029e-38 338 284
0.024218792 0.727 -0.056085624 1.4511833e-38 339 284
0.025493465 0.727 -0.056085624 1.4694073e-38 340 284
0.026768139 0.727 -0.056085624 1.4601878e-38 341 284
0.028042812 0.727 -0.056085624 1.4601878e-38 342 284
0.029156178 0.72299999 -0.055777039 1.4694073e-38 343 284
0.030381758 0.722 -0.055699892 1.4510758e-38 344 284
0.031647664 0.722 -0.055699892 1.4787344e-38 345 284
0.0328224 0.72000003 -0.055545598 1.442036e-38 346 284
0.034084801 0.72000003 -0.055545598 1.4328165e-38 347 284
0.035445385 0.722 -0.055699892 1.4328165e-38 348 284
0.03671129 0.722 -0.055699892 1.4328165e-38 349 284
0.0379772 0.722 -0.055699892 1.4328884e-38 350 284
0.039243106 0.722 -0.055699892 1.4328884e-38 351 284
0.040509012 0.722 -0.055699892 1.4511477e-38 352 284
0.041832779 0.72299999 -0.055777039 1.4511477e-38 353 284
0.043100435 0.72299999 -0.055777039 1.4329237e-38 354 284
0.044306733 0.722 -0.055699892 1.4329237e-38 355 284
0.045572639 0.722 -0.055699892 1.4421432e-38 356 284
0.0467088 0.72000003 -0.055545598 1.4421432e-38 357 284
0.0479712 0.72000003 -0.055545598 1.4421432e-38 358 284
0.0492336 0.72000003 -0.055545598 1.4421432e-38 359 284
0.050496001 0.72000003 -0.055545598 1.4421432e-38 360 284
0.05168651 0.71899998 -0.055468451 1.4421432e-38 361 284
0.05294716 0.71899998 -0.055468451 1.4329237e-38 362 284
0.054283202 0.72000003 -0.055545598 1.4421432e-38 363 284
0.055545598 0.72000003 -0.055545598 1.4329237e-38 364 284
0.056808002 0.72000003 -0.055545598 1.4421432e-38 365 284
0.058070403 0.72000003 -0.055545598 1.4237764e-38 366 284
0.059332799 0.72000003 -0.055545598 1.4237764e-38 367 284
0.060595199 0.72000003 -0.055545598 1.4420363e-38 368 284
0.061857603 0.72000003 -0.055545598 1.4604396e-38 369 284
0.06312 0.72000003 -0.055545598 1.4421799e-38 370 284
0.064382397 0.72000003 -0.055545598 1.4237767e-38 371 284
0.065644801 0.72000003 -0.055545598 1.4421435e-38 372 284
0.066907197 0.72000003 -0.055545598 1.4421435e-38 373 284
0.068169601 0.72000003 -0.055545598 1.4421432e-38 374 284
0.069142699 0.71700001 -0.055314157 1.4513629e-38 375 284
0.070399836 0.71700001 -0.055314157 1.4422155e-38 376 284
0.072156675 0.722 -0.055699892 1.4237764e-38 377 284
0.073422581 0.722 -0.055699892 1.4237767e-38 378 284
0.074688487 0.722 -0.055699892 1.4237767e-38 379 284
0.0759544 0.722 -0.055699892 1.4238487e-38 380 284
0.0770064 0.72000003 -0.055545598 1.4238487e-38 381 284
0.078268804 0.72000003 -0.055545598 1.4422155e-38 382 284
0.07942073 0.71899998 -0.055468451 1.4422155e-38 383 284
0.080681384 0.71899998 -0.055468451 1.4421799e-38 384 284
0.081714094 0.71700001 -0.055314157 1.4513995e-38 385 284
0.082971238 0.71700001 -0.055314157 1.4330686e-38 386 284
0.084110901 0.71600002 -0.055237014 1.423849e-38 387 284
0.085366286 0.71600002 -0.055237014 1.4421449e-38 388 284
0.086621679 0.71600002 -0.055237014 1.4421449e-38 389 284
0.087877065 0.71600002 -0.055237014 1.4147371e-38 390 284
0.089132458 0.71600002 -0.055237014 1.4331402e-38 391 284
0.090135351 0.71399999 -0.05508272 1.4148089e-38 392 284
0.091387235 0.71399999 -0.05508272 1.4055894e-38 393 284
0.092639111 0.71399999 -0.05508272 1.4331049e-38 394 284
0.093890995 0.71399999 -0.05508272 1.4423244e-38 395 284
0.095009625 0.713 -0.055005573 1.4331049e-38 396 284
0.09625975 0.713 -0.055005573 1.3870429e-38 397 284
0.097646631 0.71399999 -0.05508272 1.4052304e-38 398 284
0.098898515 0.71399999 -0.05508272 1.3867912e-38 399 284
0.10015039 0.71399999 -0.05508272 1.3959378e-38 400 284
0.10140228 0.71399999 -0.05508272 1.3775347e-38 401 284
0.10265416 0.71399999 -0.05508272 1.3775694e-38 402 284
0.10390604 0.71399999 -0.05508272 1.3959725e-38 403 284
0.10501064 0.713 -0.055005573 1.3961528e-38 404 284
0.10626076 0.713 -0.055005573 1.4422506e-38 405 284
0.10751089 0.713 -0.055005573 1.4147371e-38 406 284
0.10845594 0.71100003 -0.054851279 1.4055175e-38 407 284
0.10954826 0.70999998 -0.054774132 1.4055891e-38 408 284
0.11079313 0.70999998 -0.054774132 1.3963695e-38 409 284
0.11203799 0.70999998 -0.054774132 1.3963693e-38 410 284
0.11328287 0.70999998 -0.054774132 1.4148443e-38 411 284
0.11468904 0.71100003 -0.054851279 1.3229729e-38 412 284
0.11626177 0.713 -0.055005573 1.3137533e-38 413 284
0.11751191 0.713 -0.055005573 8.177692e-39 414 284
0.1189286 0.71399999 -0.05508272 6.9795075e-39 415 284
0.12051712 0.71600002 -0.055237014 2.6711579e-39 416 284
0.12177251 0.71600002 -0.055237014 4.9756899e-39 417 284
0.12371521 0.72000003 -0.055545598 7.0050952e-39 418 284
0.12532476 0.722 -0.055699892 8.295834e-39 419 284
0.12659065 0.722 -0.055699892 8.4823931e-39 420 284
0.12785657 0.722 -0.055699892 9.2199582e-39 421 284
0.12930132 0.72299999 -0.055777039 8.8554874e-39 422 284
0.13093017 0.72500002 -0.055931333 9.3164656e-39 423 284
0.13274837 0.72799999 -0.056162767 9.7756459e-39 424 284
0.13439299 0.73000002 -0.056317069 9.6834502e-39 425 284
0.13567294 0.73000002 -0.056317069 9.8649478e-39 426 284
0.13695286 0.73000002 -0.056317069 1.0787264e-38 427 284
0.13880087 0.73299998 -0.056548502 1.5114671e-38 428 284
0.14027719 0.73400003 -0.056625653 1.5483455e-38 429 284
0.14156415 0.73400003 -0.056625653 1.6126287e-38 430 284
-0.17080621 0.727 -0.057360299 9.779634e-39 186 285
-0.16953155 0.727 -0.057360299 1.070159e-38 187 285
-0.167794 0.72500002 -0.057202499 1.0978903e-38 188 285
-0.16606344 0.72299999 -0.057044696 1.1439522e-38 189 285
-0.16456786 0.722 -0.056965802 1.1715036e-38 190 285
-0.16330196 0.722 -0.056965802 1.1438808e-38 191 285
-0.16203605 0.722 -0.056965802 1.0613007e-38 192 285
-0.16077015 0.722 -0.056965802 1.0889235e-38 193 285
-0.15950423 0.722 -0.056965802 1.1440247e-38 194 285
-0.15823832 0.722 -0.056965802 1.1440247e-38 195 285
-0.15653761 0.72000003 -0.056808002 1.1439878e-38 196 285
-0.15527521 0.72000003 -0.056808002 1.1347681e-38 197 285
-0.15379888 0.71899998 -0.056729097 1.152918e-38 198 285
-0.15211394 0.71700001 -0.056571297 1.0976007e-38 199 285
-0.1506464 0.71600002 -0.056492399 9.685618e-39 200 285
-0.1489737 0.71399999 -0.0563346 8.6718248e-39 201 285
-0.14772183 0.71399999 -0.0563346 8.762217e-39 202 285
-0.14646997 0.71399999 -0.0563346 9.4075864e-39 203 285
-0.14521807 0.71399999 -0.0563346 1.0326652e-38 204 285
-0.1439662 0.71399999 -0.0563346 9.5890868e-39 205 285
-0.14271431 0.71399999 -0.0563346 8.4809021e-39 206 285
-0.14146243 0.71399999 -0.0563346 4.885274e-39 207 285
-0.1406033 0.71600002 -0.056492399 4.4149351e-39 208 285
-0.13934793 0.71600002 -0.056492399 4.5074895e-39 209 285
-0.13809253 0.71600002 -0.056492399 6.8044909e-39 210 285
-0.13683714 0.71600002 -0.056492399 8.0030341e-39 211 285
-0.13558176 0.71600002 -0.056492399 1.1579595e-38 212 285
-0.13432637 0.71600002 -0.056492399 1.1764345e-38 213 285
-0.13307099 0.71600002 -0.056492399 1.3321588e-38 214 285
-0.13236789 0.71899998 -0.056729097 1.3229393e-38 215 285
-0.13110726 0.71899998 -0.056729097 1.3871875e-38 216 285
-0.1298466 0.71899998 -0.056729097 1.3871875e-38 217 285
-0.12858595 0.71899998 -0.056729097 1.4148102e-38 218 285
-0.1273253 0.71899998 -0.056729097 1.313431e-38 219 285
-0.12606466 0.71899998 -0.056729097 1.4995169e-38 220 285
-0.1249776 0.72000003 -0.056808002 2.0988243e-38 221 285
-0.12354337 0.71899998 -0.056729097 1.7884915e-38 222 285
-0.12228271 0.71899998 -0.056729097 1.8345892e-38 223 285
-0.12102208 0.71899998 -0.056729097 1.7795577e-38 224 285
-0.119928 0.72000003 -0.056808002 1.7518631e-38 225 285
-0.1186656 0.72000003 -0.056808002 1.7150202e-38 226 285
-0.11772932 0.722 -0.056965802 1.7150202e-38 227 285
-0.11662471 0.72299999 -0.057044696 1.7425703e-38 228 285
-0.11567616 0.72500002 -0.057202499 1.7517898e-38 229 285
-0.114405 0.72500002 -0.057202499 1.7886678e-38 230 285
-0.11313383 0.72500002 -0.057202499 1.8163265e-38 231 285
-0.11186267 0.72500002 -0.057202499 1.889723e-38 232 285
-0.1105915 0.72500002 -0.057202499 1.8344415e-38 233 285
-0.10932034 0.72500002 -0.057202499 1.7968775e-38 234 285
-0.10804917 0.72500002 -0.057202499 1.4557535e-38 235 285
-0.106778 0.72500002 -0.057202499 1.3987056e-38 236 285
-0.10550684 0.72500002 -0.057202499 9.7456987e-39 237 285
-0.10423566 0.72500002 -0.057202499 1.2397824e-38 238 285
-0.10324854 0.727 -0.057360299 1.3869726e-38 239 285
-0.10197386 0.727 -0.057360299 1.3987872e-38 240 285
-0.1008377 0.72799999 -0.057439197 1.7767893e-38 241 285
-0.099561274 0.72799999 -0.057439197 1.769187e-38 242 285
-0.098284848 0.72799999 -0.057439197 1.9259554e-38 243 285
-0.097274937 0.73000002 -0.057597004 1.8989075e-38 244 285
-0.095994994 0.73000002 -0.057597004 1.8989075e-38 245 285
-0.094715066 0.73000002 -0.057597004 1.8715004e-38 246 285
-0.093435131 0.73000002 -0.057597004 1.8715004e-38 247 285
-0.092281438 0.73100001 -0.057675898 1.816435e-38 248 285
-0.090999752 0.73100001 -0.057675898 1.7980318e-38 249 285
-0.089718066 0.73100001 -0.057675898 1.8346943e-38 250 285
-0.088436373 0.73100001 -0.057675898 1.8346943e-38 251 285
-0.087154694 0.73100001 -0.057675898 1.8163987e-38 252 285
-0.085873008 0.73100001 -0.057675898 1.8163987e-38 253 285
-0.084591322 0.73100001 -0.057675898 1.8439848e-38 254 285
-0.083195664 0.73000002 -0.057597004 1.8993021e-38 255 285
-0.081915736 0.73000002 -0.057597004 2.0093973e-38 256 285
-0.080635801 0.73000002 -0.057597004 1.6590897e-38 257 285
-0.079355866 0.73000002 -0.057597004 1.5098112e-38 258 285
-0.078075938 0.73000002 -0.057597004 7.7224619e-39 259 285
-0.076796003 0.73000002 -0.057597004 1.3316901e-38 260 285
-0.07551606 0.73000002 -0.057597004 1.5806181e-38 261 285
-0.074236132 0.73000002 -0.057597004 1.4979665e-38 262 285
-0.072956197 0.73000002 -0.057597004 1.3504535e-38 263 285
-0.071479887 0.72799999 -0.057439197 1.451183e-38 264 285
-0.070203468 0.72799999 -0.057439197 1.5802569e-38 265 285
-0.068927035 0.72799999 -0.057439197 1.5440979e-38 266 285
-0.067650609 0.72799999 -0.057439197 1.5348784e-38 267 285
-0.066647708 0.73100001 -0.057675898 1.5256232e-38 268 285
-0.0652766 0.73000002 -0.057597004 1.5164036e-38 269 285
-0.063996665 0.73000002 -0.057597004 1.5254434e-38 270 285
-0.062802643 0.73100001 -0.057675898 1.5162237e-38 271 285
-0.061436798 0.73000002 -0.057597004 1.5344833e-38 272 285
-0.060156867 0.73000002 -0.057597004 1.5160443e-38 273 285
-0.058876935 0.73000002 -0.057597004 1.5251563e-38 274 285
-0.057597004 0.73000002 -0.057597004 1.5159367e-38 275 285
-0.056317069 0.73000002 -0.057597004 1.5159367e-38 276 285
-0.055037133 0.73000002 -0.057597004 1.5067172e-38 277 285
-0.053757198 0.73000002 -0.057597004 1.5067525e-38 278 285
-0.052477267 0.73000002 -0.057597004 1.5067525e-38 279 285
-0.051197331 0.73000002 -0.057597004 1.5249761e-38 280 285
-0.0499174 0.73000002 -0.057597004 1.506573e-38 281 285
-0.048704091 0.73100001 -0.057675898 1.5156849e-38 282 285
-0.047357533 0.73000002 -0.057597004 1.5249045e-38 283 285
-0.046077598 0.73000002 -0.057597004 1.5156846e-38 284 285
-0.044797666 0.73000002 -0.057597004 1.5064651e-38 285 285
-0.043517731 0.73000002 -0.057597004 1.4881336e-38 286 285
-0.0422378 0.73000002 -0.057597004 1.4973531e-38 287 285
-0.040957868 0.73000002 -0.057597004 1.4789143e-38 288 285
-0.039569225 0.72799999 -0.057439197 1.4789143e-38 289 285
-0.038292799 0.72799999 -0.057439197 1.4879185e-38 290 285
-0.037016369 0.72799999 -0.057439197 1.4879185e-38 291 285
-0.035739943 0.72799999 -0.057439197 1.4971736e-38 292 285
-0.034463517 0.72799999 -0.057439197 1.4971736e-38 293 285
-0.033141505 0.727 -0.057360299 1.4788424e-38 294 285
-0.03186683 0.727 -0.057360299 1.4788424e-38 295 285
-0.030592158 0.727 -0.057360299 1.4695872e-38 296 285
-0.029317487 0.727 -0.057360299 1.4695872e-38 297 285
-0.028042812 0.727 -0.057360299 1.4695872e-38 298 285
-0.026768139 0.727 -0.057360299 1.4695872e-38 299 285
-0.025493465 0.727 -0.057360299 1.4695872e-38 300 285
-0.024152167 0.72500002 -0.057202499 1.4603675e-38 301 285
-0.022880999 0.72500002 -0.057202499 1.4878464e-38 302 285
-0.021609833 0.72500002 -0.057202499 1.497102e-38 303 285
-0.020338668 0.72500002 -0.057202499 1.4604391e-38 304 285
-0.019120099 0.727 -0.057360299 1.4604391e-38 305 285
-0.017869972 0.72799999 -0.057439197 1.4603673e-38 306 285
-0.016593546 0.72799999 -0.057439197 1.4511477e-38 307 285
-0.015296079 0.727 -0.057360299 1.4602954e-38 308 285
-0.014021406 0.727 -0.057360299 1.4602954e-38 309 285
-0.012746733 0.727 -0.057360299 1.460331e-38 310 285
-0.01148784 0.72799999 -0.057439197 1.460331e-38 311 285
-0.010211413 0.72799999 -0.057439197 1.4602954e-38 312 285
-0.0089227129 0.727 -0.057360299 1.4602954e-38 313 285
-0.0076480396 0.727 -0.057360299 1.451148e-38 314 285
-0.0063733663 0.727 -0.057360299 1.4419284e-38 315 285
-0.0050986931 0.727 -0.057360299 1.460188e-38 316 285
-0.0038240198 0.727 -0.057360299 1.4694076e-38 317 285
-0.0025493465 0.727 -0.057360299 1.4510758e-38 318 285
-0.0012711667 0.72500002 -0.057202499 1.4602954e-38 319 285
0 0.72500002 -0.057202499 1.4511114e-38 320 285
0.0012711667 0.72500002 -0.057202499 1.4511114e-38 321 285
0.0025423334 0.72500002 -0.057202499 1.4604029e-38 322 285
0.0038135003 0.72500002 -0.057202499 1.4604029e-38 323 285
0.0050846669 0.72500002 -0.057202499 1.4604029e-38 324 285
0.0063382997 0.72299999 -0.057044696 1.4511833e-38 325 285
0.0076059597 0.72299999 -0.057044696 1.469407e-38 326 285
0.0088613462 0.722 -0.056965802 1.469407e-38 327 285
0.010127253 0.722 -0.056965802 1.4510758e-38 328 285
0.01139316 0.722 -0.056965802 1.4510758e-38 329 285
0.012676599 0.72299999 -0.057044696 1.4511833e-38 330 285
0.01394426 0.72299999 -0.057044696 1.4604029e-38 331 285
0.015211919 0.72299999 -0.057044696 1.4421435e-38 332 285
0.01647958 0.72299999 -0.057044696 1.4328881e-38 333 285
0.017747238 0.72299999 -0.057044696 1.4420716e-38 334 285
0.019014901 0.72299999 -0.057044696 1.4235966e-38 335 285
0.020282559 0.72299999 -0.057044696 1.4511477e-38 336 285
0.021609833 0.72500002 -0.057202499 1.4511477e-38 337 285
0.022880999 0.72500002 -0.057202499 1.451148e-38 338 285
0.024085538 0.72299999 -0.057044696 1.4419284e-38 339 285
0.025353199 0.72299999 -0.057044696 1.4601878e-38 340 285
0.026620859 0.72299999 -0.057044696 1.4694073e-38 341 285
0.027772799 0.72000003 -0.056808002 1.4510758e-38 342 285
0.029035201 0.72000003 -0.056808002 1.4602954e-38 343 285
0.030255521 0.71899998 -0.056729097 1.4511477e-38 344 285
0.031516165 0.71899998 -0.056729097 1.4511477e-38 345 285
0.032776814 0.71899998 -0.056729097 1.4420363e-38 346 285
0.03403746 0.71899998 -0.056729097 1.4235613e-38 347 285
0.035347197 0.72000003 -0.056808002 1.4328165e-38 348 285
0.036609601 0.72000003 -0.056808002 1.442036e-38 349 285
0.037819397 0.71899998 -0.056729097 1.442036e-38 350 285
0.039080046 0.71899998 -0.056729097 1.442036e-38 351 285
0.040340692 0.71899998 -0.056729097 1.442036e-38 352 285
0.041601337 0.71899998 -0.056729097 1.4328165e-38 353 285
0.042921603 0.72000003 -0.056808002 1.4511833e-38 354 285
0.044122629 0.71899998 -0.056729097 1.4604029e-38 355 285
0.045383278 0.71899998 -0.056729097 1.4420716e-38 356 285
0.046514176 0.71700001 -0.056571297 1.4328162e-38 357 285
0.04777132 0.71700001 -0.056571297 1.4328881e-38 358 285
0.04902846 0.71700001 -0.056571297 1.4328881e-38 359 285
0.0502856 0.71700001 -0.056571297 1.4328881e-38 360 285
0.051542737 0.71700001 -0.056571297 1.4236685e-38 361 285
0.052799881 0.71700001 -0.056571297 1.4328884e-38 362 285
0.054057021 0.71700001 -0.056571297 1.4421079e-38 363 285
0.055314157 0.71700001 -0.056571297 1.4328881e-38 364 285
0.056571297 0.71700001 -0.056571297 1.4421435e-38 365 285
0.057828441 0.71700001 -0.056571297 1.4237771e-38 366 285
0.059085581 0.71700001 -0.056571297 1.4145215e-38 367 285
0.060511041 0.71899998 -0.056729097 1.442001e-38 368 285
0.061599858 0.71700001 -0.056571297 1.442001e-38 369 285
0.062856995 0.71700001 -0.056571297 1.4237771e-38 370 285
0.064114138 0.71700001 -0.056571297 1.4237771e-38 371 285
0.065371275 0.71700001 -0.056571297 1.4328165e-38 372 285
0.066535495 0.71600002 -0.056492399 1.442036e-38 373 285
0.067601517 0.71399999 -0.0563346 1.4420716e-38 374 285
0.068853401 0.71399999 -0.0563346 1.4420716e-38 375 285
0.069810718 0.71100003 -0.056097899 1.4421435e-38 376 285
0.071057342 0.71100003 -0.056097899 1.4421435e-38 377 285
0.072303966 0.71100003 -0.056097899 1.4145571e-38 378 285
0.073550582 0.71100003 -0.056097899 1.4237767e-38 379 285
0.074797198 0.71100003 -0.056097899 1.4238484e-38 380 285
0.076043822 0.71100003 -0.056097899 1.4238484e-38 381 285
0.077290438 0.71100003 -0.056097899 1.423884e-38 382 285
0.079199821 0.71700001 -0.056571297 1.4331036e-38 383 285
0.080456957 0.71700001 -0.056571297 1.4421799e-38 384 285
0.08160013 0.71600002 -0.056492399 1.4421799e-38 385 285
0.082624078 0.71399999 -0.0563346 1.4238134e-38 386 285
0.083875954 0.71399999 -0.0563346 1.4145938e-38 387 285
0.085127831 0.71399999 -0.0563346 1.4237418e-38 388 285
0.086379714 0.71399999 -0.0563346 1.4421449e-38 389 285
0.087263398 0.71100003 -0.056097899 1.4147371e-38 390 285
0.088510022 0.71100003 -0.056097899 1.4147371e-38 391 285
0.089756638 0.71100003 -0.056097899 1.4054819e-38 392 285
0.091003262 0.71100003 -0.056097899 1.4054819e-38 393 285
0.092249878 0.71100003 -0.056097899 1.4147017e-38 394 285
0.093496501 0.71100003 -0.056097899 1.4331049e-38 395 285
0.094743125 0.71100003 -0.056097899 1.4147017e-38 396 285
0.095989741 0.71100003 -0.056097899 1.4147017e-38 397 285
0.097236358 0.71100003 -0.056097899 1.4238137e-38 398 285
0.098482981 0.71100003 -0.056097899 1.4145941e-38 399 285
0.099729598 0.71100003 -0.056097899 1.396227e-38 400 285
0.10097622 0.71100003 -0.056097899 1.396227e-38 401 285
0.10222284 0.71100003 -0.056097899 1.4145215e-38 402 285
0.10346945 0.71100003 -0.056097899 1.4237771e-38 403 285
0.10471608 0.71100003 -0.056097899 1.414629e-38 404 285
0.1059627 0.71100003 -0.056097899 1.414629e-38 405 285
0.10720932 0.71100003 -0.056097899 1.4145936e-38 406 285
0.10799832 0.708 -0.055861197 1.423849e-38 407 285
0.10923968 0.708 -0.055861197 1.3962975e-38 408 285
0.11048104 0.708 -0.055861197 1.3962975e-38 409 285
0.11172239 0.708 -0.055861197 1.368818e-38 410 285
0.11296376 0.708 -0.055861197 1.3965127e-38 411 285
0.11452773 0.70999998 -0.056018997 1.1853629e-38 412 285
0.11593566 0.71100003 -0.056097899 1.1300455e-38 413 285
0.11751191 0.713 -0.056255698 4.6868557e-39 414 285
0.1189286 0.71399999 -0.0563346 4.3184333e-39 415 285
0.12051712 0.71600002 -0.056492399 3.9637114e-39 416 285
0.12177251 0.71600002 -0.056492399 6.9136129e-39 417 285
0.12371521 0.72000003 -0.056808002 8.6653382e-39 418 285
0.12532476 0.722 -0.056965802 8.7575353e-39 419 285
0.12659065 0.722 -0.056965802 8.5763796e-39 420 285
0.12785657 0.722 -0.056965802 9.4983373e-39 421 285
0.12930132 0.72299999 -0.057044696 9.4079423e-39 422 285
0.13056898 0.72299999 -0.057044696 9.500138e-39 423 285
0.13274837 0.72799999 -0.057439197 9.7752927e-39 424 285
0.13439299 0.73000002 -0.057597004 9.5909015e-39 425 285
0.13567294 0.73000002 -0.057597004 1.1338267e-38 426 285
0.13695286 0.73000002 -0.057597004 1.2536811e-38 427 285
-0.16906516 0.72500002 -0.058473669 8.8519001e-39 187 286
-0.16733111 0.72299999 -0.058312356 8.5818096e-39 188 286
-0.16606344 0.72299999 -0.058312356 9.595963e-39 189 286
-0.16456786 0.722 -0.058231708 1.0333534e-38 190 286
-0.16330196 0.722 -0.058231708 1.0794153e-38 191 286
-0.16203605 0.722 -0.058231708 1.070448e-38 192 286
-0.16077015 0.722 -0.058231708 1.1257295e-38 193 286
-0.15950423 0.722 -0.058231708 1.1257295e-38 194 286
-0.15779999 0.72000003 -0.058070403 1.0981068e-38 195 286
-0.15653761 0.72000003 -0.058070403 1.0888871e-38 196 286
-0.15527521 0.72000003 -0.058070403 1.0796675e-38 197 286
-0.15379888 0.71899998 -0.057989739 1.1532793e-38 198 286
-0.15211394 0.71700001 -0.057828441 1.1256566e-38 199 286
-0.1506464 0.71600002 -0.057747785 1.1345509e-38 200 286
-0.1489737 0.71399999 -0.057586476 1.0792694e-38 201 286
-0.14772183 0.71399999 -0.057586476 1.0605779e-38 202 286
-0.14646997 0.71399999 -0.057586476 9.8682142e-39 203 286
-0.14521807 0.71399999 -0.057586476 8.9480502e-39 204 286
-0.1439662 0.71399999 -0.057586476 8.7640177e-39 205 286
-0.14271431 0.71399999 -0.057586476 9.2231783e-39 206 286
-0.14146243 0.71399999 -0.057586476 9.0387871e-39 207 286
-0.14021055 0.71399999 -0.057586476 8.3847661e-39 208 286
-0.13895868 0.71399999 -0.057586476 5.7110928e-39 209 286
-0.1377068 0.71399999 -0.057586476 2.3034488e-39 210 286
-0.13683714 0.71600002 -0.057747785 1.5658838e-39 211 286
-0.13558176 0.71600002 -0.057747785 5.9754491e-39 212 286
-0.13395114 0.71399999 -0.057586476 8.003753e-39 213 286
-0.13269927 0.71399999 -0.057586476 1.2500109e-38 214 286
-0.13236789 0.71899998 -0.057989739 1.2407914e-38 215 286
-0.13110726 0.71899998 -0.057989739 1.3964071e-38 216 286
-0.1298466 0.71899998 -0.057989739 1.3871875e-38 217 286
-0.12822828 0.71700001 -0.057828441 1.4054469e-38 218 286
-0.12697114 0.71700001 -0.057828441 1.3224707e-38 219 286
-0.12571399 0.71700001 -0.057828441 1.3514286e-38 220 286
-0.12445686 0.71700001 -0.057828441 1.8031513e-38 221 286
-0.12319972 0.71700001 -0.057828441 1.6771734e-38 222 286
-0.12194258 0.71700001 -0.057828441 1.8984429e-38 223 286
-0.12068544 0.71700001 -0.057828441 1.7610111e-38 224 286
-0.11942829 0.71700001 -0.057828441 1.7517914e-38 225 286
-0.11850078 0.71899998 -0.057989739 1.7333873e-38 226 286
-0.11740319 0.72000003 -0.058070403 1.7241318e-38 227 286
-0.11646342 0.722 -0.058231708 1.7425347e-38 228 286
-0.11519751 0.722 -0.058231708 1.7425347e-38 229 286
-0.11408939 0.72299999 -0.058312356 1.7426066e-38 230 286
-0.11282174 0.72299999 -0.058312356 1.7518261e-38 231 286
-0.11155408 0.72299999 -0.058312356 1.7610457e-38 232 286
-0.11013387 0.722 -0.058231708 1.7979239e-38 233 286
-0.10886797 0.722 -0.058231708 1.834693e-38 234 286
-0.10760206 0.722 -0.058231708 1.8070343e-38 235 286
-0.10633615 0.722 -0.058231708 1.787982e-38 236 286
-0.10507025 0.722 -0.058231708 1.5759319e-38 237 286
-0.10380434 0.722 -0.058231708 1.5743129e-38 238 286
-0.10268046 0.72299999 -0.058312356 1.2424086e-38 239 286
-0.10169333 0.72500002 -0.058473669 1.3316204e-38 240 286
-0.10069919 0.727 -0.058634974 1.432641e-38 241 286
-0.099424519 0.727 -0.058634974 1.3238788e-38 242 286
-0.098149844 0.727 -0.058634974 1.7387592e-38 243 286
-0.097008422 0.72799999 -0.058715623 1.6030906e-38 244 286
-0.095731996 0.72799999 -0.058715623 1.824396e-38 245 286
-0.09445557 0.72799999 -0.058715623 1.8343709e-38 246 286
-0.09305115 0.727 -0.058634974 1.9357502e-38 247 286
-0.091776483 0.727 -0.058634974 1.8440943e-38 248 286
-0.090501808 0.727 -0.058634974 1.8348748e-38 249 286
-0.089227132 0.727 -0.058634974 1.8439497e-38 250 286
-0.087952457 0.727 -0.058634974 1.8439497e-38 251 286
-0.086797006 0.72799999 -0.058715623 1.8163987e-38 252 286
-0.08552058 0.72799999 -0.058715623 1.8256182e-38 253 286
-0.084244154 0.72799999 -0.058715623 1.8256182e-38 254 286
-0.082967728 0.72799999 -0.058715623 1.853241e-38 255 286
-0.081691302 0.72799999 -0.058715623 1.9176343e-38 256 286
-0.080414876 0.72799999 -0.058715623 1.696329e-38 257 286
-0.07913845 0.72799999 -0.058715623 1.6755857e-38 258 286
-0.077862024 0.72799999 -0.058715623 1.0947532e-38 259 286
-0.076585598 0.72799999 -0.058715623 1.4886023e-38 260 286
-0.075309172 0.72799999 -0.058715623 1.5439197e-38 261 286
-0.074032739 0.72799999 -0.058715623 1.5348799e-38 262 286
-0.072756313 0.72799999 -0.058715623 1.5440996e-38 263 286
-0.071479887 0.72799999 -0.058715623 1.5255879e-38 264 286
-0.070203468 0.72799999 -0.058715623 1.5255879e-38 265 286
-0.06883236 0.727 -0.058634974 1.5440623e-38 266 286
-0.067557678 0.727 -0.058634974 1.5256232e-38 267 286
-0.066374183 0.72799999 -0.058715623 1.5346983e-38 268 286
-0.065097757 0.72799999 -0.058715623 1.516259e-38 269 286
-0.063821331 0.72799999 -0.058715623 1.5253714e-38 270 286
-0.062544905 0.72799999 -0.058715623 1.5161518e-38 271 286
-0.061184317 0.727 -0.058634974 1.525156e-38 272 286
-0.059909642 0.727 -0.058634974 1.5344114e-38 273 286
-0.058634974 0.727 -0.058634974 1.5159364e-38 274 286
-0.057360299 0.727 -0.058634974 1.5067169e-38 275 286
-0.056085624 0.727 -0.058634974 1.5066805e-38 276 286
-0.054810952 0.727 -0.058634974 1.5066805e-38 277 286
-0.053536277 0.727 -0.058634974 1.5250114e-38 278 286
-0.052333489 0.72799999 -0.058715623 1.4973887e-38 279 286
-0.051057063 0.72799999 -0.058715623 1.5064651e-38 280 286
-0.049780637 0.72799999 -0.058715623 1.5156846e-38 281 286
-0.048504211 0.72799999 -0.058715623 1.5156846e-38 282 286
-0.047227785 0.72799999 -0.058715623 1.5064651e-38 283 286
-0.045951359 0.72799999 -0.058715623 1.4881336e-38 284 286
-0.044674929 0.72799999 -0.058715623 1.4881336e-38 285 286
-0.043338891 0.727 -0.058634974 1.4880617e-38 286 286
-0.042064216 0.727 -0.058634974 1.4880617e-38 287 286
-0.040789545 0.727 -0.058634974 1.4788421e-38 288 286
-0.039406165 0.72500002 -0.058473669 1.4696224e-38 289 286
-0.038135 0.72500002 -0.058473669 1.487882e-38 290 286
-0.036863834 0.72500002 -0.058473669 1.4971016e-38 291 286
-0.035592668 0.72500002 -0.058473669 1.4971739e-38 292 286
-0.03422682 0.72299999 -0.058312356 1.4879185e-38 293 286
-0.032959159 0.72299999 -0.058312356 1.4878464e-38 294 286
-0.031779166 0.72500002 -0.058473669 1.497102e-38 295 286
-0.030508002 0.72500002 -0.058473669 1.4695872e-38 296 286
-0.029236834 0.72500002 -0.058473669 1.4695872e-38 297 286
-0.027965667 0.72500002 -0.058473669 1.4696227e-38 298 286
-0.026694499 0.72500002 -0.058473669 1.4696227e-38 299 286
-0.025423333 0.72500002 -0.058473669 1.4695875e-38 300 286
-0.024152167 0.72500002 -0.058473669 1.4603678e-38 301 286
-0.02281788 0.72299999 -0.058312356 1.478699e-38 302 286
-0.021550218 0.72299999 -0.058312356 1.4879187e-38 303 286
-0.020282559 0.72299999 -0.058312356 1.4604391e-38 304 286
-0.019014901 0.72299999 -0.058312356 1.4328165e-38 305 286
-0.017845426 0.727 -0.058634974 1.4602954e-38 306 286
-0.01647958 0.72299999 -0.058312356 1.4602954e-38 307 286
-0.015211919 0.72299999 -0.058312356 1.460331e-38 308 286
-0.01394426 0.72299999 -0.058312356 1.4787341e-38 309 286
-0.012676599 0.72299999 -0.058312356 1.4603307e-38 310 286
-0.0114405 0.72500002 -0.058473669 1.4603307e-38 311 286
-0.010169334 0.72500002 -0.058473669 1.4511111e-38 312 286
-0.0088981669 0.72500002 -0.058473669 1.4511111e-38 313 286
-0.0076059597 0.72299999 -0.058312356 1.4510758e-38 314 286
-0.0063382997 0.72299999 -0.058312356 1.4510758e-38 315 286
-0.0050846669 0.72500002 -0.058473669 1.4510758e-38 316 286
-0.0038135003 0.72500002 -0.058473669 1.4787344e-38 317 286
-0.0025423334 0.72500002 -0.058473669 1.4604029e-38 318 286
-0.0012676599 0.72299999 -0.058312356 1.4604029e-38 319 286
0 0.72299999 -0.058312356 1.460331e-38 320 286
0.0012676599 0.72299999 -0.058312356 1.4511114e-38 321 286
0.0025353199 0.72299999 -0.058312356 1.4511833e-38 322 286
0.0038029798 0.72299999 -0.058312356 1.4604029e-38 323 286
0.0050636264 0.722 -0.058231708 1.4694073e-38 324 286
0.0063295332 0.722 -0.058231708 1.4601878e-38 325 286
0.0075743999 0.72000003 -0.058070403 1.4694076e-38 326 286
0.0088245263 0.71899998 -0.057989739 1.4694076e-38 327 286
0.010085173 0.71899998 -0.057989739 1.4601875e-38 328 286
0.01134582 0.71899998 -0.057989739 1.4786625e-38 329 286
0.012624 0.72000003 -0.058070403 1.4420716e-38 330 286
0.013924973 0.722 -0.058231708 1.4420716e-38 331 286
0.0151488 0.72000003 -0.058070403 1.4328165e-38 332 286
0.0164112 0.72000003 -0.058070403 1.4235969e-38 333 286
0.017673599 0.72000003 -0.058070403 1.4418562e-38 334 286
0.0189886 0.722 -0.058231708 1.4510758e-38 335 286
0.020254506 0.722 -0.058231708 1.4602954e-38 336 286
0.021520413 0.722 -0.058231708 1.4510758e-38 337 286
0.022723202 0.72000003 -0.058070403 1.4418928e-38 338 286
0.0239856 0.72000003 -0.058070403 1.4326733e-38 339 286
0.025212931 0.71899998 -0.057989739 1.4419284e-38 340 286
0.02647358 0.71899998 -0.057989739 1.451148e-38 341 286
0.027734226 0.71899998 -0.057989739 1.451183e-38 342 286
0.028994869 0.71899998 -0.057989739 1.451183e-38 343 286
0.030171359 0.71700001 -0.057828441 1.4511833e-38 344 286
0.031428497 0.71700001 -0.057828441 1.4511833e-38 345 286
0.032685637 0.71700001 -0.057828441 1.442036e-38 346 286
0.033942781 0.71700001 -0.057828441 1.4328165e-38 347 286
0.035199918 0.71700001 -0.057828441 1.4419281e-38 348 286
0.036457058 0.71700001 -0.057828441 1.4419281e-38 349 286
0.037661601 0.71600002 -0.057747785 1.4328884e-38 350 286
0.038808275 0.71399999 -0.057586476 1.4236688e-38 351 286
0.040004052 0.713 -0.057505824 1.4419279e-38 352 286
0.041138459 0.71100003 -0.057344519 1.4511833e-38 353 286
0.042385083 0.71100003 -0.057344519 1.4328162e-38 354 286
0.043815799 0.71399999 -0.057586476 1.4328162e-38 355 286
0.044878319 0.71100003 -0.057344519 1.4419281e-38 356 286
0.046124939 0.71100003 -0.057344519 1.4511477e-38 357 286
0.047704693 0.71600002 -0.057747785 1.442036e-38 358 286
0.048960082 0.71600002 -0.057747785 1.442036e-38 359 286
0.0502856 0.71700001 -0.057828441 1.4328165e-38 360 286
0.051542737 0.71700001 -0.057828441 1.4328165e-38 361 286
0.052726239 0.71600002 -0.057747785 1.4328884e-38 362 286
0.053981625 0.71600002 -0.057747785 1.4328884e-38 363 286
0.055237014 0.71600002 -0.057747785 1.4328881e-38 364 286
0.0563346 0.71399999 -0.057586476 1.4328881e-38 365 286
0.057586476 0.71399999 -0.057586476 1.4328165e-38 366 286
0.058755953 0.713 -0.057505824 1.4328165e-38 367 286
0.060006075 0.713 -0.057505824 1.442036e-38 368 286
0.061342116 0.71399999 -0.057586476 1.442036e-38 369 286
0.062506333 0.713 -0.057505824 1.4328886e-38 370 286
0.063756458 0.713 -0.057505824 1.4236332e-38 371 286
0.065097757 0.71399999 -0.057586476 1.4418928e-38 372 286
0.066256717 0.713 -0.057505824 1.4326733e-38 373 286
0.067506835 0.713 -0.057505824 1.4419279e-38 374 286
0.068564095 0.71100003 -0.057344519 1.4604029e-38 375 286
0.069712527 0.70999998 -0.057263866 1.4328515e-38 376 286
0.070957392 0.70999998 -0.057263866 1.4605101e-38 377 286
0.071998879 0.708 -0.057102561 1.423812e-38 378 286
0.073240235 0.708 -0.057102561 1.423812e-38 379 286
0.074481599 0.708 -0.057102561 1.4237764e-38 380 286
0.075722955 0.708 -0.057102561 1.4237764e-38 381 286
0.076964319 0.708 -0.057102561 1.423884e-38 382 286
0.078205675 0.708 -0.057102561 1.4146643e-38 383 286
0.079783678 0.71100003 -0.057344519 1.4329237e-38 384 286
0.08125823 0.713 -0.057505824 1.4513629e-38 385 286
0.082508355 0.713 -0.057505824 1.414629e-38 386 286
0.083523542 0.71100003 -0.057344519 1.4054095e-38 387 286
0.084770165 0.71100003 -0.057344519 1.4237771e-38 388 286
0.086016782 0.71100003 -0.057344519 1.4237771e-38 389 286
0.087140657 0.70999998 -0.057263866 1.4147371e-38 390 286
0.08838553 0.70999998 -0.057263866 1.4055175e-38 391 286
0.089630395 0.70999998 -0.057263866 1.4145571e-38 392 286
0.090875261 0.70999998 -0.057263866 1.4237767e-38 393 286
0.092120126 0.70999998 -0.057263866 1.4147371e-38 394 286
0.093101993 0.708 -0.057102561 1.4055175e-38 395 286
0.094210111 0.70700002 -0.057021905 1.4238487e-38 396 286
0.095449716 0.70700002 -0.057021905 1.4054095e-38 397 286
0.096826077 0.708 -0.057102561 1.4145215e-38 398 286
0.098067433 0.708 -0.057102561 1.4237771e-38 399 286
0.099308796 0.708 -0.057102561 1.4145936e-38 400 286
0.10026611 0.70599997 -0.056941248 1.423849e-38 401 286
0.10150397 0.70599997 -0.056941248 1.4146287e-38 402 286
0.10332392 0.70999998 -0.057263866 1.4146287e-38 403 286
0.10456879 0.70999998 -0.057263866 1.4236332e-38 404 286
0.1055156 0.708 -0.057102561 1.4052301e-38 405 286
0.10660617 0.70700002 -0.057021905 1.4053739e-38 406 286
0.10784578 0.70700002 -0.057021905 1.4053739e-38 407 286
0.10908539 0.70700002 -0.057021905 1.4054089e-38 408 286
0.11032499 0.70700002 -0.057021905 1.423884e-38 409 286
0.11172239 0.708 -0.057102561 1.3321196e-38 410 286
0.11296376 0.708 -0.057102561 1.2768022e-38 411 286
0.11452773 0.70999998 -0.057263866 8.175164e-39 412 286
0.11593566 0.71100003 -0.057344519 6.4284847e-39 413 286
0.11718228 0.71100003 -0.057344519 1.751361e-39 414 286
0.11876203 0.713 -0.057505824 4.4250343e-39 415 286
0.12051712 0.71600002 -0.057747785 7.5579089e-39 416 286
0.12177251 0.71600002 -0.057747785 8.6642564e-39 417 286
0.12354337 0.71899998 -0.057989739 8.5749391e-39 418 286
0.1249776 0.72000003 -0.058070403 8.7589702e-39 419 286
0.12624 0.72000003 -0.058070403 9.4054214e-39 420 286
0.12785657 0.722 -0.058231708 1.0419215e-38 421 286
0.12912247 0.722 -0.058231708 9.5930525e-39 422 286
0.13056898 0.72299999 -0.058312356 9.5930525e-39 423 286
0.13220133 0.72500002 -0.058473669 9.4994121e-39 424 286
-0.16733111 0.72299999 -0.059580017 8.0224842e-39 188 287
-0.16606344 0.72299999 -0.059580017 9.1288317e-39 189 287
-0.16456786 0.722 -0.059497613 9.7767473e-39 190 287
-0.16330196 0.722 -0.059497613 1.0698343e-38 191 287
-0.16203605 0.722 -0.059497613 1.0517562e-38 192 287
-0.16077015 0.722 -0.059497613 1.1162931e-38 193 287
-0.15950423 0.722 -0.059497613 1.1532443e-38 194 287
-0.15779999 0.72000003 -0.059332799 1.1624638e-38 195 287
-0.15653761 0.72000003 -0.059332799 1.0981071e-38 196 287
-0.15527521 0.72000003 -0.059332799 1.0888515e-38 197 287
-0.15337107 0.71700001 -0.059085581 1.134913e-38 198 287
-0.15190178 0.71600002 -0.059003171 1.1533522e-38 199 287
-0.15022559 0.71399999 -0.058838356 1.1164013e-38 200 287
-0.1489737 0.71399999 -0.058838356 1.125621e-38 201 287
-0.14772183 0.71399999 -0.058838356 1.1622458e-38 202 287
-0.14646997 0.71399999 -0.058838356 1.0884534e-38 203 287
-0.14521807 0.71399999 -0.058838356 9.5945014e-39 204 287
-0.14376457 0.713 -0.058755953 8.949132e-39 205 287
-0.14251444 0.713 -0.058755953 9.4075892e-39 206 287
-0.1412643 0.713 -0.058755953 9.7760116e-39 207 287
-0.14001419 0.713 -0.058755953 1.0142614e-38 208 287
-0.13876405 0.713 -0.058755953 8.2065055e-39 209 287
-0.13751394 0.713 -0.058755953 6.544438e-39 210 287
-0.1362638 0.713 -0.058755953 3.5023423e-39 211 287
-0.13444559 0.70999998 -0.058508728 5.7017363e-39 212 287
-0.13320073 0.70999998 -0.058508728 6.3471057e-39 213 287
-0.13269927 0.71399999 -0.058838356 7.9083204e-39 214 287
-0.1314474 0.71399999 -0.058838356 8.4611354e-39 215 287
-0.13110726 0.71899998 -0.059250388 1.16725e-38 216 287
-0.12948541 0.71700001 -0.059085581 1.1764695e-38 217 287
-0.12822828 0.71700001 -0.059085581 1.3872594e-38 218 287
-0.12679406 0.71600002 -0.059003171 1.3411616e-38 219 287
-0.12553866 0.71600002 -0.059003171 1.3132521e-38 220 287
-0.12445686 0.71700001 -0.059085581 1.5343421e-38 221 287
-0.12302789 0.71600002 -0.059003171 1.4174046e-38 222 287
-0.12177251 0.71600002 -0.059003171 1.8322849e-38 223 287
-0.12051712 0.71600002 -0.059003171 1.7603277e-38 224 287
-0.11926173 0.71600002 -0.059003171 1.8617068e-38 225 287
-0.11817116 0.71700001 -0.059085581 1.8069637e-38 226 287
-0.11691402 0.71700001 -0.059085581 1.7701213e-38 227 287
-0.11597948 0.71899998 -0.059250388 1.733387e-38 228 287
-0.1148784 0.72000003 -0.059332799 1.7241674e-38 229 287
-0.113616 0.72000003 -0.059332799 1.7426066e-38 230 287
-0.1123536 0.72000003 -0.059332799 1.733387e-38 231 287
-0.1110912 0.72000003 -0.059332799 1.7243107e-38 232 287
-0.11013387 0.722 -0.059497613 1.7243107e-38 233 287
-0.1085664 0.72000003 -0.059332799 1.7703007e-38 234 287
-0.107304 0.72000003 -0.059332799 1.8348376e-38 235 287
-0.1060416 0.72000003 -0.059332799 1.8899032e-38 236 287
-0.1047792 0.72000003 -0.059332799 1.8253663e-38 237 287
-0.10380434 0.722 -0.059497613 1.7971291e-38 238 287
-0.10253844 0.722 -0.059497613 1.5850792e-38 239 287
-0.10127253 0.722 -0.059497613 1.4539216e-38 240 287
-0.10014514 0.72299999 -0.059580017 1.1404564e-38 241 287
-0.099151 0.72500002 -0.059744831 1.3144069e-38 242 287
-0.097879834 0.72500002 -0.059744831 1.3144069e-38 243 287
-0.096608669 0.72500002 -0.059744831 1.3065881e-38 244 287
-0.095337495 0.72500002 -0.059744831 1.6292728e-38 245 287
-0.094066329 0.72500002 -0.059744831 1.6581562e-38 246 287
-0.092539176 0.72299999 -0.059580017 1.8794258e-38 247 287
-0.09127152 0.72299999 -0.059580017 1.8435906e-38 248 287
-0.090003856 0.72299999 -0.059580017 1.8896883e-38 249 287
-0.088981666 0.72500002 -0.059744831 1.8807558e-38 250 287
-0.0877105 0.72500002 -0.059744831 1.8715004e-38 251 287
-0.086439334 0.72500002 -0.059744831 1.8439495e-38 252 287
-0.085168168 0.72500002 -0.059744831 1.8439495e-38 253 287
-0.083897002 0.72500002 -0.059744831 1.8256179e-38 254 287
-0.082625829 0.72500002 -0.059744831 1.8532766e-38 255 287
-0.081579089 0.727 -0.059909642 1.8808647e-38 256 287
-0.080304414 0.727 -0.059909642 1.5305213e-38 257 287
-0.079029746 0.727 -0.059909642 1.5556609e-38 258 287
-0.077755071 0.727 -0.059909642 1.1592197e-38 259 287
-0.076480396 0.727 -0.059909642 1.5625753e-38 260 287
-0.075205728 0.727 -0.059909642 1.5718307e-38 261 287
-0.073931053 0.727 -0.059909642 1.553499e-38 262 287
-0.072656378 0.727 -0.059909642 1.5350598e-38 263 287
-0.071381703 0.727 -0.059909642 1.5257678e-38 264 287
-0.070107035 0.727 -0.059909642 1.5165481e-38 265 287
-0.06883236 0.727 -0.059909642 1.5256232e-38 266 287
-0.067557678 0.727 -0.059909642 1.5164036e-38 267 287
-0.066100664 0.72500002 -0.059744831 1.534663e-38 268 287
-0.064829499 0.72500002 -0.059744831 1.5162237e-38 269 287
-0.063558333 0.72500002 -0.059744831 1.5344833e-38 270 287
-0.062287167 0.72500002 -0.059744831 1.5160443e-38 271 287
-0.060847677 0.72299999 -0.059580017 1.515972e-38 272 287
-0.059580017 0.72299999 -0.059580017 1.5251916e-38 273 287
-0.058312356 0.72299999 -0.059580017 1.5068604e-38 274 287
-0.057044696 0.72299999 -0.059580017 1.4883854e-38 275 287
-0.055777039 0.72299999 -0.059580017 1.5066805e-38 276 287
-0.054660168 0.72500002 -0.059744831 1.4882055e-38 277 287
-0.053388998 0.72500002 -0.059744831 1.5066086e-38 278 287
-0.052117832 0.72500002 -0.059744831 1.5066086e-38 279 287
-0.050986931 0.727 -0.059909642 1.497425e-38 280 287
-0.049712259 0.727 -0.059909642 1.497425e-38 281 287
-0.048437584 0.727 -0.059909642 1.4973531e-38 282 287
-0.047162913 0.727 -0.059909642 1.4973531e-38 283 287
-0.045888241 0.727 -0.059909642 1.5064648e-38 284 287
-0.044490833 0.72500002 -0.059744831 1.4880617e-38 285 287
-0.043100435 0.72299999 -0.059580017 1.4880617e-38 286 287
-0.041832779 0.72299999 -0.059580017 1.4788421e-38 287 287
-0.040565118 0.72299999 -0.059580017 1.4879539e-38 288 287
-0.039243106 0.722 -0.059497613 1.4787344e-38 289 287
-0.0379772 0.722 -0.059497613 1.4879185e-38 290 287
-0.036762137 0.72299999 -0.059580017 1.4879185e-38 291 287
-0.035445385 0.722 -0.059497613 1.4879187e-38 292 287
-0.034179479 0.722 -0.059497613 1.4879187e-38 293 287
-0.032913569 0.722 -0.059497613 1.478699e-38 294 287
-0.031647664 0.722 -0.059497613 1.478699e-38 295 287
-0.030381758 0.722 -0.059497613 1.4695872e-38 296 287
-0.029156178 0.72299999 -0.059580017 1.4603675e-38 297 287
-0.02788852 0.72299999 -0.059580017 1.4695872e-38 298 287
-0.026620859 0.72299999 -0.059580017 1.4695872e-38 299 287
-0.025353199 0.72299999 -0.059580017 1.487919e-38 300 287
-0.024085538 0.72299999 -0.059580017 1.487919e-38 301 287
-0.022786319 0.722 -0.059497613 1.4695872e-38 302 287
