# .PCD v.7 - Point Cloud Data file format
FIELDS x y z rgb imX imY
SIZE 4 4 4 4 4 4
TYPE F F F F F F
COUNT 1 1 1 1 1 1
WIDTH 849
HEIGHT 1
VIEWPOINT 0 0 0 1 0 0 0
POINTS 849
DATA ascii
-0.10496505 0.80900002 0.049645633 1.391963e-38 246 205
-0.1035466 0.80900002 0.049645633 1.391963e-38 247 205
-0.10212816 0.80900002 0.049645633 1.4011823e-38 248 205
-0.10095868 0.81099999 0.049768366 1.4011823e-38 249 205
-0.099536732 0.81099999 0.049768366 1.4195491e-38 250 205
-0.098114774 0.81099999 0.049768366 1.4195491e-38 251 205
-0.096692823 0.81099999 0.049768366 1.4379882e-38 252 205
-0.095505819 0.81300002 0.049891099 1.4563915e-38 253 205
-0.094080359 0.81300002 0.049891099 1.4563918e-38 254 205
-0.092654899 0.81300002 0.049891099 1.4563918e-38 255 205
-0.091453865 0.815 0.050013833 1.4563195e-38 256 205
-0.090245813 0.81699997 0.050136562 1.4563195e-38 257 205
-0.088813342 0.81699997 0.050136562 1.4563551e-38 258 205
-0.087594777 0.81900001 0.0502593 1.4655748e-38 259 205
-0.086158797 0.81900001 0.0502593 1.4563551e-38 260 205
-0.084722817 0.81900001 0.0502593 1.4655748e-38 261 205
-0.083286837 0.81900001 0.0502593 1.4563915e-38 262 205
-0.081850857 0.81900001 0.0502593 1.4563915e-38 263 205
-0.080414876 0.81900001 0.0502593 1.4563915e-38 264 205
-0.078978904 0.81900001 0.0502593 1.4563915e-38 265 205
-0.077542923 0.81900001 0.0502593 1.4655748e-38 266 205
-0.07629279 0.82099998 0.050382029 1.4563551e-38 267 205
-0.074853301 0.82099998 0.050382029 1.4564268e-38 268 205
-0.073592655 0.82300001 0.050504766 1.4564268e-38 269 205
-0.072149664 0.82300001 0.050504766 1.4380236e-38 270 205
-0.070706673 0.82300001 0.050504766 1.428804e-38 271 205
-0.069263682 0.82300001 0.050504766 1.4287684e-38 272 205
-0.067820683 0.82300001 0.050504766 1.4287684e-38 273 205
-0.066377692 0.82300001 0.050504766 1.4012176e-38 274 205
-0.064934701 0.82300001 0.050504766 1.4012176e-38 275 205
-0.06349171 0.82300001 0.050504766 1.3734863e-38 276 205
-0.062048711 0.82300001 0.050504766 1.3273885e-38 277 205
-0.06060572 0.82300001 0.050504766 1.3272446e-38 278 205
-0.059162725 0.82300001 0.050504766 1.3456477e-38 279 205
-0.057859998 0.82499999 0.0506275 1.547904e-38 280 205
-0.056413498 0.82499999 0.0506275 1.7322953e-38 281 205
-0.054966997 0.82499999 0.0506275 1.9533497e-38 282 205
-0.053520497 0.82499999 0.0506275 2.1008985e-38 283 205
-0.052073997 0.82499999 0.0506275 2.174432e-38 284 205
-0.0506275 0.82499999 0.0506275 1.8978452e-38 285 205
-0.049180996 0.82499999 0.0506275 1.6589994e-38 286 205
-0.047734499 0.82499999 0.0506275 2.0739156e-38 287 205
-0.046287999 0.82499999 0.0506275 2.3503665e-38 288 205
-0.044841498 0.82499999 0.0506275 2.3509796e-38 289 205
-0.043394998 0.82499999 0.0506275 2.3509783e-38 290 205
-0.041948497 0.82499999 0.0506275 2.3508339e-38 291 205
-0.040502001 0.82499999 0.0506275 2.3509792e-38 292 205
-0.039150178 0.82700002 0.050750233 2.3509807e-38 293 205
-0.037700173 0.82700002 0.050750233 2.3509816e-38 294 205
-0.036162499 0.82499999 0.0506275 2.3509809e-38 295 205
-0.034715999 0.82499999 0.0506275 2.3509717e-38 296 205
-0.033269498 0.82499999 0.0506275 2.1291973e-38 297 205
-0.031822998 0.82499999 0.0506275 2.0356286e-38 298 205
-0.030376498 0.82499999 0.0506275 1.9342135e-38 299 205
-0.028929999 0.82499999 0.0506275 1.6127558e-38 300 205
-0.027483499 0.82499999 0.0506275 1.5943165e-38 301 205
-0.026036998 0.82499999 0.0506275 1.5393289e-38 302 205
-0.024650112 0.82700002 0.050750233 1.5762073e-38 303 205
-0.023200106 0.82700002 0.050750233 1.465682e-38 304 205
-0.0217501 0.82700002 0.050750233 1.3642668e-38 305 205
-0.020300092 0.82700002 0.050750233 1.392324e-38 306 205
-0.018850086 0.82700002 0.050750233 1.7703261e-38 307 205
-0.017400078 0.82700002 0.050750233 2.2855454e-38 308 205
-0.015988646 0.829 0.050872963 2.3501185e-38 309 205
-0.014535133 0.829 0.050872963 2.2669908e-38 310 205
-0.01308162 0.829 0.050872963 1.9074279e-38 311 205
-0.011628106 0.829 0.050872963 1.7042344e-38 312 205
-0.010174593 0.829 0.050872963 2.2481885e-38 313 205
-0.0087210797 0.829 0.050872963 2.3503643e-38 314 205
-0.0072675664 0.829 0.050872963 2.3506524e-38 315 205
-0.0058140531 0.829 0.050872963 2.2855766e-38 316 205
-0.0043605398 0.829 0.050872963 1.8706603e-38 317 205
-0.0029070266 0.829 0.050872963 1.5853215e-38 318 205
-0.0014535133 0.829 0.050872963 1.5668823e-38 319 205
0 0.829 0.050872963 1.5484059e-38 320 205
0.0014535133 0.829 0.050872963 1.5299668e-38 321 205
0.0029070266 0.829 0.050872963 1.4656814e-38 322 205
0.0043605398 0.829 0.050872963 1.4380586e-38 323 205
0.0058140531 0.829 0.050872963 1.4471352e-38 324 205
0.0072500333 0.82700002 0.050750233 1.4471352e-38 325 205
0.0087000392 0.82700002 0.050750233 1.4471352e-38 326 205
0.0101255 0.82499999 0.0506275 1.4471352e-38 327 205
0.011572 0.82499999 0.0506275 1.4471352e-38 328 205
0.013018499 0.82499999 0.0506275 1.4471352e-38 329 205
0.014465 0.82499999 0.0506275 1.428804e-38 330 205
0.015872927 0.82300001 0.050504766 1.4195844e-38 331 205
0.01731592 0.82300001 0.050504766 1.428804e-38 332 205
0.018804498 0.82499999 0.0506275 1.428804e-38 333 205
0.020201907 0.82300001 0.050504766 1.4196563e-38 334 205
0.0216449 0.82300001 0.050504766 1.4012173e-38 335 205
0.023087893 0.82300001 0.050504766 1.4012173e-38 336 205
0.024530886 0.82300001 0.050504766 1.4012173e-38 337 205
0.025973879 0.82300001 0.050504766 1.4196207e-38 338 205
0.027416872 0.82300001 0.050504766 1.4012176e-38 339 205
0.028859867 0.82300001 0.050504766 1.4195488e-38 340 205
0.030229218 0.82099998 0.050382029 1.4287684e-38 341 205
0.031668708 0.82099998 0.050382029 1.4196563e-38 342 205
0.03310819 0.82099998 0.050382029 1.4012173e-38 343 205
0.034547675 0.82099998 0.050382029 1.4195844e-38 344 205
0.035987165 0.82099998 0.050382029 1.428804e-38 345 205
0.037426651 0.82099998 0.050382029 1.4196207e-38 346 205
0.03886614 0.82099998 0.050382029 1.4196207e-38 347 205
0.040207438 0.81900001 0.0502593 1.4195488e-38 348 205
0.041643418 0.81900001 0.0502593 1.4195488e-38 349 205
0.043079399 0.81900001 0.0502593 1.4287684e-38 350 205
0.044515379 0.81900001 0.0502593 1.4195488e-38 351 205
0.045951359 0.81900001 0.0502593 1.4287684e-38 352 205
0.047387339 0.81900001 0.0502593 1.4195488e-38 353 205
0.048823319 0.81900001 0.0502593 1.4012179e-38 354 205
0.0502593 0.81900001 0.0502593 1.4012179e-38 355 205
0.051569037 0.81699997 0.050136562 1.4012179e-38 356 205
0.053001508 0.81699997 0.050136562 1.4012179e-38 357 205
0.054433983 0.81699997 0.050136562 1.4012176e-38 358 205
0.055729698 0.815 0.050013833 1.4196207e-38 359 205
0.057018399 0.81300002 0.049891099 1.4012173e-38 360 205
0.058443859 0.81300002 0.049891099 1.4196563e-38 361 205
0.059869319 0.81300002 0.049891099 1.4196563e-38 362 205
0.061294779 0.81300002 0.049891099 1.4196563e-38 363 205
0.062565938 0.81099999 0.049768366 1.4012892e-38 364 205
0.063987896 0.81099999 0.049768366 1.4012892e-38 365 205
0.065409854 0.81099999 0.049768366 1.4012898e-38 366 205
0.066831805 0.81099999 0.049768366 1.4012898e-38 367 205
0.068253763 0.81099999 0.049768366 1.4012545e-38 368 205
0.069503881 0.80900002 0.049645633 1.4012545e-38 369 205
0.07092233 0.80900002 0.049645633 1.4012545e-38 370 205
0.072161935 0.80699998 0.049522895 1.4012545e-38 371 205
0.073576882 0.80699998 0.049522895 1.410474e-38 372 205
0.074991815 0.80699998 0.049522895 1.410474e-38 373 205
0.076217398 0.80500001 0.049400166 1.4012189e-38 374 205
0.077628836 0.80500001 0.049400166 1.4104743e-38 375 205
0.078843892 0.80299997 0.049277432 1.4012912e-38 376 205
0.08025182 0.80299997 0.049277432 1.4012912e-38 377 205
0.081659742 0.80299997 0.049277432 1.4012908e-38 378 205
0.082964227 0.80199999 0.049216066 1.4105463e-38 379 205
0.08416 0.80000001 0.049093332 1.4105461e-38 380 205
0.085348755 0.79799998 0.048970595 1.4105461e-38 381 205
0.086747915 0.79799998 0.048970595 1.4013264e-38 382 205
0.087926157 0.796 0.048847865 1.4013264e-38 383 205
0.089321814 0.796 0.048847865 1.4104389e-38 384 205
0.090489529 0.79400003 0.048725132 1.4104389e-38 385 205
0.091881685 0.79400003 0.048725132 1.4012915e-38 386 205
0.093038872 0.792 0.048602398 1.3828523e-38 387 205
0.094189063 0.79000002 0.048479669 1.3919996e-38 388 205
0.0955742 0.79000002 0.048479669 1.38278e-38 389 205
0.096959338 0.79000002 0.048479669 1.3919277e-38 390 205
0.098219968 0.78899997 0.048418298 1.3827081e-38 391 205
0.099603355 0.78899997 0.048418298 1.3917129e-38 392 205
0.10073075 0.787 0.048295565 1.3271759e-38 393 205
0.10185113 0.78500003 0.048172832 1.2994462e-38 394 205
0.1032275 0.78500003 0.048172832 1.3639831e-38 395 205
0.10460387 0.78500003 0.048172832 1.373563e-38 396 205
0.10571022 0.78299999 0.048050098 1.4196249e-38 397 205
0.10708307 0.78299999 0.048050098 1.3826028e-38 398 205
0.10845593 0.78299999 0.048050098 1.3272854e-38 399 205
0.10940799 0.77999997 0.047865998 1.2995908e-38 400 205
0.11049156 0.778 0.047743265 1.2903711e-38 401 205
0.11185565 0.778 0.047743265 1.2720063e-38 402 205
0.1129287 0.77600002 0.047620531 1.2443834e-38 403 205
0.11399472 0.77399999 0.047497798 1.2075084e-38 404 205
0.1153518 0.77399999 0.047497798 1.2075084e-38 405 205
-0.14223039 0.77999997 0.046498396 1.2727335e-38 216 206
-0.14140458 0.78299999 0.046677239 1.2819531e-38 217 206
-0.14003171 0.78299999 0.046677239 1.3093226e-38 218 206
-0.13989846 0.79000002 0.047094531 1.2079072e-38 219 206
-0.13851333 0.79000002 0.047094531 1.1984691e-38 220 206
-0.13712819 0.79000002 0.047094531 1.1800298e-38 221 206
-0.13574307 0.79000002 0.047094531 1.2259087e-38 222 206
-0.13435794 0.79000002 0.047094531 1.2443479e-38 223 206
-0.13330944 0.792 0.047213759 1.2902992e-38 224 206
-0.13192078 0.792 0.047213759 1.3087744e-38 225 206
-0.13086179 0.79400003 0.047332987 1.3088457e-38 226 206
-0.12946965 0.79400003 0.047332987 1.3641631e-38 227 206
-0.12807749 0.79400003 0.047332987 1.4102242e-38 228 206
-0.12668535 0.79400003 0.047332987 1.4286633e-38 229 206
-0.1256088 0.796 0.047452211 1.4379532e-38 230 206
-0.12421314 0.796 0.047452211 1.4287336e-38 231 206
-0.12312607 0.79799998 0.047571439 1.447028e-38 232 206
-0.12172691 0.79799998 0.047571439 1.4562476e-38 233 206
-0.12062933 0.80000001 0.047690667 1.4563195e-38 234 206
-0.11952472 0.80199999 0.047809891 1.4378803e-38 235 206
-0.11811855 0.80199999 0.047809891 1.4286255e-38 236 206
-0.1168579 0.80299997 0.047869503 1.4286255e-38 237 206
-0.11544999 0.80299997 0.047869503 1.4286252e-38 238 206
-0.11404206 0.80299997 0.047869503 1.4286252e-38 239 206
-0.11263412 0.80299997 0.047869503 1.4103296e-38 240 206
-0.11122619 0.80299997 0.047869503 1.40111e-38 241 206
-0.10981827 0.80299997 0.047869503 1.40111e-38 242 206
-0.10868037 0.80500001 0.047988731 1.4103296e-38 243 206
-0.10726893 0.80500001 0.047988731 1.4286605e-38 244 206
-0.1058575 0.80500001 0.047988731 1.4286605e-38 245 206
-0.10470556 0.80699998 0.048107959 1.4103293e-38 246 206
-0.10329062 0.80699998 0.048107959 1.4011097e-38 247 206
-0.10212816 0.80900002 0.048227187 1.410294e-38 248 206
-0.10070971 0.80900002 0.048227187 1.4195135e-38 249 206
-0.099291265 0.80900002 0.048227187 1.4195854e-38 250 206
-0.098114774 0.81099999 0.048346411 1.4288408e-38 251 206
-0.096692823 0.81099999 0.048346411 1.4380959e-38 252 206
-0.095270865 0.81099999 0.048346411 1.4473154e-38 253 206
-0.093848921 0.81099999 0.048346411 1.4564271e-38 254 206
-0.092654899 0.81300002 0.048465639 1.4380238e-38 255 206
-0.091229439 0.81300002 0.048465639 1.4564268e-38 256 206
-0.089803979 0.81300002 0.048465639 1.4380236e-38 257 206
-0.088595927 0.815 0.048584864 1.4747216e-38 258 206
-0.087380864 0.81699997 0.048704091 1.4747216e-38 259 206
-0.085948393 0.81699997 0.048704091 1.4655745e-38 260 206
-0.084515922 0.81699997 0.048704091 1.4563548e-38 261 206
-0.083083443 0.81699997 0.048704091 1.4563551e-38 262 206
-0.08165098 0.81699997 0.048704091 1.4655748e-38 263 206
-0.080414876 0.81900001 0.048823319 1.4563551e-38 264 206
-0.078978904 0.81900001 0.048823319 1.4655748e-38 265 206
-0.077542923 0.81900001 0.048823319 1.4564268e-38 266 206
-0.076106943 0.81900001 0.048823319 1.4564268e-38 267 206
-0.074853301 0.82099998 0.048942544 1.4564265e-38 268 206
-0.073413812 0.82099998 0.048942544 1.4380233e-38 269 206
-0.07197433 0.82099998 0.048942544 1.4471349e-38 270 206
-0.070534848 0.82099998 0.048942544 1.4471349e-38 271 206
-0.069095351 0.82099998 0.048942544 1.4195844e-38 272 206
-0.067655869 0.82099998 0.048942544 1.4195844e-38 273 206
-0.066216379 0.82099998 0.048942544 1.3919249e-38 274 206
-0.064776897 0.82099998 0.048942544 1.3089847e-38 275 206
-0.063337415 0.82099998 0.048942544 1.2721415e-38 276 206
-0.061897919 0.82099998 0.048942544 1.3735567e-38 277 206
-0.060458437 0.82099998 0.048942544 1.751238e-38 278 206
-0.059162725 0.82300001 0.049061771 2.1016173e-38 279 206
-0.057719734 0.82300001 0.049061771 2.3505135e-38 280 206
-0.056276739 0.82300001 0.049061771 2.3507656e-38 281 206
-0.054833744 0.82300001 0.049061771 2.3508731e-38 282 206
-0.053390753 0.82300001 0.049061771 2.3508731e-38 283 206
-0.051947758 0.82300001 0.049061771 2.3506181e-38 284 206
-0.050504766 0.82300001 0.049061771 2.3499697e-38 285 206
-0.049061771 0.82300001 0.049061771 2.3499684e-38 286 206
-0.04761878 0.82300001 0.049061771 2.3504726e-38 287 206
-0.046175785 0.82300001 0.049061771 2.3506206e-38 288 206
-0.044841498 0.82499999 0.049180996 2.3509827e-38 289 206
-0.043394998 0.82499999 0.049180996 2.3509841e-38 290 206
-0.041948497 0.82499999 0.049180996 2.3509841e-38 291 206
-0.040502001 0.82499999 0.049180996 2.3509845e-38 292 206
-0.039055496 0.82499999 0.049180996 2.3509845e-38 293 206
-0.037608996 0.82499999 0.049180996 2.3509838e-38 294 206
-0.036162499 0.82499999 0.049180996 2.3509837e-38 295 206
-0.034715999 0.82499999 0.049180996 2.3509814e-38 296 206
-0.033269498 0.82499999 0.049180996 2.3509809e-38 297 206
-0.031822998 0.82499999 0.049180996 2.3508315e-38 298 206
-0.030376498 0.82499999 0.049180996 2.101291e-38 299 206
-0.028929999 0.82499999 0.049180996 1.8701511e-38 300 206
-0.027483499 0.82499999 0.049180996 1.7410772e-38 301 206
-0.026036998 0.82499999 0.049180996 1.5578032e-38 302 206
-0.024650112 0.82700002 0.049300224 1.5854977e-38 303 206
-0.023143999 0.82499999 0.049180996 1.5116719e-38 304 206
-0.021697499 0.82499999 0.049180996 1.4379154e-38 305 206
-0.020300092 0.82700002 0.049300224 1.438205e-38 306 206
-0.018850086 0.82700002 0.049300224 1.5580593e-38 307 206
-0.017400078 0.82700002 0.049300224 1.7145065e-38 308 206
-0.015950073 0.82700002 0.049300224 1.806702e-38 309 206
-0.014500067 0.82700002 0.049300224 1.9723296e-38 310 206
-0.01305006 0.82700002 0.049300224 2.2304773e-38 311 206
-0.011600053 0.82700002 0.049300224 2.3504394e-38 312 206
-0.010150046 0.82700002 0.049300224 2.3508355e-38 313 206
-0.0087000392 0.82700002 0.049300224 2.3501858e-38 314 206
-0.0072500333 0.82700002 0.049300224 2.2665615e-38 315 206
-0.0058000265 0.82700002 0.049300224 1.9168272e-38 316 206
-0.0043500196 0.82700002 0.049300224 1.6586794e-38 317 206
-0.0029000132 0.82700002 0.049300224 1.5207107e-38 318 206
-0.0014500066 0.82700002 0.049300224 1.5667725e-38 319 206
0 0.82700002 0.049300224 1.5576256e-38 320 206
0.0014500066 0.82700002 0.049300224 1.5299668e-38 321 206
0.0029000132 0.82700002 0.049300224 1.4656095e-38 322 206
0.0043500196 0.82700002 0.049300224 1.4471702e-38 323 206
0.0057859998 0.82499999 0.049180996 1.437951e-38 324 206
0.0072149667 0.82300001 0.049061771 1.437951e-38 325 206
0.0086579602 0.82300001 0.049061771 1.4379154e-38 326 206
0.010100953 0.82300001 0.049061771 1.4379154e-38 327 206
0.011543946 0.82300001 0.049061771 1.4379154e-38 328 206
0.01295538 0.82099998 0.048942544 1.4379154e-38 329 206
0.014394866 0.82099998 0.048942544 1.4195841e-38 330 206
0.015834354 0.82099998 0.048942544 1.4195841e-38 331 206
0.017273838 0.82099998 0.048942544 1.4195841e-38 332 206
0.018713325 0.82099998 0.048942544 1.4288037e-38 333 206
0.020152811 0.82099998 0.048942544 1.4196195e-38 334 206
0.021592299 0.82099998 0.048942544 1.4196195e-38 335 206
0.023031786 0.82099998 0.048942544 1.4196195e-38 336 206
0.024471272 0.82099998 0.048942544 1.4196195e-38 337 206
0.025910759 0.82099998 0.048942544 1.4195841e-38 338 206
0.027350245 0.82099998 0.048942544 1.4195841e-38 339 206
0.028789733 0.82099998 0.048942544 1.4195844e-38 340 206
0.030229218 0.82099998 0.048942544 1.4195844e-38 341 206
0.031591557 0.81900001 0.048823319 1.4012173e-38 342 206
0.033027537 0.81900001 0.048823319 1.4012173e-38 343 206
0.034463517 0.81900001 0.048823319 1.4012529e-38 344 206
0.035899501 0.81900001 0.048823319 1.4012529e-38 345 206
0.037335481 0.81900001 0.048823319 1.4195841e-38 346 206
0.038771462 0.81900001 0.048823319 1.4195841e-38 347 206
0.040109251 0.81699997 0.048704091 1.4195844e-38 348 206
0.041541722 0.81699997 0.048704091 1.4195844e-38 349 206
0.042974196 0.81699997 0.048704091 1.4195488e-38 350 206
0.044406671 0.81699997 0.048704091 1.4195488e-38 351 206
0.045839142 0.81699997 0.048704091 1.4195844e-38 352 206
0.047271617 0.81699997 0.048704091 1.410329e-38 353 206
0.048704091 0.81699997 0.048704091 1.3919978e-38 354 206
0.050013833 0.815 0.048584864 1.4012173e-38 355 206
0.051442798 0.815 0.048584864 1.4195841e-38 356 206
0.052871767 0.815 0.048584864 1.4195841e-38 357 206
0.054167479 0.81300002 0.048465639 1.4195841e-38 358 206
0.055592939 0.81300002 0.048465639 1.4195841e-38 359 206
0.056878131 0.81099999 0.048346411 1.4012529e-38 360 206
0.058300085 0.81099999 0.048346411 1.4012529e-38 361 206
0.05972204 0.81099999 0.048346411 1.4195844e-38 362 206
0.061143994 0.81099999 0.048346411 1.428804e-38 363 206
0.062565938 0.81099999 0.048346411 1.4196563e-38 364 206
0.063830093 0.80900002 0.048227187 1.4196563e-38 365 206
0.065248549 0.80900002 0.048227187 1.419621e-38 366 206
0.066666998 0.80900002 0.048227187 1.419621e-38 367 206
0.06808544 0.80900002 0.048227187 1.4011823e-38 368 206
0.069332056 0.80699998 0.048107959 1.4195854e-38 369 206
0.070746996 0.80699998 0.048107959 1.4195854e-38 370 206
0.072161935 0.80699998 0.048107959 1.4195854e-38 371 206
0.073576882 0.80699998 0.048107959 1.4012542e-38 372 206
0.074805968 0.80500001 0.047988731 1.3920346e-38 373 206
0.076217398 0.80500001 0.047988731 1.419621e-38 374 206
0.077435955 0.80299997 0.047869503 1.419621e-38 375 206
0.078843892 0.80299997 0.047869503 1.4195854e-38 376 206
0.080151878 0.80199999 0.047809891 1.4195854e-38 377 206
0.081558049 0.80199999 0.047809891 1.4104737e-38 378 206
0.082757331 0.80000001 0.047690667 1.4104737e-38 379 206
0.083949596 0.79799998 0.047571439 1.4013261e-38 380 206
0.085134849 0.796 0.047452211 1.4013261e-38 381 206
0.086530507 0.796 0.047452211 1.4013261e-38 382 206
0.087926157 0.796 0.047452211 1.4013261e-38 383 206
0.089097388 0.79400003 0.047332987 1.4012898e-38 384 206
0.090261593 0.792 0.047213759 1.4105093e-38 385 206
0.091650233 0.792 0.047213759 1.4105093e-38 386 206
0.092803933 0.79000002 0.047094531 1.4105093e-38 387 206
0.094189063 0.79000002 0.047094531 1.382923e-38 388 206
0.09545321 0.78899997 0.047034916 1.382923e-38 389 206
0.096836597 0.78899997 0.047034916 1.3920343e-38 390 206
0.097971 0.787 0.046915691 1.3735952e-38 391 206
0.099350877 0.787 0.046915691 1.3918181e-38 392 206
0.10047477 0.78500003 0.046796467 1.3457204e-38 393 206
0.10159164 0.78299999 0.046677239 1.3641964e-38 394 206
0.10296449 0.78299999 0.046677239 1.373416e-38 395 206
0.10433736 0.78299999 0.046677239 1.3459022e-38 396 206
0.10571022 0.78299999 0.046677239 1.3459022e-38 397 206
0.10708307 0.78299999 0.046677239 1.3639819e-38 398 206
0.10817891 0.78100002 0.046558015 1.3732014e-38 399 206
0.10940799 0.77999997 0.046498396 1.4194084e-38 400 206
0.11049156 0.778 0.046379171 1.4101889e-38 401 206
0.11156811 0.77600002 0.046259947 1.3179949e-38 402 206
0.1129287 0.77600002 0.046259947 1.253458e-38 403 206
0.11399472 0.77399999 0.046140719 1.1523323e-38 404 206
0.11520277 0.773 0.046081103 1.161552e-38 405 206
0.11655808 0.773 0.046081103 1.1707383e-38 406 206
0.11791342 0.773 0.046081103 1.1707383e-38 407 206
-0.14633319 0.77999997 0.045130797 1.2451837e-38 213 207
-0.14496559 0.77999997 0.045130797 1.2726982e-38 214 207
-0.14359799 0.77999997 0.045130797 1.2634787e-38 215 207
-0.14223039 0.77999997 0.045130797 1.3185424e-38 216 207
-0.14140458 0.78299999 0.04530438 1.3185424e-38 217 207
-0.14003171 0.78299999 0.04530438 1.3275064e-38 218 207
-0.13865885 0.78299999 0.04530438 1.207616e-38 219 207
-0.13798733 0.787 0.045535821 1.1613702e-38 220 207
-0.13695462 0.78899997 0.045651536 1.1889929e-38 221 207
-0.13557123 0.78899997 0.045651536 1.2809352e-38 222 207
-0.13435794 0.79000002 0.045709401 1.327033e-38 223 207
-0.13297281 0.79000002 0.045709401 1.3639831e-38 224 207
-0.13192078 0.792 0.045825116 1.391642e-38 225 207
-0.13053215 0.792 0.045825116 1.4101873e-38 226 207
-0.12914351 0.792 0.045825116 1.4101873e-38 227 207
-0.12775487 0.792 0.045825116 1.4286252e-38 228 207
-0.12668535 0.79400003 0.045940842 1.4286252e-38 229 207
-0.1252932 0.79400003 0.045940842 1.447028e-38 230 207
-0.12390105 0.79400003 0.045940842 1.4562476e-38 231 207
-0.12281749 0.796 0.046056557 1.4287687e-38 232 207
-0.12142184 0.796 0.046056557 1.4287687e-38 233 207
-0.12032776 0.79799998 0.046172276 1.428769e-38 234 207
-0.1189286 0.79799998 0.046172276 1.410294e-38 235 207
-0.117824 0.80000001 0.046287999 1.4102942e-38 236 207
-0.11671238 0.80199999 0.046403717 1.4102942e-38 237 207
-0.11530621 0.80199999 0.046403717 1.4010747e-38 238 207
-0.11390004 0.80199999 0.046403717 1.4010747e-38 239 207
-0.11249386 0.80199999 0.046403717 1.3827432e-38 240 207
-0.11122619 0.80299997 0.046461575 1.3827432e-38 241 207
-0.10981827 0.80299997 0.046461575 1.410294e-38 242 207
-0.10841034 0.80299997 0.046461575 1.4010744e-38 243 207
-0.10726893 0.80500001 0.046577301 1.40111e-38 244 207
-0.1058575 0.80500001 0.046577301 1.40111e-38 245 207
-0.10444606 0.80500001 0.046577301 1.4102221e-38 246 207
-0.10329062 0.80699998 0.046693016 1.4286252e-38 247 207
-0.10187568 0.80699998 0.046693016 1.4378803e-38 248 207
-0.10070971 0.80900002 0.046808738 1.4470999e-38 249 207
-0.099291265 0.80900002 0.046808738 1.4564271e-38 250 207
-0.097872816 0.80900002 0.046808738 1.4656467e-38 251 207
-0.096454374 0.80900002 0.046808738 1.4564271e-38 252 207
-0.095270865 0.81099999 0.046924461 1.4564271e-38 253 207
-0.093848921 0.81099999 0.046924461 1.4564271e-38 254 207
-0.092426963 0.81099999 0.046924461 1.4564271e-38 255 207
-0.091229439 0.81300002 0.047040179 1.4563548e-38 256 207
-0.089803979 0.81300002 0.047040179 1.4563548e-38 257 207
-0.088595927 0.815 0.047155898 1.4563548e-38 258 207
-0.087166965 0.815 0.047155898 1.4563548e-38 259 207
-0.085738003 0.815 0.047155898 1.4563548e-38 260 207
-0.084309027 0.815 0.047155898 1.4563548e-38 261 207
-0.083083443 0.81699997 0.047271617 1.4746863e-38 262 207
-0.08165098 0.81699997 0.047271617 1.4746863e-38 263 207
-0.080218501 0.81699997 0.047271617 1.465575e-38 264 207
-0.078786023 0.81699997 0.047271617 1.4563195e-38 265 207
-0.077353559 0.81699997 0.047271617 1.4563195e-38 266 207
-0.076106943 0.81900001 0.047387339 1.4563195e-38 267 207
-0.074670963 0.81900001 0.047387339 1.4288759e-38 268 207
-0.073234983 0.81900001 0.047387339 1.4288759e-38 269 207
-0.071799003 0.81900001 0.047387339 1.428804e-38 270 207
-0.070534848 0.82099998 0.047503054 1.4195844e-38 271 207
-0.068927035 0.81900001 0.047387339 1.4195844e-38 272 207
-0.067491055 0.81900001 0.047387339 1.3918899e-38 273 207
-0.066055074 0.81900001 0.047387339 1.3916012e-38 274 207
-0.064776897 0.82099998 0.047503054 1.5022358e-38 275 207
-0.063337415 0.82099998 0.047503054 1.7692458e-38 276 207
-0.061747137 0.81900001 0.047387339 2.0089544e-38 277 207
-0.060311157 0.81900001 0.047387339 2.2210785e-38 278 207
-0.059018951 0.82099998 0.047503054 2.3505846e-38 279 207
-0.057579465 0.82099998 0.047503054 2.3505469e-38 280 207
-0.05613998 0.82099998 0.047503054 2.3504388e-38 281 207
-0.05470049 0.82099998 0.047503054 2.3504369e-38 282 207
-0.053261004 0.82099998 0.047503054 2.350689e-38 283 207
-0.051821519 0.82099998 0.047503054 2.3509778e-38 284 207
-0.050382029 0.82099998 0.047503054 2.3506534e-38 285 207
-0.048942544 0.82099998 0.047503054 2.3501838e-38 286 207
-0.047503054 0.82099998 0.047503054 2.3223811e-38 287 207
-0.046063572 0.82099998 0.047503054 2.3503643e-38 288 207
-0.044732794 0.82300001 0.04761878 2.3509769e-38 289 207
-0.043289799 0.82300001 0.04761878 2.3509776e-38 290 207
-0.041846808 0.82300001 0.04761878 2.3509776e-38 291 207
-0.040403813 0.82300001 0.04761878 2.3509793e-38 292 207
-0.038960818 0.82300001 0.04761878 2.3509799e-38 293 207
-0.037517827 0.82300001 0.04761878 2.3509814e-38 294 207
-0.036074832 0.82300001 0.04761878 2.3509816e-38 295 207
-0.034631841 0.82300001 0.04761878 2.3509841e-38 296 207
-0.033188846 0.82300001 0.04761878 2.3509845e-38 297 207
-0.031745855 0.82300001 0.04761878 2.3509834e-38 298 207
-0.03030286 0.82300001 0.04761878 2.1207067e-38 299 207
-0.028859867 0.82300001 0.04761878 2.0913509e-38 300 207
-0.027416872 0.82300001 0.04761878 1.8239836e-38 301 207
-0.025973879 0.82300001 0.04761878 1.6587495e-38 302 207
-0.024590498 0.82499999 0.047734499 1.6679691e-38 303 207
-0.023143999 0.82499999 0.047734499 1.5667356e-38 304 207
-0.021697499 0.82499999 0.047734499 1.5114541e-38 305 207
-0.020251 0.82499999 0.047734499 1.4656814e-38 306 207
-0.018804498 0.82499999 0.047734499 1.4564618e-38 307 207
-0.017357999 0.82499999 0.047734499 1.4656464e-38 308 207
-0.015911499 0.82499999 0.047734499 1.4841214e-38 309 207
-0.014465 0.82499999 0.047734499 1.5670274e-38 310 207
-0.013018499 0.82499999 0.047734499 1.8804566e-38 311 207
-0.011572 0.82499999 0.047734499 2.3316034e-38 312 207
-0.0101255 0.82499999 0.047734499 2.2855416e-38 313 207
-0.0086789997 0.82499999 0.047734499 2.1654665e-38 314 207
-0.0072324998 0.82499999 0.047734499 1.9165383e-38 315 207
-0.0057859998 0.82499999 0.047734499 1.658894e-38 316 207
-0.0043394999 0.82499999 0.047734499 1.594357e-38 317 207
-0.0028929999 0.82499999 0.047734499 1.483941e-38 318 207
-0.0014465 0.82499999 0.047734499 1.4931606e-38 319 207
0 0.82499999 0.047734499 1.4840492e-38 320 207
0.0014465 0.82499999 0.047734499 1.4748296e-38 321 207
0.0028929999 0.82499999 0.047734499 1.4656098e-38 322 207
0.0043289801 0.82300001 0.04761878 1.4471705e-38 323 207
0.0057719732 0.82300001 0.04761878 1.4470984e-38 324 207
0.0071974332 0.82099998 0.047503054 1.4378788e-38 325 207
0.0086369189 0.82099998 0.047503054 1.437951e-38 326 207
0.010076405 0.82099998 0.047503054 1.437951e-38 327 207
0.011515893 0.82099998 0.047503054 1.437951e-38 328 207
0.01295538 0.82099998 0.047503054 1.437951e-38 329 207
0.014394866 0.82099998 0.047503054 1.437951e-38 330 207
0.015834354 0.82099998 0.047503054 1.437951e-38 331 207
0.017273838 0.82099998 0.047503054 1.437951e-38 332 207
0.018713325 0.82099998 0.047503054 1.437951e-38 333 207
0.020152811 0.82099998 0.047503054 1.437951e-38 334 207
0.021592299 0.82099998 0.047503054 1.4286955e-38 335 207
0.022975679 0.81900001 0.047387339 1.437951e-38 336 207
0.02441166 0.81900001 0.047387339 1.437951e-38 337 207
0.02584764 0.81900001 0.047387339 1.4195841e-38 338 207
0.027283618 0.81900001 0.047387339 1.4195841e-38 339 207
0.0287196 0.81900001 0.047387339 1.4195841e-38 340 207
0.030155579 0.81900001 0.047387339 1.4195841e-38 341 207
0.03151441 0.81699997 0.047271617 1.4195841e-38 342 207
0.032946885 0.81699997 0.047271617 1.4288037e-38 343 207
0.034295198 0.815 0.047155898 1.4195841e-38 344 207
0.035724167 0.815 0.047155898 1.4195841e-38 345 207
0.037153132 0.815 0.047155898 1.4195839e-38 346 207
0.038582098 0.815 0.047155898 1.4195839e-38 347 207
0.040011063 0.815 0.047155898 1.3920334e-38 348 207
0.041440032 0.815 0.047155898 1.4012529e-38 349 207
0.042869002 0.815 0.047155898 1.4195844e-38 350 207
0.044297963 0.815 0.047155898 1.4195844e-38 351 207
0.045726933 0.815 0.047155898 1.4195844e-38 352 207
0.047040179 0.81300002 0.047040179 1.4195844e-38 353 207
0.048465639 0.81300002 0.047040179 1.4195841e-38 354 207
0.049891099 0.81300002 0.047040179 1.4195841e-38 355 207
0.051316559 0.81300002 0.047040179 1.4012529e-38 356 207
0.052742019 0.81300002 0.047040179 1.4012529e-38 357 207
0.054034222 0.81099999 0.046924461 1.4012529e-38 358 207
0.055456176 0.81099999 0.046924461 1.4012529e-38 359 207
0.056878131 0.81099999 0.046924461 1.3919978e-38 360 207
0.058300085 0.81099999 0.046924461 1.4012173e-38 361 207
0.05957476 0.80900002 0.046808738 1.4195844e-38 362 207
0.060993209 0.80900002 0.046808738 1.4195844e-38 363 207
0.062411651 0.80900002 0.046808738 1.4287684e-38 364 207
0.063830093 0.80900002 0.046808738 1.4195488e-38 365 207
0.065087236 0.80699998 0.046693016 1.419621e-38 366 207
0.066502176 0.80699998 0.046693016 1.4012179e-38 367 207
0.067917116 0.80699998 0.046693016 1.4012179e-38 368 207
0.06916023 0.80500001 0.046577301 1.4012179e-38 369 207
0.070571661 0.80500001 0.046577301 1.4011823e-38 370 207
0.071983099 0.80500001 0.046577301 1.4195854e-38 371 207
0.07339453 0.80500001 0.046577301 1.4012898e-38 372 207
0.074620105 0.80299997 0.046461575 1.3920343e-38 373 207
0.076028034 0.80299997 0.046461575 1.3920343e-38 374 207
0.07733953 0.80199999 0.046403717 1.4012898e-38 375 207
0.0787457 0.80199999 0.046403717 1.4011823e-38 376 207
0.080151878 0.80199999 0.046403717 1.4195854e-38 377 207
0.08135467 0.80000001 0.046287999 1.382923e-38 378 207
0.082550429 0.79799998 0.046172276 1.382923e-38 379 207
0.083739199 0.796 0.046056557 1.3829948e-38 380 207
0.085134849 0.796 0.046056557 1.3829948e-38 381 207
0.086530507 0.796 0.046056557 1.382923e-38 382 207
0.08770524 0.79400003 0.045940842 1.4013261e-38 383 207
0.088872954 0.792 0.045825116 1.4013617e-38 384 207
0.090261593 0.792 0.045825116 1.4013617e-38 385 207
0.091418803 0.79000002 0.045709401 1.4013617e-38 386 207
0.092803933 0.79000002 0.045709401 1.4013617e-38 387 207
0.094069831 0.78899997 0.045651536 1.4013614e-38 388 207
0.09545321 0.78899997 0.045651536 1.4013614e-38 389 207
0.09659113 0.787 0.045535821 1.4288756e-38 390 207
0.097722031 0.78500003 0.045420099 1.4012529e-38 391 207
0.099098399 0.78500003 0.045420099 1.4011094e-38 392 207
0.10021878 0.78299999 0.04530438 1.4011094e-38 393 207
0.10159164 0.78299999 0.04530438 1.4102574e-38 394 207
0.1027015 0.78100002 0.045188658 1.4010378e-38 395 207
0.10407086 0.78100002 0.045188658 1.3917831e-38 396 207
0.10544021 0.78100002 0.045188658 1.3733081e-38 397 207
0.10680956 0.78100002 0.045188658 1.4100068e-38 398 207
0.10804039 0.77999997 0.045130797 1.428482e-38 399 207
0.10912746 0.778 0.045015078 1.3734886e-38 400 207
0.11049156 0.778 0.045015078 1.3642331e-38 401 207
0.11156811 0.77600002 0.044899363 1.2811869e-38 402 207
0.11263763 0.77399999 0.044783637 1.2443088e-38 403 207
0.11384743 0.773 0.044725779 1.2257996e-38 404 207
0.11520277 0.773 0.044725779 1.2350191e-38 405 207
0.11655808 0.773 0.044725779 1.2073993e-38 406 207
0.11791342 0.773 0.044725779 1.2073993e-38 407 207
0.11818869 0.76599997 0.044320758 1.2074382e-38 408 207
0.11921965 0.764 0.04420504 1.2074382e-38 409 207
0.1202436 0.76200002 0.044089317 1.161593e-38 410 207
-0.14966454 0.77600002 0.043538772 1.2451837e-38 210 208
-0.14830394 0.77600002 0.043538772 1.2451837e-38 211 208
-0.14770079 0.77999997 0.043763198 1.2728054e-38 212 208
-0.14633319 0.77999997 0.043763198 1.2728054e-38 213 208
-0.14496559 0.77999997 0.043763198 1.2816269e-38 214 208
-0.14359799 0.77999997 0.043763198 1.2170899e-38 215 208
-0.14223039 0.77999997 0.043763198 1.2718643e-38 216 208
-0.14086279 0.77999997 0.043763198 1.2718643e-38 217 208
-0.13967404 0.78100002 0.043819305 1.2810815e-38 218 208
-0.13865885 0.78299999 0.043931518 1.2626425e-38 219 208
-0.13763666 0.78500003 0.044043735 1.2902642e-38 220 208
-0.13660745 0.787 0.044155944 1.336362e-38 221 208
-0.13522758 0.787 0.044155944 1.3915702e-38 222 208
-0.13418785 0.78899997 0.044268157 1.3915702e-38 223 208
-0.13297281 0.79000002 0.044324268 1.3917123e-38 224 208
-0.13158767 0.79000002 0.044324268 1.4285904e-38 225 208
-0.13053215 0.792 0.044436477 1.4011473e-38 226 208
-0.12914351 0.792 0.044436477 1.4195504e-38 227 208
-0.12775487 0.792 0.044436477 1.4195141e-38 228 208
-0.12636623 0.792 0.044436477 1.4195141e-38 229 208
-0.1252932 0.79400003 0.044548694 1.4287334e-38 230 208
-0.12390105 0.79400003 0.044548694 1.4287334e-38 231 208
-0.12250891 0.79400003 0.044548694 1.4195135e-38 232 208
-0.12142184 0.796 0.044660907 1.410294e-38 233 208
-0.12002619 0.796 0.044660907 1.4102221e-38 234 208
-0.1189286 0.79799998 0.044773117 1.4102221e-38 235 208
-0.11752943 0.79799998 0.044773117 1.4010744e-38 236 208
-0.11642133 0.80000001 0.044885334 1.3918548e-38 237 208
-0.11501866 0.80000001 0.044885334 1.40111e-38 238 208
-0.11390004 0.80199999 0.044997543 1.40111e-38 239 208
-0.11249386 0.80199999 0.044997543 1.4011097e-38 240 208
-0.11108769 0.80199999 0.044997543 1.4011097e-38 241 208
-0.10968152 0.80199999 0.044997543 1.4011097e-38 242 208
-0.10841034 0.80299997 0.04505365 1.4011097e-38 243 208
-0.10700242 0.80299997 0.04505365 1.4102577e-38 244 208
-0.1058575 0.80500001 0.045165867 1.4286608e-38 245 208
-0.10444606 0.80500001 0.045165867 1.4195488e-38 246 208
-0.10303463 0.80500001 0.045165867 1.4195488e-38 247 208
-0.10162319 0.80500001 0.045165867 1.4287684e-38 248 208
-0.10046073 0.80699998 0.045278076 1.4380238e-38 249 208
-0.099045791 0.80699998 0.045278076 1.4563915e-38 250 208
-0.097872816 0.80900002 0.045390293 1.4379882e-38 251 208
-0.096454374 0.80900002 0.045390293 1.4563195e-38 252 208
-0.095035926 0.80900002 0.045390293 1.4563195e-38 253 208
-0.093617477 0.80900002 0.045390293 1.4563197e-38 254 208
-0.092199028 0.80900002 0.045390293 1.4563197e-38 255 208
-0.091005012 0.81099999 0.045502506 1.4563195e-38 256 208
-0.089583054 0.81099999 0.045502506 1.4563195e-38 257 208
-0.088378519 0.81300002 0.045614719 1.4563904e-38 258 208
-0.086953059 0.81300002 0.045614719 1.4471349e-38 259 208
-0.085527599 0.81300002 0.045614719 1.4563904e-38 260 208
-0.084309027 0.815 0.045726933 1.4563904e-38 261 208
-0.082880065 0.815 0.045726933 1.474686e-38 262 208
-0.081451096 0.815 0.045726933 1.474686e-38 263 208
-0.080022126 0.815 0.045726933 1.474686e-38 264 208
-0.078593165 0.815 0.045726933 1.474686e-38 265 208
-0.077353559 0.81699997 0.045839142 1.4563904e-38 266 208
-0.075921081 0.81699997 0.045839142 1.4563904e-38 267 208
-0.074488603 0.81699997 0.045839142 1.4288393e-38 268 208
-0.073234983 0.81900001 0.045951359 1.4195839e-38 269 208
-0.071799003 0.81900001 0.045951359 1.4379157e-38 270 208
-0.070363015 0.81900001 0.045951359 1.4379157e-38 271 208
-0.068927035 0.81900001 0.045951359 1.4287308e-38 272 208
-0.067491055 0.81900001 0.045951359 1.3088765e-38 273 208
-0.066055074 0.81900001 0.045951359 1.5015503e-38 274 208
-0.064619094 0.81900001 0.045951359 2.0547241e-38 275 208
-0.063183114 0.81900001 0.045951359 2.3502572e-38 276 208
-0.061747137 0.81900001 0.045951359 2.3509783e-38 277 208
-0.060311157 0.81900001 0.045951359 2.3509802e-38 278 208
-0.058875177 0.81900001 0.045951359 2.3505111e-38 279 208
-0.057439201 0.81900001 0.045951359 2.0732743e-38 280 208
-0.056003217 0.81900001 0.045951359 1.971895e-38 281 208
-0.054567236 0.81900001 0.045951359 2.175229e-38 282 208
-0.053131256 0.81900001 0.045951359 2.3507969e-38 283 208
-0.05169528 0.81900001 0.045951359 2.3509782e-38 284 208
-0.0502593 0.81900001 0.045951359 2.3506532e-38 285 208
-0.048823319 0.81900001 0.045951359 2.2302535e-38 286 208
-0.047387339 0.81900001 0.045951359 2.0642654e-38 287 208
-0.045951359 0.81900001 0.045951359 2.2856803e-38 288 208
-0.044624086 0.82099998 0.046063572 2.3504694e-38 289 208
-0.043184597 0.82099998 0.046063572 2.2658755e-38 290 208
-0.041745111 0.82099998 0.046063572 2.1644603e-38 291 208
-0.040305622 0.82099998 0.046063572 2.2123568e-38 292 208
-0.03886614 0.82099998 0.046063572 2.3507942e-38 293 208
-0.037426651 0.82099998 0.046063572 2.350726e-38 294 208
-0.035987165 0.82099998 0.046063572 2.3507621e-38 295 208
-0.034547675 0.82099998 0.046063572 2.3508355e-38 296 208
-0.03310819 0.82099998 0.046063572 2.3509813e-38 297 208
-0.031668708 0.82099998 0.046063572 2.3509842e-38 298 208
-0.030229218 0.82099998 0.046063572 2.2312704e-38 299 208
-0.028789733 0.82099998 0.046063572 2.1652512e-38 300 208
-0.027350245 0.82099998 0.046063572 1.8702612e-38 301 208
-0.025910759 0.82099998 0.046063572 1.759839e-38 302 208
-0.024530886 0.82300001 0.046175785 1.759839e-38 303 208
-0.023087893 0.82300001 0.046175785 1.667899e-38 304 208
-0.0216449 0.82300001 0.046175785 1.6218012e-38 305 208
-0.020201907 0.82300001 0.046175785 1.4749368e-38 306 208
-0.018758914 0.82300001 0.046175785 1.428839e-38 307 208
-0.01731592 0.82300001 0.046175785 1.4011798e-38 308 208
-0.015872927 0.82300001 0.046175785 1.3643374e-38 309 208
-0.014429933 0.82300001 0.046175785 1.3550469e-38 310 208
-0.012986939 0.82300001 0.046175785 1.4564621e-38 311 208
-0.011543946 0.82300001 0.046175785 1.5668428e-38 312 208
-0.010100953 0.82300001 0.046175785 1.4654636e-38 313 208
-0.0086579602 0.82300001 0.046175785 1.4469126e-38 314 208
-0.0072149667 0.82300001 0.046175785 1.4376928e-38 315 208
-0.0057719732 0.82300001 0.046175785 1.4470591e-38 316 208
-0.0043289801 0.82300001 0.046175785 1.4931569e-38 317 208
-0.0028859866 0.82300001 0.046175785 1.4378791e-38 318 208
-0.0014429933 0.82300001 0.046175785 1.4470986e-38 319 208
0 0.82300001 0.046175785 1.4838693e-38 320 208
0.0014429933 0.82300001 0.046175785 1.4838693e-38 321 208
0.0028859866 0.82300001 0.046175785 1.4563179e-38 322 208
0.0043184594 0.82099998 0.046063572 1.4563179e-38 323 208
0.0057579465 0.82099998 0.046063572 1.4379507e-38 324 208
0.0071974332 0.82099998 0.046063572 1.4379507e-38 325 208
0.0086369189 0.82099998 0.046063572 1.4378788e-38 326 208
0.010076405 0.82099998 0.046063572 1.4470984e-38 327 208
0.011515893 0.82099998 0.046063572 1.4378785e-38 328 208
0.01292382 0.81900001 0.045951359 1.447134e-38 329 208
0.0143598 0.81900001 0.045951359 1.4379507e-38 330 208
0.015795778 0.81900001 0.045951359 1.4379507e-38 331 208
0.017231759 0.81900001 0.045951359 1.4379507e-38 332 208
0.018667741 0.81900001 0.045951359 1.4287311e-38 333 208
0.020103719 0.81900001 0.045951359 1.4103996e-38 334 208
0.021539699 0.81900001 0.045951359 1.4103996e-38 335 208
0.022919571 0.81699997 0.045839142 1.4287308e-38 336 208
0.024352046 0.81699997 0.045839142 1.4287308e-38 337 208
0.025784519 0.81699997 0.045839142 1.4103999e-38 338 208
0.027216991 0.81699997 0.045839142 1.4196195e-38 339 208
0.028649466 0.81699997 0.045839142 1.4379507e-38 340 208
0.030008299 0.815 0.045726933 1.4287311e-38 341 208
0.031437267 0.815 0.045726933 1.4196195e-38 342 208
0.03278558 0.81300002 0.045614719 1.4196195e-38 343 208
0.03421104 0.81300002 0.045614719 1.4196195e-38 344 208
0.0356365 0.81300002 0.045614719 1.4196195e-38 345 208
0.03706196 0.81300002 0.045614719 1.4012882e-38 346 208
0.038487419 0.81300002 0.045614719 1.3920328e-38 347 208
0.039912879 0.81300002 0.045614719 1.4103999e-38 348 208
0.041338343 0.81300002 0.045614719 1.4196195e-38 349 208
0.042763799 0.81300002 0.045614719 1.4012526e-38 350 208
0.044189259 0.81300002 0.045614719 1.4012526e-38 351 208
0.045614719 0.81300002 0.045614719 1.4195841e-38 352 208
0.047040179 0.81300002 0.045614719 1.4195841e-38 353 208
0.048465639 0.81300002 0.045614719 1.3920334e-38 354 208
0.049768366 0.81099999 0.045502506 1.3920334e-38 355 208
0.051190317 0.81099999 0.045502506 1.3920334e-38 356 208
0.052612271 0.81099999 0.045502506 1.4012529e-38 357 208
0.054034222 0.81099999 0.045502506 1.4103643e-38 358 208
0.055319421 0.80900002 0.045390293 1.4195839e-38 359 208
0.056737866 0.80900002 0.045390293 1.4103646e-38 360 208
0.058156308 0.80900002 0.045390293 1.4195841e-38 361 208
0.059427481 0.80699998 0.045278076 1.4195844e-38 362 208
0.060842417 0.80699998 0.045278076 1.4195844e-38 363 208
0.062257357 0.80699998 0.045278076 1.4195488e-38 364 208
0.063514493 0.80500001 0.045165867 1.4195488e-38 365 208
0.064925931 0.80500001 0.045165867 1.4012176e-38 366 208
0.066337362 0.80500001 0.045165867 1.4012176e-38 367 208
0.0677488 0.80500001 0.045165867 1.4012176e-38 368 208
0.068988405 0.80299997 0.04505365 1.4012176e-38 369 208
0.070396326 0.80299997 0.04505365 1.4012173e-38 370 208
0.071804255 0.80299997 0.04505365 1.4196563e-38 371 208
0.073212177 0.80299997 0.04505365 1.4196207e-38 372 208
0.074620105 0.80299997 0.04505365 1.4012176e-38 373 208
0.075933352 0.80199999 0.044997543 1.4011823e-38 374 208
0.077146664 0.80000001 0.044885334 1.4011823e-38 375 208
0.078549333 0.80000001 0.044885334 1.4011823e-38 376 208
0.079952002 0.80000001 0.044885334 1.4195854e-38 377 208
0.081151277 0.79799998 0.044773117 1.3920343e-38 378 208
0.082343549 0.796 0.044660907 1.4012898e-38 379 208
0.083739199 0.796 0.044660907 1.3829227e-38 380 208
0.08492095 0.79400003 0.044548694 1.4013617e-38 381 208
0.086313091 0.79400003 0.044548694 1.4104737e-38 382 208
0.087484315 0.792 0.044436477 1.4012542e-38 383 208
0.088872954 0.792 0.044436477 1.4012542e-38 384 208
0.090033665 0.79000002 0.044324268 1.4104737e-38 385 208
0.091418803 0.79000002 0.044324268 1.4012545e-38 386 208
0.092686452 0.78899997 0.044268157 1.4012545e-38 387 208
0.094069831 0.78899997 0.044268157 1.4013261e-38 388 208
0.09521126 0.787 0.044155944 1.4013261e-38 389 208
0.09659113 0.787 0.044155944 1.4105091e-38 390 208
0.097722031 0.78500003 0.044043735 1.4012895e-38 391 208
0.098845914 0.78299999 0.043931518 1.4196563e-38 392 208
0.10021878 0.78299999 0.043931518 1.4012173e-38 393 208
0.10133215 0.78100002 0.043819305 1.4012179e-38 394 208
0.1027015 0.78100002 0.043819305 1.4012179e-38 395 208
0.10407086 0.78100002 0.043819305 1.410294e-38 396 208
0.10530519 0.77999997 0.043763198 1.410294e-38 397 208
0.10667279 0.77999997 0.043763198 1.4195135e-38 398 208
0.10804039 0.77999997 0.043763198 1.428769e-38 399 208
0.10884693 0.77600002 0.043538772 1.3459019e-38 400 208
0.11020752 0.77600002 0.043538772 1.2905845e-38 401 208
0.11156811 0.77600002 0.043538772 1.3088088e-38 402 208
0.11263763 0.77399999 0.043426558 1.2995891e-38 403 208
0.11384743 0.773 0.043370452 1.2536358e-38 404 208
0.11520277 0.773 0.043370452 1.2259772e-38 405 208
0.11625651 0.77100003 0.043258239 1.2258346e-38 406 208
0.11730325 0.76899999 0.043146025 1.2258346e-38 407 208
0.11818869 0.76599997 0.042977702 1.2165822e-38 408 208
0.11921965 0.764 0.042865492 1.2165822e-38 409 208
0.1202436 0.76200002 0.042753279 1.170703e-38 410 208
0.12157964 0.76200002 0.042753279 1.1799226e-38 411 208
-0.15063588 0.77399999 0.042069476 1.2635152e-38 209 209
-0.14966454 0.77600002 0.042178184 1.2727338e-38 210 209
-0.14830394 0.77600002 0.042178184 1.2727338e-38 211 209
-0.14694335 0.77600002 0.042178184 1.318614e-38 212 209
-0.14558278 0.77600002 0.042178184 1.3001749e-38 213 209
-0.14459389 0.778 0.042286891 1.3181782e-38 214 209
-0.14359799 0.77999997 0.042395595 1.2628608e-38 215 209
-0.14223039 0.77999997 0.042395595 1.2718248e-38 216 209
-0.14086279 0.77999997 0.042395595 1.2442021e-38 217 209
-0.13967404 0.78100002 0.042449951 1.26264e-38 218 209
-0.1383047 0.78100002 0.042449951 1.3087738e-38 219 209
-0.13728601 0.78299999 0.042558655 1.3272851e-38 220 209
-0.1362603 0.78500003 0.042667367 1.3733829e-38 221 209
-0.13488393 0.78500003 0.042667367 1.4285551e-38 222 209
-0.1338477 0.787 0.042776071 1.410152e-38 223 209
-0.13280447 0.78899997 0.042884778 1.4286255e-38 224 209
-0.13142109 0.78899997 0.042884778 1.437845e-38 225 209
-0.13020253 0.79000002 0.04293913 1.4471002e-38 226 209
-0.12881739 0.79000002 0.04293913 1.4471002e-38 227 209
-0.12743226 0.79000002 0.04293913 1.4195138e-38 228 209
-0.12636623 0.792 0.043047838 1.4195138e-38 229 209
-0.1249776 0.792 0.043047838 1.3827797e-38 230 209
-0.12358896 0.792 0.043047838 1.3827797e-38 231 209
-0.12250891 0.79400003 0.043156546 1.4102586e-38 232 209
-0.12111676 0.79400003 0.043156546 1.4010391e-38 233 209
-0.12002619 0.796 0.043265253 1.4010747e-38 234 209
-0.11863054 0.796 0.043265253 1.3918551e-38 235 209
-0.11752943 0.79799998 0.043373957 1.3735236e-38 236 209
-0.11613028 0.79799998 0.043373957 1.3735236e-38 237 209
-0.11473111 0.79799998 0.043373957 1.40111e-38 238 209
-0.113616 0.80000001 0.043482669 1.3918546e-38 239 209
-0.11221333 0.80000001 0.043482669 1.40111e-38 240 209
-0.11081067 0.80000001 0.043482669 1.40111e-38 241 209
-0.10968152 0.80199999 0.043591373 1.40111e-38 242 209
-0.10827534 0.80199999 0.043591373 1.40111e-38 243 209
-0.10686917 0.80199999 0.043591373 1.4103296e-38 244 209
-0.10559449 0.80299997 0.043645725 1.4195491e-38 245 209
-0.10418656 0.80299997 0.043645725 1.4195488e-38 246 209
-0.10277864 0.80299997 0.043645725 1.4287684e-38 247 209
-0.10162319 0.80500001 0.043754432 1.4471355e-38 248 209
-0.10021176 0.80500001 0.043754432 1.4471355e-38 249 209
-0.098800331 0.80500001 0.043754432 1.4470999e-38 250 209
-0.097630851 0.80699998 0.04386314 1.4563195e-38 251 209
-0.096215919 0.80699998 0.04386314 1.4563195e-38 252 209
-0.094800979 0.80699998 0.04386314 1.4563195e-38 253 209
-0.093617477 0.80900002 0.043971848 1.4563195e-38 254 209
-0.092199028 0.80900002 0.043971848 1.4563195e-38 255 209
-0.090780586 0.80900002 0.043971848 1.4563548e-38 256 209
-0.089583054 0.81099999 0.044080548 1.4471352e-38 257 209
-0.088161096 0.81099999 0.044080548 1.4471349e-38 258 209
-0.086739153 0.81099999 0.044080548 1.4471349e-38 259 209
-0.085317194 0.81099999 0.044080548 1.4288037e-38 260 209
-0.083895244 0.81099999 0.044080548 1.4380233e-38 261 209
-0.082676686 0.81300002 0.044189259 1.4563904e-38 262 209
-0.081251219 0.81300002 0.044189259 1.4563904e-38 263 209
-0.079825759 0.81300002 0.044189259 1.4471352e-38 264 209
-0.078593165 0.815 0.044297963 1.4471352e-38 265 209
-0.077164195 0.815 0.044297963 1.428804e-38 266 209
-0.075921081 0.81699997 0.044406671 1.428804e-38 267 209
-0.074488603 0.81699997 0.044406671 1.4379154e-38 268 209
-0.073056139 0.81699997 0.044406671 1.4379154e-38 269 209
-0.071623661 0.81699997 0.044406671 1.4103646e-38 270 209
-0.07019119 0.81699997 0.044406671 1.401145e-38 271 209
-0.068758719 0.81699997 0.044406671 1.391781e-38 272 209
-0.06732624 0.81699997 0.044406671 1.474721e-38 273 209
-0.065893769 0.81699997 0.044406671 1.851212e-38 274 209
-0.064461298 0.81699997 0.044406671 2.3495004e-38 275 209
-0.06302882 0.81699997 0.044406671 2.3504013e-38 276 209
-0.061596353 0.81699997 0.044406671 2.3504374e-38 277 209
-0.060163878 0.81699997 0.044406671 2.3032577e-38 278 209
-0.058731399 0.81699997 0.044406671 2.0266706e-38 279 209
-0.057298932 0.81699997 0.044406671 1.6126507e-38 280 209
-0.055866458 0.81699997 0.044406671 1.6310538e-38 281 209
-0.054433983 0.81699997 0.044406671 2.1382782e-38 282 209
-0.053001508 0.81699997 0.044406671 2.3504722e-38 283 209
-0.051569037 0.81699997 0.044406671 2.3503266e-38 284 209
-0.050136562 0.81699997 0.044406671 2.0092028e-38 285 209
-0.048704091 0.81699997 0.044406671 1.806548e-38 286 209
-0.047271617 0.81699997 0.044406671 1.8803046e-38 287 209
-0.045839142 0.81699997 0.044406671 1.9629959e-38 288 209
-0.044515379 0.81900001 0.044515379 1.9629959e-38 289 209
-0.043079399 0.81900001 0.044515379 1.8337783e-38 290 209
-0.041643418 0.81900001 0.044515379 1.8061556e-38 291 209
-0.040207438 0.81900001 0.044515379 1.9911968e-38 292 209
-0.038771462 0.81900001 0.044515379 2.2125022e-38 293 209
-0.037335481 0.81900001 0.044515379 2.3501483e-38 294 209
-0.035899501 0.81900001 0.044515379 2.2210026e-38 295 209
-0.034463517 0.81900001 0.044515379 2.11948e-38 296 209
-0.033027537 0.81900001 0.044515379 2.3501852e-38 297 209
-0.031591557 0.81900001 0.044515379 2.3509806e-38 298 209
-0.030155579 0.81900001 0.044515379 2.1753401e-38 299 209
-0.0287196 0.81900001 0.044515379 2.0553021e-38 300 209
-0.027283618 0.81900001 0.044515379 2.0276793e-38 301 209
-0.02584764 0.81900001 0.044515379 2.1007873e-38 302 209
-0.024471272 0.82099998 0.044624086 2.0178111e-38 303 209
-0.023031786 0.82099998 0.044624086 1.8611521e-38 304 209
-0.021592299 0.82099998 0.044624086 1.7228586e-38 305 209
