# .PCD v.7 - Point Cloud Data file format
FIELDS x y z rgb imX imY
SIZE 4 4 4 4 4 4
TYPE F F F F F F
COUNT 1 1 1 1 1 1
WIDTH 839
HEIGHT 1
VIEWPOINT 0 0 0 1 0 0 0
POINTS 839
DATA ascii
-0.016569 0.67500001 -0.0248535 1.4101873e-38 306 261
-0.0153855 0.67500001 -0.0248535 1.4101873e-38 307 261
-0.014223038 0.676 -0.024890319 1.4285183e-38 308 261
-0.013076359 0.67799997 -0.024963958 1.4285183e-38 309 261
-0.011887599 0.67799997 -0.024963958 1.4286257e-38 310 261
-0.010698839 0.67799997 -0.024963958 1.4102226e-38 311 261
-0.0094820261 0.676 -0.024890319 1.4285536e-38 312 261
-0.0082844999 0.67500001 -0.0248535 1.4285536e-38 313 261
-0.0071010003 0.67500001 -0.0248535 1.4285536e-38 314 261
-0.0059174998 0.67500001 -0.0248535 1.4285536e-38 315 261
-0.0047059464 0.671 -0.024706218 1.4285539e-38 316 261
-0.0035294599 0.671 -0.024706218 1.4377734e-38 317 261
-0.0023389466 0.667 -0.024558939 1.4377381e-38 318 261
-0.0011694733 0.667 -0.024558939 1.4377381e-38 319 261
0 0.667 -0.024558939 1.4377378e-38 320 261
0.0011747333 0.67000002 -0.024669399 1.4377378e-38 321 261
0.0023389466 0.667 -0.024558939 1.4378453e-38 322 261
0.0035084197 0.667 -0.024558939 1.4378453e-38 323 261
0.0046778931 0.667 -0.024558939 1.4377734e-38 324 261
0.0059174998 0.67500001 -0.0248535 1.4377734e-38 325 261
0.0070904801 0.67400002 -0.024816679 1.4285539e-38 326 261
0.0082722269 0.67400002 -0.024816679 1.4285539e-38 327 261
0.0094539737 0.67400002 -0.024816679 1.4285539e-38 328 261
0.01063572 0.67400002 -0.024816679 1.4285539e-38 329 261
0.011782399 0.67199999 -0.024743039 1.4285536e-38 330 261
0.012960639 0.67199999 -0.024743039 1.4377731e-38 331 261
0.01411784 0.671 -0.024706218 1.4286255e-38 332 261
0.015294326 0.671 -0.024706218 1.4286255e-38 333 261
0.01649536 0.67199999 -0.024743039 1.4285536e-38 334 261
0.0176473 0.671 -0.024706218 1.419334e-38 335 261
0.018823786 0.671 -0.024706218 1.4192617e-38 336 261
0.020000271 0.671 -0.024706218 1.4100421e-38 337 261
0.021176759 0.671 -0.024706218 1.4284087e-38 338 261
0.022353247 0.671 -0.024706218 1.4100056e-38 339 261
0.023529733 0.671 -0.024706218 1.3916378e-38 340 261
0.024669399 0.67000002 -0.024669399 1.3916378e-38 341 261
0.025844134 0.67000002 -0.024669399 1.3825617e-38 342 261
0.027018867 0.67000002 -0.024669399 1.3825617e-38 343 261
0.028193599 0.67000002 -0.024669399 1.4008929e-38 344 261
0.029412165 0.671 -0.024706218 1.4193321e-38 345 261
0.030543067 0.67000002 -0.024669399 1.4285518e-38 346 261
0.0317178 0.67000002 -0.024669399 1.4285518e-38 347 261
0.032892533 0.67000002 -0.024669399 1.4469554e-38 348 261
0.034067266 0.67000002 -0.024669399 1.4469554e-38 349 261
0.035136797 0.66799998 -0.02459576 1.4285889e-38 350 261
0.036253672 0.667 -0.024558939 1.4378085e-38 351 261
0.037423145 0.667 -0.024558939 1.4285889e-38 352 261
0.038592618 0.667 -0.024558939 1.4285889e-38 353 261
0.039702479 0.66600001 -0.02452212 1.4285533e-38 354 261
0.040747464 0.66399997 -0.024448479 1.4285533e-38 355 261
0.041911677 0.66399997 -0.024448479 1.4285536e-38 356 261
0.043530006 0.671 -0.024706218 1.4285536e-38 357 261
0.044773117 0.67199999 -0.024743039 1.419334e-38 358 261
0.0461565 0.67500001 -0.0248535 1.419334e-38 359 261
0.047339998 0.67500001 -0.0248535 1.4102224e-38 360 261
0.048235953 0.671 -0.024706218 1.4010028e-38 361 261
0.049412437 0.671 -0.024706218 1.4010391e-38 362 261
0.050513536 0.67000002 -0.024669399 1.4010391e-38 363 261
0.051533967 0.66799998 -0.02459576 1.4193343e-38 364 261
0.052626297 0.667 -0.024558939 1.4285539e-38 365 261
0.053715117 0.66600001 -0.02452212 1.4102226e-38 366 261
0.054882839 0.66600001 -0.02452212 1.4102226e-38 367 261
0.055882234 0.66399997 -0.024448479 1.4010394e-38 368 261
0.057046451 0.66399997 -0.024448479 1.4010394e-38 369 261
0.058736663 0.67000002 -0.024669399 1.4102586e-38 370 261
0.0599114 0.67000002 -0.024669399 1.4102586e-38 371 261
0.060721438 0.66600001 -0.02452212 1.4102586e-38 372 261
0.061889157 0.66600001 -0.02452212 1.4010391e-38 373 261
0.062772833 0.66299999 -0.024411658 1.4010394e-38 374 261
0.063935295 0.66299999 -0.024411658 1.4010394e-38 375 261
0.06519594 0.66399997 -0.024448479 1.410187e-38 376 261
0.066060342 0.66100001 -0.02433802 1.410187e-38 377 261
0.067015901 0.65899998 -0.024264378 1.4102226e-38 378 261
0.067757562 0.65499997 -0.024117097 1.4286257e-38 379 261
0.068905994 0.65499997 -0.024117097 1.4286257e-38 380 261
0.070054427 0.65499997 -0.024117097 1.4102226e-38 381 261
0.071420282 0.65700001 -0.024190739 1.4286257e-38 382 261
0.072572216 0.65700001 -0.024190739 1.4286257e-38 383 261
0.073836371 0.65799999 -0.02422756 1.3827079e-38 384 261
0.074990064 0.65799999 -0.02422756 1.3827079e-38 385 261
0.076028034 0.65700001 -0.024190739 1.4010394e-38 386 261
0.077179976 0.65700001 -0.024190739 1.3918198e-38 387 261
0.078451142 0.65799999 -0.02422756 1.3917842e-38 388 261
0.079483859 0.65700001 -0.024190739 1.3733811e-38 389 261
0.080635801 0.65700001 -0.024190739 1.3825277e-38 390 261
0.081538759 0.65499997 -0.024117097 1.3733081e-38 391 261
0.082560956 0.65399998 -0.024080278 1.3825264e-38 392 261
0.083707638 0.65399998 -0.024080278 1.3825264e-38 393 261
0.08485432 0.65399998 -0.024080278 1.3825264e-38 394 261
-0.097211808 0.66799998 -0.025766984 1.3917495e-38 237 262
-0.096040577 0.66799998 -0.025766984 1.4101167e-38 238 262
-0.095295422 0.671 -0.025882706 1.4101167e-38 239 262
-0.09411893 0.671 -0.025882706 1.400969e-38 240 262
-0.092942439 0.671 -0.025882706 1.4101886e-38 241 262
-0.091765963 0.671 -0.025882706 1.4102242e-38 242 262
-0.090589471 0.671 -0.025882706 1.4102242e-38 243 262
-0.089412987 0.671 -0.025882706 1.4285554e-38 244 262
-0.088367991 0.67199999 -0.025921278 1.4285554e-38 245 262
-0.087189756 0.67199999 -0.025921278 1.4102242e-38 246 262
-0.085883528 0.671 -0.025882706 1.4102242e-38 247 262
-0.084707037 0.671 -0.025882706 1.4102236e-38 248 262
-0.083406061 0.67000002 -0.025844134 1.4194432e-38 249 262
-0.082231335 0.67000002 -0.025844134 1.4285904e-38 250 262
-0.080693655 0.667 -0.025728412 1.4285904e-38 251 262
-0.079524182 0.667 -0.025728412 1.4377381e-38 252 262
-0.078354709 0.667 -0.025728412 1.4377381e-38 253 262
-0.077185236 0.667 -0.025728412 1.4286257e-38 254 262
-0.075901799 0.66600001 -0.02568984 1.4286257e-38 255 262
-0.074734077 0.66600001 -0.02568984 1.4285536e-38 256 262
-0.073566355 0.66600001 -0.02568984 1.4285536e-38 257 262
-0.07239864 0.66600001 -0.02568984 1.4468848e-38 258 262
-0.071230918 0.66600001 -0.02568984 1.4284817e-38 259 262
-0.070063196 0.66600001 -0.02568984 1.4468848e-38 260 262
-0.068895474 0.66600001 -0.02568984 1.4468848e-38 261 262
-0.067727759 0.66600001 -0.02568984 1.4285536e-38 262 262
-0.066560037 0.66600001 -0.02568984 1.4285536e-38 263 262
-0.065588683 0.66799998 -0.025766984 1.4285183e-38 264 262
-0.064417459 0.66799998 -0.025766984 1.4285183e-38 265 262
-0.063246235 0.66799998 -0.025766984 1.4285183e-38 266 262
-0.062075011 0.66799998 -0.025766984 1.4285183e-38 267 262
-0.061086133 0.67000002 -0.025844134 1.4285183e-38 268 262
-0.0599114 0.67000002 -0.025844134 1.4377378e-38 269 262
-0.058736663 0.67000002 -0.025844134 1.4102226e-38 270 262
-0.057561934 0.67000002 -0.025844134 1.4102226e-38 271 262
-0.056218877 0.66799998 -0.025766984 1.410187e-38 272 262
-0.05504765 0.66799998 -0.025766984 1.4285902e-38 273 262
-0.05379577 0.667 -0.025728412 1.410187e-38 274 262
-0.052626297 0.667 -0.025728412 1.4285902e-38 275 262
-0.051456824 0.667 -0.025728412 1.4102586e-38 276 262
-0.050287351 0.667 -0.025728412 1.4102586e-38 277 262
-0.04904424 0.66600001 -0.02568984 1.4286257e-38 278 262
-0.047876518 0.66600001 -0.02568984 1.4286257e-38 279 262
-0.046778932 0.667 -0.025728412 1.4285183e-38 280 262
-0.0458146 0.67000002 -0.025844134 1.4377378e-38 281 262
-0.044706494 0.671 -0.025882706 1.4377734e-38 282 262
-0.043530006 0.671 -0.025882706 1.4377734e-38 283 262
-0.042353518 0.671 -0.025882706 1.4285539e-38 284 262
-0.041177034 0.671 -0.025882706 1.4285539e-38 285 262
-0.039940935 0.67000002 -0.025844134 1.4285539e-38 286 262
-0.038766202 0.67000002 -0.025844134 1.4377734e-38 287 262
-0.037591465 0.67000002 -0.025844134 1.4377734e-38 288 262
-0.036308024 0.66799998 -0.025766984 1.4377734e-38 289 262
-0.035136797 0.66799998 -0.025766984 1.4285902e-38 290 262
-0.033965573 0.66799998 -0.025766984 1.4285902e-38 291 262
-0.032745253 0.667 -0.025728412 1.4377378e-38 292 262
-0.031528439 0.66600001 -0.02568984 1.4285183e-38 293 262
-0.030360719 0.66600001 -0.02568984 1.4285902e-38 294 262
-0.029192999 0.66600001 -0.02568984 1.410187e-38 295 262
-0.028025279 0.66600001 -0.02568984 1.4102226e-38 296 262
-0.026857559 0.66600001 -0.02568984 1.4102226e-38 297 262
-0.025728412 0.667 -0.025728412 1.4285536e-38 298 262
-0.024558939 0.667 -0.025728412 1.4285536e-38 299 262
-0.023389466 0.667 -0.025728412 1.4285533e-38 300 262
-0.022219993 0.667 -0.025728412 1.4285533e-38 301 262
-0.021050518 0.667 -0.025728412 1.4102224e-38 302 262
-0.019881045 0.667 -0.025728412 1.4102224e-38 303 262
-0.018683519 0.66600001 -0.02568984 1.410187e-38 304 262
-0.0174632 0.66399997 -0.025612691 1.410187e-38 305 262
-0.016298985 0.66399997 -0.025612691 1.410187e-38 306 262
-0.015134773 0.66399997 -0.025612691 1.410187e-38 307 262
-0.013970559 0.66399997 -0.025612691 1.4286257e-38 308 262
-0.012767773 0.662 -0.025535546 1.4286257e-38 309 262
-0.011607066 0.662 -0.025535546 1.4285539e-38 310 262
-0.01066728 0.676 -0.026075572 1.4285539e-38 311 262
-0.0094679995 0.67500001 -0.026037 1.4468851e-38 312 262
-0.0082844999 0.67500001 -0.026037 1.4468851e-38 313 262
-0.0071010003 0.67500001 -0.026037 1.4285536e-38 314 262
-0.0058911997 0.67199999 -0.025921278 1.4285536e-38 315 262
-0.0046778931 0.667 -0.025728412 1.4286255e-38 316 262
-0.0035084197 0.667 -0.025728412 1.4286255e-38 317 262
-0.0023249199 0.66299999 -0.025574118 1.4285539e-38 318 262
-0.00116246 0.66299999 -0.025574118 1.4377734e-38 319 262
0 0.66600001 -0.02568984 1.4286255e-38 320 262
0.00116772 0.66600001 -0.02568984 1.4286255e-38 321 262
0.0023354399 0.66600001 -0.02568984 1.4378087e-38 322 262
0.0034926396 0.66399997 -0.025612691 1.4378087e-38 323 262
0.0046498398 0.66299999 -0.025574118 1.4378087e-38 324 262
0.0058122999 0.66299999 -0.025574118 1.4378087e-38 325 262
0.0070589199 0.671 -0.025882706 1.4378087e-38 326 262
0.0082354061 0.671 -0.025882706 1.4470283e-38 327 262
0.0094118929 0.671 -0.025882706 1.4378087e-38 328 262
0.0105726 0.67000002 -0.025844134 1.4378087e-38 329 262
0.011747333 0.67000002 -0.025844134 1.4285533e-38 330 262
0.012941353 0.671 -0.025882706 1.4285533e-38 331 262
0.01411784 0.671 -0.025882706 1.4285533e-38 332 262
0.015294326 0.671 -0.025882706 1.4285533e-38 333 262
0.016470812 0.671 -0.025882706 1.4285173e-38 334 262
0.0176473 0.671 -0.025882706 1.4469204e-38 335 262
0.018795732 0.67000002 -0.025844134 1.4193337e-38 336 262
0.019970467 0.67000002 -0.025844134 1.410114e-38 337 262
0.0211452 0.67000002 -0.025844134 1.4192973e-38 338 262
0.022319933 0.67000002 -0.025844134 1.4192973e-38 339 262
0.023494666 0.67000002 -0.025844134 1.391746e-38 340 262
0.02459576 0.66799998 -0.025766984 1.4101491e-38 341 262
0.025766984 0.66799998 -0.025766984 1.3918534e-38 342 262
0.026897885 0.667 -0.025728412 1.4010731e-38 343 262
0.028067358 0.667 -0.025728412 1.4194041e-38 344 262
0.029280664 0.66799998 -0.025766984 1.4286236e-38 345 262
0.030451892 0.66799998 -0.025766984 1.4378435e-38 346 262
0.03157578 0.667 -0.025728412 1.4378435e-38 347 262
0.032745253 0.667 -0.025728412 1.4378082e-38 348 262
0.033914726 0.667 -0.025728412 1.4378082e-38 349 262
0.035031598 0.66600001 -0.02568984 1.4285889e-38 350 262
0.03619932 0.66600001 -0.02568984 1.4378085e-38 351 262
0.037367038 0.66600001 -0.02568984 1.4286608e-38 352 262
0.038361177 0.66299999 -0.025574118 1.4286608e-38 353 262
0.039523639 0.66299999 -0.025574118 1.4286252e-38 354 262
0.04062473 0.662 -0.025535546 1.4102221e-38 355 262
0.041596077 0.65899998 -0.025419824 1.4285536e-38 356 262
0.042751525 0.65899998 -0.025419824 1.4285536e-38 357 262
0.043906972 0.65899998 -0.025419824 1.4102224e-38 358 262
0.045062415 0.65899998 -0.025419824 1.4010028e-38 359 262
0.046077598 0.65700001 -0.025342681 1.4010028e-38 360 262
0.048235953 0.671 -0.025882706 1.4010028e-38 361 262
0.049412437 0.671 -0.025882706 1.4009672e-38 362 262
0.050513536 0.67000002 -0.025844134 1.4102226e-38 363 262
0.051148236 0.66299999 -0.025574118 1.4102226e-38 364 262
0.052310698 0.66299999 -0.025574118 1.4102226e-38 365 262
0.053553808 0.66399997 -0.025612691 1.4010391e-38 366 262
0.054718021 0.66399997 -0.025612691 1.4010391e-38 367 262
0.055713918 0.662 -0.025535546 1.4010391e-38 368 262
0.056874625 0.662 -0.025535546 1.4010391e-38 369 262
0.058035329 0.662 -0.025535546 1.4010391e-38 370 262
0.05919604 0.662 -0.025535546 1.4102586e-38 371 262
0.060539093 0.66399997 -0.025612691 1.4102589e-38 372 262
0.061424527 0.66100001 -0.025496973 1.4010394e-38 373 262
0.061731357 0.65200001 -0.025149813 1.4102592e-38 374 262
0.062874533 0.65200001 -0.025149813 1.4010396e-38 375 262
0.064115889 0.653 -0.025188386 1.4101873e-38 376 262
0.06526082 0.653 -0.025188386 1.4285904e-38 377 262
0.066405743 0.653 -0.025188386 1.410187e-38 378 262
0.067550674 0.653 -0.025188386 1.410187e-38 379 262
0.068695597 0.653 -0.025188386 1.4102586e-38 380 262
0.069840528 0.653 -0.025188386 1.4010391e-38 381 262
0.070985451 0.653 -0.025188386 1.4102226e-38 382 262
0.072130375 0.653 -0.025188386 1.4102226e-38 383 262
0.073387519 0.65399998 -0.025226958 1.3918195e-38 384 262
0.0748761 0.65700001 -0.025342681 1.3918195e-38 385 262
0.076028034 0.65700001 -0.025342681 1.3917476e-38 386 262
0.077179976 0.65700001 -0.025342681 1.3825279e-38 387 262
0.078331918 0.65700001 -0.025342681 1.3825277e-38 388 262
0.079241894 0.65499997 -0.025265532 1.3825277e-38 389 262
0.080390327 0.65499997 -0.025265532 1.3733437e-38 390 262
0.081289791 0.653 -0.025188386 1.3640882e-38 391 262
0.082434714 0.653 -0.025188386 1.364052e-38 392 262
0.083707638 0.65399998 -0.025226958 1.3732715e-38 393 262
-0.096328132 0.67000002 -0.027018867 1.3916773e-38 238 263
-0.095295422 0.671 -0.027059194 1.4008969e-38 239 263
-0.09411893 0.671 -0.027059194 1.400969e-38 240 263
-0.092942439 0.671 -0.027059194 1.4101886e-38 241 263
-0.091765963 0.671 -0.027059194 1.4101886e-38 242 263
-0.090589471 0.671 -0.027059194 1.4101886e-38 243 263
-0.089412987 0.671 -0.027059194 1.4101886e-38 244 263
-0.087841995 0.66799998 -0.026938211 1.4101886e-38 245 263
-0.086670771 0.66799998 -0.026938211 1.4102242e-38 246 263
-0.085883528 0.671 -0.027059194 1.4194437e-38 247 263
-0.084707037 0.671 -0.027059194 1.4285907e-38 248 263
-0.083157085 0.66799998 -0.026938211 1.4285907e-38 249 263
-0.081985861 0.66799998 -0.026938211 1.4377381e-38 250 263
-0.081056595 0.67000002 -0.027018867 1.4377381e-38 251 263
-0.079524182 0.667 -0.026897885 1.4377378e-38 252 263
-0.078002289 0.66399997 -0.026776904 1.4377378e-38 253 263
-0.076838076 0.66399997 -0.026776904 1.4377734e-38 254 263
-0.075673863 0.66399997 -0.026776904 1.4285539e-38 255 263
-0.074397437 0.66299999 -0.026736578 1.4468848e-38 256 263
-0.073234983 0.66299999 -0.026736578 1.4468848e-38 257 263
-0.072072513 0.66299999 -0.026736578 1.4469204e-38 258 263
-0.071017005 0.66399997 -0.026776904 1.4469204e-38 259 263
-0.069747597 0.66299999 -0.026736578 1.4285533e-38 260 263
-0.068585135 0.66299999 -0.026736578 1.4193337e-38 261 263
-0.067422673 0.66299999 -0.026736578 1.4284817e-38 262 263
-0.066260219 0.66299999 -0.026736578 1.4468848e-38 263 263
-0.06519594 0.66399997 -0.026776904 1.4285539e-38 264 263
-0.064224601 0.66600001 -0.026857559 1.4285539e-38 265 263
-0.063056879 0.66600001 -0.026857559 1.4102226e-38 266 263
-0.061889157 0.66600001 -0.026857559 1.4286257e-38 267 263
-0.060721438 0.66600001 -0.026857559 1.4286257e-38 268 263
-0.05973256 0.66799998 -0.026938211 1.4286257e-38 269 263
-0.058561329 0.66799998 -0.026938211 1.4102226e-38 270 263
-0.057390101 0.66799998 -0.026938211 1.4286257e-38 271 263
-0.056218877 0.66799998 -0.026938211 1.4377734e-38 272 263
-0.05504765 0.66799998 -0.026938211 1.4285539e-38 273 263
-0.05379577 0.667 -0.026897885 1.4285539e-38 274 263
-0.052547399 0.66600001 -0.026857559 1.4377734e-38 275 263
-0.051225383 0.66399997 -0.026776904 1.4102224e-38 276 263
-0.05006117 0.66399997 -0.026776904 1.4286255e-38 277 263
-0.048823316 0.66299999 -0.026736578 1.4377734e-38 278 263
-0.047588971 0.662 -0.026696252 1.4377734e-38 279 263
-0.046428263 0.662 -0.026696252 1.4285539e-38 280 263
-0.045335937 0.66299999 -0.026736578 1.4377734e-38 281 263
-0.044173479 0.66299999 -0.026736578 1.4377734e-38 282 263
-0.043465134 0.67000002 -0.027018867 1.4377734e-38 283 263
-0.042353518 0.671 -0.027059194 1.4377734e-38 284 263
-0.040992931 0.66799998 -0.026938211 1.4377734e-38 285 263
-0.039702479 0.66600001 -0.026857559 1.4377734e-38 286 263
-0.03853476 0.66600001 -0.026857559 1.4377734e-38 287 263
-0.037423145 0.667 -0.026897885 1.4377734e-38 288 263
-0.03619932 0.66600001 -0.026857559 1.446993e-38 289 263
-0.035031598 0.66600001 -0.026857559 1.4285902e-38 290 263
-0.03386388 0.66600001 -0.026857559 1.4285902e-38 291 263
-0.032696161 0.66600001 -0.026857559 1.4285902e-38 292 263
-0.031433757 0.66399997 -0.026776904 1.410187e-38 293 263
-0.030269546 0.66399997 -0.026776904 1.4102226e-38 294 263
-0.02910533 0.66399997 -0.026776904 1.4286257e-38 295 263
-0.027941117 0.66399997 -0.026776904 1.4285536e-38 296 263
-0.026776904 0.66399997 -0.026776904 1.4285536e-38 297 263
-0.02568984 0.66600001 -0.026857559 1.4285533e-38 298 263
-0.02452212 0.66600001 -0.026857559 1.4285533e-38 299 263
-0.023354398 0.66600001 -0.026857559 1.4285533e-38 300 263
-0.02218668 0.66600001 -0.026857559 1.4285533e-38 301 263
-0.02101896 0.66600001 -0.026857559 1.4285536e-38 302 263
-0.019851239 0.66600001 -0.026857559 1.4377731e-38 303 263
-0.018627413 0.66399997 -0.026776904 1.4285539e-38 304 263
-0.017436899 0.66299999 -0.026736578 1.4377734e-38 305 263
-0.016274439 0.66299999 -0.026736578 1.4377734e-38 306 263
-0.015089186 0.662 -0.026696252 1.4377734e-38 307 263
-0.01390744 0.66100001 -0.026655925 1.4285536e-38 308 263
-0.012709912 0.65899998 -0.026575271 1.4285536e-38 309 263
-0.011554466 0.65899998 -0.026575271 1.4285536e-38 310 263
-0.01044636 0.662 -0.026696252 1.4285536e-38 311 263
-0.009285653 0.662 -0.026696252 1.4285536e-38 312 263
-0.0081372196 0.66299999 -0.026736578 1.4285536e-38 313 263
-0.0070063197 0.66600001 -0.026857559 1.4377731e-38 314 263
-0.0058385995 0.66600001 -0.026857559 1.4285536e-38 315 263
-0.0046708798 0.66600001 -0.026857559 1.4285539e-38 316 263
-0.0034873798 0.66299999 -0.026736578 1.4377734e-38 317 263
-0.0023214133 0.662 -0.026696252 1.4561044e-38 318 263
-0.0011607066 0.662 -0.026696252 1.4561044e-38 319 263
0 0.662 -0.026696252 1.4378087e-38 320 263
0.0011607066 0.662 -0.026696252 1.4378087e-38 321 263
0.0023214133 0.662 -0.026696252 1.4378085e-38 322 263
0.0034821199 0.662 -0.026696252 1.447028e-38 323 263
0.0046358132 0.66100001 -0.026655925 1.4470636e-38 324 263
0.0057947668 0.66100001 -0.026655925 1.4470636e-38 325 263
0.0069642398 0.662 -0.026696252 1.4470636e-38 326 263
0.0081249457 0.662 -0.026696252 1.4470636e-38 327 263
0.009285653 0.662 -0.026696252 1.4653592e-38 328 263
0.010525259 0.667 -0.026897885 1.4561397e-38 329 263
0.011694733 0.667 -0.026897885 1.4469201e-38 330 263
0.012922067 0.67000002 -0.027018867 1.4469201e-38 331 263
0.014096799 0.67000002 -0.027018867 1.4285533e-38 332 263
0.015271533 0.67000002 -0.027018867 1.4285533e-38 333 263
0.016446266 0.67000002 -0.027018867 1.4285533e-38 334 263
0.017620999 0.67000002 -0.027018867 1.4285533e-38 335 263
0.018739626 0.66799998 -0.026938211 1.4285533e-38 336 263
0.019910853 0.66799998 -0.026938211 1.4285533e-38 337 263
0.0211452 0.67000002 -0.027018867 1.428517e-38 338 263
0.022319933 0.67000002 -0.027018867 1.428517e-38 339 263
0.023389466 0.667 -0.026897885 1.4193688e-38 340 263
0.024558939 0.667 -0.026897885 1.4286242e-38 341 263
0.02568984 0.66600001 -0.026857559 1.4286242e-38 342 263
0.026857559 0.66600001 -0.026857559 1.4286242e-38 343 263
0.028025279 0.66600001 -0.026857559 1.4378435e-38 344 263
0.029192999 0.66600001 -0.026857559 1.4378435e-38 345 263
0.030269546 0.66399997 -0.026776904 1.4653946e-38 346 263
0.031386416 0.66299999 -0.026736578 1.456175e-38 347 263
0.032548878 0.66299999 -0.026736578 1.4561753e-38 348 263
0.033660494 0.662 -0.026696252 1.4561753e-38 349 263
0.034821201 0.662 -0.026696252 1.4378085e-38 350 263
0.035981905 0.662 -0.026696252 1.4378085e-38 351 263
0.037086505 0.66100001 -0.026655925 1.4378087e-38 352 263
0.038071878 0.65799999 -0.026534945 1.4378087e-38 353 263
0.039225571 0.65799999 -0.026534945 1.4286252e-38 354 263
0.0403179 0.65700001 -0.026494619 1.4102221e-38 355 263
0.041469838 0.65700001 -0.026494619 1.4102224e-38 356 263
0.04262178 0.65700001 -0.026494619 1.4102224e-38 357 263
0.043773718 0.65700001 -0.026494619 1.4102224e-38 358 263
0.04492566 0.65700001 -0.026494619 1.4102224e-38 359 263
0.046077598 0.65700001 -0.026494619 1.4285536e-38 360 263
0.04722954 0.65700001 -0.026494619 1.4285536e-38 361 263
0.048381478 0.65700001 -0.026494619 1.4102226e-38 362 263
0.049834993 0.66100001 -0.026655925 1.4102226e-38 363 263
0.050993945 0.66100001 -0.026655925 1.4102226e-38 364 263
0.052152898 0.66100001 -0.026655925 1.4102226e-38 365 263
0.053392503 0.662 -0.026696252 1.4010747e-38 366 263
0.054553211 0.662 -0.026696252 1.4102942e-38 367 263
0.05562976 0.66100001 -0.026655925 1.4102586e-38 368 263
0.056788713 0.66100001 -0.026655925 1.4010391e-38 369 263
0.057947662 0.66100001 -0.026655925 1.4102226e-38 370 263
0.059106622 0.66100001 -0.026655925 1.4102226e-38 371 263
0.059445009 0.65200001 -0.026292987 1.4102226e-38 372 263
0.060588185 0.65200001 -0.026292987 1.4102226e-38 373 263
0.061731357 0.65200001 -0.026292987 1.410187e-38 374 263
0.062874533 0.65200001 -0.026292987 1.410187e-38 375 263
0.064017706 0.65200001 -0.026292987 1.4102226e-38 376 263
0.065160878 0.65200001 -0.026292987 1.4009672e-38 377 263
0.066405743 0.653 -0.026333313 1.4010028e-38 378 263
0.06744723 0.65200001 -0.026292987 1.4010028e-38 379 263
0.068590395 0.65200001 -0.026292987 1.4010028e-38 380 263
0.069733568 0.65200001 -0.026292987 1.4010028e-38 381 263
0.070876747 0.65200001 -0.026292987 1.3917476e-38 382 263
0.07201992 0.65200001 -0.026292987 1.3917476e-38 383 263
0.073163092 0.65200001 -0.026292987 1.3917831e-38 384 263
0.074420229 0.653 -0.026333313 1.3825277e-38 385 263
0.075565159 0.653 -0.026333313 1.3825632e-38 386 263
0.077179976 0.65700001 -0.026494619 1.3733437e-38 387 263
0.078331918 0.65700001 -0.026494619 1.3640882e-38 388 263
0.079241894 0.65499997 -0.026413966 1.3640882e-38 389 263
0.080390327 0.65499997 -0.026413966 1.3640169e-38 390 263
0.081289791 0.653 -0.026333313 1.3455419e-38 391 263
0.082434714 0.653 -0.026333313 1.3454705e-38 392 263
-0.087841995 0.66799998 -0.028109439 1.4194084e-38 245 264
-0.086670771 0.66799998 -0.028109439 1.3918571e-38 246 264
-0.084859572 0.66299999 -0.027899038 1.3918571e-38 247 264
-0.083697118 0.66299999 -0.027899038 1.4285907e-38 248 264
-0.08265914 0.66399997 -0.027941117 1.4285907e-38 249 264
-0.081126735 0.66100001 -0.02781488 1.4285185e-38 250 264
-0.079967782 0.66100001 -0.02781488 1.4285185e-38 251 264
-0.079166502 0.66399997 -0.027941117 1.4285183e-38 252 264
-0.077767342 0.662 -0.027856959 1.4377378e-38 253 264
-0.076606639 0.662 -0.027856959 1.4286257e-38 254 264
-0.075445928 0.662 -0.027856959 1.4102226e-38 255 264
-0.074173011 0.66100001 -0.02781488 1.4285533e-38 256 264
-0.073014058 0.66100001 -0.02781488 1.4285533e-38 257 264
-0.071963809 0.662 -0.027856959 1.4469201e-38 258 264
-0.070803106 0.662 -0.027856959 1.428517e-38 259 264
-0.0695372 0.66100001 -0.02781488 1.4193337e-38 260 264
-0.068378247 0.66100001 -0.02781488 1.4193337e-38 261 264
-0.067219295 0.66100001 -0.02781488 1.428482e-38 262 264
-0.065860458 0.65899998 -0.027730718 1.428482e-38 263 264
-0.064705007 0.65899998 -0.027730718 1.4193343e-38 264 264
-0.063935295 0.66299999 -0.027899038 1.4285539e-38 265 264
-0.062678158 0.662 -0.027856959 1.4285183e-38 266 264
-0.061517447 0.662 -0.027856959 1.4285183e-38 267 264
-0.060447913 0.66299999 -0.027899038 1.4285539e-38 268 264
-0.059374876 0.66399997 -0.027941117 1.4285539e-38 269 264
-0.058385998 0.66600001 -0.028025279 1.4285536e-38 270 264
-0.057304189 0.667 -0.028067358 1.4285536e-38 271 264
-0.056050558 0.66600001 -0.028025279 1.4285536e-38 272 264
-0.054882839 0.66600001 -0.028025279 1.4285536e-38 273 264
-0.053553808 0.66399997 -0.027941117 1.4285536e-38 274 264
-0.0522318 0.662 -0.027856959 1.4285536e-38 275 264
-0.050993945 0.66100001 -0.02781488 1.4285539e-38 276 264
-0.049834993 0.66100001 -0.02781488 1.4285539e-38 277 264
-0.04867604 0.66100001 -0.02781488 1.4102226e-38 278 264
-0.04737331 0.65899998 -0.027730718 1.4286257e-38 279 264
-0.04614773 0.65799999 -0.027688639 1.4377734e-38 280 264
-0.044994038 0.65799999 -0.027688639 1.4285539e-38 281 264
-0.043906972 0.65899998 -0.027730718 1.4377734e-38 282 264
-0.042751525 0.65899998 -0.027730718 1.4377734e-38 283 264
-0.041596077 0.65899998 -0.027730718 1.4377734e-38 284 264
-0.04044063 0.65899998 -0.027730718 1.4377734e-38 285 264
-0.039404415 0.66100001 -0.02781488 1.4377734e-38 286 264
-0.03853476 0.66600001 -0.028025279 1.446993e-38 287 264
-0.037254825 0.66399997 -0.027941117 1.4378453e-38 288 264
-0.036090612 0.66399997 -0.027941117 1.4378453e-38 289 264
-0.034873798 0.66299999 -0.027899038 1.4285904e-38 290 264
-0.033711337 0.66299999 -0.027899038 1.4285904e-38 291 264
-0.03259797 0.66399997 -0.027941117 1.4285183e-38 292 264
-0.031386416 0.66299999 -0.027899038 1.4285183e-38 293 264
-0.030223956 0.66299999 -0.027899038 1.4102226e-38 294 264
-0.029017664 0.662 -0.027856959 1.4102226e-38 295 264
-0.02781488 0.66100001 -0.02781488 1.4102224e-38 296 264
-0.026655925 0.66100001 -0.02781488 1.4102224e-38 297 264
-0.025574118 0.66299999 -0.027899038 1.4285533e-38 298 264
-0.024411658 0.66299999 -0.027899038 1.4285533e-38 299 264
-0.0232492 0.66299999 -0.027899038 1.4285533e-38 300 264
-0.022120051 0.66399997 -0.027941117 1.4285533e-38 301 264
-0.020924279 0.66299999 -0.027899038 1.4285533e-38 302 264
-0.019761819 0.66299999 -0.027899038 1.4285533e-38 303 264
-0.018599359 0.66299999 -0.027899038 1.4285536e-38 304 264
-0.017410601 0.662 -0.027856959 1.4377731e-38 305 264
-0.016249891 0.662 -0.027856959 1.4377731e-38 306 264
-0.015066394 0.66100001 -0.02781488 1.4285536e-38 307 264
-0.01390744 0.66100001 -0.02781488 1.4285536e-38 308 264
-0.012709912 0.65899998 -0.027730718 1.4377731e-38 309 264
-0.011554466 0.65899998 -0.027730718 1.4377731e-38 310 264
-0.01043058 0.66100001 -0.02781488 1.4285536e-38 311 264
-0.0092716264 0.66100001 -0.02781488 1.4377731e-38 312 264
-0.0081249457 0.662 -0.027856959 1.4377731e-38 313 264
-0.0069747595 0.66299999 -0.027899038 1.4377731e-38 314 264
-0.0058122999 0.66299999 -0.027899038 1.4377731e-38 315 264
-0.0046498398 0.66299999 -0.027899038 1.4286255e-38 316 264
-0.0034821199 0.662 -0.027856959 1.4102224e-38 317 264
-0.0023214133 0.662 -0.027856959 1.4285533e-38 318 264
-0.0011607066 0.662 -0.027856959 1.4285533e-38 319 264
0 0.66100001 -0.02781488 1.4285533e-38 320 264
0.0011589533 0.66100001 -0.02781488 1.4285533e-38 321 264
0.0023179066 0.66100001 -0.02781488 1.4378087e-38 322 264
0.00347686 0.66100001 -0.02781488 1.4378087e-38 323 264
0.0046217865 0.65899998 -0.027730718 1.447028e-38 324 264
0.0057772328 0.65899998 -0.027730718 1.447028e-38 325 264
0.0069221598 0.65799999 -0.027688639 1.4653592e-38 326 264
0.0080758529 0.65799999 -0.027688639 1.4653592e-38 327 264
0.0092295464 0.65799999 -0.027688639 1.45614e-38 328 264
0.01038324 0.65799999 -0.027688639 1.45614e-38 329 264
0.011607066 0.662 -0.027856959 1.4285533e-38 330 264
0.012787059 0.66299999 -0.027899038 1.4285533e-38 331 264
0.014096799 0.67000002 -0.028193599 1.4193337e-38 332 264
0.015271533 0.67000002 -0.028193599 1.4285533e-38 333 264
0.016397171 0.66799998 -0.028109439 1.4285533e-38 334 264
0.017568398 0.66799998 -0.028109439 1.4193337e-38 335 264
0.018711573 0.667 -0.028067358 1.4285533e-38 336 264
0.019881045 0.667 -0.028067358 1.4193337e-38 337 264
0.021082079 0.66799998 -0.028109439 1.4193337e-38 338 264
0.022319933 0.67000002 -0.028193599 1.4285533e-38 339 264
0.023354398 0.66600001 -0.028025279 1.4285536e-38 340 264
0.024374841 0.662 -0.027856959 1.4285536e-38 341 264
0.025535546 0.662 -0.027856959 1.4285536e-38 342 264
0.026696252 0.662 -0.027856959 1.4285536e-38 343 264
0.027856959 0.662 -0.027856959 1.4286252e-38 344 264
0.029061496 0.66299999 -0.027899038 1.4286252e-38 345 264
0.030178372 0.662 -0.027856959 1.4378087e-38 346 264
0.031339079 0.662 -0.027856959 1.4285533e-38 347 264
0.032499783 0.662 -0.027856959 1.4469204e-38 348 264
0.033609647 0.66100001 -0.02781488 1.45614e-38 349 264
0.0347686 0.66100001 -0.02781488 1.4285536e-38 350 264
0.035927553 0.66100001 -0.02781488 1.4285536e-38 351 264
0.036974292 0.65899998 -0.027730718 1.4102224e-38 352 264
0.038014017 0.65700001 -0.027646558 1.4010028e-38 353 264
0.039165959 0.65700001 -0.027646558 1.4285533e-38 354 264
0.040195163 0.65499997 -0.027562398 1.4285533e-38 355 264
0.041343596 0.65499997 -0.027562398 1.4285533e-38 356 264
0.04262178 0.65700001 -0.027646558 1.4285533e-38 357 264
0.043640465 0.65499997 -0.027562398 1.4102226e-38 358 264
0.044788897 0.65499997 -0.027562398 1.4102226e-38 359 264
0.045867197 0.65399998 -0.027520318 1.4102226e-38 360 264
0.047013879 0.65399998 -0.027520318 1.4102226e-38 361 264
0.048160557 0.65399998 -0.027520318 1.4102226e-38 362 264
0.049834993 0.66100001 -0.02781488 1.4102226e-38 363 264
0.050993945 0.66100001 -0.02781488 1.410187e-38 364 264
0.052152898 0.66100001 -0.02781488 1.410187e-38 365 264
0.053392503 0.662 -0.027856959 1.4010394e-38 366 264
0.054553211 0.662 -0.027856959 1.4010394e-38 367 264
0.05562976 0.66100001 -0.02781488 1.4010396e-38 368 264
0.056788713 0.66100001 -0.02781488 1.4010396e-38 369 264
0.057947662 0.66100001 -0.02781488 1.3917842e-38 370 264
0.059106622 0.66100001 -0.02781488 1.3917842e-38 371 264
0.059445009 0.65200001 -0.02743616 1.3918198e-38 372 264
0.060588185 0.65200001 -0.02743616 1.3918198e-38 373 264
0.061731357 0.65200001 -0.02743616 1.3917476e-38 374 264
0.062874533 0.65200001 -0.02743616 1.3917476e-38 375 264
0.064017706 0.65200001 -0.02743616 1.3917476e-38 376 264
0.065160878 0.65200001 -0.02743616 1.3825279e-38 377 264
0.066304058 0.65200001 -0.02743616 1.3825632e-38 378 264
0.06744723 0.65200001 -0.02743616 1.3825632e-38 379 264
0.068590395 0.65200001 -0.02743616 1.3825632e-38 380 264
0.069733568 0.65200001 -0.02743616 1.3825632e-38 381 264
0.070659332 0.64999998 -0.027351998 1.3825277e-38 382 264
0.071798995 0.64999998 -0.027351998 1.3733081e-38 383 264
0.073163092 0.65200001 -0.02743616 1.3733081e-38 384 264
0.074420229 0.653 -0.027478239 1.3640885e-38 385 264
0.075565159 0.653 -0.027478239 1.3456854e-38 386 264
0.076710083 0.653 -0.027478239 1.3456854e-38 387 264
0.077855013 0.653 -0.027478239 1.363945e-38 388 264
0.078999937 0.653 -0.027478239 1.3547255e-38 389 264
-0.083835632 0.65499997 -0.028710833 1.4010769e-38 247 265
-0.082687192 0.65499997 -0.028710833 1.4102242e-38 248 265
-0.081538759 0.65499997 -0.028710833 1.4102242e-38 249 265
-0.080635801 0.65700001 -0.028798498 1.4285551e-38 250 265
-0.079483859 0.65700001 -0.028798498 1.4285551e-38 251 265
-0.078331918 0.65700001 -0.028798498 1.4102236e-38 252 265
-0.077297449 0.65799999 -0.028842334 1.4102236e-38 253 265
-0.076259479 0.65899998 -0.028886165 1.4285902e-38 254 265
-0.075104028 0.65899998 -0.028886165 1.410187e-38 255 265
-0.074173011 0.66100001 -0.028973831 1.4285539e-38 256 265
-0.072793134 0.65899998 -0.028886165 1.4285539e-38 257 265
-0.07163769 0.65899998 -0.028886165 1.4468848e-38 258 265
-0.070482239 0.65899998 -0.028886165 1.4284817e-38 259 265
-0.069326796 0.65899998 -0.028886165 1.4284817e-38 260 265
-0.068171352 0.65899998 -0.028886165 1.4284817e-38 261 265
-0.066914216 0.65799999 -0.028842334 1.4284817e-38 262 265
-0.065660581 0.65700001 -0.028798498 1.4468848e-38 263 265
-0.064312264 0.65499997 -0.028710833 1.419334e-38 264 265
-0.063163824 0.65499997 -0.028710833 1.4285536e-38 265 265
-0.06220476 0.65700001 -0.028798498 1.4193343e-38 266 265
-0.060866963 0.65499997 -0.028710833 1.4285539e-38 267 265
-0.059718527 0.65499997 -0.028710833 1.4285183e-38 268 265
-0.059285458 0.66299999 -0.029061496 1.4285183e-38 269 265
-0.058385998 0.66600001 -0.029192999 1.4377734e-38 270 265
-0.057218276 0.66600001 -0.029192999 1.4285539e-38 271 265
-0.055713918 0.662 -0.029017664 1.4378087e-38 272 265
-0.054553211 0.662 -0.029017664 1.4285533e-38 273 265
-0.053311851 0.66100001 -0.028973831 1.4285536e-38 274 265
-0.051995095 0.65899998 -0.028886165 1.4377731e-38 275 265
-0.050685361 0.65700001 -0.028798498 1.4102226e-38 276 265
-0.049533416 0.65700001 -0.028798498 1.4286257e-38 277 265
-0.048381478 0.65700001 -0.028798498 1.4102589e-38 278 265
-0.047301427 0.65799999 -0.028842334 1.4102589e-38 279 265
-0.046077598 0.65700001 -0.028798498 1.4285539e-38 280 265
-0.04492566 0.65700001 -0.028798498 1.4377734e-38 281 265
-0.043840345 0.65799999 -0.028842334 1.4377734e-38 282 265
-0.042686652 0.65799999 -0.028842334 1.4377734e-38 283 265
-0.04153296 0.65799999 -0.028842334 1.4377734e-38 284 265
-0.04044063 0.65899998 -0.028886165 1.4285539e-38 285 265
-0.039404415 0.66100001 -0.028973831 1.4377734e-38 286 265
-0.037254825 0.66399997 -0.02910533 1.4378097e-38 288 265
-0.036090612 0.66399997 -0.02910533 1.4285902e-38 289 265
-0.034873798 0.66299999 -0.029061496 1.4102589e-38 290 265
-0.033660494 0.662 -0.029017664 1.4010394e-38 291 265
-0.032499783 0.662 -0.029017664 1.4285536e-38 292 265
-0.031291738 0.66100001 -0.028973831 1.4285536e-38 293 265
-0.030132787 0.66100001 -0.028973831 1.4102224e-38 294 265
-0.028973831 0.66100001 -0.028973831 1.4102224e-38 295 265
-0.027730718 0.65899998 -0.028886165 1.4102224e-38 296 265
-0.026575271 0.65899998 -0.028886165 1.4102224e-38 297 265
-0.025496973 0.66100001 -0.028973831 1.4285533e-38 298 265
-0.02433802 0.66100001 -0.028973831 1.4285533e-38 299 265
-0.023179067 0.66100001 -0.028973831 1.4102221e-38 300 265
-0.022053426 0.662 -0.029017664 1.4286252e-38 301 265
-0.020892721 0.662 -0.029017664 1.4285536e-38 302 265
-0.019732011 0.662 -0.029017664 1.4285536e-38 303 265
-0.018571306 0.662 -0.029017664 1.4285536e-38 304 265
-0.0173843 0.66100001 -0.028973831 1.4285536e-38 305 265
-0.016225345 0.66100001 -0.028973831 1.4378087e-38 306 265
-0.015020805 0.65899998 -0.028886165 1.4378087e-38 307 265
-0.013865359 0.65899998 -0.028886165 1.4286252e-38 308 265
-0.012709912 0.65899998 -0.028886165 1.4286252e-38 309 265
-0.011554466 0.65899998 -0.028886165 1.4378087e-38 310 265
-0.01043058 0.66100001 -0.028973831 1.4285533e-38 311 265
-0.0092716264 0.66100001 -0.028973831 1.4378087e-38 312 265
-0.0081126727 0.66100001 -0.028973831 1.4378087e-38 313 265
-0.00695372 0.66100001 -0.028973831 1.4285533e-38 314 265
-0.0058035329 0.662 -0.029017664 1.4285533e-38 315 265
-0.0046428265 0.662 -0.029017664 1.4285533e-38 316 265
-0.00347686 0.66100001 -0.028973831 1.4378087e-38 317 265
-0.0023179066 0.66100001 -0.028973831 1.4285536e-38 318 265
-0.0011589533 0.66100001 -0.028973831 1.4285536e-38 319 265
0 0.65899998 -0.028886165 1.4561044e-38 320 265
0.0011554466 0.65899998 -0.028886165 1.4561044e-38 321 265
0.0023108933 0.65899998 -0.028886165 1.4377731e-38 322 265
0.0034663398 0.65899998 -0.028886165 1.4469927e-38 323 265
0.0046147732 0.65799999 -0.028842334 1.4378087e-38 324 265
0.0057684663 0.65799999 -0.028842334 1.4378087e-38 325 265
0.0068905996 0.65499997 -0.028710833 1.4561044e-38 326 265
0.0080267601 0.65399998 -0.028666999 1.4561044e-38 327 265
0.0091734398 0.65399998 -0.028666999 1.4561044e-38 328 265
0.010335899 0.65499997 -0.028710833 1.4468848e-38 329 265
0.011519399 0.65700001 -0.028798498 1.4286252e-38 330 265
0.012787059 0.66299999 -0.029061496 1.4102221e-38 331 265
0.014096799 0.67000002 -0.029368332 1.4102221e-38 332 265
0.015271533 0.67000002 -0.029368332 1.4102221e-38 333 265
0.015955333 0.64999998 -0.028491667 1.4193337e-38 334 265
0.017095 0.64999998 -0.028491667 1.4193337e-38 335 265
0.018318826 0.653 -0.028623167 1.4285536e-38 336 265
0.019463753 0.653 -0.028623167 1.419334e-38 337 265
0.020608678 0.653 -0.028623167 1.419334e-38 338 265
0.021753605 0.653 -0.028623167 1.419334e-38 339 265
0.022898532 0.653 -0.028623167 1.4193343e-38 340 265
0.024043459 0.653 -0.028623167 1.4193343e-38 341 265
0.025226958 0.65399998 -0.028666999 1.4285539e-38 342 265
0.026494619 0.65700001 -0.028798498 1.4285539e-38 343 265
0.027646558 0.65700001 -0.028798498 1.4285539e-38 344 265
0.029017664 0.662 -0.029017664 1.4377734e-38 345 265
0.030178372 0.662 -0.029017664 1.4285536e-38 346 265
0.031339079 0.662 -0.029017664 1.4285536e-38 347 265
0.032499783 0.662 -0.029017664 1.4285536e-38 348 265
0.033609647 0.66100001 -0.028973831 1.4285536e-38 349 265
0.0347686 0.66100001 -0.028973831 1.4285536e-38 350 265
0.035927553 0.66100001 -0.028973831 1.4285536e-38 351 265
0.036974292 0.65899998 -0.028886165 1.4285536e-38 352 265
0.038014017 0.65700001 -0.028798498 1.4285536e-38 353 265
0.039165959 0.65700001 -0.028798498 1.4102224e-38 354 265
0.040195163 0.65499997 -0.028710833 1.4286255e-38 355 265
0.041343596 0.65499997 -0.028710833 1.4286255e-38 356 265
0.04262178 0.65700001 -0.028798498 1.4102224e-38 357 265
0.043640465 0.65499997 -0.028710833 1.4010391e-38 358 265
0.044720516 0.65399998 -0.028666999 1.4010391e-38 359 265
0.045376267 0.64700001 -0.028360168 1.410187e-38 360 265
0.046438787 0.64600003 -0.028316336 1.410187e-38 361 265
0.047350518 0.64300001 -0.028184833 1.410187e-38 362 265
0.04847791 0.64300001 -0.028184833 1.410187e-38 363 265
0.049528159 0.64200002 -0.028141001 1.4010396e-38 364 265
0.0506538 0.64200002 -0.028141001 1.4010396e-38 365 265
0.053392503 0.662 -0.029017664 1.4010396e-38 366 265
0.054553211 0.662 -0.029017664 1.4010396e-38 367 265
0.055713918 0.662 -0.029017664 1.4100794e-38 368 265
0.05146208 0.59899998 -0.026256165 1.4100794e-38 369 265
0.057158668 0.65200001 -0.028579334 1.3916756e-38 370 265
0.058301836 0.65200001 -0.028579334 1.3916756e-38 371 265
0.059445009 0.65200001 -0.028579334 1.3917109e-38 372 265
0.060588185 0.65200001 -0.028579334 1.3917109e-38 373 265
0.061731357 0.65200001 -0.028579334 1.4008223e-38 374 265
0.062681668 0.64999998 -0.028491667 1.4008223e-38 375 265
0.063821331 0.64999998 -0.028491667 1.3916027e-38 376 265
0.065160878 0.65200001 -0.028579334 1.4008223e-38 377 265
0.066304058 0.65200001 -0.028579334 1.3825264e-38 378 265
0.06744723 0.65200001 -0.028579334 1.3825264e-38 379 265
0.068590395 0.65200001 -0.028579334 1.3825264e-38 380 265
0.063958094 0.59799999 -0.026212333 1.3825264e-38 381 265
0.065006584 0.59799999 -0.026212333 1.3916027e-38 382 265
0.071798995 0.64999998 -0.028491667 1.3823832e-38 383 265
0.072938658 0.64999998 -0.028491667 1.3639448e-38 384 265
0.068266027 0.59899998 -0.026256165 1.3455055e-38 385 265
0.069316275 0.59899998 -0.026256165 1.3361787e-38 386 265
0.070366524 0.59899998 -0.026256165 1.3269592e-38 387 265
-0.083835632 0.65499997 -0.029859263 1.3918574e-38 247 266
-0.082687192 0.65499997 -0.029859263 1.4102242e-38 248 266
-0.081538759 0.65499997 -0.029859263 1.4102242e-38 249 266
-0.080635801 0.65700001 -0.02995044 1.3918571e-38 250 266
-0.079483859 0.65700001 -0.02995044 1.3918571e-38 251 266
-0.078331918 0.65700001 -0.02995044 1.4102236e-38 252 266
-0.077297449 0.65799999 -0.029996024 1.4102236e-38 253 266
-0.076143757 0.65799999 -0.029996024 1.4285904e-38 254 266
-0.074990064 0.65799999 -0.029996024 1.4101873e-38 255 266
-0.073836371 0.65799999 -0.029996024 1.4377734e-38 256 266
-0.072682679 0.65799999 -0.029996024 1.4285539e-38 257 266
-0.071420282 0.65700001 -0.02995044 1.4468848e-38 258 266
-0.07026834 0.65700001 -0.02995044 1.4284817e-38 259 266
-0.069116399 0.65700001 -0.02995044 1.419334e-38 260 266
-0.067964457 0.65700001 -0.02995044 1.419334e-38 261 266
-0.066609129 0.65499997 -0.029859263 1.4284817e-38 262 266
-0.065360755 0.65399998 -0.029813679 1.4284817e-38 263 266
-0.064214081 0.65399998 -0.029813679 1.4468848e-38 264 266
-0.063163824 0.65499997 -0.029859263 1.4468848e-38 265 266
-0.062015396 0.65499997 -0.029859263 1.4285539e-38 266 266
-0.060402326 0.64999998 -0.029631332 1.4285539e-38 267 266
-0.059171494 0.64899999 -0.029585747 1.4285539e-38 268 266
-0.058033578 0.64899999 -0.029585747 1.4285539e-38 269 266
-0.056983333 0.64999998 -0.029631332 1.4377731e-38 270 266
-0.055671841 0.648 -0.029540159 1.4377731e-38 271 266
-0.05453568 0.648 -0.029540159 1.4285533e-38 272 266
-0.053564329 0.64999998 -0.029631332 1.4378087e-38 273 266
-0.052666627 0.653 -0.029768093 1.4378087e-38 274 266
-0.0515217 0.653 -0.029768093 1.4378087e-38 275 266
-0.050453916 0.65399998 -0.029813679 1.4377734e-38 276 266
-0.049307238 0.65399998 -0.029813679 1.4285539e-38 277 266
-0.048234195 0.65499997 -0.029859263 1.4286257e-38 278 266
-0.047085766 0.65499997 -0.029859263 1.4102226e-38 279 266
-0.04593733 0.65499997 -0.029859263 1.4377731e-38 280 266
-0.044788897 0.65499997 -0.029859263 1.4377731e-38 281 266
-0.043773718 0.65700001 -0.02995044 1.4286255e-38 282 266
-0.042686652 0.65799999 -0.029996024 1.4286255e-38 283 266
-0.04153296 0.65799999 -0.029996024 1.4377734e-38 284 266
-0.04044063 0.65899998 -0.030041611 1.4377734e-38 285 266
-0.039285187 0.65899998 -0.030041611 1.4285902e-38 286 266
-0.034663398 0.65899998 -0.030041611 1.4286255e-38 290 266
-0.033507951 0.65899998 -0.030041611 1.4286255e-38 291 266
-0.032450691 0.66100001 -0.030132787 1.4285533e-38 292 266
-0.031197058 0.65899998 -0.030041611 1.4285533e-38 293 266
-0.030041611 0.65899998 -0.030041611 1.4285533e-38 294 266
-0.028886165 0.65899998 -0.030041611 1.4285533e-38 295 266
-0.027730718 0.65899998 -0.030041611 1.4285533e-38 296 266
-0.026575271 0.65899998 -0.030041611 1.4285533e-38 297 266
-0.025496973 0.66100001 -0.030132787 1.4285533e-38 298 266
-0.024264378 0.65899998 -0.030041611 1.4285533e-38 299 266
-0.023108931 0.65899998 -0.030041611 1.4286252e-38 300 266
-0.022020113 0.66100001 -0.030132787 1.4102221e-38 301 266
-0.020892721 0.662 -0.030178372 1.4285536e-38 302 266
-0.019732011 0.662 -0.030178372 1.4377731e-38 303 266
-0.018543253 0.66100001 -0.030132787 1.4285533e-38 304 266
-0.0173843 0.66100001 -0.030132787 1.4285533e-38 305 266
-0.016078066 0.65499997 -0.029859263 1.4378085e-38 306 266
-0.014929632 0.65499997 -0.029859263 1.4378085e-38 307 266
-0.013781199 0.65499997 -0.029859263 1.4378085e-38 308 266
-0.01267134 0.65700001 -0.02995044 1.4378085e-38 309 266
-0.011519399 0.65700001 -0.02995044 1.4285533e-38 310 266
-0.01036746 0.65700001 -0.02995044 1.4378087e-38 311 266
-0.0092295464 0.65799999 -0.029996024 1.4377731e-38 312 266
-0.0080635799 0.65700001 -0.02995044 1.4285536e-38 313 266
-0.0069116396 0.65700001 -0.02995044 1.4285533e-38 314 266
-0.0057772328 0.65899998 -0.030041611 1.4378087e-38 315 266
-0.0046217865 0.65899998 -0.030041611 1.4378087e-38 316 266
-0.0034663398 0.65899998 -0.030041611 1.4378087e-38 317 266
-0.0023108933 0.65899998 -0.030041611 1.4285536e-38 318 266
-0.0011554466 0.65899998 -0.030041611 1.4285536e-38 319 266
0 0.65799999 -0.029996024 1.4377731e-38 320 266
0.0011536933 0.65799999 -0.029996024 1.4377731e-38 321 266
0.0022968664 0.65499997 -0.029859263 1.4378087e-38 322 266
0.0034452998 0.65499997 -0.029859263 1.4378087e-38 323 266
0.0045867199 0.65399998 -0.029813679 1.4377731e-38 324 266
0.0057246331 0.653 -0.029768093 1.4377731e-38 325 266
0.0068590399 0.65200001 -0.029722504 1.4377731e-38 326 266
0.0080022132 0.65200001 -0.029722504 1.4377731e-38 327 266
0.0091453865 0.65200001 -0.029722504 1.4378087e-38 328 266
0.01028856 0.65200001 -0.029722504 1.4285533e-38 329 266
0.011431733 0.65200001 -0.029722504 1.4285533e-38 330 266
0.012536332 0.64999998 -0.029631332 1.4285533e-38 331 266
0.013675999 0.64999998 -0.029631332 1.4102577e-38 332 266
0.014815666 0.64999998 -0.029631332 1.4102577e-38 333 266
0.015955333 0.64999998 -0.029631332 1.4102221e-38 334 266
0.017095 0.64999998 -0.029631332 1.4102221e-38 335 266
0.018234665 0.64999998 -0.029631332 1.4285539e-38 336 266
0.019433947 0.65200001 -0.029722504 1.4285539e-38 337 266
0.02057712 0.65200001 -0.029722504 1.4193343e-38 338 266
0.021720294 0.65200001 -0.029722504 1.4285539e-38 339 266
0.022863466 0.65200001 -0.029722504 1.4102226e-38 340 266
0.024006641 0.65200001 -0.029722504 1.4102226e-38 341 266
0.025149813 0.65200001 -0.029722504 1.4285183e-38 342 266
0.026413966 0.65499997 -0.029859263 1.4285183e-38 343 266
0.02743616 0.65200001 -0.029722504 1.4010394e-38 344 266
0.028579334 0.65200001 -0.029722504 1.4010394e-38 345 266
0.029996024 0.65799999 -0.029996024 1.4010391e-38 346 266
0.031291738 0.66100001 -0.030132787 1.4010391e-38 347 266
0.032450691 0.66100001 -0.030132787 1.4285536e-38 348 266
0.033609647 0.66100001 -0.030132787 1.4285536e-38 349 266
0.0347686 0.66100001 -0.030132787 1.4102224e-38 350 266
0.035927553 0.66100001 -0.030132787 1.4102224e-38 351 266
0.036918186 0.65799999 -0.029996024 1.4010747e-38 352 266
0.038014017 0.65700001 -0.02995044 1.4010747e-38 353 266
0.039165959 0.65700001 -0.02995044 1.4286255e-38 354 266
0.040195163 0.65499997 -0.029859263 1.4102224e-38 355 266
0.041343596 0.65499997 -0.029859263 1.4285536e-38 356 266
0.042492028 0.65499997 -0.029859263 1.4285536e-38 357 266
0.043573838 0.65399998 -0.029813679 1.4286257e-38 358 266
0.044583756 0.65200001 -0.029722504 1.4102226e-38 359 266
0.045376267 0.64700001 -0.029494572 1.410187e-38 360 266
0.046438787 0.64600003 -0.029448988 1.410187e-38 361 266
0.047350518 0.64300001 -0.029312227 1.4101873e-38 362 266
0.04847791 0.64300001 -0.029312227 1.4101873e-38 363 266
0.046210852 0.59899998 -0.027306411 1.4010396e-38 364 266
0.047261097 0.59899998 -0.027306411 1.4010396e-38 365 266
0.048311342 0.59899998 -0.027306411 1.4010394e-38 366 266
0.04936159 0.59899998 -0.027306411 1.3734167e-38 367 266
0.050411835 0.59899998 -0.027306411 1.3916759e-38 368 266
0.05146208 0.59899998 -0.027306411 1.3824563e-38 369 266
0.052336998 0.597 -0.027215241 1.3824558e-38 370 266
0.058301836 0.65200001 -0.029722504 1.3824558e-38 371 266
0.059445009 0.65200001 -0.029722504 1.3824914e-38 372 266
0.060588185 0.65200001 -0.029722504 1.3824914e-38 373 266
0.061541997 0.64999998 -0.029631332 1.3916027e-38 374 266
0.062681668 0.64999998 -0.029631332 1.3916027e-38 375 266
0.063821331 0.64999998 -0.029631332 1.3640517e-38 376 266
0.064960994 0.64999998 -0.029631332 1.3732712e-38 377 266
0.066100657 0.64999998 -0.029631332 1.3457926e-38 378 266
0.067240328 0.64999998 -0.029631332 1.3457926e-38 379 266
0.062909603 0.59799999 -0.027260825 1.3456854e-38 380 266
0.063958094 0.59799999 -0.027260825 1.3364658e-38 381 266
0.065006584 0.59799999 -0.027260825 1.3455775e-38 382 266
0.066165537 0.59899998 -0.027306411 1.3271743e-38 383 266
0.067215785 0.59899998 -0.027306411 1.3178109e-38 384 266
0.068266027 0.59899998 -0.027306411 1.2809685e-38 385 266
0.069316275 0.59899998 -0.027306411 1.2716781e-38 386 266
-0.083579645 0.653 -0.03091302 1.3918574e-38 247 267
-0.082434714 0.653 -0.03091302 1.3918574e-38 248 267
-0.081289791 0.653 -0.03091302 1.3918574e-38 249 267
-0.080267593 0.65399998 -0.030960357 1.4101889e-38 250 267
-0.076943278 0.63599998 -0.030108238 1.4101889e-38 251 267
-0.075351253 0.63200003 -0.029918881 1.4194087e-38 252 267
-0.074243151 0.63200003 -0.029918881 1.4194087e-38 253 267
-0.073135041 0.63200003 -0.029918881 1.4101886e-38 254 267
-0.074990064 0.65799999 -0.031149717 1.4101886e-38 255 267
-0.073499724 0.65499997 -0.031007698 1.4285551e-38 256 267
-0.072240837 0.65399998 -0.030960357 1.410152e-38 257 267
-0.071094155 0.65399998 -0.030960357 1.4285185e-38 258 267
-0.069947474 0.65399998 -0.030960357 1.4285185e-38 259 267
-0.068695597 0.653 -0.03091302 1.4285539e-38 260 267
-0.067240328 0.64999998 -0.030770998 1.4193343e-38 261 267
-0.065897278 0.648 -0.03067632 1.4193343e-38 262 267
