# .PCD v.7 - Point Cloud Data file format
FIELDS x y z rgb imX imY
SIZE 4 4 4 4 4 4
TYPE F F F F F F
COUNT 1 1 1 1 1 1
WIDTH 861
HEIGHT 1
VIEWPOINT 0 0 0 1 0 0 0
POINTS 861
DATA ascii
-0.10982879 0.78299999 0.021965759 1.3915664e-38 240 224
-0.10845593 0.78299999 0.021965759 1.3915664e-38 241 224
-0.10708307 0.78299999 0.021965759 1.4008579e-38 242 224
-0.10571022 0.78299999 0.021965759 1.419297e-38 243 224
-0.10433736 0.78299999 0.021965759 1.4101496e-38 244 224
-0.1032275 0.78500003 0.022021867 1.4193693e-38 245 224
-0.10211062 0.787 0.022077972 1.4285889e-38 246 224
-0.10098673 0.78899997 0.022134079 1.4285889e-38 247 224
-0.099603355 0.78899997 0.022134079 1.4469201e-38 248 224
-0.098219968 0.78899997 0.022134079 1.4561397e-38 249 224
-0.096836597 0.78899997 0.022134079 1.4378085e-38 250 224
-0.0955742 0.79000002 0.022162134 1.4378085e-38 251 224
-0.094069831 0.78899997 0.022134079 1.4378085e-38 252 224
-0.092451513 0.787 0.022077972 1.4378085e-38 253 224
-0.091071643 0.787 0.022077972 1.4378806e-38 254 224
-0.089691758 0.787 0.022077972 1.4378806e-38 255 224
-0.088648535 0.79000002 0.022162134 1.437845e-38 256 224
-0.087484315 0.792 0.022218239 1.4470646e-38 257 224
-0.086095676 0.792 0.022218239 1.4378453e-38 258 224
-0.084707037 0.792 0.022218239 1.4378453e-38 259 224
-0.083528802 0.79400003 0.022274347 1.4286981e-38 260 224
-0.081929758 0.792 0.022218239 1.4286981e-38 261 224
-0.080541119 0.792 0.022218239 1.4286983e-38 262 224
-0.078952603 0.79000002 0.022162134 1.4286983e-38 263 224
-0.077469274 0.78899997 0.022134079 1.4286983e-38 264 224
-0.076085895 0.78899997 0.022134079 1.4286983e-38 265 224
-0.07451316 0.787 0.022077972 1.43781e-38 266 224
-0.073133282 0.787 0.022077972 1.4470296e-38 267 224
-0.071753412 0.787 0.022077972 1.4470296e-38 268 224
-0.070552371 0.78899997 0.022134079 1.4470296e-38 269 224
-0.068993665 0.787 0.022077972 1.4562128e-38 270 224
-0.067613788 0.787 0.022077972 1.4469933e-38 271 224
-0.066233918 0.787 0.022077972 1.437845e-38 272 224
-0.065018855 0.78899997 0.022134079 1.4470646e-38 273 224
-0.063635476 0.78899997 0.022134079 1.4470646e-38 274 224
-0.062330995 0.79000002 0.022162134 1.4470646e-38 275 224
-0.060868718 0.78899997 0.022134079 1.4287336e-38 276 224
-0.059485335 0.78899997 0.022134079 1.4195141e-38 277 224
-0.05810196 0.78899997 0.022134079 1.4287336e-38 278 224
-0.056718577 0.78899997 0.022134079 1.4287336e-38 279 224
-0.055335198 0.78899997 0.022134079 1.4470646e-38 280 224
-0.053951818 0.78899997 0.022134079 1.4470646e-38 281 224
-0.052435186 0.787 0.022077972 1.4470646e-38 282 224
-0.051055312 0.787 0.022077972 1.4470646e-38 283 224
-0.049675439 0.787 0.022077972 1.437845e-38 284 224
-0.048418298 0.78899997 0.022134079 1.437845e-38 285 224
-0.047034916 0.78899997 0.022134079 1.4195138e-38 286 224
-0.045535821 0.787 0.022077972 1.4195138e-38 287 224
-0.044155944 0.787 0.022077972 1.4378453e-38 288 224
-0.042776071 0.787 0.022077972 1.4378453e-38 289 224
-0.041396201 0.787 0.022077972 1.4378453e-38 290 224
-0.040016327 0.787 0.022077972 1.4378453e-38 291 224
-0.03863645 0.787 0.022077972 1.4378453e-38 292 224
-0.037161902 0.78500003 0.022021867 1.4378453e-38 293 224
-0.035785533 0.78500003 0.022021867 1.437845e-38 294 224
-0.034409165 0.78500003 0.022021867 1.437845e-38 295 224
-0.033032801 0.78500003 0.022021867 1.4469927e-38 296 224
-0.031656433 0.78500003 0.022021867 1.4377731e-38 297 224
-0.030280067 0.78500003 0.022021867 1.4469927e-38 298 224
-0.0289037 0.78500003 0.022021867 1.4469927e-38 299 224
-0.027527334 0.78500003 0.022021867 1.437845e-38 300 224
-0.026150968 0.78500003 0.022021867 1.437845e-38 301 224
-0.0247746 0.78500003 0.022021867 1.4378087e-38 302 224
-0.02333862 0.78299999 0.021965759 1.4378087e-38 303 224
-0.021965759 0.78299999 0.021965759 1.4102224e-38 304 224
-0.020645501 0.78500003 0.022021867 1.4286255e-38 305 224
-0.019269135 0.78500003 0.022021867 1.4286255e-38 306 224
-0.017892767 0.78500003 0.022021867 1.4286255e-38 307 224
-0.016516401 0.78500003 0.022021867 1.4286252e-38 308 224
-0.015140033 0.78500003 0.022021867 1.4102221e-38 309 224
-0.013763667 0.78500003 0.022021867 1.4285536e-38 310 224
-0.0123873 0.78500003 0.022021867 1.4285536e-38 311 224
-0.011010934 0.78500003 0.022021867 1.4102221e-38 312 224
-0.0096100196 0.78299999 0.021965759 1.4102221e-38 313 224
-0.0082371598 0.78299999 0.021965759 1.4286252e-38 314 224
-0.0068642995 0.78299999 0.021965759 1.4102221e-38 315 224
-0.0054914397 0.78299999 0.021965759 1.4286252e-38 316 224
-0.0041185799 0.78299999 0.021965759 1.4286252e-38 317 224
-0.0027457199 0.78299999 0.021965759 1.4378087e-38 318 224
-0.0013693533 0.78100002 0.021909652 1.4378087e-38 319 224
0 0.78100002 0.021909652 1.4286252e-38 320 224
0.0013693533 0.78100002 0.021909652 1.4102221e-38 321 224
0.0027387065 0.78100002 0.021909652 1.4285533e-38 322 224
0.0041027996 0.77999997 0.021881599 1.4193337e-38 323 224
0.0054703997 0.77999997 0.021881599 1.419369e-38 324 224
0.0068379994 0.77999997 0.021881599 1.419369e-38 325 224
0.0082161194 0.78100002 0.021909652 1.4193326e-38 326 224
0.0095854728 0.78100002 0.021909652 1.4285523e-38 327 224
0.010940799 0.77999997 0.021881599 1.4101847e-38 328 224
0.012308398 0.77999997 0.021881599 1.4194044e-38 329 224
0.013675999 0.77999997 0.021881599 1.4102571e-38 330 224
0.015005025 0.778 0.021825492 1.4102571e-38 331 224
0.016369121 0.778 0.021825492 1.4102577e-38 332 224
0.017778799 0.77999997 0.021881599 1.4102577e-38 333 224
0.0191464 0.77999997 0.021881599 1.4286252e-38 334 224
0.020513998 0.77999997 0.021881599 1.4286252e-38 335 224
0.021909652 0.78100002 0.021909652 1.4102224e-38 336 224
0.023279008 0.78100002 0.021909652 1.4286255e-38 337 224
0.024648361 0.78100002 0.021909652 1.4468848e-38 338 224
0.026017714 0.78100002 0.021909652 1.4468848e-38 339 224
0.027351998 0.77999997 0.021881599 1.45614e-38 340 224
0.028719598 0.77999997 0.021881599 1.45614e-38 341 224
0.03001005 0.778 0.021825492 1.4378087e-38 342 224
0.031374145 0.778 0.021825492 1.4378087e-38 343 224
0.032822397 0.77999997 0.021881599 1.419334e-38 344 224
0.034102332 0.778 0.021825492 1.419334e-38 345 224
0.035466425 0.778 0.021825492 1.419334e-38 346 224
0.036593821 0.773 0.021685226 1.419334e-38 347 224
0.03775277 0.76899999 0.021573013 1.4102221e-38 348 224
0.039101087 0.76899999 0.021573013 1.4102221e-38 349 224
0.040554602 0.77100003 0.021629119 1.40111e-38 350 224
0.042015124 0.773 0.021685226 1.40111e-38 351 224
0.043258239 0.77100003 0.021629119 1.4286608e-38 352 224
0.044610061 0.77100003 0.021629119 1.4286608e-38 353 224
0.045842651 0.76899999 0.021573013 1.4286608e-38 354 224
0.047190964 0.76899999 0.021573013 1.4286608e-38 355 224
0.04866552 0.77100003 0.021629119 1.4378082e-38 356 224
0.04988759 0.76899999 0.021573013 1.4285886e-38 357 224
0.051235907 0.76899999 0.021573013 1.4286605e-38 358 224
0.052584216 0.76899999 0.021573013 1.4286605e-38 359 224
0.053932533 0.76899999 0.021573013 1.4286608e-38 360 224
0.055424623 0.77100003 0.021629119 1.4286608e-38 361 224
0.056923717 0.773 0.021685226 1.4286608e-38 362 224
0.058354434 0.77399999 0.021713279 1.4286608e-38 363 224
0.059634373 0.773 0.021685226 1.4286608e-38 364 224
0.060831897 0.77100003 0.021629119 1.4286608e-38 365 224
0.062183715 0.77100003 0.021629119 1.4286608e-38 366 224
0.063535534 0.77100003 0.021629119 1.4102577e-38 367 224
0.064887367 0.77100003 0.021629119 1.4285889e-38 368 224
0.066239186 0.77100003 0.021629119 1.4193693e-38 369 224
0.067591004 0.77100003 0.021629119 1.4101491e-38 370 224
0.068942823 0.77100003 0.021629119 1.391746e-38 371 224
0.070294641 0.77100003 0.021629119 1.4008929e-38 372 224
0.071646459 0.77100003 0.021629119 1.4008929e-38 373 224
0.072808921 0.76899999 0.021573013 1.3917087e-38 374 224
0.074157231 0.76899999 0.021573013 1.3824532e-38 375 224
0.07550554 0.76899999 0.021573013 1.3824886e-38 376 224
0.076853856 0.76899999 0.021573013 1.3824886e-38 377 224
0.078202173 0.76899999 0.021573013 1.3824886e-38 378 224
0.079550482 0.76899999 0.021573013 1.3824886e-38 379 224
0.080898799 0.76899999 0.021573013 1.3824886e-38 380 224
0.082247108 0.76899999 0.021573013 1.3824886e-38 381 224
0.083595425 0.76899999 0.021573013 1.3824886e-38 382 224
0.084943734 0.76899999 0.021573013 1.3917081e-38 383 224
0.086067624 0.76700002 0.021516906 1.3824886e-38 384 224
0.087412432 0.76700002 0.021516906 1.3917081e-38 385 224
0.088641517 0.76599997 0.021488851 1.3824532e-38 386 224
0.089984566 0.76599997 0.021488851 1.3917087e-38 387 224
0.091089167 0.764 0.021432746 1.3733772e-38 388 224
0.092428714 0.764 0.021432746 1.3733772e-38 389 224
0.093522795 0.76200002 0.02137664 1.3917434e-38 390 224
0.09485884 0.76200002 0.02137664 1.3917434e-38 391 224
0.096068636 0.76099998 0.021348584 1.3734122e-38 392 224
0.097402923 0.76099998 0.021348584 1.3734122e-38 393 224
0.098477714 0.759 0.02129248 1.3734125e-38 394 224
0.099808492 0.759 0.02129248 1.3734125e-38 395 224
0.10113928 0.759 0.02129248 1.3825241e-38 396 224
0.10247006 0.759 0.02129248 1.3825241e-38 397 224
0.10380083 0.759 0.02129248 1.3824886e-38 398 224
0.10485459 0.75700003 0.021236373 1.3917081e-38 399 224
0.10590133 0.755 0.021180267 1.3824886e-38 400 224
0.10708308 0.75400001 0.021152213 1.3824886e-38 401 224
0.10840509 0.75400001 0.021152213 1.3641573e-38 402 224
0.10943604 0.75199997 0.021096105 1.3641573e-38 403 224
0.11046 0.75 0.02104 1.3641576e-38 404 224
0.11162596 0.74900001 0.021011947 1.3549022e-38 405 224
0.11293921 0.74900001 0.021011947 1.364122e-38 406 224
0.11394738 0.74699998 0.020955838 1.364122e-38 407 224
0.11479424 0.74400002 0.02087168 1.3641223e-38 408 224
0.11578663 0.74199998 0.020815572 1.3641223e-38 409 224
0.1169298 0.741 0.020787518 1.3458274e-38 410 224
0.11822902 0.741 0.020787518 1.3458274e-38 411 224
0.11920562 0.73900002 0.020731414 1.3550825e-38 412 224
0.12050135 0.73900002 0.020731414 1.3550825e-38 413 224
0.12163223 0.73799998 0.020703359 1.3642668e-38 414 224
0.12259306 0.736 0.020647252 1.3734863e-38 415 224
0.12354688 0.73400003 0.020591147 1.3735236e-38 416 224
0.12466375 0.73299998 0.020563092 1.3827432e-38 417 224
0.12543346 0.73000002 0.020478934 1.3918548e-38 418 224
0.12671341 0.73000002 0.020478934 1.3918548e-38 419 224
0.12764266 0.72799999 0.020422826 1.3918181e-38 420 224
0.12874201 0.727 0.020394772 1.3825986e-38 421 224
0.13001667 0.727 0.020394772 1.3457202e-38 422 224
0.13056898 0.72299999 0.020282559 1.3365006e-38 423 224
0.13165428 0.722 0.020254506 1.3179894e-38 424 224
0.13292019 0.722 0.020254506 1.2995503e-38 425 224
0.13362853 0.71899998 0.020170346 1.2902251e-38 426 224
0.13432637 0.71600002 0.020086186 1.2994447e-38 427 224
0.13558176 0.71600002 0.020086186 1.2717898e-38 428 224
-0.15716879 0.74699998 0.019646099 1.4745851e-38 200 225
-0.15585905 0.74699998 0.019646099 1.4930244e-38 201 225
-0.15496311 0.74900001 0.0196987 1.493095e-38 202 225
-0.153855 0.75 0.019724999 1.4193384e-38 203 225
-0.15294676 0.75199997 0.0197776 1.4008265e-38 204 225
-0.15162826 0.75199997 0.0197776 1.4469242e-38 205 225
-0.15070951 0.75400001 0.019830201 1.4468873e-38 206 225
-0.14938751 0.75400001 0.019830201 1.4376678e-38 207 225
-0.14806548 0.75400001 0.019830201 1.4651091e-38 208 225
-0.1469381 0.755 0.0198565 1.446706e-38 209 225
-0.14561434 0.755 0.0198565 1.4100424e-38 210 225
-0.1446728 0.75700003 0.019909101 1.4100424e-38 211 225
-0.14372423 0.759 0.0199617 1.4100421e-38 212 225
-0.14276865 0.76099998 0.020014299 1.4008226e-38 213 225
-0.14162023 0.76200002 0.0200406 1.4100421e-38 214 225
-0.1406524 0.764 0.020093199 1.4100421e-38 215 225
-0.13931285 0.764 0.020093199 1.4100056e-38 216 225
-0.13851508 0.76700002 0.020172099 1.4100056e-38 217 225
-0.13717027 0.76700002 0.020172099 1.3916383e-38 218 225
-0.13617964 0.76899999 0.0202247 1.3916383e-38 219 225
-0.13483132 0.76899999 0.0202247 1.3823832e-38 220 225
-0.13383017 0.77100003 0.020277301 1.3823832e-38 221 225
-0.13247837 0.77100003 0.020277301 1.3823832e-38 222 225
-0.13112654 0.77100003 0.020277301 1.3639801e-38 223 225
-0.12977473 0.77100003 0.020277301 1.3730913e-38 224 225
-0.1284229 0.77100003 0.020277301 1.3730913e-38 225 225
-0.12707107 0.77100003 0.020277301 1.3823463e-38 226 225
-0.12604538 0.773 0.0203299 1.3731266e-38 227 225
-0.12485135 0.77399999 0.020356199 1.3823463e-38 228 225
-0.12349427 0.77399999 0.020356199 1.3731266e-38 229 225
-0.1224528 0.77600002 0.0204088 1.3640148e-38 230 225
-0.12109222 0.77600002 0.0204088 1.3640148e-38 231 225
-0.11973163 0.77600002 0.0204088 1.3640148e-38 232 225
-0.11867611 0.778 0.020461399 1.3640148e-38 233 225
-0.11731201 0.778 0.020461399 1.3640151e-38 234 225
-0.11624599 0.77999997 0.020513998 1.3640151e-38 235 225
-0.11487839 0.77999997 0.020513998 1.3731269e-38 236 225
-0.11351079 0.77999997 0.020513998 1.3731269e-38 237 225
-0.1121432 0.77999997 0.020513998 1.3730913e-38 238 225
-0.11091762 0.78100002 0.020540299 1.382311e-38 239 225
-0.10954827 0.78100002 0.020540299 1.382311e-38 240 225
-0.10817891 0.78100002 0.020540299 1.400786e-38 241 225
-0.10680956 0.78100002 0.020540299 1.3917106e-38 242 225
-0.10544021 0.78100002 0.020540299 1.4193693e-38 243 225
-0.10407086 0.78100002 0.020540299 1.4102221e-38 244 225
-0.1027015 0.78100002 0.020540299 1.4286252e-38 245 225
-0.10133215 0.78100002 0.020540299 1.4286255e-38 246 225
-0.099962793 0.78100002 0.020540299 1.4286255e-38 247 225
-0.098593444 0.78100002 0.020540299 1.4377734e-38 248 225
-0.097224087 0.78100002 0.020540299 1.446993e-38 249 225
-0.095854737 0.78100002 0.020540299 1.4378097e-38 250 225
-0.094727337 0.78299999 0.0205929 1.4378097e-38 251 225
-0.093592934 0.78500003 0.020645501 1.4378097e-38 252 225
-0.091981612 0.78299999 0.0205929 1.4378097e-38 253 225
-0.090608761 0.78299999 0.0205929 1.43781e-38 254 225
-0.089235894 0.78299999 0.0205929 1.43781e-38 255 225
-0.087863036 0.78299999 0.0205929 1.43781e-38 256 225
-0.086269259 0.78100002 0.020540299 1.4470296e-38 257 225
-0.084899902 0.78100002 0.020540299 1.4470652e-38 258 225
-0.083530553 0.78100002 0.020540299 1.4470652e-38 259 225
-0.082161196 0.78100002 0.020540299 1.4286986e-38 260 225
-0.080791846 0.78100002 0.020540299 1.4286986e-38 261 225
-0.079422489 0.78100002 0.020540299 1.428663e-38 262 225
-0.078253016 0.78299999 0.0205929 1.428663e-38 263 225
-0.076880157 0.78299999 0.0205929 1.4470298e-38 264 225
-0.075507298 0.78299999 0.0205929 1.4470298e-38 265 225
-0.074134432 0.78299999 0.0205929 1.43781e-38 266 225
-0.07276158 0.78299999 0.0205929 1.43781e-38 267 225
-0.071388714 0.78299999 0.0205929 1.4562128e-38 268 225
-0.070015855 0.78299999 0.0205929 1.4469933e-38 269 225
-0.068643004 0.78299999 0.0205929 1.446993e-38 270 225
-0.067270137 0.78299999 0.0205929 1.446993e-38 271 225
-0.065728955 0.78100002 0.020540299 1.4470646e-38 272 225
-0.064359605 0.78100002 0.020540299 1.4470646e-38 273 225
-0.063312866 0.78500003 0.020645501 1.4378453e-38 274 225
-0.061936498 0.78500003 0.020645501 1.4378453e-38 275 225
-0.06071442 0.787 0.0206981 1.4378453e-38 276 225
-0.05933455 0.787 0.0206981 1.4470649e-38 277 225
-0.05795468 0.787 0.0206981 1.4287336e-38 278 225
-0.056574803 0.787 0.0206981 1.4287336e-38 279 225
-0.055194929 0.787 0.0206981 1.4470649e-38 280 225
-0.053815059 0.787 0.0206981 1.4470649e-38 281 225
-0.052301936 0.78500003 0.020645501 1.4470649e-38 282 225
-0.050666075 0.78100002 0.020540299 1.4378453e-38 283 225
-0.049296722 0.78100002 0.020540299 1.4378453e-38 284 225
-0.047743265 0.778 0.020461399 1.4378453e-38 285 225
-0.046379171 0.778 0.020461399 1.4378453e-38 286 225
-0.045015078 0.778 0.020461399 1.4378453e-38 287 225
-0.043819305 0.78100002 0.020540299 1.4470646e-38 288 225
-0.042449951 0.78100002 0.020540299 1.437845e-38 289 225
-0.0411858 0.78299999 0.0205929 1.437845e-38 290 225
-0.039711244 0.78100002 0.020540299 1.437845e-38 291 225
-0.038341891 0.78100002 0.020540299 1.437845e-38 292 225
-0.036972538 0.78100002 0.020540299 1.437845e-38 293 225
-0.035603184 0.78100002 0.020540299 1.4378806e-38 294 225
-0.034233831 0.78100002 0.020540299 1.4286252e-38 295 225
-0.032864477 0.78100002 0.020540299 1.4378087e-38 296 225
-0.031495128 0.78100002 0.020540299 1.4378087e-38 297 225
-0.030125774 0.78100002 0.020540299 1.4469201e-38 298 225
-0.028830061 0.78299999 0.0205929 1.4469201e-38 299 225
-0.027457198 0.78299999 0.0205929 1.4285889e-38 300 225
-0.026017714 0.78100002 0.020540299 1.4285889e-38 301 225
-0.024648361 0.78100002 0.020540299 1.4286242e-38 302 225
-0.02333862 0.78299999 0.0205929 1.4286242e-38 303 225
-0.021965759 0.78299999 0.0205929 1.4286242e-38 304 225
-0.0205929 0.78299999 0.0205929 1.4193688e-38 305 225
-0.019220039 0.78299999 0.0205929 1.4285889e-38 306 225
-0.017847179 0.78299999 0.0205929 1.4193693e-38 307 225
-0.01647432 0.78299999 0.0205929 1.4193693e-38 308 225
-0.01510146 0.78299999 0.0205929 1.4101496e-38 309 225
-0.013728599 0.78299999 0.0205929 1.4193326e-38 310 225
-0.012355739 0.78299999 0.0205929 1.4193326e-38 311 225
-0.010954826 0.78100002 0.020540299 1.4101847e-38 312 225
-0.0095854728 0.78100002 0.020540299 1.4194044e-38 313 225
-0.0082161194 0.78100002 0.020540299 1.4285523e-38 314 225
-0.0068467669 0.78100002 0.020540299 1.4285523e-38 315 225
-0.0054774131 0.78100002 0.020540299 1.419369e-38 316 225
-0.0041027996 0.77999997 0.020513998 1.4285886e-38 317 225
-0.0027351999 0.77999997 0.020513998 1.4285167e-38 318 225
-0.0013675999 0.77999997 0.020513998 1.4469198e-38 319 225
0 0.778 0.020461399 1.4285889e-38 320 225
0.0013640933 0.778 0.020461399 1.4193693e-38 321 225
0.0027281865 0.778 0.020461399 1.4469198e-38 322 225
0.0041027996 0.77999997 0.020513998 1.4285167e-38 323 225
0.0054563731 0.778 0.020461399 1.4101491e-38 324 225
0.0068204664 0.778 0.020461399 1.4101491e-38 325 225
0.0081845606 0.778 0.020461399 1.4193326e-38 326 225
0.0095486529 0.778 0.020461399 1.4193326e-38 327 225
0.010912746 0.778 0.020461399 1.4193688e-38 328 225
0.01224528 0.77600002 0.0204088 1.4193688e-38 329 225
0.013605867 0.77600002 0.0204088 1.4286242e-38 330 225
0.014908593 0.773 0.0203299 1.4286242e-38 331 225
0.016179759 0.76899999 0.0202247 1.4102574e-38 332 225
0.017528072 0.76899999 0.0202247 1.4102574e-38 333 225
0.018876385 0.76899999 0.0202247 1.4102577e-38 334 225
0.0202247 0.76899999 0.0202247 1.4102577e-38 335 225
0.021881599 0.77999997 0.020513998 1.4102577e-38 336 225
0.023249198 0.77999997 0.020513998 1.4010381e-38 337 225
0.024616797 0.77999997 0.020513998 1.4285167e-38 338 225
0.025984399 0.77999997 0.020513998 1.4285167e-38 339 225
0.027281865 0.778 0.020461399 1.4285523e-38 340 225
0.028645959 0.778 0.020461399 1.4285523e-38 341 225
0.029855758 0.77399999 0.020356199 1.4285167e-38 342 225
0.03117251 0.773 0.0203299 1.4285167e-38 343 225
0.032527838 0.773 0.0203299 1.4100775e-38 344 225
0.033795502 0.77100003 0.020277301 1.419297e-38 345 225
0.035056144 0.76899999 0.0202247 1.4101493e-38 346 225
0.036404461 0.76899999 0.0202247 1.419369e-38 347 225
0.03775277 0.76899999 0.0202247 1.4010381e-38 348 225
0.039101087 0.76899999 0.0202247 1.4010381e-38 349 225
0.040554602 0.77100003 0.020277301 1.4102221e-38 350 225
0.04190642 0.77100003 0.020277301 1.4010025e-38 351 225
0.043146025 0.76899999 0.0202247 1.4102577e-38 352 225
0.044494338 0.76899999 0.0202247 1.4286608e-38 353 225
0.045842651 0.76899999 0.0202247 1.4286605e-38 354 225
0.047068235 0.76700002 0.020172099 1.4286605e-38 355 225
0.048413042 0.76700002 0.020172099 1.4286605e-38 356 225
0.049757849 0.76700002 0.020172099 1.4102574e-38 357 225
0.051102653 0.76700002 0.020172099 1.4286605e-38 358 225
0.052379075 0.76599997 0.020145798 1.4286605e-38 359 225
0.053722132 0.76599997 0.020145798 1.4286608e-38 360 225
0.055065181 0.76599997 0.020145798 1.4286608e-38 361 225
0.056481879 0.76700002 0.020172099 1.4286252e-38 362 225
0.057977475 0.76899999 0.0202247 1.4286252e-38 363 225
0.059480079 0.77100003 0.020277301 1.4286252e-38 364 225
0.060674097 0.76899999 0.0202247 1.4286252e-38 365 225
0.062022414 0.76899999 0.0202247 1.4378085e-38 366 225
0.063535534 0.77100003 0.020277301 1.4378085e-38 367 225
0.064887367 0.77100003 0.020277301 1.4285889e-38 368 225
0.066239186 0.77100003 0.020277301 1.4193693e-38 369 225
0.067415662 0.76899999 0.0202247 1.4101493e-38 370 225
0.068763971 0.76899999 0.0202247 1.3917462e-38 371 225
0.070112288 0.76899999 0.0202247 1.4101128e-38 372 225
0.071460605 0.76899999 0.0202247 1.4008932e-38 373 225
0.072808921 0.76899999 0.0202247 1.3825617e-38 374 225
0.073964365 0.76700002 0.020172099 1.3733421e-38 375 225
0.075309172 0.76700002 0.020172099 1.3733419e-38 376 225
0.076853856 0.76899999 0.0202247 1.3641223e-38 377 225
0.078202173 0.76899999 0.0202247 1.3733419e-38 378 225
0.079343595 0.76700002 0.020172099 1.3733419e-38 379 225
0.080688395 0.76700002 0.020172099 1.3917087e-38 380 225
0.08203321 0.76700002 0.020172099 1.3917087e-38 381 225
0.083378009 0.76700002 0.020172099 1.3824888e-38 382 225
0.084722824 0.76700002 0.020172099 1.3917084e-38 383 225
0.085955404 0.76599997 0.020145798 1.3824886e-38 384 225
0.08729846 0.76599997 0.020145798 1.3824886e-38 385 225
0.088410079 0.764 0.020093199 1.3824886e-38 386 225
0.089749627 0.764 0.020093199 1.3824886e-38 387 225
0.090850718 0.76200002 0.0200406 1.3824886e-38 388 225
0.092065774 0.76099998 0.020014299 1.3824886e-38 389 225
0.093400061 0.76099998 0.020014299 1.3917437e-38 390 225
0.094734348 0.76099998 0.020014299 1.3917437e-38 391 225
0.096068636 0.76099998 0.020014299 1.364157e-38 392 225
0.097146936 0.759 0.0199617 1.3734125e-38 393 225
0.098218225 0.75700003 0.019909101 1.364157e-38 394 225
0.099545501 0.75700003 0.019909101 1.364157e-38 395 225
0.10087277 0.75700003 0.019909101 1.3824886e-38 396 225
0.10220005 0.75700003 0.019909101 1.3824886e-38 397 225
0.1032538 0.755 0.0198565 1.3824888e-38 398 225
0.10416202 0.75199997 0.0197776 1.3824888e-38 399 225
0.10548052 0.75199997 0.0197776 1.3640854e-38 400 225
0.106515 0.75 0.019724999 1.3824886e-38 401 225
0.10783 0.75 0.019724999 1.3824886e-38 402 225
0.10899947 0.74900001 0.0196987 1.3640854e-38 403 225
0.11031272 0.74900001 0.0196987 1.3641576e-38 404 225
0.11132789 0.74699998 0.019646099 1.3641576e-38 405 225
0.11218528 0.74400002 0.019567199 1.3549022e-38 406 225
0.11318468 0.74199998 0.0195146 1.3549022e-38 407 225
0.11448564 0.74199998 0.0195146 1.3641223e-38 408 225
0.11563057 0.741 0.019488299 1.3641223e-38 409 225
0.1166142 0.73900002 0.0194357 1.3366081e-38 410 225
0.11790991 0.73900002 0.0194357 1.3458276e-38 411 225
0.11904431 0.73799998 0.019409399 1.3550475e-38 412 225
0.12033827 0.73799998 0.019409399 1.3734866e-38 413 225
0.1213026 0.736 0.019356798 1.3734869e-38 414 225
0.12225994 0.73400003 0.019304199 1.3918901e-38 415 225
0.12304192 0.73100001 0.019225299 1.3735236e-38 416 225
0.12415354 0.73000002 0.019199001 1.3827432e-38 417 225
0.12543346 0.73000002 0.019199001 1.3827435e-38 418 225
0.12636623 0.72799999 0.0191464 1.373488e-38 419 225
0.12746732 0.727 0.019120099 1.3918551e-38 420 225
0.12874201 0.727 0.019120099 1.373416e-38 421 225
0.12930132 0.72299999 0.019014901 1.3550122e-38 422 225
0.13056898 0.72299999 0.019014901 1.336573e-38 423 225
0.1312896 0.72000003 0.018935999 1.318026e-38 424 225
0.13255201 0.72000003 0.018935999 1.2719642e-38 425 225
0.13325684 0.71700001 0.018857099 1.2901532e-38 426 225
0.13395114 0.71399999 0.018778199 1.2901532e-38 427 225
0.13520303 0.71399999 0.018778199 1.2808648e-38 428 225
-0.15653759 0.74400002 0.01826272 1.4008634e-38 200 226
-0.15523311 0.74400002 0.01826272 1.4285581e-38 201 226
-0.1545493 0.74699998 0.018336359 1.4561442e-38 202 226
-0.15323956 0.74699998 0.018336359 1.3916072e-38 203 226
-0.15233661 0.74900001 0.018385453 1.3546914e-38 204 226
-0.15102336 0.74900001 0.018385453 1.4100088e-38 205 226
-0.15030976 0.75199997 0.018459093 1.4009324e-38 206 226
-0.14899124 0.75199997 0.018459093 1.4009324e-38 207 226
-0.14806548 0.75400001 0.018508185 1.4284467e-38 208 226
-0.14674348 0.75400001 0.018508185 1.4192271e-38 209 226
-0.14542146 0.75400001 0.018508185 1.3916756e-38 210 226
-0.14429055 0.755 0.018532733 1.3916756e-38 211 226
-0.14334552 0.75700003 0.018581826 1.3917112e-38 212 226
-0.14239345 0.759 0.01863092 1.3917112e-38 213 226
-0.14106268 0.759 0.01863092 1.3917109e-38 214 226
-0.14010009 0.76099998 0.018680012 1.3824914e-38 215 226
-0.13894816 0.76200002 0.01870456 1.3732718e-38 216 226
-0.13797331 0.764 0.018753653 1.3640522e-38 217 226
-0.13699143 0.76599997 0.018802745 1.3640522e-38 218 226
-0.13564838 0.76599997 0.018802745 1.3547968e-38 219 226
-0.13448067 0.76700002 0.018827293 1.3639803e-38 220 226
-0.13313586 0.76700002 0.018827293 1.3547248e-38 221 226
-0.13213471 0.76899999 0.018876385 1.3548324e-38 222 226
-0.13078639 0.76899999 0.018876385 1.3548324e-38 223 226
-0.12943807 0.76899999 0.018876385 1.3547957e-38 224 226
-0.1284229 0.77100003 0.018925481 1.3640154e-38 225 226
-0.12707107 0.77100003 0.018925481 1.3640151e-38 226 226
-0.12571926 0.77100003 0.018925481 1.3640151e-38 227 226
-0.12469004 0.773 0.018974574 1.3823463e-38 228 226
-0.12349427 0.77399999 0.018999118 1.3823463e-38 229 226
-0.12213719 0.77399999 0.018999118 1.3640151e-38 230 226
-0.12078012 0.77399999 0.018999118 1.3640151e-38 231 226
-0.11942303 0.77399999 0.018999118 1.3640151e-38 232 226
-0.11806595 0.77399999 0.018999118 1.3640151e-38 233 226
-0.11701045 0.77600002 0.019048214 1.3640151e-38 234 226
-0.11594792 0.778 0.019097306 1.3640151e-38 235 226
-0.11458384 0.778 0.019097306 1.3640151e-38 236 226
-0.11321974 0.778 0.019097306 1.3640151e-38 237 226
-0.11185565 0.778 0.019097306 1.3823466e-38 238 226
-0.11077559 0.77999997 0.0191464 1.3915662e-38 239 226
-0.10940799 0.77999997 0.0191464 1.3916383e-38 240 226
-0.10804039 0.77999997 0.0191464 1.3916383e-38 241 226
-0.10667279 0.77999997 0.0191464 1.3917109e-38 242 226
-0.10530519 0.77999997 0.0191464 1.4193337e-38 243 226
-0.1039376 0.77999997 0.0191464 1.4102224e-38 244 226
-0.10256999 0.77999997 0.0191464 1.4286255e-38 245 226
-0.10120239 0.77999997 0.0191464 1.4377378e-38 246 226
-0.099834792 0.77999997 0.0191464 1.4469933e-38 247 226
-0.098467186 0.77999997 0.0191464 1.4378103e-38 248 226
-0.097099595 0.77999997 0.0191464 1.4378103e-38 249 226
-0.095731996 0.77999997 0.0191464 1.4470296e-38 250 226
-0.094364397 0.77999997 0.0191464 1.43781e-38 251 226
-0.092996791 0.77999997 0.0191464 1.4470296e-38 252 226
-0.091629192 0.77999997 0.0191464 1.43781e-38 253 226
-0.090261593 0.77999997 0.0191464 1.4470298e-38 254 226
-0.088893995 0.77999997 0.0191464 1.4470298e-38 255 226
-0.087526396 0.77999997 0.0191464 1.4286986e-38 256 226
-0.086158797 0.77999997 0.0191464 1.4286986e-38 257 226
-0.084791191 0.77999997 0.0191464 1.4378103e-38 258 226
-0.083209693 0.778 0.019097306 1.4378103e-38 259 226
-0.081845596 0.778 0.019097306 1.4470298e-38 260 226
-0.080481507 0.778 0.019097306 1.4470298e-38 261 226
-0.07911741 0.778 0.019097306 1.428663e-38 262 226
-0.077953197 0.77999997 0.0191464 1.428663e-38 263 226
-0.076585598 0.77999997 0.0191464 1.4378103e-38 264 226
-0.075217992 0.77999997 0.0191464 1.4378103e-38 265 226
-0.073945075 0.78100002 0.019170946 1.4469577e-38 266 226
-0.072575726 0.78100002 0.019170946 1.4469577e-38 267 226
-0.071206369 0.78100002 0.019170946 1.4469933e-38 268 226
-0.069837019 0.78100002 0.019170946 1.4469933e-38 269 226
-0.068467662 0.78100002 0.019170946 1.446993e-38 270 226
-0.067098312 0.78100002 0.019170946 1.446993e-38 271 226
-0.065644793 0.77999997 0.0191464 1.4378453e-38 272 226
-0.064277194 0.77999997 0.0191464 1.4378453e-38 273 226
-0.062748291 0.778 0.019097306 1.4378453e-38 274 226
-0.061384194 0.778 0.019097306 1.4378453e-38 275 226
-0.060405839 0.78299999 0.019220039 1.437845e-38 276 226
-0.059032977 0.78299999 0.019220039 1.4470646e-38 277 226
-0.057660121 0.78299999 0.019220039 1.4470649e-38 278 226
-0.056287259 0.78299999 0.019220039 1.4470649e-38 279 226
-0.055054668 0.78500003 0.019269135 1.4286981e-38 280 226
-0.053541537 0.78299999 0.019220039 1.4286981e-38 281 226
-0.052035429 0.78100002 0.019170946 1.4286981e-38 282 226
-0.050471451 0.778 0.019097306 1.4194785e-38 283 226
-0.048981119 0.77600002 0.019048214 1.4195141e-38 284 226
-0.047620531 0.77600002 0.019048214 1.4102586e-38 285 226
-0.046259947 0.77600002 0.019048214 1.4286255e-38 286 226
-0.044899363 0.77600002 0.019048214 1.4470646e-38 287 226
-0.043538772 0.77600002 0.019048214 1.428769e-38 288 226
-0.042178184 0.77600002 0.019048214 1.428769e-38 289 226
-0.0408176 0.77600002 0.019048214 1.437845e-38 290 226
-0.039457016 0.77600002 0.019048214 1.437845e-38 291 226
-0.038096428 0.77600002 0.019048214 1.437845e-38 292 226
-0.036735836 0.77600002 0.019048214 1.437845e-38 293 226
-0.035466425 0.778 0.019097306 1.4286255e-38 294 226
-0.034014668 0.77600002 0.019048214 1.4286255e-38 295 226
-0.032654081 0.77600002 0.019048214 1.4285533e-38 296 226
-0.031374145 0.778 0.019097306 1.4285533e-38 297 226
-0.03001005 0.778 0.019097306 1.4285889e-38 298 226
-0.028719598 0.77999997 0.0191464 1.4193693e-38 299 226
-0.027351998 0.77999997 0.0191464 1.4285886e-38 300 226
-0.025984399 0.77999997 0.0191464 1.419369e-38 301 226
-0.024616797 0.77999997 0.0191464 1.4286239e-38 302 226
-0.023279008 0.78100002 0.019170946 1.4194044e-38 303 226
-0.021909652 0.78100002 0.019170946 1.4193326e-38 304 226
-0.020540299 0.78100002 0.019170946 1.4285523e-38 305 226
-0.019170946 0.78100002 0.019170946 1.410114e-38 306 226
-0.017801592 0.78100002 0.019170946 1.410114e-38 307 226
-0.016432239 0.78100002 0.019170946 1.3917106e-38 308 226
-0.015062887 0.78100002 0.019170946 1.3917106e-38 309 226
-0.013693534 0.78100002 0.019170946 1.4101491e-38 310 226
-0.01232418 0.78100002 0.019170946 1.4101491e-38 311 226
-0.010940799 0.77999997 0.0191464 1.4193323e-38 312 226
-0.0095731998 0.77999997 0.0191464 1.4101128e-38 313 226
-0.0081845606 0.778 0.019097306 1.4376638e-38 314 226
-0.0068204664 0.778 0.019097306 1.4376638e-38 315 226
-0.0054563731 0.778 0.019097306 1.4285167e-38 316 226
-0.0040922803 0.778 0.019097306 1.4285167e-38 317 226
-0.0027211732 0.77600002 0.019048214 1.4193693e-38 318 226
-0.0013605866 0.77600002 0.019048214 1.4193693e-38 319 226
0 0.77600002 0.019048214 1.4468482e-38 320 226
0.0013605866 0.77600002 0.019048214 1.4468482e-38 321 226
0.0027211732 0.77600002 0.019048214 1.4285523e-38 322 226
0.0040817601 0.77600002 0.019048214 1.4193326e-38 323 226
0.0054423464 0.77600002 0.019048214 1.4101847e-38 324 226
0.0068029333 0.77600002 0.019048214 1.4101847e-38 325 226
0.0081635201 0.77600002 0.019048214 1.4101847e-38 326 226
0.009524107 0.77600002 0.019048214 1.4101847e-38 327 226
0.01085664 0.77399999 0.018999118 1.4285523e-38 328 226
0.01216638 0.77100003 0.018925481 1.4285523e-38 329 226
0.013518199 0.77100003 0.018925481 1.4102577e-38 330 226
0.01487002 0.77100003 0.018925481 1.4102577e-38 331 226
0.016179759 0.76899999 0.018876385 1.410294e-38 332 226
0.017482487 0.76700002 0.018827293 1.410294e-38 333 226
0.018827293 0.76700002 0.018827293 1.4102577e-38 334 226
0.020172099 0.76700002 0.018827293 1.4102577e-38 335 226
0.021573013 0.76899999 0.018876385 1.4193688e-38 336 226
0.022921326 0.76899999 0.018876385 1.4101491e-38 337 226
0.024269639 0.76899999 0.018876385 1.4193326e-38 338 226
0.025617953 0.76899999 0.018876385 1.4193326e-38 339 226
0.026966266 0.76899999 0.018876385 1.4193688e-38 340 226
0.028388219 0.77100003 0.018925481 1.4193688e-38 341 226
0.029817186 0.773 0.018974574 1.4101847e-38 342 226
0.031011207 0.76899999 0.018876385 1.4101847e-38 343 226
0.032359518 0.76899999 0.018876385 1.4101847e-38 344 226
0.033707831 0.76899999 0.018876385 1.4194044e-38 345 226
0.035056144 0.76899999 0.018876385 1.4101491e-38 346 226
0.036404461 0.76899999 0.018876385 1.4101491e-38 347 226
0.03775277 0.76899999 0.018876385 1.3917828e-38 348 226
0.039101087 0.76899999 0.018876385 1.3917828e-38 349 226
0.0404494 0.76899999 0.018876385 1.3918548e-38 350 226
0.041797712 0.76899999 0.018876385 1.4010744e-38 351 226
0.043146025 0.76899999 0.018876385 1.4102577e-38 352 226
0.04437862 0.76700002 0.018827293 1.4286608e-38 353 226
0.045723427 0.76700002 0.018827293 1.4286605e-38 354 226
0.047006864 0.76599997 0.018802745 1.4286605e-38 355 226
0.048349917 0.76599997 0.018802745 1.4286605e-38 356 226
0.04969297 0.76599997 0.018802745 1.4286605e-38 357 226
0.050902773 0.764 0.018753653 1.4286605e-38 358 226
0.052242316 0.764 0.018753653 1.4286605e-38 359 226
0.053581864 0.764 0.018753653 1.4286608e-38 360 226
0.054921411 0.764 0.018753653 1.4378803e-38 361 226
0.056260962 0.764 0.018753653 1.4286255e-38 362 226
0.057600506 0.764 0.018753653 1.4286255e-38 363 226
0.059171494 0.76700002 0.018827293 1.4378087e-38 364 226
0.060516298 0.76700002 0.018827293 1.4378087e-38 365 226
0.061861109 0.76700002 0.018827293 1.4285889e-38 366 226
0.063370727 0.76899999 0.018876385 1.4285889e-38 367 226
0.064719036 0.76899999 0.018876385 1.4285889e-38 368 226
0.066067353 0.76899999 0.018876385 1.4285889e-38 369 226
0.067415662 0.76899999 0.018876385 1.4101491e-38 370 226
0.068763971 0.76899999 0.018876385 1.4101491e-38 371 226
0.070112288 0.76899999 0.018876385 1.391781e-38 372 226
0.07127475 0.76700002 0.018827293 1.391781e-38 373 226
0.072524875 0.76599997 0.018802745 1.3918163e-38 374 226
0.073675066 0.764 0.018753653 1.3825967e-38 375 226
0.075014614 0.764 0.018753653 1.382597e-38 376 226
0.076554038 0.76599997 0.018802745 1.382597e-38 377 226
0.077897087 0.76599997 0.018802745 1.3917084e-38 378 226
0.079240143 0.76599997 0.018802745 1.400928e-38 379 226
0.080583192 0.76599997 0.018802745 1.3917084e-38 380 226
0.081926249 0.76599997 0.018802745 1.400928e-38 381 226
0.083269298 0.76599997 0.018802745 1.3917084e-38 382 226
0.084612355 0.76599997 0.018802745 1.3824888e-38 383 226
0.085730985 0.764 0.018753653 1.3825241e-38 384 226
0.086842604 0.76200002 0.01870456 1.3825241e-38 385 226
0.088178635 0.76200002 0.01870456 1.3824521e-38 386 226
0.089397199 0.76099998 0.018680012 1.3824521e-38 387 226
0.090731487 0.76099998 0.018680012 1.3824886e-38 388 226
0.091823816 0.759 0.01863092 1.3824886e-38 389 226
0.093154602 0.759 0.01863092 1.3641576e-38 390 226
0.09448538 0.759 0.01863092 1.3641576e-38 391 226
0.09556368 0.75700003 0.018581826 1.3825241e-38 392 226
0.096506968 0.75400001 0.018508185 1.3825241e-38 393 226
0.097828984 0.75400001 0.018508185 1.3825241e-38 394 226
0.099150993 0.75400001 0.018508185 1.3825241e-38 395 226
0.10047301 0.75400001 0.018508185 1.3824886e-38 396 226
0.10152501 0.75199997 0.018459093 1.3824886e-38 397 226
0.10257 0.75 0.018409999 1.3824886e-38 398 226
0.10388499 0.75 0.018409999 1.3824886e-38 399 226
0.1052 0.75 0.018409999 1.3825241e-38 400 226
0.10637298 0.74900001 0.018385453 1.364085e-38 401 226
0.10768622 0.74900001 0.018385453 1.3825241e-38 402 226
0.10870842 0.74699998 0.018336359 1.3825241e-38 403 226
0.10987087 0.74599999 0.018311813 1.364157e-38 404 226
0.1108808 0.74400002 0.01826272 1.364157e-38 405 226
0.1118837 0.74199998 0.018213626 1.3641576e-38 406 226
0.11303214 0.741 0.018189078 1.3641576e-38 407 226
0.11433136 0.741 0.018189078 1.3641223e-38 408 226
0.11531849 0.73900002 0.018139986 1.3733419e-38 409 226
0.11645639 0.73799998 0.018115439 1.3733784e-38 410 226
0.11743125 0.736 0.018066347 1.3733784e-38 411 226
0.1187217 0.736 0.018066347 1.3642315e-38 412 226
0.12001215 0.736 0.018066347 1.3734869e-38 413 226
0.12097298 0.73400003 0.018017253 1.3918546e-38 414 226
0.12209335 0.73299998 0.017992707 1.3918546e-38 415 226
0.1228736 0.73000002 0.017919067 1.3735955e-38 416 226
0.12415354 0.73000002 0.017919067 1.3551924e-38 417 226
0.12508981 0.72799999 0.017869972 1.3734883e-38 418 226
0.12619266 0.727 0.017845426 1.3734883e-38 419 226
0.12711667 0.72500002 0.017796334 1.3918548e-38 420 226
0.12803367 0.72299999 0.017747238 1.3918548e-38 421 226
0.12930132 0.72299999 0.017747238 1.3642668e-38 422 226
0.13038838 0.722 0.017722692 1.3458276e-38 423 226
0.13056022 0.71600002 0.017575413 1.3639071e-38 424 226
0.1314474 0.71399999 0.017526319 1.3178094e-38 425 226
0.13139831 0.70700002 0.017354494 1.2992645e-38 426 226
0.13263792 0.70700002 0.017354494 1.2992645e-38 427 226
0.13387752 0.70700002 0.017354494 1.2810078e-38 428 226
-0.15720563 0.741 0.016889861 1.4006819e-38 199 227
-0.15590639 0.741 0.016889861 1.4006822e-38 200 227
-0.15481582 0.74199998 0.016912652 1.4099017e-38 201 227
-0.15392864 0.74400002 0.016958239 1.4374527e-38 202 227
-0.15303443 0.74599999 0.017003827 1.428233e-38 203 227
-0.15192984 0.74699998 0.017026618 1.4007169e-38 204 227
-0.15062009 0.74699998 0.017026618 1.4099365e-38 205 227
-0.14971012 0.74900001 0.017072206 1.4100438e-38 206 227
-0.14859499 0.75 0.017095 1.4192634e-38 207 227
-0.14767274 0.75199997 0.017140586 1.3916403e-38 208 227
-0.14635423 0.75199997 0.017140586 1.4100794e-38 209 227
-0.14542146 0.75400001 0.017186172 1.3917112e-38 210 227
-0.14409946 0.75400001 0.017186172 1.3917112e-38 211 227
-0.14296679 0.755 0.017208965 1.3917106e-38 212 227
-0.14201824 0.75700003 0.017254554 1.3732715e-38 213 227
-0.14069098 0.75700003 0.017254554 1.4007504e-38 214 227
-0.1397319 0.759 0.017300138 1.3915309e-38 215 227
-0.1387658 0.76099998 0.017345725 1.3915309e-38 216 227
-0.13761212 0.76200002 0.01736852 1.3823113e-38 217 227
-0.13663375 0.764 0.017414106 1.3547601e-38 218 227
-0.13529421 0.764 0.017414106 1.3547601e-38 219 227
-0.13430533 0.76599997 0.017459691 1.3547601e-38 220 227
-0.13296227 0.76599997 0.017459691 1.3547601e-38 221 227
-0.13161923 0.76599997 0.017459691 1.3640154e-38 222 227
-0.13044624 0.76700002 0.017482487 1.3640154e-38 223 227
-0.12910144 0.76700002 0.017482487 1.3640154e-38 224 227
-0.12775664 0.76700002 0.017482487 1.3547957e-38 225 227
-0.12641183 0.76700002 0.017482487 1.3547957e-38 226 227
-0.12571926 0.77100003 0.01757366 1.3547957e-38 227 227
-0.12436743 0.77100003 0.01757366 1.3731269e-38 228 227
-0.12333473 0.773 0.017619247 1.3731269e-38 229 227
-0.12197939 0.773 0.017619247 1.3731266e-38 230 227
-0.12062407 0.773 0.017619247 1.3731266e-38 231 227
-0.11926875 0.773 0.017619247 1.3547957e-38 232 227
-0.11791342 0.773 0.017619247 1.3547957e-38 233 227
-0.11670887 0.77399999 0.01764204 1.3823466e-38 234 227
-0.1153518 0.77399999 0.01764204 1.3823466e-38 235 227
-0.11428928 0.77600002 0.017687626 1.3731266e-38 236 227
-0.1129287 0.77600002 0.017687626 1.3823463e-38 237 227
-0.11156811 0.77600002 0.017687626 1.3823463e-38 238 227
-0.11049156 0.778 0.017733213 1.3915659e-38 239 227
-0.10884693 0.77600002 0.017687626 1.3916383e-38 240 227
-0.10748634 0.77600002 0.017687626 1.4008579e-38 241 227
-0.10612576 0.77600002 0.017687626 1.3917106e-38 242 227
-0.10476518 0.77600002 0.017687626 1.4193693e-38 243 227
-0.10340459 0.77600002 0.017687626 1.4285536e-38 244 227
-0.102044 0.77600002 0.017687626 1.4377731e-38 245 227
-0.10068341 0.77600002 0.017687626 1.4378097e-38 246 227
-0.099322826 0.77600002 0.017687626 1.4378097e-38 247 227
-0.097962238 0.77600002 0.017687626 1.4377381e-38 248 227
-0.09660165 0.77600002 0.017687626 1.4469577e-38 249 227
-0.095241062 0.77600002 0.017687626 1.4470296e-38 250 227
-0.093880482 0.77600002 0.017687626 1.4470296e-38 251 227
-0.092519894 0.77600002 0.017687626 1.4378103e-38 252 227
-0.091159306 0.77600002 0.017687626 1.4470298e-38 253 227
-0.090030156 0.778 0.017733213 1.4470298e-38 254 227
-0.088438138 0.77600002 0.017687626 1.4470298e-38 255 227
-0.087077543 0.77600002 0.017687626 1.4470298e-38 256 227
-0.085716955 0.77600002 0.017687626 1.4378103e-38 257 227
-0.084356368 0.77600002 0.017687626 1.43781e-38 258 227
-0.082995787 0.77600002 0.017687626 1.43781e-38 259 227
-0.081635199 0.77600002 0.017687626 1.43781e-38 260 227
-0.080274612 0.77600002 0.017687626 1.43781e-38 261 227
-0.078914031 0.77600002 0.017687626 1.43781e-38 262 227
-0.077553444 0.77600002 0.017687626 1.43781e-38 263 227
-0.076389223 0.778 0.017733213 1.43781e-38 264 227
-0.075025134 0.778 0.017733213 1.43781e-38 265 227
-0.073661037 0.778 0.017733213 1.4469933e-38 266 227
-0.072482795 0.77999997 0.017778799 1.4469933e-38 267 227
-0.071115196 0.77999997 0.017778799 1.446993e-38 268 227
-0.069747597 0.77999997 0.017778799 1.446993e-38 269 227
-0.068379998 0.77999997 0.017778799 1.446993e-38 270 227
-0.067012392 0.77999997 0.017778799 1.446993e-38 271 227
-0.065476485 0.778 0.017733213 1.4378453e-38 272 227
-0.06411238 0.778 0.017733213 1.4378453e-38 273 227
-0.062586986 0.77600002 0.017687626 1.4378453e-38 274 227
-0.061226401 0.77600002 0.017687626 1.4378453e-38 275 227
-0.059865814 0.77600002 0.017687626 1.437845e-38 276 227
-0.058806792 0.77999997 0.017778799 1.437845e-38 277 227
-0.057439197 0.77999997 0.017778799 1.446993e-38 278 227
-0.055927824 0.778 0.017733213 1.446993e-38 279 227
-0.054563731 0.778 0.017733213 1.4378097e-38 280 227
-0.053062879 0.77600002 0.017687626 1.4470652e-38 281 227
-0.051702294 0.77600002 0.017687626 1.4378097e-38 282 227
-0.050341707 0.77600002 0.017687626 1.4378097e-38 283 227
-0.04885488 0.77399999 0.01764204 1.4378453e-38 284 227
-0.047497798 0.77399999 0.01764204 1.4378453e-38 285 227
-0.046140719 0.77399999 0.01764204 1.4195135e-38 286 227
-0.044783637 0.77399999 0.01764204 1.4195135e-38 287 227
-0.043426558 0.77399999 0.01764204 1.4471002e-38 288 227
-0.042069476 0.77399999 0.01764204 1.4378806e-38 289 227
-0.040712398 0.77399999 0.01764204 1.4378806e-38 290 227
-0.039355319 0.77399999 0.01764204 1.4286252e-38 291 227
-0.037998237 0.77399999 0.01764204 1.4378085e-38 292 227
-0.036641158 0.77399999 0.01764204 1.4378085e-38 293 227
-0.03528408 0.77399999 0.01764204 1.4469201e-38 294 227
-0.033927001 0.77399999 0.01764204 1.428517e-38 295 227
-0.032569919 0.77399999 0.01764204 1.4285889e-38 296 227
-0.031212838 0.77399999 0.01764204 1.4193693e-38 297 227
-0.029855758 0.77399999 0.01764204 1.4193693e-38 298 227
-0.028498679 0.77399999 0.01764204 1.4193693e-38 299 227
-0.027211733 0.77600002 0.017687626 1.428552e-38 300 227
-0.025851147 0.77600002 0.017687626 1.428552e-38 301 227
-0.024490559 0.77600002 0.017687626 1.4285518e-38 302 227
-0.023189586 0.778 0.017733213 1.4193321e-38 303 227
-0.021825492 0.778 0.017733213 1.4193323e-38 304 227
-0.020513998 0.77999997 0.017778799 1.4193323e-38 305 227
-0.0191464 0.77999997 0.017778799 1.4193326e-38 306 227
-0.017733213 0.778 0.017733213 1.4100772e-38 307 227
-0.016369121 0.778 0.017733213 1.4101128e-38 308 227
-0.015005025 0.778 0.017733213 1.4101128e-38 309 227
-0.013640933 0.778 0.017733213 1.4100406e-38 310 227
-0.012276839 0.778 0.017733213 1.4100406e-38 311 227
-0.010912746 0.778 0.017733213 1.4100406e-38 312 227
-0.0095486529 0.778 0.017733213 1.4284437e-38 313 227
-0.0081635201 0.77600002 0.017687626 1.4101125e-38 314 227
-0.0068029333 0.77600002 0.017687626 1.4101125e-38 315 227
-0.0054423464 0.77600002 0.017687626 1.4101844e-38 316 227
-0.0040817601 0.77600002 0.017687626 1.4194041e-38 317 227
-0.0027141599 0.77399999 0.01764204 1.4101844e-38 318 227
-0.0013570799 0.77399999 0.01764204 1.4101844e-38 319 227
0 0.77399999 0.01764204 1.4376636e-38 320 227
0.0013570799 0.77399999 0.01764204 1.4468833e-38 321 227
0.0027141599 0.77399999 0.01764204 1.4468833e-38 322 227
0.0040712398 0.77399999 0.01764204 1.4376636e-38 323 227
0.0054283198 0.77399999 0.01764204 1.4101847e-38 324 227
0.0067853997 0.77399999 0.01764204 1.4101847e-38 325 227
0.0081424797 0.77399999 0.01764204 1.4193323e-38 326 227
0.0094872871 0.773 0.017619247 1.428552e-38 327 227
0.01081456 0.77100003 0.01757366 1.4194044e-38 328 227
0.012134819 0.76899999 0.017528072 1.4194044e-38 329 227
0.013483133 0.76899999 0.017528072 1.4102571e-38 330 227
0.014831445 0.76899999 0.017528072 1.4102571e-38 331 227
0.01613768 0.76700002 0.017482487 1.40111e-38 332 227
0.017482487 0.76700002 0.017482487 1.40111e-38 333 227
0.018802745 0.76599997 0.017459691 1.4102574e-38 334 227
0.020145798 0.76599997 0.017459691 1.4102574e-38 335 227
0.021488851 0.76599997 0.017459691 1.4194044e-38 336 227
0.022831906 0.76599997 0.017459691 1.4194044e-38 337 227
0.024174958 0.76599997 0.017459691 1.4193326e-38 338 227
0.025518013 0.76599997 0.017459691 1.4193326e-38 339 227
0.026896132 0.76700002 0.017482487 1.4101491e-38 340 227
0.02824094 0.76700002 0.017482487 1.4101491e-38 341 227
0.02966289 0.76899999 0.017528072 1.4101847e-38 342 227
0.031011207 0.76899999 0.017528072 1.4101847e-38 343 227
0.032359518 0.76899999 0.017528072 1.4101847e-38 344 227
0.033707831 0.76899999 0.017528072 1.4101847e-38 345 227
0.034964975 0.76700002 0.017482487 1.4101847e-38 346 227
0.036309779 0.76700002 0.017482487 1.4101847e-38 347 227
0.037654586 0.76700002 0.017482487 1.4101493e-38 348 227
0.038999394 0.76700002 0.017482487 1.4101493e-38 349 227
0.040344197 0.76700002 0.017482487 1.4193693e-38 350 227
0.041689005 0.76700002 0.017482487 1.4285889e-38 351 227
0.043033812 0.76700002 0.017482487 1.4102577e-38 352 227
0.04437862 0.76700002 0.017482487 1.4286608e-38 353 227
0.045663811 0.76599997 0.017459691 1.4286605e-38 354 227
0.046884131 0.764 0.017414106 1.4378801e-38 355 227
0.048223678 0.764 0.017414106 1.4286608e-38 356 227
0.049563225 0.764 0.017414106 1.4286608e-38 357 227
0.050902773 0.764 0.017414106 1.4286252e-38 358 227
0.052105557 0.76200002 0.01736852 1.4286252e-38 359 227
0.053441599 0.76200002 0.01736852 1.4286255e-38 360 227
0.054777641 0.76200002 0.01736852 1.4286255e-38 361 227
0.056113683 0.76200002 0.01736852 1.4286252e-38 362 227
0.057449725 0.76200002 0.01736852 1.4286252e-38 363 227
0.058785759 0.76200002 0.01736852 1.4285889e-38 364 227
0.0602796 0.764 0.017414106 1.4378085e-38 365 227
0.061619148 0.764 0.017414106 1.4285533e-38 366 227
0.063123502 0.76599997 0.017459691 1.4285533e-38 367 227
0.064466551 0.76599997 0.017459691 1.4102221e-38 368 227
0.065895528 0.76700002 0.017482487 1.4102221e-38 369 227
0.067152664 0.76599997 0.017459691 1.40111e-38 370 227
0.068495713 0.76599997 0.017459691 1.3918546e-38 371 227
0.069200553 0.759 0.017300138 1.3918901e-38 372 227
0.070531338 0.759 0.017300138 1.3918901e-38 373 227
0.072051473 0.76099998 0.017345725 1.3734866e-38 374 227
0.073192894 0.759 0.017300138 1.3734866e-38 375 227
0.07452368 0.759 0.017300138 1.3918178e-38 376 227
0.076054335 0.76099998 0.017345725 1.3825983e-38 377 227
0.077388622 0.76099998 0.017345725 1.3918178e-38 378 227
0.078722909 0.76099998 0.017345725 1.3825983e-38 379 227
0.080057196 0.76099998 0.017345725 1.3918178e-38 380 227
0.081391476 0.76099998 0.017345725 1.3918178e-38 381 227
0.082725771 0.76099998 0.017345725 1.3917815e-38 382 227
0.083839141 0.759 0.017300138 1.3825261e-38 383 227
0.085169919 0.759 0.017300138 1.3734135e-38 384 227
0.086500697 0.759 0.017300138 1.3457908e-38 385 227
0.087831482 0.759 0.017300138 1.3824886e-38 386 227
0.088927314 0.75700003 0.017254554 1.3824886e-38 387 227
0.09025459 0.75700003 0.017254554 1.3824532e-38 388 227
0.091581859 0.75700003 0.017254554 1.3824532e-38 389 227
0.092663661 0.755 0.017208965 1.3733419e-38 390 227
0.093862943 0.75400001 0.017186172 1.3733419e-38 391 227
0.095184959 0.75400001 0.017186172 1.364122e-38 392 227
0.095994994 0.75 0.017095 1.3733416e-38 393 227
0.097309999 0.75 0.017095 1.3917087e-38 394 227
0.098624997 0.75 0.017095 1.3917087e-38 395 227
0.099939995 0.75 0.017095 1.3733419e-38 396 227
0.10111999 0.74900001 0.017072206 1.3733419e-38 397 227
0.10243323 0.74900001 0.017072206 1.3733419e-38 398 227
0.10374649 0.74900001 0.017072206 1.3733419e-38 399 227
0.10477919 0.74699998 0.017026618 1.3733416e-38 400 227
0.10608894 0.74699998 0.017026618 1.3733416e-38 401 227
0.10739867 0.74699998 0.017026618 1.364122e-38 402 227
0.10827184 0.74400002 0.016958239 1.3733416e-38 403 227
0.10928176 0.74199998 0.016912652 1.3550825e-38 404 227
0.11058273 0.74199998 0.016912652 1.345863e-38 405 227
0.11173292 0.741 0.016889861 1.3550469e-38 406 227
0.11272705 0.73900002 0.016844273 1.3550469e-38 407 227
0.11386847 0.73799998 0.016821479 1.3733784e-38 408 227
0.11516243 0.73799998 0.016821479 1.3733784e-38 409 227
0.11614079 0.736 0.016775893 1.3550838e-38 410 227
0.11711214 0.73400003 0.016730307 1.3643033e-38 411 227
0.11839909 0.73400003 0.016730307 1.3734513e-38 412 227
