# .PCD v.7 - Point Cloud Data file format
FIELDS x y z rgb imX imY
SIZE 4 4 4 4 4 4
TYPE F F F F F F
COUNT 1 1 1 1 1 1
WIDTH 849
HEIGHT 1
VIEWPOINT 0 0 0 1 0 0 0
POINTS 849
DATA ascii
-0.018907947 0.67400002 0.034270655 1.1302033e-39 304 211
-0.0177262 0.67400002 0.034270655 4.8483385e-40 305 211
-0.01649536 0.67199999 0.034168959 1.4989788e-39 306 211
-0.01531712 0.67199999 0.034168959 2.6049676e-39 307 211
-0.01413888 0.67199999 0.034168959 3.2503272e-39 308 211
-0.012960639 0.67199999 0.034168959 3.3425228e-39 309 211
-0.011782399 0.67199999 0.034168959 3.8935414e-39 310 211
-0.010604159 0.67199999 0.034168959 3.985737e-39 311 211
-0.0094259195 0.67199999 0.034168959 3.8038499e-39 312 211
-0.00824768 0.67199999 0.034168959 5.4633726e-39 313 211
-0.0070694401 0.67199999 0.034168959 9.8736246e-39 314 211
-0.0058911997 0.67199999 0.034168959 1.1533146e-38 315 211
-0.0047129598 0.67199999 0.034168959 1.1341179e-38 316 211
-0.00353472 0.67199999 0.034168959 9.9582449e-39 317 211
-0.0023564799 0.67199999 0.034168959 8.5828606e-39 318 211
-0.0011782399 0.67199999 0.034168959 8.7676106e-39 319 211
0 0.67199999 0.034168959 9.4104605e-39 320 211
0.0011782399 0.67199999 0.034168959 1.0240221e-38 321 211
0.0023564799 0.67199999 0.034168959 1.0884509e-38 322 211
0.00353472 0.67199999 0.034168959 1.0700476e-38 323 211
0.0047269869 0.67400002 0.034270655 1.0608281e-38 324 211
0.0059174998 0.67500001 0.034321502 1.0700476e-38 325 211
0.0071010003 0.67500001 0.034321502 1.0421734e-38 326 211
0.0082967728 0.676 0.034372345 1.0513931e-38 327 211
0.0094820261 0.676 0.034372345 1.02377e-38 328 211
0.01066728 0.676 0.034372345 1.0514287e-38 329 211
0.011852534 0.676 0.034372345 9.9654293e-39 330 211
0.013037786 0.676 0.034372345 9.5044512e-39 331 211
0.014223038 0.676 0.034372345 9.4075864e-39 332 211
0.015453878 0.67799997 0.034474038 9.0388025e-39 333 211
0.016667187 0.67900002 0.034524884 7.383251e-39 334 211
0.017857701 0.67900002 0.034524884 5.908121e-39 335 211
0.019048214 0.67900002 0.034524884 4.5248334e-39 336 211
0.020238725 0.67900002 0.034524884 3.9716596e-39 337 211
0.021523919 0.68199998 0.034677424 4.1528041e-39 338 211
-0.033530746 0.68300003 0.033530746 5.4720705e-42 292 212
-0.032333218 0.68300003 0.033530746 6.5524716e-42 293 212
-0.031090107 0.68199998 0.03348165 1.1975497e-41 294 212
-0.029894331 0.68199998 0.03348165 4.7943465e-40 295 212
-0.02869856 0.68199998 0.03348165 2.9698097e-39 296 212
-0.027502786 0.68199998 0.03348165 4.6296897e-39 297 212
-0.026229866 0.68000001 0.033383466 4.7272846e-39 298 212
-0.025037598 0.68000001 0.033383466 8.2310772e-39 299 212
-0.023775198 0.67799997 0.033285279 1.0812911e-38 300 212
-0.022519812 0.676 0.033187091 1.1643018e-38 301 212
-0.021334561 0.676 0.033187091 9.7018913e-39 302 212
-0.020119499 0.67500001 0.033137999 4.2623492e-39 303 212
-0.018907947 0.67400002 0.033088908 3.0706653e-41 304 212
-0.0177262 0.67400002 0.033088908 2.4582979e-41 305 212
-0.01649536 0.67199999 0.03299072 2.4591387e-41 306 212
-0.01531712 0.67199999 0.03299072 3.9733538e-40 307 212
-0.01413888 0.67199999 0.03299072 2.3316261e-39 308 212
-0.012960639 0.67199999 0.03299072 2.9769955e-39 309 212
-0.011782399 0.67199999 0.03299072 4.0786585e-39 310 212
-0.010604159 0.67199999 0.03299072 4.0786585e-39 311 212
-0.0094259195 0.67199999 0.03299072 3.5287021e-39 312 212
-0.00824768 0.67199999 0.03299072 5.5570074e-39 313 212
-0.0070694401 0.67199999 0.03299072 1.0151641e-38 314 212
-0.0058911997 0.67199999 0.03299072 1.1902999e-38 315 212
-0.0047129598 0.67199999 0.03299072 1.226241e-38 316 212
-0.00353472 0.67199999 0.03299072 1.0971671e-38 317 212
-0.0023564799 0.67199999 0.03299072 1.0330975e-38 318 212
-0.0011782399 0.67199999 0.03299072 1.0791593e-38 319 212
0 0.67199999 0.03299072 9.4126059e-39 320 212
0.0011782399 0.67199999 0.03299072 1.0611149e-38 321 212
0.0023564799 0.67199999 0.03299072 1.1346918e-38 322 212
0.00353472 0.67199999 0.03299072 1.1439115e-38 323 212
0.0047269869 0.67400002 0.033088908 1.1714625e-38 324 212
0.0059087332 0.67400002 0.033088908 1.162243e-38 325 212
0.0071010003 0.67500001 0.033137999 1.106854e-38 326 212
0.0082844999 0.67500001 0.033137999 9.9618322e-39 327 212
0.0094820261 0.676 0.033187091 9.1353127e-39 328 212
0.01066728 0.676 0.033187091 9.6884851e-39 329 212
0.011852534 0.676 0.033187091 9.687769e-39 330 212
0.013037786 0.676 0.033187091 8.5814229e-39 331 212
0.014223038 0.676 0.033187091 6.6474811e-39 332 212
0.015453878 0.67799997 0.033285279 5.6333291e-39 333 212
0.016642639 0.67799997 0.033285279 6.370541e-39 334 212
0.0178314 0.67799997 0.033285279 5.3563891e-39 335 212
0.019020159 0.67799997 0.033285279 3.693628e-39 336 212
0.020238725 0.67900002 0.033334374 3.2322897e-39 337 212
0.021523919 0.68199998 0.03348165 2.9567692e-39 338 212
-0.034728274 0.68300003 0.032333218 7.5866299e-42 291 213
-0.033530746 0.68300003 0.032333218 2.0348353e-39 292 213
-0.032333218 0.68300003 0.032333218 2.0348353e-39 293 213
-0.031090107 0.68199998 0.032285877 1.7593498e-39 294 213
-0.029894331 0.68199998 0.032285877 1.7593498e-39 295 213
-0.02869856 0.68199998 0.032285877 6.6095605e-40 296 213
-0.027502786 0.68199998 0.032285877 3.8436916e-40 297 213
-0.026307013 0.68199998 0.032285877 2.9987787e-41 298 213
-0.025037598 0.68000001 0.032191198 9.1587943e-39 299 213
-0.023810266 0.67900002 0.032143861 1.2285507e-38 300 213
-0.022519812 0.676 0.032001842 1.2008925e-38 301 213
-0.021334561 0.676 0.032001842 7.8680527e-39 302 213
-0.020119499 0.67500001 0.031954501 5.7475532e-39 303 213
-0.018907947 0.67400002 0.03190716 9.1663192e-39 304 213
-0.0177262 0.67400002 0.03190716 1.0364495e-38 305 213
-0.01649536 0.67199999 0.031812478 1.1262728e-38 306 213
-0.01531712 0.67199999 0.031812478 7.0220874e-39 307 213
-0.01413888 0.67199999 0.031812478 2.6107381e-39 308 213
-0.012960639 0.67199999 0.031812478 3.1639105e-39 309 213
-0.011782399 0.67199999 0.031812478 3.7131158e-39 310 213
-0.010604159 0.67199999 0.031812478 3.8053115e-39 311 213
-0.0094259195 0.67199999 0.031812478 2.9794954e-39 312 213
-0.00824768 0.67199999 0.031812478 4.9156037e-39 313 213
-0.0070694401 0.67199999 0.031812478 9.6931963e-39 314 213
-0.0058911997 0.67199999 0.031812478 1.1352718e-38 315 213
-0.0047129598 0.67199999 0.031812478 1.2814509e-38 316 213
-0.00353472 0.67199999 0.031812478 1.1800355e-38 317 213
-0.0023564799 0.67199999 0.031812478 9.7799619e-39 318 213
-0.0011782399 0.67199999 0.031812478 9.2271482e-39 319 213
0 0.67199999 0.031812478 8.8569336e-39 320 213
0.0011782399 0.67199999 0.031812478 9.2257147e-39 321 213
0.0023529732 0.671 0.031765141 8.6768611e-39 322 213
0.0035294599 0.671 0.031765141 8.1236873e-39 323 213
0.0047129598 0.67199999 0.031812478 8.4895958e-39 324 213
0.0059087332 0.67400002 0.03190716 8.4895958e-39 325 213
0.0070904801 0.67400002 0.03190716 7.7531097e-39 326 213
0.0082844999 0.67500001 0.031954501 7.0155447e-39 327 213
0.0094820261 0.676 0.032001842 5.7302065e-39 328 213
0.01066728 0.676 0.032001842 3.7940983e-39 329 213
0.011852534 0.676 0.032001842 2.1367489e-39 330 213
0.013037786 0.676 0.032001842 2.1367489e-39 331 213
0.014223038 0.676 0.032001842 2.7796002e-39 332 213
0.015408293 0.676 0.032001842 3.9781434e-39 333 213
0.016642639 0.67799997 0.03209652 6.2740238e-39 334 213
0.0178314 0.67799997 0.03209652 4.7070568e-39 335 213
0.019020159 0.67799997 0.03209652 3.1368444e-39 336 213
-0.034728274 0.68300003 0.031135695 4.6640538e-40 291 214
-0.033530746 0.68300003 0.031135695 2.4007382e-39 292 214
-0.032285877 0.68199998 0.031090107 2.4929338e-39 293 214
-0.031090107 0.68199998 0.031090107 1.9412005e-39 294 214
-0.029894331 0.68199998 0.031090107 1.6649738e-39 295 214
-0.02869856 0.68199998 0.031090107 1.2307604e-41 296 214
-0.027502786 0.68199998 0.031090107 9.7880698e-42 297 214
-0.026307013 0.68199998 0.031090107 1.4153114e-41 298 214
-0.025037598 0.68000001 0.030998932 5.5520132e-39 299 214
-0.023810266 0.67900002 0.030953348 1.1350651e-38 300 214
-0.022519812 0.676 0.030816587 1.1350651e-38 301 214
-0.021334561 0.676 0.030816587 8.9618222e-39 302 214
-0.020119499 0.67500001 0.030771 8.7774309e-39 303 214
-0.018907947 0.67400002 0.030725412 1.4218358e-38 304 214
-0.0177262 0.67400002 0.030725412 1.467897e-38 305 214
-0.01649536 0.67199999 0.030634239 1.4206161e-38 306 214
-0.01531712 0.67199999 0.030634239 9.596389e-39 307 214
-0.01413888 0.67199999 0.030634239 2.705103e-39 308 214
-0.012960639 0.67199999 0.030634239 3.257918e-39 309 214
-0.011782399 0.67199999 0.030634239 4.0826214e-39 310 214
-0.010604159 0.67199999 0.030634239 3.9904258e-39 311 214
-0.0094259195 0.67199999 0.030634239 3.440475e-39 312 214
-0.00824768 0.67199999 0.030634239 5.1925521e-39 313 214
-0.0070694401 0.67199999 0.030634239 9.3258613e-39 314 214
-0.0058911997 0.67199999 0.030634239 9.9712307e-39 315 214
-0.0047129598 0.67199999 0.030634239 1.05161e-38 316 214
-0.00353472 0.67199999 0.030634239 9.2253616e-39 317 214
-0.0023564799 0.67199999 0.030634239 9.0398829e-39 318 214
-0.0011782399 0.67199999 0.030634239 8.6707402e-39 319 214
0 0.67199999 0.030634239 7.8435033e-39 320 214
0.0011764866 0.671 0.030588651 8.1200902e-39 321 214
0.0023529732 0.671 0.030588651 8.3970498e-39 322 214
0.0035294599 0.671 0.030588651 8.3044941e-39 323 214
0.0047129598 0.67199999 0.030634239 8.2112264e-39 324 214
0.0059087332 0.67400002 0.030725412 8.3037808e-39 325 214
0.0070904801 0.67400002 0.030725412 8.6721906e-39 326 214
0.0082844999 0.67500001 0.030771 8.9487789e-39 327 214
0.0094820261 0.676 0.030816587 8.3037598e-39 328 214
0.01066728 0.676 0.030816587 6.0910647e-39 329 214
0.011852534 0.676 0.030816587 4.2511206e-39 330 214
0.013037786 0.676 0.030816587 4.9886856e-39 331 214
0.014223038 0.676 0.030816587 7.1945382e-39 332 214
0.015408293 0.676 0.030816587 7.3789294e-39 333 214
0.016642639 0.67799997 0.030907756 7.1001607e-39 334 214
0.0178314 0.67799997 0.030907756 5.5324763e-39 335 214
0.019020159 0.67799997 0.030907756 3.0475005e-39 336 214
-0.034728274 0.68300003 0.029938167 6.493505e-40 291 215
-0.033530746 0.68300003 0.029938167 2.4021633e-39 292 215
-0.032285877 0.68199998 0.029894331 2.2181308e-39 293 215
-0.031090107 0.68199998 0.029894331 1.9411851e-39 294 215
-0.029894331 0.68199998 0.029894331 1.9411851e-39 295 215
-0.02869856 0.68199998 0.029894331 1.9412005e-39 296 215
-0.027502786 0.68199998 0.029894331 1.4805825e-39 297 215
-0.026307013 0.68199998 0.029894331 5.1525745e-42 298 215
-0.025037598 0.68000001 0.029806666 8.2956869e-43 299 215
-0.023810266 0.67900002 0.029762832 8.8562063e-43 300 215
-0.022519812 0.676 0.029631332 2.6876905e-42 301 215
-0.021334561 0.676 0.029631332 1.0956753e-41 302 215
-0.020119499 0.67500001 0.0295875 1.5847649e-39 303 215
-0.018907947 0.67400002 0.029543666 1.1451096e-38 304 215
-0.0177262 0.67400002 0.029543666 1.4309117e-38 305 215
-0.016544454 0.67400002 0.029543666 1.2639921e-38 306 215
-0.015362706 0.67400002 0.029543666 8.0301394e-39 307 215
-0.01418096 0.67400002 0.029543666 4.0840662e-39 308 215
-0.012960639 0.67199999 0.029455997 4.5450443e-39 309 215
-0.011782399 0.67199999 0.029455997 5.8289308e-39 310 215
-0.010604159 0.67199999 0.029455997 5.1835614e-39 311 215
-0.0094259195 0.67199999 0.029455997 3.9900432e-39 312 215
-0.00824768 0.67199999 0.029455997 6.1101826e-39 313 215
-0.0070694401 0.67199999 0.029455997 8.8656034e-39 314 215
-0.0058911997 0.67199999 0.029455997 9.0499947e-39 315 215
-0.0047129598 0.67199999 0.029455997 8.1236999e-39 316 215
-0.00353472 0.67199999 0.029455997 6.7407655e-39 317 215
-0.0023564799 0.67199999 0.029455997 7.9346199e-39 318 215
-0.0011782399 0.67199999 0.029455997 8.3037626e-39 319 215
0 0.67199999 0.029455997 8.5796264e-39 320 215
0.0011764866 0.671 0.029412165 8.671822e-39 321 215
0.0023529732 0.671 0.029412165 8.8569364e-39 322 215
0.0035294599 0.671 0.029412165 9.1331631e-39 323 215
0.0047129598 0.67199999 0.029455997 8.9480502e-39 324 215
0.0059087332 0.67400002 0.029543666 9.0402458e-39 325 215
0.0070904801 0.67400002 0.029543666 9.1353127e-39 326 215
0.0082844999 0.67500001 0.0295875 9.504454e-39 327 215
0.0094820261 0.676 0.029631332 9.9614664e-39 328 215
0.01066728 0.676 0.029631332 9.316097e-39 329 215
0.011852534 0.676 0.029631332 9.8685477e-39 330 215
0.013037786 0.676 0.029631332 1.0144776e-38 331 215
0.014223038 0.676 0.029631332 1.0510314e-38 332 215
0.015408293 0.676 0.029631332 8.7589576e-39 333 215
0.016642639 0.67799997 0.029718997 7.8362754e-39 334 215
0.0178314 0.67799997 0.029718997 6.5455366e-39 335 215
0.019020159 0.67799997 0.029718997 5.5342587e-39 336 215
-0.036083598 0.68599999 0.02886688 6.0870948e-39 290 216
-0.03477912 0.68400002 0.02878272 9.2413952e-40 291 216
-0.033530746 0.68300003 0.028740639 2.3996423e-39 292 216
-0.032333218 0.68300003 0.028740639 2.5840336e-39 293 216
-0.031090107 0.68199998 0.02869856 1.9408222e-39 294 216
-0.029894331 0.68199998 0.02869856 1.8482678e-39 295 216
-0.02869856 0.68199998 0.02869856 1.5724054e-39 296 216
-0.027502786 0.68199998 0.02869856 1.5724054e-39 297 216
-0.026307013 0.68199998 0.02869856 6.5154213e-40 298 216
-0.025111238 0.68199998 0.02869856 4.7307836e-42 299 216
-0.023845334 0.68000001 0.028614398 1.5148036e-42 300 216
-0.022586439 0.67799997 0.028530238 7.4268819e-44 301 216
-0.021334561 0.676 0.028446076 1.1350518e-43 302 216
-0.020149305 0.676 0.028446076 3.0043839e-42 303 216
-0.018964052 0.676 0.028446076 3.6055129e-39 304 216
-0.017778801 0.676 0.028446076 6.4639362e-39 305 216
-0.016569 0.67500001 0.028404001 5.7223999e-39 306 216
-0.0153855 0.67500001 0.028404001 4.7082465e-39 307 216
-0.01418096 0.67400002 0.02836192 3.981798e-39 308 216
-0.012960639 0.67199999 0.02827776 4.5349704e-39 309 216
-0.011782399 0.67199999 0.02827776 4.8090209e-39 310 216
-0.010604159 0.67199999 0.02827776 3.5182821e-39 311 216
-0.0094259195 0.67199999 0.02827776 2.0499847e-39 312 216
-0.00824768 0.67199999 0.02827776 3.986093e-39 313 216
-0.0070694401 0.67199999 0.02827776 7.5759464e-39 314 216
-0.0058911997 0.67199999 0.02827776 8.2213158e-39 315 216
-0.0047129598 0.67199999 0.02827776 9.4104731e-39 316 216
-0.00353472 0.67199999 0.02827776 8.8572993e-39 317 216
-0.0023564799 0.67199999 0.02827776 9.500854e-39 318 216
-0.0011782399 0.67199999 0.02827776 9.9618322e-39 319 216
0 0.67199999 0.02827776 1.0054028e-38 320 216
0.0011782399 0.67199999 0.02827776 1.0054028e-38 321 216
0.0023529732 0.671 0.028235679 1.02377e-38 322 216
0.0035294599 0.671 0.028235679 1.042209e-38 323 216
0.0047129598 0.67199999 0.02827776 1.0238053e-38 324 216
0.0059087332 0.67400002 0.02836192 1.0238053e-38 325 216
0.0071010003 0.67500001 0.028404001 1.0054734e-38 326 216
0.0082844999 0.67500001 0.028404001 1.014693e-38 327 216
0.0094820261 0.676 0.028446076 9.8674659e-39 328 216
0.01066728 0.676 0.028446076 8.8536741e-39 329 216
0.011852534 0.676 0.028446076 8.4820106e-39 330 216
0.013037786 0.676 0.028446076 7.5604144e-39 331 216
0.014223038 0.676 0.028446076 5.8148113e-39 332 216
0.015453878 0.67799997 0.028530238 5.6300599e-39 333 216
0.016642639 0.67799997 0.028530238 6.8232151e-39 334 216
0.0178314 0.67799997 0.028530238 6.639184e-39 335 216
0.019020159 0.67799997 0.028530238 6.2725468e-39 336 216
-0.036083598 0.68599999 0.027664091 6.9143415e-39 290 217
-0.03477912 0.68400002 0.027583439 1.1060169e-39 291 217
-0.033579841 0.68400002 0.027583439 2.0308626e-39 292 217
-0.032380559 0.68400002 0.027583439 2.5840364e-39 293 217
-0.031135695 0.68300003 0.027543113 2.0319332e-39 294 217
-0.029894331 0.68199998 0.027502786 1.9397362e-39 295 217
-0.02869856 0.68199998 0.027502786 1.9393859e-39 296 217
-0.027543113 0.68300003 0.027543113 1.8471902e-39 297 217
-0.026307013 0.68199998 0.027502786 1.6635248e-39 298 217
-0.025111238 0.68199998 0.027502786 1.8479175e-39 299 217
-0.023845334 0.68000001 0.027422134 1.5724124e-39 300 217
-0.022619752 0.67900002 0.027381808 1.387661e-39 301 217
-0.021397678 0.67799997 0.027341479 2.9511346e-42 302 217
-0.020208918 0.67799997 0.027341479 6.3058431e-44 303 217
-0.018964052 0.676 0.027260827 8.1275311e-44 304 217
-0.017778801 0.676 0.027260827 7.9874012e-44 305 217
-0.016593546 0.676 0.027260827 9.6689594e-44 306 217
-0.0153855 0.67500001 0.027220501 7.4019808e-40 307 217
-0.014202001 0.67500001 0.027220501 4.7619205e-40 308 217
-0.012999214 0.67400002 0.027180174 1.1215615e-39 309 217
-0.011817466 0.67400002 0.027180174 1.2126683e-39 310 217
-0.01063572 0.67400002 0.027180174 1.3046089e-41 311 217
-0.0094679995 0.67500001 0.027220501 1.4478216e-41 312 217
-0.0082844999 0.67500001 0.027220501 1.6797603e-39 313 217
-0.0070904801 0.67400002 0.027180174 6.3738005e-39 314 217
-0.0058911997 0.67199999 0.027099518 8.3099087e-39 315 217
-0.0047129598 0.67199999 0.027099518 1.0146226e-38 316 217
-0.00353472 0.67199999 0.027099518 1.0238422e-38 317 217
-0.0023564799 0.67199999 0.027099518 1.1066369e-38 318 217
-0.0011782399 0.67199999 0.027099518 1.143515e-38 319 217
0 0.67199999 0.027099518 1.1251835e-38 320 217
0.0011782399 0.67199999 0.027099518 1.1251835e-38 321 217
0.0023529732 0.671 0.027059194 1.1250754e-38 322 217
0.0035294599 0.671 0.027059194 1.0974527e-38 323 217
0.0047129598 0.67199999 0.027099518 1.0974171e-38 324 217
0.0059087332 0.67400002 0.027180174 1.0789778e-38 325 217
0.0071010003 0.67500001 0.027220501 1.0327724e-38 326 217
0.0082967728 0.676 0.027260827 9.8667471e-39 327 217
0.0094820261 0.676 0.027260827 8.670006e-39 328 217
0.01066728 0.676 0.027260827 7.3792671e-39 329 217
0.011852534 0.676 0.027260827 5.2562495e-39 330 217
0.013076359 0.67799997 0.027341479 3.2279457e-39 331 217
0.014265119 0.67799997 0.027341479 2.4061135e-39 332 217
0.015453878 0.67799997 0.027341479 3.6968524e-39 333 217
0.016642639 0.67799997 0.027341479 5.9963509e-39 334 217
0.017857701 0.67900002 0.027381808 6.2729378e-39 335 217
0.019048214 0.67900002 0.027381808 6.9182848e-39 336 217
0.020328145 0.68199998 0.027502786 6.9182848e-39 337 217
-0.036083598 0.68599999 0.026461305 7.007612e-39 290 218
-0.034880809 0.68599999 0.026461305 4.6172224e-40 291 218
-0.033579841 0.68400002 0.02638416 2.0290648e-39 292 218
-0.032380559 0.68400002 0.02638416 2.7666298e-39 293 218
-0.031135695 0.68300003 0.026345588 2.0322891e-39 294 218
-0.029938167 0.68300003 0.026345588 1.9400921e-39 295 218
-0.028740639 0.68300003 0.026345588 1.9390201e-39 296 218
-0.027543113 0.68300003 0.026345588 1.9390201e-39 297 218
-0.026345588 0.68300003 0.026345588 1.9393831e-39 298 218
-0.025111238 0.68199998 0.026307013 1.9393831e-39 299 218
-0.023845334 0.68000001 0.026229866 2.2170518e-39 300 218
-0.022619752 0.67900002 0.026191294 4.890725e-39 301 218
-0.021397678 0.67799997 0.026152719 4.5219467e-39 302 218
-0.020208918 0.67799997 0.026152719 3.6918259e-39 303 218
-0.019020159 0.67799997 0.026152719 3.7782636e-39 304 218
-0.017778801 0.676 0.026075572 3.0406986e-39 305 218
-0.016593546 0.676 0.026075572 1.4777057e-39 306 218
-0.015408293 0.676 0.026075572 2.3078251e-39 307 218
-0.014223038 0.676 0.026075572 1.6689521e-39 308 218
-0.012999214 0.67400002 0.025998428 1.7611477e-39 309 218
-0.011817466 0.67400002 0.025998428 1.9437439e-39 310 218
-0.0106515 0.67500001 0.026037 1.2983745e-39 311 218
-0.0094679995 0.67500001 0.026037 4.7400462e-40 312 218
-0.0082844999 0.67500001 0.026037 3.8852443e-39 313 218
-0.0070904801 0.67400002 0.025998428 6.554582e-39 314 218
-0.0058911997 0.67199999 0.025921278 8.4906902e-39 315 218
-0.0047129598 0.67199999 0.025921278 9.3171886e-39 316 218
-0.00353472 0.67199999 0.025921278 9.0406018e-39 317 218
-0.0023564799 0.67199999 0.025921278 9.1327848e-39 318 218
-0.0011782399 0.67199999 0.025921278 9.0402304e-39 319 218
0 0.67199999 0.025921278 9.1309827e-39 320 218
0.0011782399 0.67199999 0.025921278 9.2231783e-39 321 218
0.0023564799 0.67199999 0.025921278 9.3157313e-39 322 218
0.00353472 0.67199999 0.025921278 9.0387843e-39 323 218
0.0047269869 0.67400002 0.025998428 8.7629205e-39 324 218
0.0059087332 0.67400002 0.025998428 9.0395059e-39 325 218
0.0071010003 0.67500001 0.026037 9.2210245e-39 326 218
0.0082967728 0.676 0.026075572 8.7604051e-39 327 218
0.0094820261 0.676 0.026075572 8.2086677e-39 328 218
0.01066728 0.676 0.026075572 7.6558526e-39 329 218
0.011852534 0.676 0.026075572 6.2703972e-39 330 218
0.013076359 0.67799997 0.026152719 4.8874628e-39 331 218
0.014265119 0.67799997 0.026152719 4.0631097e-39 332 218
0.015476674 0.67900002 0.026191294 4.2475024e-39 333 218
0.016667187 0.67900002 0.026191294 5.720836e-39 334 218
0.017857701 0.67900002 0.026191294 6.9193792e-39 335 218
0.019132372 0.68199998 0.026307013 8.3908967e-39 336 218
0.020328145 0.68199998 0.026307013 7.92992e-39 337 218
0.02155548 0.68300003 0.026345588 6.4569437e-39 338 218
-0.034880809 0.68599999 0.025258519 5.5463533e-40 291 219
-0.033579841 0.68400002 0.025184879 1.8443008e-39 292 219
-0.032380559 0.68400002 0.025184879 3.0428439e-39 293 219
-0.031135695 0.68300003 0.02514806 2.2148783e-39 294 219
-0.029938167 0.68300003 0.02514806 2.2148783e-39 295 219
-0.028740639 0.68300003 0.02514806 1.8475434e-39 296 219
-0.027543113 0.68300003 0.02514806 1.8475434e-39 297 219
-0.026345588 0.68300003 0.02514806 1.4805601e-39 298 219
-0.02514806 0.68300003 0.02514806 1.4805601e-39 299 219
-0.023915464 0.68199998 0.025111238 2.2177776e-39 300 219
-0.022653066 0.68000001 0.025037598 5.8130485e-39 301 219
-0.0214608 0.68000001 0.025037598 7.9321032e-39 302 219
-0.020238725 0.67900002 0.025000781 7.8399062e-39 303 219
-0.019020159 0.67799997 0.024963958 8.0206863e-39 304 219
-0.0178314 0.67799997 0.024963958 7.3753169e-39 305 219
-0.016593546 0.676 0.024890319 5.43958e-39 306 219
-0.015408293 0.676 0.024890319 3.8722557e-39 307 219
-0.014202001 0.67500001 0.0248535 2.4029074e-39 308 219
-0.0130185 0.67500001 0.0248535 2.3107117e-39 309 219
-0.011835 0.67500001 0.0248535 1.4831203e-39 310 219
-0.0106515 0.67500001 0.0248535 1.2987276e-39 311 219
-0.0094679995 0.67500001 0.0248535 1.1164846e-39 312 219
-0.0082844999 0.67500001 0.0248535 4.3433316e-39 313 219
-0.0070904801 0.67400002 0.024816679 6.2794272e-39 314 219
-0.0058911997 0.67199999 0.024743039 7.8463928e-39 315 219
-0.0047129598 0.67199999 0.024743039 8.2119355e-39 316 219
-0.00353472 0.67199999 0.024743039 7.7509574e-39 317 219
-0.0023564799 0.67199999 0.024743039 7.4750963e-39 318 219
-0.0011782399 0.67199999 0.024743039 7.3829007e-39 319 219
0 0.67199999 0.024743039 7.4732985e-39 320 219
0.0011782399 0.67199999 0.024743039 7.3811028e-39 321 219
0.0023564799 0.67199999 0.024743039 7.6576869e-39 322 219
0.00353472 0.67199999 0.024743039 7.6576869e-39 323 219
0.0047269869 0.67400002 0.024816679 7.8427802e-39 324 219
0.0059087332 0.67400002 0.024816679 7.8427802e-39 325 219
0.0071010003 0.67500001 0.0248535 8.3934177e-39 326 219
0.0082967728 0.676 0.024890319 7.5632983e-39 327 219
0.0094820261 0.676 0.024890319 7.1026732e-39 328 219
0.01066728 0.676 0.024890319 6.7342509e-39 329 219
0.011852534 0.676 0.024890319 5.904486e-39 330 219
0.013076359 0.67799997 0.024963958 5.3513122e-39 331 219
0.014265119 0.67799997 0.024963958 4.8889047e-39 332 219
0.015476674 0.67900002 0.025000781 4.8889047e-39 333 219
0.016667187 0.67900002 0.025000781 6.642421e-39 334 219
0.017883999 0.68000001 0.025037598 7.7487671e-39 335 219
0.019132372 0.68199998 0.025111238 8.3934121e-39 336 219
0.020357953 0.68300003 0.02514806 7.5636514e-39 337 219
0.02155548 0.68300003 0.02514806 6.2729154e-39 338 219
0.022886258 0.68699998 0.025295338 4.2446115e-39 339 219
-0.033678025 0.68599999 0.024055731 1.7521051e-39 292 220
-0.032380559 0.68400002 0.0239856 2.8584527e-39 293 220
-0.03118128 0.68400002 0.0239856 2.0315689e-39 294 220
-0.029938167 0.68300003 0.023950534 1.9393733e-39 295 220
-0.028740639 0.68300003 0.023950534 1.8475406e-39 296 220
-0.027543113 0.68300003 0.023950534 1.8475406e-39 297 220
-0.026345588 0.68300003 0.023950534 1.8475434e-39 298 220
-0.02514806 0.68300003 0.023950534 1.8475434e-39 299 220
-0.023915464 0.68199998 0.023915464 1.5731285e-39 300 220
-0.022719691 0.68199998 0.023915464 3.6014323e-39 301 220
-0.0214608 0.68000001 0.023845334 5.1716349e-39 302 220
-0.020238725 0.67900002 0.023810266 6.1854267e-39 303 220
-0.019020159 0.67799997 0.023775198 8.8540427e-39 304 220
-0.0178314 0.67799997 0.023775198 9.775999e-39 305 220
-0.016593546 0.676 0.023705067 7.740861e-39 306 220
-0.015408293 0.676 0.023705067 4.9746334e-39 307 220
-0.014202001 0.67500001 0.023669999 2.4922037e-39 308 220
-0.0130185 0.67500001 0.023669999 2.4922037e-39 309 220
-0.011835 0.67500001 0.023669999 1.6656927e-39 310 220
-0.0106515 0.67500001 0.023669999 1.3894659e-39 311 220
-0.0094679995 0.67500001 0.023669999 9.3172755e-40 312 220
-0.0082844999 0.67500001 0.023669999 3.9738232e-39 313 220
-0.0070904801 0.67400002 0.023634933 5.6344207e-39 314 220
-0.0058911997 0.67199999 0.023564799 6.2797901e-39 315 220
-0.0047129598 0.67199999 0.023564799 7.0126706e-39 316 220
-0.00353472 0.67199999 0.023564799 6.8282794e-39 317 220
-0.0023564799 0.67199999 0.023564799 7.2860177e-39 318 220
-0.0011782399 0.67199999 0.023564799 7.3782134e-39 319 220
0 0.67199999 0.023564799 7.7462756e-39 320 220
0.0011782399 0.67199999 0.023564799 7.5615256e-39 321 220
0.0023564799 0.67199999 0.023564799 7.3800014e-39 322 220
0.00353472 0.67199999 0.023564799 7.5647514e-39 323 220
0.0047339997 0.67500001 0.023669999 8.0246394e-39 324 220
0.0059174998 0.67500001 0.023669999 7.2870729e-39 325 220
0.0071010003 0.67500001 0.023669999 5.3491612e-39 326 220
0.0082967728 0.676 0.023705067 2.4910967e-39 327 220
0.0094820261 0.676 0.023705067 1.2089955e-39 328 220
0.010698839 0.67799997 0.023775198 1.4855824e-39 329 220
0.011887599 0.67799997 0.023775198 3.4159453e-39 330 220
0.013076359 0.67799997 0.023775198 4.7988797e-39 331 220
0.01428616 0.67900002 0.023810266 5.351329e-39 332 220
0.015476674 0.67900002 0.023810266 6.5498708e-39 333 220
0.016691733 0.68000001 0.023845334 7.2877876e-39 334 220
0.017936599 0.68199998 0.023915464 7.7487643e-39 335 220
0.019160427 0.68300003 0.023950534 8.5767271e-39 336 220
0.020387759 0.68400002 0.0239856 7.7473266e-39 337 220
0.021650158 0.68599999 0.024055731 6.1807197e-39 338 220
0.022886258 0.68699998 0.024090799 4.0602203e-39 339 220
-0.033727121 0.68699998 0.022886258 1.7506576e-39 292 221
-0.032475237 0.68599999 0.022852944 3.318342e-39 293 221
-0.03118128 0.68400002 0.022786319 2.0319192e-39 294 221
-0.029938167 0.68300003 0.022753006 2.0319192e-39 295 221
-0.028740639 0.68300003 0.022753006 1.6642283e-39 296 221
-0.027543113 0.68300003 0.022753006 1.5720327e-39 297 221
-0.026345588 0.68300003 0.022753006 1.3883673e-39 298 221
-0.02514806 0.68300003 0.022753006 1.4805629e-39 299 221
-0.023915464 0.68199998 0.022719691 1.3887358e-39 300 221
-0.022719691 0.68199998 0.022719691 2.4028892e-39 301 221
-0.0214608 0.68000001 0.022653066 5.3524262e-39 302 221
-0.020238725 0.67900002 0.022619752 7.0119476e-39 303 221
-0.019020159 0.67799997 0.022586439 8.3948638e-39 304 221
-0.0178314 0.67799997 0.022586439 1.0054025e-38 305 221
-0.016642639 0.67799997 0.022586439 8.573137e-39 306 221
-0.015408293 0.676 0.022519812 4.9775074e-39 307 221
-0.014223038 0.676 0.022519812 3.0417748e-39 308 221
-0.0130185 0.67500001 0.022486499 3.1339704e-39 309 221
-0.011835 0.67500001 0.022486499 1.573497e-39 310 221
-0.0106515 0.67500001 0.022486499 1.3894659e-39 311 221
-0.0094679995 0.67500001 0.022486499 1.297636e-39 312 221
-0.0082844999 0.67500001 0.022486499 4.2478962e-39 313 221
-0.0070904801 0.67400002 0.022453187 5.8173673e-39 314 221
-0.0058911997 0.67199999 0.022386558 6.6471279e-39 315 221
-0.0047129598 0.67199999 0.022386558 7.0137426e-39 316 221
-0.00354524 0.67400002 0.022453187 7.0137426e-39 317 221
-0.0023634934 0.67400002 0.022453187 7.7473448e-39 318 221
-0.0011782399 0.67199999 0.022386558 7.9317361e-39 319 221
0 0.67199999 0.022386558 8.1172007e-39 320 221
0.0011782399 0.67199999 0.022386558 8.0250051e-39 321 221
0.0023564799 0.67199999 0.022386558 7.5650989e-39 322 221
0.00354524 0.67400002 0.022453187 7.7494916e-39 323 221
0.0047339997 0.67500001 0.022486499 7.9335101e-39 324 221
0.0059174998 0.67500001 0.022486499 7.7491174e-39 325 221
0.0071115191 0.676 0.022519812 5.4453001e-39 326 221
0.0082967728 0.676 0.022519812 4.1545613e-39 327 221
0.0095100794 0.67799997 0.022586439 3.7875864e-39 328 221
0.010698839 0.67799997 0.022586439 4.2482059e-39 329 221
0.011887599 0.67799997 0.022586439 5.351685e-39 330 221
0.013095647 0.67900002 0.022619752 6.2736413e-39 331 221
0.01428616 0.67900002 0.022619752 6.5509512e-39 332 221
0.015499466 0.68000001 0.022653066 6.9197323e-39 333 221
0.016740825 0.68199998 0.022719691 6.3683578e-39 334 221
0.017962901 0.68300003 0.022753006 6.9215316e-39 335 221
0.019160427 0.68300003 0.022753006 7.9324367e-39 336 221
0.020387759 0.68400002 0.022786319 7.5636542e-39 337 221
0.021650158 0.68599999 0.022852944 6.6402532e-39 338 221
0.022852944 0.68599999 0.022852944 4.5197537e-39 339 221
-0.033776212 0.68800002 0.021713281 1.8425029e-39 292 222
-0.032522578 0.68699998 0.021681719 2.6726223e-39 293 222
-0.03118128 0.68400002 0.02158704 2.0315689e-39 294 222
-0.029982001 0.68400002 0.02158704 1.9393733e-39 295 222
-0.02878272 0.68400002 0.02158704 1.8475406e-39 296 222
-0.027583439 0.68400002 0.02158704 1.6635094e-39 297 222
-0.026345588 0.68300003 0.02155548 1.5716795e-39 298 222
-0.02514806 0.68300003 0.02155548 1.5716795e-39 299 222
-0.023915464 0.68199998 0.021523919 1.112872e-39 300 222
-0.022719691 0.68199998 0.021523919 1.850437e-39 301 222
-0.021523919 0.68199998 0.021523919 6.3658593e-39 302 222
-0.020238725 0.67900002 0.021429239 9.7770976e-39 303 222
-0.019048214 0.67900002 0.021429239 9.3164628e-39 304 222
-0.017857701 0.67900002 0.021429239 9.040236e-39 305 222
-0.016642639 0.67799997 0.021397678 8.7604177e-39 306 222
-0.015408293 0.676 0.021334561 5.1651483e-39 307 222
-0.014223038 0.676 0.021334561 1.662806e-39 308 222
-0.0130185 0.67500001 0.021303 2.0312298e-39 309 222
-0.011835 0.67500001 0.021303 1.4809329e-39 310 222
-0.0106515 0.67500001 0.021303 1.4809329e-39 311 222
-0.0094679995 0.67500001 0.021303 1.2068669e-39 312 222
-0.0082844999 0.67500001 0.021303 3.9723757e-39 313 222
-0.0071010003 0.67500001 0.021303 6.0932311e-39 314 222
-0.0059087332 0.67400002 0.021271439 8.1215349e-39 315 222
-0.0047269869 0.67400002 0.021271439 8.3970302e-39 316 222
-0.00354524 0.67400002 0.021271439 8.3970302e-39 317 222
-0.0023634934 0.67400002 0.021271439 8.4895762e-39 318 222
-0.0011782399 0.67199999 0.021208318 8.4895762e-39 319 222
0 0.67199999 0.021208318 9.2256965e-39 320 222
0.0011782399 0.67199999 0.021208318 9.1335008e-39 321 222
0.0023634934 0.67400002 0.021271439 8.1200692e-39 322 222
0.00354524 0.67400002 0.021271439 7.8434809e-39 323 222
0.0047339997 0.67500001 0.021303 8.3037374e-39 324 222
0.0059262668 0.676 0.021334561 8.1197048e-39 325 222
0.0071115191 0.676 0.021334561 8.3926932e-39 326 222
0.0083213197 0.67799997 0.021397678 7.7473238e-39 327 222
0.0095100794 0.67799997 0.021397678 8.0239093e-39 328 222
0.010698839 0.67799997 0.021397678 8.3004976e-39 329 222
0.011905133 0.67900002 0.021429239 8.7600296e-39 330 222
0.013095647 0.67900002 0.021429239 8.5756397e-39 331 222
0.01428616 0.67900002 0.021429239 7.1055501e-39 332 222
0.015545053 0.68199998 0.021523919 6.3676263e-39 333 222
0.016740825 0.68199998 0.021523919 6.6420678e-39 334 222
0.017962901 0.68300003 0.02155548 7.2874372e-39 335 222
0.019160427 0.68300003 0.02155548 7.9324423e-39 336 222
0.020387759 0.68400002 0.02158704 7.6554967e-39 337 222
0.021650158 0.68599999 0.021650158 6.7328145e-39 338 222
0.022852944 0.68599999 0.021650158 4.2438913e-39 339 222
-0.032522578 0.68699998 0.020477179 2.2127301e-39 293 223
-0.031272452 0.68599999 0.020447372 1.9390201e-39 294 223
-0.029982001 0.68400002 0.020387759 1.8468245e-39 295 223
-0.02878272 0.68400002 0.020387759 1.6635094e-39 296 223
-0.027583439 0.68400002 0.020387759 1.6635094e-39 297 223
-0.026345588 0.68300003 0.020357953 1.4794839e-39 298 223
-0.02514806 0.68300003 0.020357953 1.4794839e-39 299 223
-0.023950534 0.68300003 0.020357953 1.1117972e-39 300 223
-0.022719691 0.68199998 0.020328145 6.5081766e-40 301 223
-0.0214608 0.68000001 0.020268533 3.8823338e-39 302 223
-0.020238725 0.67900002 0.020238725 8.0311386e-39 303 223
-0.019048214 0.67900002 0.020238725 9.4050683e-39 304 223
-0.017857701 0.67900002 0.020238725 8.6675032e-39 305 223
-0.016642639 0.67799997 0.020208918 6.9211911e-39 306 223
-0.015408293 0.676 0.020149305 4.3400722e-39 307 223
-0.014223038 0.676 0.020149305 1.0199547e-39 308 223
-0.0130185 0.67500001 0.020119499 1.5731285e-39 309 223
-0.011835 0.67500001 0.020119499 1.4809329e-39 310 223
-0.0106515 0.67500001 0.020119499 1.4809329e-39 311 223
-0.0094820261 0.676 0.020149305 1.2068669e-39 312 223
-0.0082844999 0.67500001 0.020119499 3.6961489e-39 313 223
-0.0071010003 0.67500001 0.020119499 5.8166484e-39 314 223
-0.0059087332 0.67400002 0.020089693 7.5683654e-39 315 223
-0.0047269869 0.67400002 0.020089693 7.3836014e-39 316 223
-0.00354524 0.67400002 0.020089693 7.1992101e-39 317 223
-0.0023634934 0.67400002 0.020089693 7.198843e-39 318 223
-0.0011782399 0.67199999 0.020030079 7.1062886e-39 319 223
0 0.67199999 0.020030079 8.0250051e-39 320 223
0.0011782399 0.67199999 0.020030079 7.5640269e-39 321 223
0.0023634934 0.67400002 0.020089693 6.0932157e-39 322 223
0.0035505001 0.67500001 0.020119499 6.4616381e-39 323 223
0.0047410131 0.676 0.020149305 7.4750711e-39 324 223
0.0059262668 0.676 0.020149305 7.6594624e-39 325 223
0.0071325595 0.67799997 0.020208918 8.7629205e-39 326 223
0.0083213197 0.67799997 0.020208918 8.2097467e-39 327 223
0.0095100794 0.67799997 0.020208918 8.0249897e-39 328 223
0.010714619 0.67900002 0.020238725 7.840597e-39 329 223
0.011905133 0.67900002 0.020238725 8.4827196e-39 330 223
0.013095647 0.67900002 0.020238725 8.4827196e-39 331 223
0.014307199 0.68000001 0.020268533 7.6533289e-39 332 223
0.015545053 0.68199998 0.020328145 7.2849065e-39 333 223
0.016740825 0.68199998 0.020328145 6.5509512e-39 334 223
0.017962901 0.68300003 0.020357953 7.1963206e-39 335 223
0.019160427 0.68300003 0.020357953 8.1175567e-39 336 223
0.020387759 0.68400002 0.020387759 7.748414e-39 337 223
0.021650158 0.68599999 0.020447372 6.2739972e-39 338 223
0.022852944 0.68599999 0.020447372 3.9687463e-39 339 223
-0.032522578 0.68699998 0.019272638 2.3045628e-39 293 224
-0.031318039 0.68699998 0.019272638 2.031213e-39 294 224
-0.030069664 0.68599999 0.019244585 1.9390173e-39 295 224
-0.02886688 0.68599999 0.019244585 1.6635066e-39 296 224
-0.027664091 0.68599999 0.019244585 1.571311e-39 297 224
-0.02638416 0.68400002 0.01918848 1.4794811e-39 298 224
-0.02514806 0.68300003 0.019160427 1.4794811e-39 299 224
-0.023950534 0.68300003 0.019160427 1.2029012e-39 300 224
-0.022719691 0.68199998 0.019132372 3.9979045e-42 301 224
-0.0214608 0.68000001 0.019076265 3.5978198e-39 302 224
-0.020238725 0.67900002 0.019048214 9.037362e-39 303 224
-0.019048214 0.67900002 0.019048214 9.2203113e-39 304 224
-0.017857701 0.67900002 0.019048214 8.3901905e-39 305 224
-0.016642639 0.67799997 0.019020159 6.3680047e-39 306 224
-0.015408293 0.676 0.018964052 3.5099402e-39 307 224
-0.014223038 0.676 0.018964052 1.5716767e-39 308 224
-0.0130185 0.67500001 0.018935999 2.3092418e-39 309 224
-0.011835 0.67500001 0.018935999 1.7567939e-39 310 224
-0.01066728 0.676 0.018964052 1.5727613e-39 311 224
-0.0094820261 0.676 0.018964052 1.3898162e-39 312 224
-0.0082967728 0.676 0.018964052 3.8787381e-39 313 224
-0.0071010003 0.67500001 0.018935999 5.7233696e-39 314 224
-0.0059174998 0.67500001 0.018935999 6.0003166e-39 315 224
-0.0047339997 0.67500001 0.018935999 4.8028398e-39 316 224
-0.0035505001 0.67500001 0.018935999 3.9730791e-39 317 224
-0.0023634934 0.67400002 0.018907947 4.5230159e-39 318 224
-0.0011817467 0.67400002 0.018907947 4.4308203e-39 319 224
0 0.67400002 0.018907947 3.9702079e-39 320 224
0.0011817467 0.67400002 0.018907947 3.5095898e-39 321 224
0.0023669999 0.67500001 0.018935999 2.591595e-39 322 224
0.0035505001 0.67500001 0.018935999 3.8823338e-39 323 224
0.0047410131 0.676 0.018964052 6.0914304e-39 324 224
0.0059437994 0.67799997 0.019020159 6.9211911e-39 325 224
0.0071325595 0.67799997 0.019020159 7.7505664e-39 326 224
0.0083213197 0.67799997 0.019020159 8.1193489e-39 327 224
0.009524107 0.67900002 0.019048214 8.5763586e-39 328 224
0.010714619 0.67900002 0.019048214 7.4703698e-39 329 224
0.011905133 0.67900002 0.019048214 7.4685845e-39 330 224
0.013114933 0.68000001 0.019076265 7.1923577e-39 331 224
0.01434928 0.68199998 0.019132372 6.7342635e-39 332 224
0.015545053 0.68199998 0.019132372 6.8268178e-39 333 224
0.016765373 0.68300003 0.019160427 7.1952374e-39 334 224
0.017962901 0.68300003 0.019160427 7.5643801e-39 335 224
0.019160427 0.68300003 0.019160427 8.301222e-39 336 224
0.020387759 0.68400002 0.01918848 7.7480483e-39 337 224
0.021650158 0.68599999 0.019244585 6.4573038e-39 338 224
0.022852944 0.68599999 0.019244585 3.9683806e-39 339 224
0.024090799 0.68699998 0.019272638 3.9662268e-39 340 224
-0.032522578 0.68699998 0.018068098 2.487159e-39 293 225
-0.031318039 0.68699998 0.018068098 2.1237687e-39 294 225
-0.030069664 0.68599999 0.018041799 1.9390173e-39 295 225
-0.02886688 0.68599999 0.018041799 1.6635066e-39 296 225
-0.027664091 0.68599999 0.018041799 1.571311e-39 297 225
-0.02638416 0.68400002 0.0179892 1.5713138e-39 298 225
-0.02514806 0.68300003 0.017962901 1.5713138e-39 299 225
-0.023950534 0.68300003 0.017962901 2.2138091e-39 300 225
-0.022719691 0.68199998 0.017936599 2.0294179e-39 301 225
-0.0214608 0.68000001 0.017883999 5.8987505e-39 302 225
-0.020238725 0.67900002 0.017857701 9.7706082e-39 303 225
-0.019048214 0.67900002 0.017857701 8.6682095e-39 304 225
-0.017857701 0.67900002 0.017857701 8.0228401e-39 305 225
-0.016642639 0.67799997 0.0178314 6.4594772e-39 306 225
-0.015408293 0.676 0.017778801 4.1545865e-39 307 225
-0.014223038 0.676 0.017778801 1.8464686e-39 308 225
-0.013037786 0.676 0.017778801 2.3996423e-39 309 225
-0.011852534 0.676 0.017778801 1.5727613e-39 310 225
-0.01066728 0.676 0.017778801 1.5727613e-39 311 225
-0.0094820261 0.676 0.017778801 1.7564379e-39 312 225
-0.0082967728 0.676 0.017778801 4.1538831e-39 313 225
-0.0071115191 0.676 0.017778801 5.3549472e-39 314 225
-0.0059174998 0.67500001 0.0177525 4.893969e-39 315 225
-0.0047339997 0.67500001 0.0177525 4.3371981e-39 316 225
-0.0035505001 0.67500001 0.0177525 3.5074374e-39 317 225
-0.0023669999 0.67500001 0.0177525 4.5154727e-39 318 225
-0.0011834999 0.67500001 0.0177525 4.7924197e-39 319 225
0 0.67500001 0.0177525 4.5179936e-39 320 225
0.0011834999 0.67500001 0.0177525 4.7023849e-39 321 225
0.0023669999 0.67500001 0.0177525 4.0606112e-39 322 225
0.0035505001 0.67500001 0.0177525 4.9825675e-39 323 225
0.0047410131 0.676 0.017778801 5.9981488e-39 324 225
0.0059437994 0.67799997 0.0178314 6.6435182e-39 325 225
0.0071325595 0.67799997 0.0178314 6.7324516e-39 326 225
0.0083213197 0.67799997 0.0178314 6.0870822e-39 327 225
0.009524107 0.67900002 0.017857701 5.90017e-39 328 225
0.010714619 0.67900002 0.017857701 5.0704093e-39 329 225
0.011922667 0.68000001 0.017883999 3.8754787e-39 330 225
0.013153506 0.68199998 0.017936599 4.3364568e-39 331 225
0.01434928 0.68199998 0.017936599 6.2761622e-39 332 225
0.015545053 0.68199998 0.017936599 6.7367802e-39 333 225
0.016765373 0.68300003 0.017962901 7.6551338e-39 334 225
0.017962901 0.68300003 0.017962901 8.1157518e-39 335 225
0.019160427 0.68300003 0.017962901 8.3934177e-39 336 225
0.020387759 0.68400002 0.0179892 7.5632983e-39 337 225
0.02158704 0.68400002 0.0179892 6.4569437e-39 338 225
0.022852944 0.68599999 0.018041799 4.1516928e-39 339 225
0.024090799 0.68699998 0.018068098 3.9655079e-39 340 225
-0.032522578 0.68699998 0.01686356 2.2120113e-39 293 226
-0.031318039 0.68699998 0.01686356 2.2148839e-39 294 226
-0.030069664 0.68599999 0.016839013 2.1223296e-39 295 226
-0.02886688 0.68599999 0.016839013 1.8468189e-39 296 226
-0.027664091 0.68599999 0.016839013 1.7546233e-39 297 226
-0.02638416 0.68400002 0.016789921 1.5709635e-39 298 226
-0.02514806 0.68300003 0.016765373 1.4784091e-39 299 226
-0.023950534 0.68300003 0.016765373 1.5706075e-39 300 226
-0.022719691 0.68199998 0.016740825 2.1237813e-39 301 226
-0.0214608 0.68000001 0.016691733 5.9963481e-39 302 226
-0.020268533 0.68000001 0.016691733 8.5778257e-39 303 226
-0.019048214 0.67900002 0.016667187 6.0906947e-39 304 226
-0.017857701 0.67900002 0.016667187 6.0906947e-39 305 226
-0.016642639 0.67799997 0.016642639 7.196692e-39 306 226
-0.015453878 0.67799997 0.016642639 5.0758337e-39 307 226
-0.014223038 0.676 0.016593546 1.1125063e-39 308 226
-0.013037786 0.676 0.016593546 1.5731257e-39 309 226
-0.011852534 0.676 0.016593546 1.5727726e-39 310 226
-0.01066728 0.676 0.016593546 1.5727726e-39 311 226
-0.0094820261 0.676 0.016593546 1.5724124e-39 312 226
-0.0082967728 0.676 0.016593546 3.9691387e-39 313 226
-0.0071115191 0.676 0.016593546 5.2623956e-39 314 226
-0.0059174998 0.67500001 0.016569 5.2623956e-39 315 226
-0.0047339997 0.67500001 0.016569 4.6155801e-39 316 226
-0.0035505001 0.67500001 0.016569 3.6939839e-39 317 226
-0.0023669999 0.67500001 0.016569 3.7861767e-39 318 226
-0.0011834999 0.67500001 0.016569 4.1549592e-39 319 226
0 0.67500001 0.016569 5.2598649e-39 320 226
0.0011834999 0.67500001 0.016569 5.6282873e-39 321 226
0.0023669999 0.67500001 0.016569 6.0888941e-39 322 226
0.0035557596 0.676 0.016593546 6.5498708e-39 323 226
0.0047410131 0.676 0.016593546 6.7346194e-39 324 226
0.0059437994 0.67799997 0.016642639 6.4576724e-39 325 226
0.0071325595 0.67799997 0.016642639 5.2587663e-39 326 226
0.0083213197 0.67799997 0.016642639 3.7836362e-39 327 226
0.009524107 0.67900002 0.016667187 3.4105545e-39 328 226
0.010714619 0.67900002 0.016667187 4.0559239e-39 329 226
0.011922667 0.68000001 0.016691733 4.0552176e-39 330 226
0.013153506 0.68199998 0.016740825 4.2399676e-39 331 226
0.01434928 0.68199998 0.016740825 5.2609467e-39 332 226
0.015545053 0.68199998 0.016740825 5.9985117e-39 333 226
0.016765373 0.68300003 0.016765373 7.2870841e-39 334 226
0.017962901 0.68300003 0.016765373 7.4718341e-39 335 226
0.01918848 0.68400002 0.016789921 7.9320864e-39 336 226
0.020387759 0.68400002 0.016789921 7.0101301e-39 337 226
0.02158704 0.68400002 0.016789921 6.0874451e-39 338 226
0.022852944 0.68599999 0.016839013 4.2438913e-39 339 226
0.024090799 0.68699998 0.01686356 4.148823e-39 340 226
-0.032522578 0.68699998 0.015659019 1.3847673e-39 293 227
-0.031318039 0.68699998 0.015659019 2.1234128e-39 294 227
-0.030069664 0.68599999 0.015636226 1.7546289e-39 295 227
-0.02886688 0.68599999 0.015636226 1.8461056e-39 296 227
-0.027664091 0.68599999 0.015636226 1.6613556e-39 297 227
-0.02638416 0.68400002 0.01559064 1.6613584e-39 298 227
-0.02514806 0.68300003 0.015567848 1.6613584e-39 299 227
-0.023950534 0.68300003 0.015567848 2.3052817e-39 300 227
-0.022719691 0.68199998 0.015545053 2.3974773e-39 301 227
-0.021523919 0.68199998 0.015545053 5.5357231e-39 302 227
-0.020328145 0.68199998 0.015545053 8.4859818e-39 303 227
-0.019076265 0.68000001 0.015499466 2.9639663e-39 304 227
-0.017857701 0.67900002 0.015476674 2.9639663e-39 305 227
-0.016642639 0.67799997 0.015453878 7.8445795e-39 306 227
-0.015453878 0.67799997 0.015453878 5.0783505e-39 307 227
-0.014223038 0.676 0.015408293 9.9427731e-41 308 227
-0.013037786 0.676 0.015408293 1.1132195e-39 309 227
-0.011852534 0.676 0.015408293 1.7564379e-39 310 227
-0.01066728 0.676 0.015408293 1.7564379e-39 311 227
-0.0094820261 0.676 0.015408293 2.2159798e-39 312 227
-0.0082967728 0.676 0.015408293 4.0598924e-39 313 227
-0.0071115191 0.676 0.015408293 5.8151995e-39 314 227
-0.0059262668 0.676 0.015408293 8.1200902e-39 315 227
-0.0047410131 0.676 0.015408293 8.3026668e-39 316 227
-0.0035505001 0.67500001 0.0153855 8.2104711e-39 317 227
-0.0023669999 0.67500001 0.0153855 8.2104683e-39 318 227
-0.0011834999 0.67500001 0.0153855 7.842046e-39 319 227
0 0.67500001 0.0153855 6.1886329e-39 320 227
0.0011834999 0.67500001 0.0153855 6.557414e-39 321 227
0.0023669999 0.67500001 0.0153855 6.7392857e-39 322 227
0.0035557596 0.676 0.015408293 6.7392857e-39 323 227
0.0047410131 0.676 0.015408293 6.646374e-39 324 227
0.0059437994 0.67799997 0.015453878 5.8162532e-39 325 227
0.0071325595 0.67799997 0.015453878 5.9938118e-39 326 227
0.0083213197 0.67799997 0.015453878 4.8874628e-39 327 227
0.009524107 0.67900002 0.015476674 5.071138e-39 328 227
0.0107304 0.68000001 0.015499466 5.071138e-39 329 227
0.011957732 0.68199998 0.015545053 4.7967119e-39 330 227
0.013153506 0.68199998 0.015545053 5.0733002e-39 331 227
0.014370319 0.68300003 0.015567848 5.9019847e-39 332 227
0.015567848 0.68300003 0.015567848 7.1927235e-39 333 227
0.016789921 0.68400002 0.01559064 7.4696663e-39 334 227
0.0179892 0.68400002 0.01559064 7.8380901e-39 335 227
0.019244585 0.68599999 0.015636226 7.562585e-39 336 227
0.020447372 0.68599999 0.015636226 6.6402686e-39 337 227
0.021650158 0.68599999 0.015636226 6.2693281e-39 338 227
0.022886258 0.68699998 0.015659019 5.254816e-39 339 227
0.024125867 0.68800002 0.015681813 4.1484726e-39 340 227
-0.034931656 0.68699998 0.014454478 7.3796329e-39 291 228
-0.033727121 0.68699998 0.014454478 2.306725e-39 292 228
-0.032522578 0.68699998 0.014454478 1.1085406e-39 293 228
-0.031318039 0.68699998 0.014454478 2.214528e-39 294 228
-0.030113498 0.68699998 0.014454478 1.8461056e-39 295 228
-0.02886688 0.68599999 0.01443344 1.75391e-39 296 228
-0.027664091 0.68599999 0.01443344 1.75391e-39 297 228
-0.02638416 0.68400002 0.01439136 1.478765e-39 298 228
-0.025184879 0.68400002 0.01439136 1.478765e-39 299 228
-0.023950534 0.68300003 0.014370319 1.2954528e-39 300 228
-0.022753006 0.68300003 0.014370319 6.5008338e-40 301 228
-0.021523919 0.68199998 0.01434928 2.7738227e-39 302 228
-0.020328145 0.68199998 0.01434928 6.6456804e-39 303 228
-0.019132372 0.68199998 0.01434928 6.8314996e-39 304 228
-0.017883999 0.68000001 0.014307199 6.9236952e-39 305 228
-0.016667187 0.67900002 0.01428616 9.9618294e-39 306 228
-0.015476674 0.67900002 0.01428616 7.5651017e-39 307 228
-0.014265119 0.67799997 0.014265119 3.9648044e-39 308 228
-0.013076359 0.67799997 0.014265119 2.58187e-39 309 228
-0.011887599 0.67799997 0.014265119 2.3063747e-39 310 228
-0.010698839 0.67799997 0.014265119 2.3063747e-39 311 228
-0.0095100794 0.67799997 0.014265119 1.2068669e-39 312 228
-0.0083213197 0.67799997 0.014265119 3.1429751e-39 313 228
-0.0071325595 0.67799997 0.014265119 5.4474931e-39 314 228
-0.0059437994 0.67799997 0.014265119 7.3836014e-39 315 228
-0.0047410131 0.676 0.014223038 7.8427592e-39 316 228
-0.0035557596 0.676 0.014223038 7.658368e-39 317 228
-0.0023705065 0.676 0.014223038 7.5665213e-39 318 228
-0.0011852533 0.676 0.014223038 7.1980989e-39 319 228
0 0.676 0.014223038 7.0144307e-39 320 228
0.0011852533 0.676 0.014223038 6.922235e-39 321 228
0.0023705065 0.676 0.014223038 7.1977457e-39 322 228
0.0035557596 0.676 0.014223038 7.2899414e-39 323 228
0.0047410131 0.676 0.014223038 7.1055501e-39 324 228
0.0059437994 0.67799997 0.014265119 6.4601807e-39 325 228
0.0071325595 0.67799997 0.014265119 6.3643949e-39 326 228
0.0083335936 0.67900002 0.01428616 4.3357324e-39 327 228
0.009524107 0.67900002 0.01428616 4.0598713e-39 328 228
0.0107304 0.68000001 0.014307199 4.2439025e-39 329 228
0.011957732 0.68199998 0.01434928 4.2449871e-39 330 228
0.013153506 0.68199998 0.01434928 4.3371827e-39 331 228
0.014370319 0.68300003 0.014370319 5.2587831e-39 332 228
0.015567848 0.68300003 0.014370319 6.5495205e-39 333 228
0.016789921 0.68400002 0.01439136 6.8275367e-39 334 228
0.0179892 0.68400002 0.01439136 7.1963206e-39 335 228
0.019244585 0.68599999 0.01443344 8.0228401e-39 336 228
0.020477179 0.68699998 0.014454478 7.285275e-39 337 228
0.021681719 0.68699998 0.014454478 6.3633117e-39 338 228
0.022886258 0.68699998 0.014454478 4.6115962e-39 339 228
0.024125867 0.68800002 0.014475521 4.3321352e-39 340 228
-0.034931656 0.68699998 0.013249939 7.1037719e-39 291 229
-0.033727121 0.68699998 0.013249939 2.3085285e-39 292 229
-0.032522578 0.68699998 0.013249939 1.3862135e-39 293 229
