# .PCD v.7 - Point Cloud Data file format
FIELDS x y z rgb imX imY
SIZE 4 4 4 4 4 4
TYPE F F F F F F
COUNT 1 1 1 1 1 1
WIDTH 860
HEIGHT 1
VIEWPOINT 0 0 0 1 0 0 0
POINTS 860
DATA ascii
0.010714619 0.67900002 0.044048995 4.8024895e-39 329 203
0.011905133 0.67900002 0.044048995 5.0790806e-39 330 203
0.013114933 0.68000001 0.044113863 5.355666e-39 331 203
-0.040537067 0.68000001 0.042921599 5.7363428e-39 286 204
-0.039286941 0.67900002 0.042858478 8.3178204e-39 287 204
-0.038040318 0.67799997 0.042795356 9.5999286e-39 288 204
-0.036851559 0.67799997 0.042795356 8.4935797e-39 289 204
-0.035557602 0.676 0.042669121 6.7422299e-39 290 204
-0.034372345 0.676 0.042669121 5.5436867e-39 291 204
-0.033187091 0.676 0.042669121 4.7124897e-39 292 204
-0.031954501 0.67500001 0.042606 4.7124897e-39 293 204
-0.030725412 0.67400002 0.042542879 3.795941e-39 294 204
-0.029455997 0.67199999 0.042416636 5.0866798e-39 295 204
-0.02827776 0.67199999 0.042416636 6.5603679e-39 296 204
-0.027099518 0.67199999 0.042416636 6.6525636e-39 297 204
-0.025921278 0.67199999 0.042416636 5.1817467e-39 298 204
-0.024743039 0.67199999 0.042416636 4.2594317e-39 299 204
-0.023564799 0.67199999 0.042416636 4.2565506e-39 300 204
-0.022353247 0.671 0.042353518 3.7952123e-39 301 204
-0.021176759 0.671 0.042353518 4.2543856e-39 302 204
-0.020000271 0.671 0.042353518 4.2543856e-39 303 204
-0.018823786 0.671 0.042353518 4.2547457e-39 304 204
-0.017673599 0.67199999 0.042416636 4.2547457e-39 305 204
-0.01411784 0.671 0.042353518 3.239505e-39 308 204
-0.012941353 0.671 0.042353518 2.6863326e-39 309 204
-0.011764866 0.671 0.042353518 2.4997735e-39 310 204
-0.0105726 0.67000002 0.042290401 2.3153809e-39 311 204
-0.0093978662 0.67000002 0.042290401 3.0504292e-39 312 204
-0.0082231332 0.67000002 0.042290401 3.3266559e-39 313 204
-0.0070483997 0.67000002 0.042290401 4.3375681e-39 314 204
-0.0058736666 0.67000002 0.042290401 4.3375681e-39 315 204
-0.0047059464 0.671 0.042353518 4.2468046e-39 316 204
-0.0035294599 0.671 0.042353518 4.2468046e-39 317 204
-0.0023529732 0.671 0.042353518 3.9723785e-39 318 204
-0.0011782399 0.67199999 0.042416636 3.9723785e-39 319 204
0 0.67199999 0.042416636 4.2489682e-39 320 204
0.0011782399 0.67199999 0.042416636 4.2489682e-39 321 204
0.0023634934 0.67400002 0.042542879 3.9734575e-39 322 204
0.00354524 0.67400002 0.042542879 4.0656531e-39 323 204
0.0047339997 0.67500001 0.042606 3.9745295e-39 324 204
0.0059262668 0.676 0.042669121 3.9745295e-39 325 204
0.0071325595 0.67799997 0.042795356 4.2500388e-39 326 204
0.0083213197 0.67799997 0.042795356 4.3422344e-39 327 204
0.009524107 0.67900002 0.042858478 4.4347859e-39 328 204
0.010714619 0.67900002 0.042858478 4.5269816e-39 329 204
0.011922667 0.68000001 0.042921599 5.1705531e-39 330 204
0.013114933 0.68000001 0.042921599 5.44714e-39 331 204
0.014370319 0.68300003 0.043110959 4.1603669e-39 332 204
0.01559064 0.68400002 0.043174081 4.9901261e-39 333 204
-0.040537067 0.68000001 0.041729335 6.6543502e-39 286 205
-0.039286941 0.67900002 0.041667968 8.498623e-39 287 205
-0.038040318 0.67799997 0.041606598 7.2075338e-39 288 205
-0.036851559 0.67799997 0.041606598 4.2569135e-39 289 205
-0.0356628 0.67799997 0.041606598 5.0837861e-39 290 205
-0.034372345 0.676 0.041483864 5.2681788e-39 291 205
-0.033187091 0.676 0.041483864 4.8954306e-39 292 205
-0.031954501 0.67500001 0.041422497 4.2500612e-39 293 205
-0.030725412 0.67400002 0.041361131 2.8736161e-39 294 205
-0.029543666 0.67400002 0.041361131 3.3342342e-39 295 205
-0.02827776 0.67199999 0.041238401 4.0718062e-39 296 205
-0.027059194 0.671 0.041177034 4.5324242e-39 297 205
-0.025882706 0.671 0.041177034 4.6242541e-39 298 205
-0.024743039 0.67199999 0.041238401 4.2554716e-39 299 205
-0.023564799 0.67199999 0.041238401 3.8866919e-39 300 205
-0.022386558 0.67199999 0.041238401 3.7019419e-39 301 205
-0.021176759 0.671 0.041177034 3.610828e-39 302 205
-0.020000271 0.671 0.041177034 3.8870548e-39 303 205
-0.018823786 0.671 0.041177034 3.9796064e-39 304 205
-0.0176473 0.671 0.041177034 3.9796064e-39 305 205
-0.016470812 0.671 0.041177034 4.2554688e-39 306 205
-0.015294326 0.671 0.041177034 3.887045e-39 307 205
-0.01411784 0.671 0.041177034 3.9767183e-39 308 205
-0.012941353 0.671 0.041177034 3.5157387e-39 309 205
-0.011764866 0.671 0.041177034 3.0543948e-39 310 205
-0.0105726 0.67000002 0.041115668 2.8696449e-39 311 205
-0.0093978662 0.67000002 0.041115668 3.3281021e-39 312 205
-0.0082231332 0.67000002 0.041115668 3.3281021e-39 313 205
-0.0070483997 0.67000002 0.041115668 3.7876383e-39 314 205
-0.0058736666 0.67000002 0.041115668 3.9720281e-39 315 205
-0.0047059464 0.671 0.041177034 3.6054008e-39 316 205
-0.0035294599 0.671 0.041177034 3.6975964e-39 317 205
-0.0023529732 0.671 0.041177034 3.8809087e-39 318 205
-0.0011782399 0.67199999 0.041238401 3.8809087e-39 319 205
0 0.67199999 0.041238401 3.9741791e-39 320 205
0.0011817467 0.67400002 0.041361131 3.8816248e-39 321 205
0.0023634934 0.67400002 0.041361131 3.7908613e-39 322 205
0.00354524 0.67400002 0.041361131 3.8830583e-39 323 205
0.0047339997 0.67500001 0.041422497 3.7915815e-39 324 205
0.0059262668 0.676 0.041483864 3.6993845e-39 325 205
0.0071325595 0.67799997 0.041606598 4.066009e-39 326 205
0.0083213197 0.67799997 0.041606598 4.3422372e-39 327 205
0.009524107 0.67900002 0.041667968 4.618101e-39 328 205
0.010714619 0.67900002 0.041667968 4.7102966e-39 329 205
0.011922667 0.68000001 0.041729335 5.077647e-39 330 205
0.013114933 0.68000001 0.041729335 5.2623984e-39 331 205
0.014370319 0.68300003 0.041913435 4.8947019e-39 332 205
0.015567848 0.68300003 0.041913435 4.8947019e-39 333 205
-0.040537067 0.68000001 0.040537067 1.3559672e-38 286 206
-0.039286941 0.67900002 0.040477451 1.4942965e-38 287 206
-0.038040318 0.67799997 0.040417835 8.7719813e-39 288 206
-0.036851559 0.67799997 0.040417835 4.0700041e-39 289 206
-0.0356628 0.67799997 0.040417835 5.5429678e-39 290 206
-0.034372345 0.676 0.040298611 5.4507722e-39 291 206
-0.033187091 0.676 0.040298611 4.3433316e-39 292 206
-0.031954501 0.67500001 0.040238999 4.1589403e-39 293 206
-0.030725412 0.67400002 0.040179387 3.3313517e-39 294 206
-0.029543666 0.67400002 0.040179387 2.8700134e-39 295 206
-0.02827776 0.67199999 0.040060159 2.5037546e-39 296 206
-0.027059194 0.671 0.040000543 2.9647328e-39 297 206
-0.025882706 0.671 0.040000543 3.5143108e-39 298 206
-0.024743039 0.67199999 0.040060159 3.3299182e-39 299 206
-0.023564799 0.67199999 0.040060159 3.4239159e-39 300 206
-0.022353247 0.671 0.040000543 3.4239159e-39 301 206
-0.021176759 0.671 0.040000543 3.792341e-39 302 206
-0.020000271 0.671 0.040000543 3.9767337e-39 303 206
-0.018823786 0.671 0.040000543 4.1614809e-39 304 206
-0.017620999 0.67000002 0.039940935 4.4377076e-39 305 206
-0.016446266 0.67000002 0.039940935 4.2547485e-39 306 206
-0.015271533 0.67000002 0.039940935 4.1625529e-39 307 206
-0.014096799 0.67000002 0.039940935 3.7941277e-39 308 206
-0.012922067 0.67000002 0.039940935 3.424985e-39 309 206
-0.011747333 0.67000002 0.039940935 3.42282e-39 310 206
-0.0105726 0.67000002 0.039940935 3.0540389e-39 311 206
-0.0093978662 0.67000002 0.039940935 3.4206564e-39 312 206
-0.0082231332 0.67000002 0.039940935 3.4206564e-39 313 206
-0.0070483997 0.67000002 0.039940935 3.5135681e-39 314 206
-0.0058824331 0.671 0.040000543 3.5135681e-39 315 206
-0.0047059464 0.671 0.040000543 3.6057638e-39 316 206
-0.0035294599 0.671 0.040000543 3.6057638e-39 317 206
-0.0023529732 0.671 0.040000543 3.6979594e-39 318 206
-0.0011782399 0.67199999 0.040060159 3.6979594e-39 319 206
0 0.67199999 0.040060159 3.6979594e-39 320 206
0.0011817467 0.67400002 0.040179387 3.7905151e-39 321 206
0.0023634934 0.67400002 0.040179387 3.6990314e-39 322 206
0.00354524 0.67400002 0.040179387 3.7912284e-39 323 206
0.0047339997 0.67500001 0.040238999 3.8830611e-39 324 206
0.0059262668 0.676 0.040298611 3.8830611e-39 325 206
0.0071325595 0.67799997 0.040417835 4.3418813e-39 326 206
0.0083213197 0.67799997 0.040417835 4.3418813e-39 327 206
0.009524107 0.67900002 0.040477451 4.7099407e-39 328 206
0.010714619 0.67900002 0.040477451 4.7099407e-39 329 206
0.011922667 0.68000001 0.040537067 5.0780002e-39 330 206
0.013153506 0.68199998 0.040656291 5.2627515e-39 331 206
0.014370319 0.68300003 0.040715907 5.4449918e-39 332 206
0.015567848 0.68300003 0.040715907 5.2605992e-39 333 206
-0.040477451 0.67900002 0.039286941 1.6242685e-38 286 207
-0.039286941 0.67900002 0.039286941 1.5689519e-38 287 207
-0.038040318 0.67799997 0.039229076 7.8575906e-39 288 207
-0.036851559 0.67799997 0.039229076 1.1269508e-39 289 207
-0.0356628 0.67799997 0.039229076 4.0710859e-39 290 207
-0.034372345 0.676 0.039113361 4.3473141e-39 291 207
-0.033187091 0.676 0.039113361 3.8830765e-39 292 207
-0.031954501 0.67500001 0.039055496 3.514294e-39 293 207
-0.030725412 0.67400002 0.038997639 2.9625622e-39 294 207
-0.029543666 0.67400002 0.038997639 2.5019427e-39 295 207
-0.02827776 0.67199999 0.03888192 2.5948586e-39 296 207
-0.027059194 0.671 0.038824059 2.7792499e-39 297 207
-0.025882706 0.671 0.038824059 3.421748e-39 298 207
-0.024743039 0.67199999 0.03888192 3.421748e-39 299 207
-0.023564799 0.67199999 0.03888192 3.054776e-39 300 207
-0.022353247 0.671 0.038824059 3.2391687e-39 301 207
-0.021176759 0.671 0.038824059 2.9654614e-39 302 207
-0.020000271 0.671 0.038824059 3.4260809e-39 303 207
-0.018795732 0.67000002 0.038766202 3.6115469e-39 304 207
-0.017620999 0.67000002 0.038766202 3.7037425e-39 305 207
-0.016446266 0.67000002 0.038766202 3.7973675e-39 306 207
-0.015271533 0.67000002 0.038766202 3.7048117e-39 307 207
-0.014096799 0.67000002 0.038766202 3.9785119e-39 308 207
-0.012922067 0.67000002 0.038766202 3.5175338e-39 309 207
-0.011747333 0.67000002 0.038766202 3.4231732e-39 310 207
-0.0105726 0.67000002 0.038766202 3.054392e-39 311 207
-0.0093978662 0.67000002 0.038766202 2.9621964e-39 312 207
-0.0082354061 0.671 0.038824059 2.9621964e-39 313 207
-0.0070589199 0.671 0.038824059 3.054392e-39 314 207
-0.0058824331 0.671 0.038824059 3.2384232e-39 315 207
-0.0047059464 0.671 0.038824059 3.3302559e-39 316 207
-0.0035294599 0.671 0.038824059 3.4224515e-39 317 207
-0.0023529732 0.671 0.038824059 3.6979594e-39 318 207
-0.0011782399 0.67199999 0.03888192 3.6057638e-39 319 207
0 0.67199999 0.03888192 3.4231704e-39 320 207
0.0011782399 0.67199999 0.03888192 3.5153674e-39 321 207
0.0023634934 0.67400002 0.038997639 3.7001118e-39 322 207
0.00354524 0.67400002 0.038997639 3.7001118e-39 323 207
0.0047339997 0.67500001 0.039055496 3.7912284e-39 324 207
0.0059262668 0.676 0.039113361 3.883424e-39 325 207
0.0071325595 0.67799997 0.039229076 4.067095e-39 326 207
0.0083213197 0.67799997 0.039229076 4.1592907e-39 327 207
0.0095100794 0.67799997 0.039229076 4.3433162e-39 328 207
0.010714619 0.67900002 0.039286941 4.5273473e-39 329 207
0.011905133 0.67900002 0.039286941 4.7110197e-39 330 207
0.013114933 0.68000001 0.039344799 4.895411e-39 331 207
0.01434928 0.68199998 0.039460517 5.2623984e-39 332 207
0.015567848 0.68300003 0.039518382 4.7092246e-39 333 207
0.016765373 0.68300003 0.039518382 2.595911e-39 334 207
-0.040477451 0.67900002 0.038096428 1.6428508e-38 286 208
-0.039229076 0.67799997 0.038040318 1.5414013e-38 287 208
-0.038040318 0.67799997 0.038040318 8.7759637e-39 288 208
-0.036742851 0.676 0.037928104 1.492509e-39 289 208
-0.035557602 0.676 0.037928104 2.6906794e-39 290 208
-0.034372345 0.676 0.037928104 2.8754308e-39 291 208
-0.033137999 0.67500001 0.037871998 3.1473121e-39 292 208
-0.031954501 0.67500001 0.037871998 2.8703665e-39 293 208
-0.030725412 0.67400002 0.037815895 2.9618461e-39 294 208
-0.029543666 0.67400002 0.037815895 2.9618461e-39 295 208
-0.02827776 0.67199999 0.037703678 2.962565e-39 296 208
-0.027059194 0.671 0.037647571 3.1469562e-39 297 208
-0.025882706 0.671 0.037647571 3.2395078e-39 298 208
-0.024743039 0.67199999 0.037703678 3.2395078e-39 299 208
-0.023529733 0.671 0.037647571 3.1476779e-39 300 208
-0.022353247 0.671 0.037647571 3.3320705e-39 301 208
-0.021176759 0.671 0.037647571 3.2420385e-39 302 208
-0.019970467 0.67000002 0.037591465 3.5189855e-39 303 208
-0.018795732 0.67000002 0.037591465 3.5204275e-39 304 208
-0.017568398 0.66799998 0.037479252 3.7970144e-39 305 208
-0.016397171 0.66799998 0.037479252 3.6136993e-39 306 208
-0.015225946 0.66799998 0.037479252 3.6136993e-39 307 208
-0.014054719 0.66799998 0.037479252 3.7044488e-39 308 208
-0.012922067 0.67000002 0.037591465 3.151275e-39 309 208
-0.011747333 0.67000002 0.037591465 3.1476751e-39 310 208
-0.0105726 0.67000002 0.037591465 2.8714483e-39 311 208
-0.0093978662 0.67000002 0.037591465 2.9621992e-39 312 208
-0.0082231332 0.67000002 0.037591465 2.9621992e-39 313 208
-0.0070589199 0.671 0.037647571 3.2377043e-39 314 208
-0.0058824331 0.671 0.037647571 3.3298999e-39 315 208
-0.0047059464 0.671 0.037647571 3.4224543e-39 316 208
-0.0035294599 0.671 0.037647571 3.5146499e-39 317 208
-0.0023529732 0.671 0.037647571 3.514294e-39 318 208
-0.0011764866 0.671 0.037647571 3.6986853e-39 319 208
0 0.67199999 0.037703678 3.5150143e-39 320 208
0.0011782399 0.67199999 0.037703678 3.5150143e-39 321 208
0.0023564799 0.67199999 0.037703678 3.6075658e-39 322 208
0.00354524 0.67400002 0.037815895 3.6997615e-39 323 208
0.0047339997 0.67500001 0.037871998 3.8834296e-39 324 208
0.0059262668 0.676 0.037928104 3.8834296e-39 325 208
0.0071325595 0.67799997 0.038040318 3.8834268e-39 326 208
0.0083213197 0.67799997 0.038040318 3.9756225e-39 327 208
0.0095100794 0.67799997 0.038040318 4.3429631e-39 328 208
0.010714619 0.67900002 0.038096428 4.5269942e-39 329 208
0.011905133 0.67900002 0.038096428 4.7110225e-39 330 208
0.013114933 0.68000001 0.038152531 4.895055e-39 331 208
0.01434928 0.68199998 0.038264744 5.171279e-39 332 208
0.015545053 0.68199998 0.038264744 4.8946907e-39 333 208
0.016765373 0.68300003 0.038320854 1.6699904e-39 334 208
-0.040477451 0.67900002 0.036905911 1.2731412e-38 286 209
-0.039229076 0.67799997 0.036851559 1.1625427e-38 287 209
-0.038040318 0.67799997 0.036851559 6.0133417e-39 288 209
-0.036742851 0.676 0.036742851 2.1411252e-39 289 209
-0.035557602 0.676 0.036742851 3.8881408e-39 290 209
-0.034372345 0.676 0.036742851 3.7959438e-39 291 209
-0.033137999 0.67500001 0.036688499 3.9756407e-39 292 209
-0.03190716 0.67400002 0.036634147 2.5927062e-39 293 209
-0.030725412 0.67400002 0.036634147 1.2137375e-39 294 209
-0.029455997 0.67199999 0.036525436 1.5825214e-39 295 209
-0.02827776 0.67199999 0.036525436 2.5030329e-39 296 209
-0.027059194 0.671 0.036471087 2.9640097e-39 297 209
-0.025882706 0.671 0.036471087 3.2391518e-39 298 209
-0.024743039 0.67199999 0.036525436 3.2391518e-39 299 209
-0.023529733 0.671 0.036471087 3.2398749e-39 300 209
-0.022353247 0.671 0.036471087 3.4242662e-39 301 209
-0.021176759 0.671 0.036471087 2.8761329e-39 302 209
-0.019970467 0.67000002 0.036416732 3.2445567e-39 303 209
-0.018795732 0.67000002 0.036416732 3.0626891e-39 304 209
-0.017568398 0.66799998 0.036308024 3.339276e-39 305 209
-0.016397171 0.66799998 0.036308024 3.43075e-39 306 209
-0.015225946 0.66799998 0.036308024 3.43075e-39 307 209
-0.014054719 0.66799998 0.036308024 3.7966444e-39 308 209
-0.012883492 0.66799998 0.036308024 3.2434721e-39 309 209
-0.011747333 0.67000002 0.036416732 3.2398721e-39 310 209
-0.0105726 0.67000002 0.036416732 2.8714483e-39 311 209
-0.0093978662 0.67000002 0.036416732 2.8696477e-39 312 209
-0.0082231332 0.67000002 0.036416732 2.8696477e-39 313 209
-0.0070589199 0.671 0.036471087 3.2377071e-39 314 209
-0.0058824331 0.671 0.036471087 3.3299027e-39 315 209
-0.0047059464 0.671 0.036471087 3.2395022e-39 316 209
-0.0035294599 0.671 0.036471087 3.2395022e-39 317 209
-0.0023529732 0.671 0.036471087 3.239505e-39 318 209
-0.0011764866 0.671 0.036471087 3.331702e-39 319 209
0 0.67199999 0.036525436 3.6986853e-39 320 209
0.0011782399 0.67199999 0.036525436 3.7908809e-39 321 209
0.0023564799 0.67199999 0.036525436 3.6082847e-39 322 209
0.00354524 0.67400002 0.036634147 3.6082847e-39 323 209
0.0047339997 0.67500001 0.036688499 3.6997615e-39 324 209
0.0059262668 0.676 0.036742851 3.8837926e-39 325 209
0.0071325595 0.67799997 0.036851559 3.7001174e-39 326 209
0.0083213197 0.67799997 0.036851559 3.7001174e-39 327 209
0.009524107 0.67900002 0.036905911 4.1589347e-39 328 209
0.010714619 0.67900002 0.036905911 4.3436847e-39 329 209
0.011905133 0.67900002 0.036905911 4.6195485e-39 330 209
0.013114933 0.68000001 0.036960267 4.8039412e-39 331 209
0.01434928 0.68199998 0.037068974 4.9876038e-39 332 209
0.015545053 0.68199998 0.037068974 4.7113756e-39 333 209
-0.040477451 0.67900002 0.035715401 2.1307192e-39 286 210
-0.039229076 0.67799997 0.0356628 2.2229148e-39 287 210
-0.038040318 0.67799997 0.0356628 3.0045521e-40 288 210
-0.036742851 0.676 0.035557602 2.1440077e-39 289 210
-0.035557602 0.676 0.035557602 4.9022885e-39 290 210
-0.034372345 0.676 0.035557602 5.6398536e-39 291 210
-0.033137999 0.67500001 0.035505001 4.5331543e-39 292 210
-0.03190716 0.67400002 0.035452399 1.767284e-39 293 210
-0.030725412 0.67400002 0.035452399 2.0255769e-41 294 210
-0.029455997 0.67199999 0.035347197 1.9535502e-41 295 210
-0.028235679 0.671 0.0352946 2.2764094e-41 296 210
-0.027059194 0.671 0.0352946 7.6068927e-40 297 210
-0.025882706 0.671 0.0352946 3.6075812e-39 298 210
-0.024743039 0.67199999 0.035347197 3.6075812e-39 299 210
-0.023529733 0.671 0.0352946 3.4249878e-39 300 210
-0.022353247 0.671 0.0352946 3.6093791e-39 301 210
-0.021176759 0.671 0.0352946 2.7853806e-39 302 210
-0.019970467 0.67000002 0.035241999 3.2463573e-39 303 210
-0.018795732 0.67000002 0.035241999 3.0634122e-39 304 210
-0.017620999 0.67000002 0.035241999 3.2478035e-39 305 210
-0.016397171 0.66799998 0.035136797 3.340355e-39 306 210
-0.015225946 0.66799998 0.035136797 3.4325507e-39 307 210
-0.014054719 0.66799998 0.035136797 3.7973675e-39 308 210
-0.012883492 0.66799998 0.035136797 3.1519981e-39 309 210
-0.011712266 0.66799998 0.035136797 3.2398749e-39 310 210
-0.0105726 0.67000002 0.035241999 2.6867011e-39 311 210
-0.0093978662 0.67000002 0.035241999 2.6859795e-39 312 210
-0.0082231332 0.67000002 0.035241999 2.6859795e-39 313 210
-0.0070589199 0.671 0.0352946 3.054392e-39 314 210
-0.0058824331 0.671 0.0352946 3.2384232e-39 315 210
-0.0047059464 0.671 0.0352946 3.1483813e-39 316 210
-0.0035294599 0.671 0.0352946 3.2405784e-39 317 210
-0.0023529732 0.671 0.0352946 3.3324209e-39 318 210
-0.0011764866 0.671 0.0352946 3.3324209e-39 319 210
0 0.67199999 0.035347197 3.3324209e-39 320 210
0.0011782399 0.67199999 0.035347197 3.4246165e-39 321 210
0.0023564799 0.67199999 0.035347197 3.4246165e-39 322 210
0.00354524 0.67400002 0.035452399 3.4246165e-39 323 210
0.0047339997 0.67500001 0.035505001 3.6082875e-39 324 210
0.0059262668 0.676 0.035557602 3.7004831e-39 325 210
0.0071325595 0.67799997 0.0356628 3.6082847e-39 326 210
0.0083213197 0.67799997 0.0356628 3.6082847e-39 327 210
0.009524107 0.67900002 0.035715401 3.8837926e-39 328 210
0.010714619 0.67900002 0.035715401 3.9759882e-39 329 210
0.011905133 0.67900002 0.035715401 4.3440477e-39 330 210
0.013114933 0.68000001 0.035767999 4.4366034e-39 331 210
0.01434928 0.68199998 0.035873197 4.6188297e-39 332 210
0.015545053 0.68199998 0.035873197 4.2496884e-39 333 210
-0.040477451 0.67900002 0.034524884 1.9421436e-40 286 211
-0.039229076 0.67799997 0.034474038 4.7115998e-40 287 211
-0.038040318 0.67799997 0.034474038 1.5586643e-41 288 211
-0.036742851 0.676 0.034372345 1.3985211e-39 289 211
-0.035557602 0.676 0.034372345 2.6024551e-39 290 211
-0.034321502 0.67500001 0.034321502 3.8006395e-39 291 211
-0.033137999 0.67500001 0.034321502 4.6332771e-39 292 211
-0.03190716 0.67400002 0.034270655 5.4630377e-39 293 211
-0.030634239 0.67199999 0.034168959 6.5765726e-39 294 211
-0.029412165 0.671 0.034118112 4.73266e-39 295 211
-0.028235679 0.671 0.034118112 2.6092738e-39 296 211
-0.027059194 0.671 0.034118112 7.653612e-40 297 211
-0.025882706 0.671 0.034118112 2.7835841e-39 298 211
-0.024743039 0.67199999 0.034168959 2.7835841e-39 299 211
-0.023529733 0.671 0.034118112 3.4260696e-39 300 211
-0.022353247 0.671 0.034118112 3.7022978e-39 301 211
-0.021176759 0.671 0.034118112 2.9704963e-39 302 211
-0.019970467 0.67000002 0.034067266 3.3389201e-39 303 211
-0.018795732 0.67000002 0.034067266 2.9730172e-39 304 211
-0.017620999 0.67000002 0.034067266 3.0652129e-39 305 211
-0.016397171 0.66799998 0.033965573 3.1581274e-39 306 211
-0.015225946 0.66799998 0.033965573 3.0659317e-39 307 211
-0.014054719 0.66799998 0.033965573 3.5229484e-39 308 211
-0.012883492 0.66799998 0.033965573 2.877579e-39 309 211
-0.011712266 0.66799998 0.033965573 3.1484052e-39 310 211
-0.0105726 0.67000002 0.034067266 2.6870669e-39 311 211
-0.0093978662 0.67000002 0.034067266 2.7770975e-39 312 211
-0.0082231332 0.67000002 0.034067266 2.8692945e-39 313 211
-0.0070589199 0.671 0.034118112 2.9621964e-39 314 211
-0.0058824331 0.671 0.034118112 3.3306188e-39 315 211
-0.0047059464 0.671 0.034118112 2.7814009e-39 316 211
-0.0035294599 0.671 0.034118112 3.057629e-39 317 211
-0.0023529732 0.671 0.034118112 3.1491058e-39 318 211
-0.0011764866 0.671 0.034118112 3.3334957e-39 319 211
0 0.67199999 0.034168959 3.1498275e-39 320 211
0.0011782399 0.67199999 0.034168959 3.1498275e-39 321 211
0.0023564799 0.67199999 0.034168959 3.3331425e-39 322 211
0.00354524 0.67400002 0.034270655 3.4253382e-39 323 211
0.0047339997 0.67500001 0.034321502 3.5168149e-39 324 211
0.0059262668 0.676 0.034372345 3.5168149e-39 325 211
0.0071325595 0.67799997 0.034474038 3.4246165e-39 326 211
0.0083213197 0.67799997 0.034474038 3.5171709e-39 327 211
0.0095100794 0.67799997 0.034474038 3.8837926e-39 328 211
0.010714619 0.67900002 0.034524884 3.6997615e-39 329 211
0.011905133 0.67900002 0.034524884 4.0678181e-39 330 211
0.013095647 0.67900002 0.034524884 3.8834268e-39 331 211
0.014307199 0.68000001 0.034575731 3.1444157e-39 332 211
0.015545053 0.68199998 0.034677424 2.9600258e-39 333 211
-0.040477451 0.67900002 0.033334374 1.2047173e-39 286 212
-0.039229076 0.67799997 0.033285279 1.38911e-39 287 212
-0.038040318 0.67799997 0.033285279 9.3103391e-40 288 212
-0.036742851 0.676 0.033187091 1.2079809e-39 289 212
-0.035557602 0.676 0.033187091 3.8832923e-40 290 212
-0.034321502 0.67500001 0.033137999 1.9560137e-39 291 212
-0.033137999 0.67500001 0.033137999 4.1741164e-39 292 212
-0.03190716 0.67400002 0.033088908 9.3370717e-39 293 212
-0.030634239 0.67199999 0.03299072 1.4123293e-38 294 212
-0.029412165 0.671 0.032941625 1.3017321e-38 295 212
-0.028235679 0.671 0.032941625 8.2270933e-39 296 212
-0.027059194 0.671 0.032941625 4.4467124e-39 297 212
-0.025882706 0.671 0.032941625 2.3269262e-39 298 212
-0.024743039 0.67199999 0.03299072 1.4049685e-39 299 212
-0.023529733 0.671 0.032941625 3.6115497e-39 300 212
-0.022353247 0.671 0.032941625 3.7037453e-39 301 212
-0.0211452 0.67000002 0.032892533 3.0634122e-39 302 212
-0.019970467 0.67000002 0.032892533 3.3399991e-39 303 212
-0.018795732 0.67000002 0.032892533 3.6165846e-39 304 212
-0.017620999 0.67000002 0.032892533 3.7087816e-39 305 212
-0.016397171 0.66799998 0.032794341 3.5261882e-39 306 212
-0.015225946 0.66799998 0.032794341 3.4339926e-39 307 212
-0.014054719 0.66799998 0.032794341 3.8910107e-39 308 212
-0.012883492 0.66799998 0.032794341 3.2456413e-39 309 212
-0.011712266 0.66799998 0.032794341 3.3317174e-39 310 212
-0.0105726 0.67000002 0.032892533 2.686348e-39 311 212
-0.0093978662 0.67000002 0.032892533 2.5015896e-39 312 212
-0.0082231332 0.67000002 0.032892533 2.5937852e-39 313 212
-0.0070589199 0.671 0.032941625 2.6870543e-39 314 212
-0.0058824331 0.671 0.032941625 2.8714455e-39 315 212
-0.0047059464 0.671 0.032941625 2.8721644e-39 316 212
-0.0035294599 0.671 0.032941625 3.0565571e-39 317 212
-0.0023529732 0.671 0.032941625 3.240228e-39 318 212
-0.0011764866 0.671 0.032941625 3.3324237e-39 319 212
0 0.67199999 0.03299072 3.1498303e-39 320 212
0.0011782399 0.67199999 0.03299072 3.1498303e-39 321 212
0.0023564799 0.67199999 0.03299072 3.425341e-39 322 212
0.00354524 0.67400002 0.033088908 3.425341e-39 323 212
0.0047339997 0.67500001 0.033137999 3.425341e-39 324 212
0.0059262668 0.676 0.033187091 3.3327866e-39 325 212
0.0071115191 0.676 0.033187091 3.5157359e-39 326 212
0.0083213197 0.67799997 0.033285279 3.5157359e-39 327 212
0.0095100794 0.67799997 0.033285279 3.5157331e-39 328 212
0.010714619 0.67900002 0.033334374 3.239505e-39 329 212
0.011905133 0.67900002 0.033334374 3.5135653e-39 330 212
0.013095647 0.67900002 0.033334374 3.2373386e-39 331 212
0.014307199 0.68000001 0.033383466 3.141543e-39 332 212
-0.040477451 0.67900002 0.032143861 3.1346921e-39 286 213
-0.039229076 0.67799997 0.03209652 3.1346921e-39 287 213
-0.038040318 0.67799997 0.03209652 2.6762489e-39 288 213
-0.036742851 0.676 0.032001842 2.7684445e-39 289 213
-0.035557602 0.676 0.032001842 1.9708422e-40 290 213
-0.034321502 0.67500001 0.031954501 4.7403124e-40 291 213
-0.033137999 0.67500001 0.031954501 2.2804731e-41 292 213
-0.03190716 0.67400002 0.03190716 3.3472494e-39 293 213
-0.030634239 0.67199999 0.031812478 6.6792359e-39 294 213
-0.029412165 0.671 0.031765141 8.1543449e-39 295 213
-0.028235679 0.671 0.031765141 1.2924051e-38 296 213
-0.027059194 0.671 0.031765141 1.0250381e-38 297 213
-0.025882706 0.671 0.031765141 5.7345856e-39 298 213
-0.024706218 0.671 0.031765141 1.3091967e-39 299 213
-0.023529733 0.671 0.031765141 2.7825247e-39 300 213
-0.022353247 0.671 0.031765141 3.9810679e-39 301 213
-0.0211452 0.67000002 0.0317178 3.2485279e-39 302 213
-0.019970467 0.67000002 0.0317178 3.4329192e-39 303 213
-0.018795732 0.67000002 0.0317178 3.2499713e-39 304 213
-0.017620999 0.67000002 0.0317178 3.4347213e-39 305 213
-0.016397171 0.66799998 0.031623118 3.6180335e-39 306 213
-0.015225946 0.66799998 0.031623118 3.6180335e-39 307 213
-0.014054719 0.66799998 0.031623118 3.7991808e-39 308 213
-0.012883492 0.66799998 0.031623118 2.7850303e-39 309 213
-0.011712266 0.66799998 0.031623118 2.6867137e-39 310 213
-0.0105726 0.67000002 0.0317178 2.410487e-39 311 213
-0.0093978662 0.67000002 0.0317178 2.6849019e-39 312 213
-0.0082231332 0.67000002 0.0317178 2.5927062e-39 313 213
-0.0070589199 0.671 0.031765141 2.8696477e-39 314 213
-0.0058824331 0.671 0.031765141 3.0540389e-39 315 213
-0.0046989331 0.67000002 0.0317178 3.1476723e-39 316 213
-0.0035241998 0.67000002 0.0317178 3.240228e-39 317 213
-0.0023529732 0.671 0.031765141 3.3317048e-39 318 213
-0.0011764866 0.671 0.031765141 3.3317048e-39 319 213
0 0.671 0.031765141 3.5150199e-39 320 213
0.0011782399 0.67199999 0.031812478 3.6994111e-39 321 213
0.0023564799 0.67199999 0.031812478 3.3327894e-39 322 213
0.00353472 0.67199999 0.031812478 3.3327894e-39 323 213
0.0047269869 0.67400002 0.03190716 3.4246221e-39 324 213
0.0059174998 0.67500001 0.031954501 3.4246221e-39 325 213
0.0071115191 0.676 0.032001842 3.6986853e-39 326 213
0.0083213197 0.67799997 0.03209652 3.514294e-39 327 213
0.0095100794 0.67799997 0.03209652 3.5128493e-39 328 213
0.010698839 0.67799997 0.03209652 3.328458e-39 329 213
0.011905133 0.67900002 0.032143861 3.6921958e-39 330 213
0.013095647 0.67900002 0.032143861 3.4159677e-39 331 213
-0.041729335 0.68000001 0.030998932 1.7546289e-39 285 214
-0.040477451 0.67900002 0.030953348 3.686068e-39 286 214
-0.039229076 0.67799997 0.030907756 3.2250898e-39 287 214
-0.038040318 0.67799997 0.030907756 2.3085411e-39 288 214
-0.036742851 0.676 0.030816587 2.3085411e-39 289 214
-0.035557602 0.676 0.030816587 1.3898471e-39 290 214
-0.034372345 0.676 0.030816587 9.288689e-40 291 214
-0.033137999 0.67500001 0.030771 1.1281854e-41 292 214
-0.03190716 0.67400002 0.030725412 7.531671e-40 293 214
-0.030634239 0.67199999 0.030634239 1.5987877e-39 294 214
-0.029412165 0.671 0.030588651 5.3791686e-39 295 214
-0.028235679 0.671 0.030588651 1.3104135e-38 296 214
-0.027059194 0.671 0.030588651 1.1536819e-38 297 214
-0.025882706 0.671 0.030588651 6.5636274e-39 298 214
-0.024706218 0.671 0.030588651 2.0460429e-39 299 214
-0.023529733 0.671 0.030588651 3.1498723e-39 300 214
-0.022353247 0.671 0.030588651 4.2558597e-39 301 214
-0.0211452 0.67000002 0.030543067 3.2496069e-39 302 214
-0.019970467 0.67000002 0.030543067 3.6180307e-39 303 214
-0.018795732 0.67000002 0.030543067 3.9860902e-39 304 214
-0.017620999 0.67000002 0.030543067 4.0782858e-39 305 214
-0.016397171 0.66799998 0.030451892 4.1704856e-39 306 214
-0.015225946 0.66799998 0.030451892 4.1704856e-39 307 214
-0.014054719 0.66799998 0.030451892 3.8002612e-39 308 214
-0.012883492 0.66799998 0.030451892 2.5095224e-39 309 214
-0.011712266 0.66799998 0.030451892 2.5037574e-39 310 214
-0.0105726 0.67000002 0.030543067 1.858388e-39 311 214
-0.0093978662 0.67000002 0.030543067 2.4072374e-39 312 214
-0.0082231332 0.67000002 0.030543067 2.5919874e-39 313 214
-0.0070589199 0.671 0.030588651 2.2267978e-39 314 214
-0.0058824331 0.671 0.030588651 2.6874172e-39 315 214
-0.0046989331 0.67000002 0.030543067 2.7799716e-39 316 214
-0.0035241998 0.67000002 0.030543067 2.9643628e-39 317 214
-0.0023529732 0.671 0.030588651 3.2391518e-39 318 214
-0.0011764866 0.671 0.030588651 3.2391518e-39 319 214
0 0.671 0.030588651 3.1476751e-39 320 214
0.0011764866 0.671 0.030588651 3.2398721e-39 321 214
0.0023529732 0.671 0.030588651 3.3320705e-39 322 214
0.00353472 0.67199999 0.030634239 3.2398749e-39 323 214
0.0047129598 0.67199999 0.030634239 3.146959e-39 324 214
0.0059174998 0.67500001 0.030771 2.8700134e-39 325 214
0.0071115191 0.676 0.030816587 2.7774506e-39 326 214
0.0082967728 0.676 0.030816587 2.5930594e-39 327 214
0.0094820261 0.676 0.030816587 3.050076e-39 328 214
0.010698839 0.67799997 0.030907756 2.773129e-39 329 214
-0.041729335 0.68000001 0.029806666 1.2961688e-39 285 215
-0.040477451 0.67900002 0.029762832 3.4101873e-39 286 215
-0.039286941 0.67900002 0.029762832 3.3179917e-39 287 215
-0.038096428 0.67900002 0.029762832 2.4921939e-39 288 215
-0.036851559 0.67799997 0.029718997 2.4921939e-39 289 215
-0.035557602 0.676 0.029631332 2.2163427e-39 290 215
-0.034372345 0.676 0.029631332 2.4010941e-39 291 215
-0.033137999 0.67500001 0.0295875 8.3956976e-40 292 215
-0.03190716 0.67400002 0.029543666 9.8090893e-42 293 215
-0.030725412 0.67400002 0.029543666 6.9742625e-42 294 215
-0.029412165 0.671 0.029412165 1.2120013e-39 295 215
-0.028235679 0.671 0.029412165 3.0656207e-39 296 215
-0.027059194 0.671 0.029412165 3.2500119e-39 297 215
-0.025882706 0.671 0.029412165 2.6020991e-39 298 215
-0.024706218 0.671 0.029412165 1.680503e-39 299 215
-0.023529733 0.671 0.029412165 3.8856325e-39 300 215
-0.022353247 0.671 0.029412165 5.1763713e-39 301 215
-0.0211452 0.67000002 0.029368332 3.4347213e-39 302 215
-0.019970467 0.67000002 0.029368332 3.8031437e-39 303 215
-0.018795732 0.67000002 0.029368332 4.1712073e-39 304 215
-0.017620999 0.67000002 0.029368332 4.3555986e-39 305 215
-0.016446266 0.67000002 0.029368332 4.541066e-39 306 215
-0.015271533 0.67000002 0.029368332 4.0800879e-39 307 215
-0.014096799 0.67000002 0.029368332 4.6289428e-39 308 215
-0.012922067 0.67000002 0.029368332 2.7850303e-39 309 215
-0.01058838 0.671 0.029412165 1.2137375e-39 311 215
-0.0094118929 0.671 0.029412165 2.0388136e-39 312 215
-0.0082354061 0.671 0.029412165 2.2232049e-39 313 215
-0.0070589199 0.671 0.029412165 2.1338805e-39 314 215
-0.0058824331 0.671 0.029412165 2.5023029e-39 315 215
-0.0046989331 0.67000002 0.029368332 2.6863354e-39 316 215
-0.0035241998 0.67000002 0.029368332 2.9625622e-39 317 215
-0.0023494666 0.67000002 0.029368332 3.0547606e-39 318 215
-0.0011764866 0.671 0.029412165 2.962565e-39 319 215
0 0.671 0.029412165 3.3302685e-39 320 215
0.0011764866 0.671 0.029412165 3.2380728e-39 321 215
0.0023529732 0.671 0.029412165 3.2369882e-39 322 215
0.00353472 0.67199999 0.029455997 2.9600412e-39 323 215
0.0047129598 0.67199999 0.029455997 2.8656806e-39 324 215
0.0059174998 0.67500001 0.0295875 2.4972582e-39 325 215
0.0071115191 0.676 0.029631332 2.8638799e-39 326 215
0.0082967728 0.676 0.029631332 2.6798488e-39 327 215
0.0094820261 0.676 0.029631332 3.0468292e-39 328 215
0.010698839 0.67799997 0.029718997 3.0468292e-39 329 215
-0.041729335 0.68000001 0.028614398 9.9780858e-41 285 216
-0.040537067 0.68000001 0.028614398 2.2141623e-39 286 216
-0.039286941 0.67900002 0.028572321 2.4903904e-39 287 216
-0.038096428 0.67900002 0.028572321 2.1223324e-39 288 216
-0.036851559 0.67799997 0.028530238 1.8461056e-39 289 216
-0.035557602 0.676 0.028446076 1.3862163e-39 290 216
-0.034372345 0.676 0.028446076 1.3862163e-39 291 216
-0.033137999 0.67500001 0.028404001 5.6186884e-40 292 216
-0.031954501 0.67500001 0.028404001 3.7711884e-40 293 216
-0.030725412 0.67400002 0.02836192 6.2105548e-42 294 216
-0.029412165 0.671 0.028235679 7.6524909e-42 295 216
-0.028235679 0.671 0.028235679 1.1179671e-39 296 216
-0.027059194 0.671 0.028235679 1.7633365e-39 297 216
-0.025882706 0.671 0.028235679 1.487823e-39 298 216
-0.024743039 0.67199999 0.02827776 1.7647701e-39 299 216
-0.023529733 0.671 0.028235679 2.4140995e-39 300 216
-0.022353247 0.671 0.028235679 3.7048384e-39 301 216
-0.021176759 0.671 0.028235679 3.0648625e-39 302 216
-0.020000271 0.671 0.028235679 3.6176776e-39 303 216
-0.018823786 0.671 0.028235679 4.0754187e-39 304 216
-0.0176473 0.671 0.028235679 3.8910275e-39 305 216
-0.016470812 0.671 0.028235679 3.6151595e-39 306 216
-0.015294326 0.671 0.028235679 3.6151595e-39 307 216
-0.01411784 0.671 0.028235679 4.5335102e-39 308 216
-0.012941353 0.671 0.028235679 2.9658244e-39 309 216
-0.0070483997 0.67000002 0.028193599 1.94769e-39 314 216
-0.0058736666 0.67000002 0.028193599 2.1320812e-39 315 216
-0.0046989331 0.67000002 0.028193599 2.5912657e-39 316 216
-0.0035241998 0.67000002 0.028193599 2.8678512e-39 317 216
-0.0023494666 0.67000002 0.028193599 2.7767346e-39 318 216
-0.0011764866 0.671 0.028235679 2.8689302e-39 319 216
0 0.671 0.028235679 3.1444367e-39 320 216
0.0011764866 0.671 0.028235679 2.960044e-39 321 216
0.0035294599 0.671 0.028235679 2.6805677e-39 323 216
0.0059262668 0.676 0.028446076 2.4958065e-39 325 216
0.0071115191 0.676 0.028446076 2.4032549e-39 326 216
0.0082967728 0.676 0.028446076 2.4032549e-39 327 216
0.0094820261 0.676 0.028446076 2.6805522e-39 328 216
-0.041729335 0.68000001 0.027422134 6.8551521e-42 285 217
-0.040537067 0.68000001 0.027422134 2.1226855e-39 286 217
-0.039286941 0.67900002 0.027381808 3.6900126e-39 287 217
-0.038096428 0.67900002 0.027381808 5.0661157e-39 288 217
-0.036851559 0.67799997 0.027341479 4.7891701e-39 289 217
-0.035557602 0.676 0.027260827 3.6856994e-39 290 217
-0.034372345 0.676 0.027260827 2.948133e-39 291 217
-0.033137999 0.67500001 0.027220501 1.2936647e-39 292 217
-0.031954501 0.67500001 0.027220501 7.4049095e-40 293 217
-0.030725412 0.67400002 0.027180174 9.2453749e-40 294 217
-0.029412165 0.671 0.027059194 7.4014623e-40 295 217
-0.028235679 0.671 0.027059194 2.8205195e-40 296 217
-0.027059194 0.671 0.027059194 4.6644321e-40 297 217
-0.025882706 0.671 0.027059194 4.6861102e-40 298 217
-0.024743039 0.67199999 0.027099518 5.6116538e-40 299 217
-0.023564799 0.67199999 0.027099518 1.7004757e-41 300 217
-0.022353247 0.671 0.027059194 1.6776065e-39 301 217
-0.021176759 0.671 0.027059194 2.9661901e-39 302 217
-0.020000271 0.671 0.027059194 3.4275284e-39 303 217
-0.018823786 0.671 0.027059194 3.4242844e-39 304 217
-0.0176473 0.671 0.027059194 2.3179382e-39 305 217
-0.016470812 0.671 0.027059194 1.6750884e-39 306 217
-0.015294326 0.671 0.027059194 2.3204578e-39 307 217
-0.01411784 0.671 0.027059194 2.6885144e-39 308 217
-0.012941353 0.671 0.027059194 1.8587537e-39 309 217
-0.011764866 0.671 0.027059194 1.9444628e-39 310 217
-0.01058838 0.671 0.027059194 1.8522671e-39 311 217
-0.0093978662 0.67000002 0.027018867 2.0355696e-39 312 217
-0.0082231332 0.67000002 0.027018867 2.1277652e-39 313 217
-0.0070483997 0.67000002 0.027018867 2.0355696e-39 314 217
-0.0058824331 0.671 0.027059194 2.1277652e-39 315 217
-0.0047059464 0.671 0.027059194 2.4040004e-39 316 217
-0.0035294599 0.671 0.027059194 2.6805859e-39 317 217
-0.0023529732 0.671 0.027059194 2.6816621e-39 318 217
-0.0011764866 0.671 0.027059194 2.958249e-39 319 217
0 0.671 0.027059194 3.0507977e-39 320 217
0.0023529732 0.671 0.027059194 2.8627981e-39 322 217
0.0071325595 0.67799997 0.027341479 2.4057632e-39 326 217
0.0083213197 0.67799997 0.027341479 2.68199e-39 327 217
0.0095100794 0.67799997 0.027341479 2.7745387e-39 328 217
-0.042921599 0.68000001 0.026229866 1.369489e-41 284 218
-0.041729335 0.68000001 0.026229866 2.9679165e-39 285 218
-0.040477451 0.67900002 0.026191294 8.7578884e-39 286 218
-0.039286941 0.67900002 0.026191294 9.6794846e-39 287 218
-0.038096428 0.67900002 0.026191294 1.0872623e-38 288 218
-0.036851559 0.67799997 0.026152719 1.0780427e-38 289 218
-0.035557602 0.676 0.026075572 1.0320888e-38 290 218
-0.034372345 0.676 0.026075572 9.3992907e-39 291 218
-0.033187091 0.676 0.026075572 7.6511807e-39 292 218
-0.031954501 0.67500001 0.026037 5.8072681e-39 293 218
-0.030725412 0.67400002 0.025998428 4.331066e-39 294 218
-0.029455997 0.67199999 0.025921278 2.4871534e-39 295 218
-0.028235679 0.671 0.025882706 5.5573255e-40 296 218
-0.027059194 0.671 0.025882706 1.201102e-39 297 218
-0.025882706 0.671 0.025882706 1.387661e-39 298 218
-0.024743039 0.67199999 0.025921278 1.4798567e-39 299 218
-0.023564799 0.67199999 0.025921278 6.5551341e-40 300 218
-0.022353247 0.671 0.025882706 1.5771096e-39 301 218
-0.021176759 0.671 0.025882706 2.313974e-39 302 218
-0.020000271 0.671 0.025882706 2.313974e-39 303 218
-0.018823786 0.671 0.025882706 1.5764061e-39 304 218
-0.0176473 0.671 0.025882706 1.3001794e-39 305 218
-0.016470812 0.671 0.025882706 1.5800033e-39 306 218
-0.015294326 0.671 0.025882706 2.133177e-39 307 218
-0.01411784 0.671 0.025882706 2.3168452e-39 308 218
-0.012941353 0.671 0.025882706 1.6714758e-39 309 218
-0.011764866 0.671 0.025882706 1.7579009e-39 310 218
-0.01058838 0.671 0.025882706 1.7579009e-39 311 218
-0.0093978662 0.67000002 0.025844134 1.8500867e-39 312 218
-0.0082231332 0.67000002 0.025844134 1.8500867e-39 313 218
-0.0070483997 0.67000002 0.025844134 2.033399e-39 314 218
-0.0058824331 0.671 0.025882706 2.033399e-39 315 218
-0.0047059464 0.671 0.025882706 2.3099901e-39 316 218
-0.0035294599 0.671 0.025882706 2.7709682e-39 317 218
-0.0023529732 0.671 0.025882706 2.6805677e-39 318 218
-0.0011764866 0.671 0.025882706 2.7727633e-39 319 218
0 0.671 0.025882706 2.8653148e-39 320 218
0.0011764866 0.671 0.025882706 2.6805649e-39 321 218
0.0023564799 0.67199999 0.025921278 2.6794718e-39 322 218
-0.042921599 0.68000001 0.025037598 3.4159425e-39 284 219
-0.041729335 0.68000001 0.025037598 7.3803545e-39 285 219
-0.040477451 0.67900002 0.025000781 1.3083876e-38 286 219
-0.039286941 0.67900002 0.025000781 1.2161561e-38 287 219
-0.038096428 0.67900002 0.025000781 1.2983026e-38 288 219
-0.036851559 0.67799997 0.024963958 1.289083e-38 289 219
-0.0356628 0.67799997 0.024963958 1.2708248e-38 290 219
-0.034372345 0.676 0.024890319 1.2800444e-38 291 219
-0.033187091 0.676 0.024890319 1.215904e-38 292 219
-0.031954501 0.67500001 0.0248535 1.1606225e-38 293 219
-0.030771 0.67500001 0.0248535 9.5782814e-39 294 219
-0.029543666 0.67400002 0.024816679 7.7347275e-39 295 219
-0.028235679 0.671 0.024706218 5.0635724e-39 296 219
-0.027059194 0.671 0.024706218 3.6802792e-39 297 219
-0.025882706 0.671 0.024706218 1.9375754e-39 298 219
-0.024743039 0.67199999 0.024743039 2.1219666e-39 299 219
-0.023564799 0.67199999 0.024743039 1.5727726e-39 300 219
-0.022386558 0.67199999 0.024743039 1.6653269e-39 301 219
-0.021176759 0.671 0.024706218 1.75861e-39 302 219
-0.020000271 0.671 0.024706218 1.75861e-39 303 219
-0.018823786 0.671 0.024706218 5.6223458e-40 304 219
-0.0176473 0.671 0.024706218 5.6223458e-40 305 219
-0.016470812 0.671 0.024706218 1.9462522e-39 306 219
-0.015294326 0.671 0.024706218 2.7756528e-39 307 219
-0.01411784 0.671 0.024706218 2.4079464e-39 308 219
-0.012941353 0.671 0.024706218 1.4859901e-39 309 219
-0.011764866 0.671 0.024706218 1.4820245e-39 310 219
-0.01058838 0.671 0.024706218 1.4820245e-39 311 219
-0.0093978662 0.67000002 0.024669399 1.5734914e-39 312 219
-0.0082231332 0.67000002 0.024669399 1.7582414e-39 313 219
-0.0070483997 0.67000002 0.024669399 2.0333864e-39 314 219
-0.0058824331 0.671 0.024706218 2.125582e-39 315 219
-0.0047059464 0.671 0.024706218 2.2181448e-39 316 219
-0.0035294599 0.671 0.024706218 2.402536e-39 317 219
-0.0023529732 0.671 0.024706218 2.679846e-39 318 219
-0.0011764866 0.671 0.024706218 2.8642358e-39 319 219
0 0.671 0.024706218 2.5887252e-39 320 219
0.0011782399 0.67199999 0.024743039 2.3121383e-39 321 219
0.0023564799 0.67199999 0.024743039 2.4943617e-39 322 219
-0.042921599 0.68000001 0.023845334 9.3949845e-39 284 220
-0.041729335 0.68000001 0.023845334 9.3949845e-39 285 220
-0.040537067 0.68000001 0.023845334 1.195846e-38 286 220
-0.039344799 0.68000001 0.023845334 8.639417e-39 287 220
-0.038152531 0.68000001 0.023845334 1.1664944e-38 288 220
-0.036905911 0.67900002 0.023810266 1.1664944e-38 289 220
-0.0356628 0.67799997 0.023775198 1.1391601e-38 290 220
-0.034474038 0.67799997 0.023775198 1.203697e-38 291 220
-0.033187091 0.676 0.023705067 1.1490646e-38 292 220
-0.032001842 0.676 0.023705067 1.3150166e-38 293 220
-0.030771 0.67500001 0.023669999 1.2150761e-38 294 220
-0.0295875 0.67500001 0.023669999 1.2519544e-38 295 220
-0.02827776 0.67199999 0.023564799 1.1235642e-38 296 220
-0.027099518 0.67199999 0.023564799 9.4839235e-39 297 220
-0.025921278 0.67199999 0.023564799 5.2519293e-39 298 220
-0.024743039 0.67199999 0.023564799 1.840691e-39 299 220
-0.023564799 0.67199999 0.023564799 1.198937e-39 300 220
-0.022386558 0.67199999 0.023564799 2.3971214e-39 301 220
-0.021176759 0.671 0.023529733 1.7575225e-39 302 220
-0.020000271 0.671 0.023529733 1.7575225e-39 303 220
-0.018851839 0.67199999 0.023564799 1.6646179e-39 304 220
-0.017673599 0.67199999 0.023564799 1.9412033e-39 305 220
-0.016470812 0.671 0.023529733 2.4029074e-39 306 220
-0.015294326 0.671 0.023529733 3.0482768e-39 307 220
-0.01411784 0.671 0.023529733 2.4072206e-39 308 220
-0.012941353 0.671 0.023529733 1.4852643e-39 309 220
-0.011764866 0.671 0.023529733 1.8486392e-39 310 220
-0.01058838 0.671 0.023529733 1.8486392e-39 311 220
-0.0093978662 0.67000002 0.023494666 1.7578729e-39 312 220
-0.0082231332 0.67000002 0.023494666 1.7578729e-39 313 220
-0.0070483997 0.67000002 0.023494666 2.2181308e-39 314 220
-0.0058824331 0.671 0.023529733 2.2181308e-39 315 220
-0.0047059464 0.671 0.023529733 2.4943589e-39 316 220
-0.0035294599 0.671 0.023529733 2.7709458e-39 317 220
-0.0023529732 0.671 0.023529733 2.6805494e-39 318 220
-0.0011764866 0.671 0.023529733 2.6805494e-39 319 220
0 0.67199999 0.023564799 2.6805494e-39 320 220
0.0011782399 0.67199999 0.023564799 2.4039611e-39 321 220
-0.043047838 0.68199998 0.022719691 1.1328929e-38 284 221
-0.041852064 0.68199998 0.022719691 8.8396472e-39 285 221
-0.040656291 0.68199998 0.022719691 1.1488128e-38 286 221
-0.039344799 0.68000001 0.022653066 9.9208022e-39 287 221
-0.038152531 0.68000001 0.022653066 1.1663512e-38 288 221
-0.036960267 0.68000001 0.022653066 1.1755707e-38 289 221
-0.035715401 0.67900002 0.022619752 1.1204689e-38 290 221
-0.034474038 0.67799997 0.022586439 1.1020296e-38 291 221
-0.033187091 0.676 0.022519812 1.11136e-38 292 221
-0.032001842 0.676 0.022519812 1.2312143e-38 293 221
-0.030771 0.67500001 0.022486499 1.1493535e-38 294 221
-0.0295875 0.67500001 0.022486499 1.287647e-38 295 221
-0.02836192 0.67400002 0.022453187 1.1965291e-38 296 221
-0.027099518 0.67199999 0.022386558 1.2518465e-38 297 221
-0.025921278 0.67199999 0.022386558 1.0313683e-38 298 221
-0.024743039 0.67199999 0.022386558 8.3775746e-39 299 221
-0.023564799 0.67199999 0.022386558 3.2236255e-39 300 221
-0.022386558 0.67199999 0.022386558 2.6704531e-39 301 221
-0.021208318 0.67199999 0.022386558 1.2961815e-39 302 221
-0.020030079 0.67199999 0.022386558 1.6653241e-39 303 221
-0.018851839 0.67199999 0.022386558 1.8479329e-39 304 221
-0.017673599 0.67199999 0.022386558 2.0326829e-39 305 221
-0.01649536 0.67199999 0.022386558 2.0355668e-39 306 221
-0.01531712 0.67199999 0.022386558 2.219958e-39 307 221
-0.01411784 0.671 0.022353247 2.1291931e-39 308 221
-0.012941353 0.671 0.022353247 1.7604092e-39 309 221
-0.011764866 0.671 0.022353247 2.2166986e-39 310 221
-0.01058838 0.671 0.022353247 1.9401131e-39 311 221
-0.0094118929 0.671 0.022353247 1.8482706e-39 312 221
-0.0082354061 0.671 0.022353247 2.1244974e-39 313 221
-0.0070589199 0.671 0.022353247 2.4925596e-39 314 221
-0.0058824331 0.671 0.022353247 2.5847553e-39 315 221
-0.0047059464 0.671 0.022353247 2.4943617e-39 316 221
-0.0035294599 0.671 0.022353247 2.7709486e-39 317 221
-0.0023529732 0.671 0.022353247 2.5883552e-39 318 221
-0.0011764866 0.671 0.022353247 2.6805522e-39 319 221
0 0.67199999 0.022386558 2.5883524e-39 320 221
0.0011817467 0.67400002 0.022453187 2.3117655e-39 321 221
0.0023634934 0.67400002 0.022453187 2.5847525e-39 322 221
0.0119928 0.68400002 0.022786319 6.3629614e-39 330 221
0.01319208 0.68400002 0.022786319 8.8526036e-39 331 221
0.014454478 0.68699998 0.022886258 1.168869e-38 332 221
0.015659019 0.68699998 0.022886258 1.1043321e-38 333 221
-0.043110959 0.68300003 0.02155548 1.1602272e-38 284 222
-0.041852064 0.68199998 0.021523919 7.4538288e-39 285 222
-0.040656291 0.68199998 0.021523919 1.2035184e-38 286 222
-0.039460517 0.68199998 0.021523919 1.2219576e-38 287 222
-0.038152531 0.68000001 0.0214608 1.1941898e-38 288 222
-0.036960267 0.68000001 0.0214608 1.1941898e-38 289 222
-0.035715401 0.67900002 0.021429239 1.1757858e-38 290 222
-0.034524884 0.67900002 0.021429239 1.1757858e-38 291 222
-0.033285279 0.67799997 0.021397678 1.1758225e-38 292 222
-0.032001842 0.676 0.021334561 1.1850421e-38 293 222
-0.030816587 0.676 0.021334561 1.1391245e-38 294 222
-0.0295875 0.67500001 0.021303 1.1575276e-38 295 222
-0.028404001 0.67500001 0.021303 1.1122212e-38 296 222
-0.027180174 0.67400002 0.021271439 1.3334909e-38 297 222
-0.025998428 0.67400002 0.021271439 1.2705733e-38 298 222
-0.024816679 0.67400002 0.021271439 1.3351102e-38 299 222
-0.023564799 0.67199999 0.021208318 9.1194584e-39 300 222
-0.022386558 0.67199999 0.021208318 4.8784581e-39 301 222
-0.021208318 0.67199999 0.021208318 1.4773133e-39 302 222
-0.020030079 0.67199999 0.021208318 2.1226827e-39 303 222
-0.018851839 0.67199999 0.021208318 1.9390397e-39 304 222
-0.017673599 0.67199999 0.021208318 2.2156266e-39 305 222
-0.01649536 0.67199999 0.021208318 2.2177916e-39 306 222
-0.01531712 0.67199999 0.021208318 2.7709654e-39 307 222
-0.01413888 0.67199999 0.021208318 2.4965295e-39 308 222
-0.012941353 0.671 0.021176759 1.9433557e-39 309 222
-0.011764866 0.671 0.021176759 2.124503e-39 310 222
-0.01058838 0.671 0.021176759 1.8479175e-39 311 222
-0.0094118929 0.671 0.021176759 2.0315829e-39 312 222
-0.0082354061 0.671 0.021176759 2.2163329e-39 313 222
-0.0070589199 0.671 0.021176759 2.401443e-39 314 222
-0.0058824331 0.671 0.021176759 2.49364e-39 315 222
-0.0047059464 0.671 0.021176759 2.4032451e-39 316 222
-0.00353472 0.67199999 0.021208318 2.6794718e-39 317 222
-0.0023564799 0.67199999 0.021208318 2.7716675e-39 318 222
-0.0011782399 0.67199999 0.021208318 2.7716675e-39 319 222
0 0.67199999 0.021208318 2.7716675e-39 320 222
0.0011817467 0.67400002 0.021271439 2.3106907e-39 321 222
0.0023634934 0.67400002 0.021271439 2.5847525e-39 322 222
0.0035505001 0.67500001 0.021303 2.5847525e-39 323 222
0.0047410131 0.676 0.021334561 2.494712e-39 324 222
0.0059262668 0.676 0.021334561 2.6791033e-39 325 222
0.01079352 0.68400002 0.02158704 3.7850977e-39 329 222
0.0119928 0.68400002 0.02158704 8.0163563e-39 330 222
0.01319208 0.68400002 0.02158704 1.0320888e-38 331 222
0.01443344 0.68599999 0.021650158 1.2052076e-38 332 222
0.015659019 0.68699998 0.021681719 1.1498902e-38 333 222
0.016888106 0.68800002 0.021713281 1.1765414e-38 334 222
-0.043110959 0.68300003 0.020357953 1.1599385e-38 284 223
-0.041913435 0.68300003 0.020357953 7.5427777e-39 285 223
-0.040715907 0.68300003 0.020357953 1.2035171e-38 286 223
-0.039460517 0.68199998 0.020328145 1.2219562e-38 287 223
-0.038264744 0.68199998 0.020328145 1.2126282e-38 288 223
-0.036960267 0.68000001 0.020268533 1.1850055e-38 289 223
