# .PCD v.7 - Point Cloud Data file format
FIELDS x y z rgb imX imY
SIZE 4 4 4 4 4 4
TYPE F F F F F F
COUNT 1 1 1 1 1 1
WIDTH 828
HEIGHT 1
VIEWPOINT 0 0 0 1 0 0 0
POINTS 828
DATA ascii
-0.0083826864 0.68300003 -0.0095802136 2.3088816e-39 313 248
-0.0071851597 0.68300003 -0.0095802136 2.4932631e-39 314 248
-0.0059876335 0.68300003 -0.0095802136 2.6776558e-39 315 248
-0.0047901068 0.68300003 -0.0095802136 2.4039485e-39 316 248
-0.0035925799 0.68300003 -0.0095802136 2.3113942e-39 317 248
-0.0023985601 0.68400002 -0.0095942402 2.4939904e-39 318 248
-0.00119928 0.68400002 -0.0095942402 2.2174021e-39 319 248
0 0.68400002 -0.0095942402 2.3999983e-39 320 248
0.0012027866 0.68599999 -0.0096222926 2.3074439e-39 321 248
0.0024090798 0.68699998 -0.0096363192 2.1241317e-39 322 248
0.0036136196 0.68699998 -0.0096363192 2.3088816e-39 323 248
0.0048251734 0.68800002 -0.0096503468 2.5851056e-39 324 248
0.0060314666 0.68800002 -0.0096503468 2.769857e-39 325 248
0.0072587994 0.69 -0.0096783992 2.8634946e-39 326 248
0.008480873 0.69099998 -0.0096924258 3.1400814e-39 327 248
0.0096924258 0.69099998 -0.0096924258 3.1422451e-39 328 248
0.010935539 0.69300002 -0.0097204801 3.4191921e-39 329 248
-0.039050236 0.69599998 -0.010982879 7.9481649e-42 288 249
-0.037721213 0.69400001 -0.01095132 2.6816214e-39 289 249
-0.036504399 0.69400001 -0.01095132 5.5386126e-39 290 249
-0.035236739 0.69300002 -0.010935539 6.2761776e-39 291 249
-0.034021679 0.69300002 -0.010935539 7.1880544e-39 292 249
-0.032711938 0.69099998 -0.01090398 4.6065767e-39 293 249
-0.031500384 0.69099998 -0.01090398 3.3165792e-39 294 249
-0.030244999 0.69 -0.010888199 2.7637655e-39 295 249
-0.029035198 0.69 -0.010888199 1.9383363e-39 296 249
-0.027704418 0.68699998 -0.010840859 1.5695538e-39 297 249
-0.026499879 0.68699998 -0.010840859 1.2944088e-39 298 249
-0.025295338 0.68699998 -0.010840859 1.2022132e-39 299 249
-0.024090799 0.68699998 -0.010840859 1.8457805e-39 300 249
-0.022886258 0.68699998 -0.010840859 2.3071188e-39 301 249
-0.021681719 0.68699998 -0.010840859 2.9571601e-39 302 249
-0.020477179 0.68699998 -0.010840859 3.9709533e-39 303 249
-0.019272638 0.68699998 -0.010840859 6.7332097e-39 304 249
-0.018068098 0.68699998 -0.010840859 8.3927296e-39 305 249
-0.016839013 0.68599999 -0.010825079 8.4795191e-39 306 249
-0.015636226 0.68599999 -0.010825079 6.4512152e-39 307 249
-0.01439136 0.68400002 -0.01079352 3.3223245e-39 308 249
-0.01319208 0.68400002 -0.01079352 2.215977e-39 309 249
-0.0119928 0.68400002 -0.01079352 2.3074467e-39 310 249
-0.01079352 0.68400002 -0.01079352 2.491838e-39 311 249
-0.0095942402 0.68400002 -0.01079352 2.1252064e-39 312 249
-0.0083826864 0.68300003 -0.01077774 2.2174021e-39 313 249
-0.0071851597 0.68300003 -0.01077774 2.3095949e-39 314 249
-0.0059876335 0.68300003 -0.01077774 2.4943463e-39 315 249
-0.0047901068 0.68300003 -0.01077774 2.4025108e-39 316 249
-0.00359784 0.68400002 -0.01079352 2.4950652e-39 317 249
-0.0023985601 0.68400002 -0.01079352 2.5851056e-39 318 249
-0.00119928 0.68400002 -0.01079352 2.3088788e-39 319 249
0 0.68599999 -0.010825079 2.491475e-39 320 249
0.0012027866 0.68599999 -0.010825079 2.491475e-39 321 249
0.0024090798 0.68699998 -0.010840859 2.1244876e-39 322 249
0.0036188802 0.68800002 -0.010856641 2.3088788e-39 323 249
0.0048251734 0.68800002 -0.010856641 2.5851056e-39 324 249
0.0060489997 0.69 -0.010888199 2.8620526e-39 325 249
0.0072587994 0.69 -0.010888199 2.7716549e-39 326 249
0.008480873 0.69099998 -0.01090398 3.2322743e-39 327 249
0.0097204801 0.69300002 -0.010935539 3.0511298e-39 328 249
0.01095132 0.69400001 -0.01095132 3.3273566e-39 329 249
-0.039050236 0.69599998 -0.0122032 2.3063579e-39 288 250
-0.037721213 0.69400001 -0.012168133 8.3122783e-40 289 250
-0.036504399 0.69400001 -0.012168133 2.4979588e-39 290 250
-0.035287585 0.69400001 -0.012168133 5.7248059e-39 291 250
-0.034021679 0.69300002 -0.012150601 8.6635502e-39 292 250
-0.03280662 0.69300002 -0.012150601 7.5575628e-39 293 250
-0.031500384 0.69099998 -0.012115533 5.9913287e-39 294 250
-0.030288832 0.69099998 -0.012115533 4.7005898e-39 295 250
-0.029035198 0.69 -0.012097999 2.5847847e-39 296 250
-0.027744746 0.68800002 -0.012062933 1.7546653e-39 297 250
-0.026499879 0.68699998 -0.012045399 1.6621179e-39 298 250
-0.025295338 0.68699998 -0.012045399 2.1230961e-39 299 250
-0.024090799 0.68699998 -0.012045399 3.3205491e-39 300 250
-0.022886258 0.68699998 -0.012045399 4.980069e-39 301 250
-0.021681719 0.68699998 -0.012045399 6.9208281e-39 302 250
-0.020477179 0.68699998 -0.012045399 8.1193713e-39 303 250
-0.019272638 0.68699998 -0.012045399 9.5890896e-39 304 250
-0.018068098 0.68699998 -0.012045399 8.2983508e-39 305 250
-0.01686356 0.68699998 -0.012045399 4.4254309e-39 306 250
-0.015636226 0.68599999 -0.012027865 2.4893226e-39 307 250
-0.01443344 0.68599999 -0.012027865 2.4018102e-39 308 250
-0.013230653 0.68599999 -0.012027865 2.4018102e-39 309 250
-0.012027865 0.68599999 -0.012027865 2.2170461e-39 310 250
-0.010825079 0.68599999 -0.012027865 2.2170461e-39 311 250
-0.0095942402 0.68400002 -0.0119928 2.034087e-39 312 250
-0.0083949603 0.68400002 -0.0119928 2.034087e-39 313 250
-0.0071956799 0.68400002 -0.0119928 2.1262854e-39 314 250
-0.0059964 0.68400002 -0.0119928 2.4025136e-39 315 250
-0.0047971201 0.68400002 -0.0119928 2.4025136e-39 316 250
-0.00359784 0.68400002 -0.0119928 2.4025136e-39 317 250
-0.0024055731 0.68599999 -0.012027865 2.4017905e-39 318 250
-0.0012027866 0.68599999 -0.012027865 2.2173993e-39 319 250
0 0.68699998 -0.012045399 2.3999955e-39 320 250
0.0012045399 0.68699998 -0.012045399 2.3999955e-39 321 250
0.0024125867 0.68800002 -0.012062933 2.3992766e-39 322 250
0.0036188802 0.68800002 -0.012062933 2.6755034e-39 323 250
0.0048251734 0.68800002 -0.012062933 2.6765824e-39 324 250
0.0060489997 0.69 -0.012097999 3.0453649e-39 325 250
0.0072693196 0.69099998 -0.012115533 2.8634946e-39 326 250
0.0085054198 0.69300002 -0.012150601 3.2322771e-39 327 250
0.0097204801 0.69300002 -0.012150601 3.4170341e-39 328 250
0.01095132 0.69400001 -0.012168133 3.6017855e-39 329 250
-0.037721213 0.69400001 -0.013384946 3.0345623e-39 289 251
-0.036504399 0.69400001 -0.013384946 6.5116798e-40 290 251
-0.035287585 0.69400001 -0.013384946 2.4032451e-39 291 251
-0.034021679 0.69300002 -0.01336566 4.1535299e-39 292 251
-0.03280662 0.69300002 -0.01336566 5.2598775e-39 293 251
-0.031500384 0.69099998 -0.013327086 8.4798848e-39 294 251
-0.030288832 0.69099998 -0.013327086 8.6646362e-39 295 251
-0.029035198 0.69 -0.0133078 8.3916394e-39 296 251
-0.027744746 0.68800002 -0.013269227 8.0228555e-39 297 251
-0.026499879 0.68699998 -0.013249939 8.1150511e-39 298 251
-0.025295338 0.68699998 -0.013249939 8.5760293e-39 299 251
-0.024090799 0.68699998 -0.013249939 9.1266765e-39 300 251
-0.022886258 0.68699998 -0.013249939 9.2192309e-39 301 251
-0.021713281 0.68800002 -0.013269227 7.7480483e-39 302 251
-0.020506985 0.68800002 -0.013269227 6.5495051e-39 303 251
-0.019272638 0.68699998 -0.013249939 4.2439053e-39 304 251
-0.018068098 0.68699998 -0.013249939 3.1375577e-39 305 251
-0.01686356 0.68699998 -0.013249939 2.2166958e-39 306 251
-0.015659019 0.68699998 -0.013249939 2.1245002e-39 307 251
-0.014454478 0.68699998 -0.013249939 2.5858357e-39 308 251
-0.013230653 0.68599999 -0.013230653 2.49364e-39 309 251
-0.012027865 0.68599999 -0.013230653 2.2170461e-39 310 251
-0.010825079 0.68599999 -0.013230653 2.2170461e-39 311 251
-0.0096222926 0.68599999 -0.013230653 2.2174021e-39 312 251
-0.0083949603 0.68400002 -0.01319208 2.2174021e-39 313 251
-0.0071956799 0.68400002 -0.01319208 2.1262854e-39 314 251
-0.0059964 0.68400002 -0.01319208 2.2184811e-39 315 251
-0.0047971201 0.68400002 -0.01319208 2.4943463e-39 316 251
-0.00360836 0.68599999 -0.013230653 2.5865419e-39 317 251
-0.0024055731 0.68599999 -0.013230653 2.4025108e-39 318 251
-0.0012045399 0.68699998 -0.013249939 2.1262826e-39 319 251
0 0.68699998 -0.013249939 2.2166832e-39 320 251
0.0012045399 0.68699998 -0.013249939 2.1244876e-39 321 251
0.0024125867 0.68800002 -0.013269227 2.4914722e-39 322 251
0.0036188802 0.68800002 -0.013269227 2.767699e-39 323 251
0.0048391996 0.69 -0.0133078 2.6776586e-39 324 251
0.0060489997 0.69 -0.0133078 2.8620498e-39 325 251
0.0072693196 0.69099998 -0.013327086 3.047883e-39 326 251
0.0085054198 0.69300002 -0.01336566 3.3244699e-39 327 251
0.0097204801 0.69300002 -0.01336566 4.1542362e-39 328 251
0.01095132 0.69400001 -0.013384946 5.9059531e-39 329 251
-0.037721213 0.69400001 -0.01460176 2.947033e-39 289 252
-0.036504399 0.69400001 -0.01460176 1.2936675e-39 290 252
-0.035287585 0.69400001 -0.01460176 1.2936675e-39 291 252
-0.034021679 0.69300002 -0.014580719 1.3876638e-39 292 252
-0.03280662 0.69300002 -0.014580719 2.6784026e-39 293 252
-0.031591557 0.69300002 -0.014580719 6.176073e-39 294 252
-0.030288832 0.69099998 -0.014538639 8.1121813e-39 295 252
-0.029035198 0.69 -0.014517599 9.4965352e-39 296 252
-0.027744746 0.68800002 -0.014475521 9.7734823e-39 297 252
-0.026538454 0.68800002 -0.014475521 1.0048622e-38 298 252
-0.025295338 0.68699998 -0.014454478 1.0048622e-38 299 252
-0.024090799 0.68699998 -0.014454478 1.0047897e-38 300 252
-0.022886258 0.68699998 -0.014454478 8.7571583e-39 301 252
-0.021713281 0.68800002 -0.014475521 6.7295775e-39 302 252
-0.020506985 0.68800002 -0.014475521 4.7934693e-39 303 252
-0.019300694 0.68800002 -0.014475521 1.4794811e-39 304 252
-0.0180944 0.68800002 -0.014475521 9.2630733e-40 305 252
-0.01686356 0.68699998 -0.014454478 1.940832e-39 306 252
-0.015659019 0.68699998 -0.014454478 2.125582e-39 307 252
-0.014454478 0.68699998 -0.014454478 2.3106907e-39 308 252
-0.013249939 0.68699998 -0.014454478 2.1262981e-39 309 252
-0.012027865 0.68599999 -0.01443344 2.1262854e-39 310 252
-0.010825079 0.68599999 -0.01443344 2.0340898e-39 311 252
-0.0096222926 0.68599999 -0.01443344 2.0340898e-39 312 252
-0.0084195063 0.68599999 -0.01443344 2.0340898e-39 313 252
-0.0072167199 0.68599999 -0.01443344 2.1259295e-39 314 252
-0.0060139326 0.68599999 -0.01443344 2.4025164e-39 315 252
-0.0048111463 0.68599999 -0.01443344 2.4950652e-39 316 252
-0.00360836 0.68599999 -0.01443344 2.5872608e-39 317 252
-0.0024090798 0.68699998 -0.014454478 2.6780117e-39 318 252
-0.0012045399 0.68699998 -0.014454478 2.5854559e-39 319 252
0 0.68699998 -0.014454478 2.3999927e-39 320 252
0.0012062934 0.68800002 -0.014475521 2.3999927e-39 321 252
0.0024125867 0.68800002 -0.014475521 2.2163273e-39 322 252
0.0036293997 0.69 -0.014517599 2.3088816e-39 323 252
0.0048391996 0.69 -0.014517599 2.4925568e-39 324 252
0.0060577663 0.69099998 -0.014538639 2.8616995e-39 325 252
0.0072693196 0.69099998 -0.014538639 2.679825e-39 326 252
0.0085054198 0.69300002 -0.014580719 3.509587e-39 327 252
0.0097204801 0.69300002 -0.014580719 5.3509787e-39 328 252
0.01095132 0.69400001 -0.01460176 8.1168476e-39 329 252
-0.037829921 0.69599998 -0.015864158 3.7383981e-40 289 253
-0.036609598 0.69599998 -0.015864158 1.4780462e-39 290 253
-0.035389278 0.69599998 -0.015864158 1.9386642e-39 291 253
-0.034070771 0.69400001 -0.015818574 2.7641145e-39 292 253
-0.03280662 0.69300002 -0.015795778 2.1187465e-39 293 253
-0.031591557 0.69300002 -0.015795778 6.5081485e-40 294 253
-0.030288832 0.69099998 -0.015750192 4.6678373e-40 295 253
-0.029035198 0.69 -0.015727401 1.4784147e-39 296 253
-0.027825398 0.69 -0.015727401 2.0312298e-39 297 253
-0.026538454 0.68800002 -0.015681813 2.5822357e-39 298 253
-0.02533216 0.68800002 -0.015681813 2.3060076e-39 299 253
-0.024125867 0.68800002 -0.015681813 1.2954472e-39 300 253
-0.022919573 0.68800002 -0.015681813 1.1110545e-39 301 253
-0.021713281 0.68800002 -0.015681813 1.480916e-39 302 253
-0.020506985 0.68800002 -0.015681813 2.0340898e-39 303 253
-0.019300694 0.68800002 -0.015681813 2.6737153e-39 304 253
-0.0180944 0.68800002 -0.015681813 2.5815197e-39 305 253
-0.016888106 0.68800002 -0.015681813 2.1237785e-39 306 253
-0.015681813 0.68800002 -0.015681813 2.5847553e-39 307 253
-0.014454478 0.68699998 -0.015659019 2.2188482e-39 308 253
-0.013249939 0.68699998 -0.015659019 2.2188482e-39 309 253
-0.012045399 0.68699998 -0.015659019 2.2170461e-39 310 253
-0.010840859 0.68699998 -0.015659019 2.2170461e-39 311 253
-0.0096363192 0.68699998 -0.015659019 2.2174021e-39 312 253
-0.0084317802 0.68699998 -0.015659019 2.2174021e-39 313 253
-0.0072272392 0.68699998 -0.015659019 2.3095977e-39 314 253
-0.0060226996 0.68699998 -0.015659019 2.4017933e-39 315 253
-0.0048181596 0.68699998 -0.015659019 2.5872608e-39 316 253
-0.0036136196 0.68699998 -0.015659019 2.5872608e-39 317 253
-0.0024090798 0.68699998 -0.015659019 2.5865419e-39 318 253
-0.0012045399 0.68699998 -0.015659019 2.3095949e-39 319 253
0 0.68800002 -0.015681813 2.2174021e-39 320 253
0.0012062934 0.68800002 -0.015681813 1.9408166e-39 321 253
0.0024195998 0.69 -0.015727401 2.1248505e-39 322 253
0.0036293997 0.69 -0.015727401 2.2170461e-39 323 253
0.0048462129 0.69099998 -0.015750192 2.4929128e-39 324 253
0.0060577663 0.69099998 -0.015750192 2.7695011e-39 325 253
0.0072903596 0.69300002 -0.015795778 3.1393598e-39 326 253
0.0085054198 0.69300002 -0.015795778 3.6925322e-39 327 253
0.0097204801 0.69300002 -0.015795778 5.8094359e-39 328 253
0.01095132 0.69400001 -0.015818574 7.7455441e-39 329 253
0.012238266 0.69800001 -0.015909746 5.6286432e-39 330 253
-0.037829921 0.69599998 -0.017084479 9.2701078e-40 289 254
-0.036609598 0.69599998 -0.017084479 1.2940038e-39 290 254
-0.035389278 0.69599998 -0.017084479 1.9393733e-39 291 254
-0.034070771 0.69400001 -0.017035386 2.0294179e-39 292 254
-0.032853961 0.69400001 -0.017035386 1.9372223e-39 293 254
-0.031591557 0.69300002 -0.01701084 1.2028984e-39 294 254
-0.0303765 0.69300002 -0.01701084 1.0185058e-39 295 254
-0.029077278 0.69099998 -0.016961746 1.2940137e-39 296 254
-0.027825398 0.69 -0.0169372 1.478765e-39 297 254
-0.026615599 0.69 -0.0169372 2.3049258e-39 298 254
-0.02533216 0.68800002 -0.016888106 2.2127301e-39 299 254
-0.024125867 0.68800002 -0.016888106 1.1110573e-39 300 254
-0.022919573 0.68800002 -0.016888106 1.29545e-39 301 254
-0.021713281 0.68800002 -0.016888106 1.4802098e-39 302 254
-0.020506985 0.68800002 -0.016888106 1.7564379e-39 303 254
-0.019300694 0.68800002 -0.016888106 2.0315857e-39 304 254
-0.0180944 0.68800002 -0.016888106 2.1237813e-39 305 254
-0.016888106 0.68800002 -0.016888106 2.0337367e-39 306 254
-0.015681813 0.68800002 -0.016888106 2.1259323e-39 307 254
-0.014454478 0.68699998 -0.01686356 2.4021605e-39 308 254
-0.013249939 0.68699998 -0.01686356 2.218128e-39 309 254
-0.012045399 0.68699998 -0.01686356 2.1259295e-39 310 254
-0.010840859 0.68699998 -0.01686356 2.0337339e-39 311 254
-0.0096363192 0.68699998 -0.01686356 2.2174021e-39 312 254
-0.0084317802 0.68699998 -0.01686356 2.3095977e-39 313 254
-0.0072272392 0.68699998 -0.01686356 2.4017905e-39 314 254
-0.0060226996 0.68699998 -0.01686356 2.5865419e-39 315 254
-0.0048181596 0.68699998 -0.01686356 2.587258e-39 316 254
-0.0036136196 0.68699998 -0.01686356 2.587258e-39 317 254
-0.0024090798 0.68699998 -0.01686356 2.7698514e-39 318 254
-0.0012045399 0.68699998 -0.01686356 2.5854587e-39 319 254
0 0.68800002 -0.016888106 2.309232e-39 320 254
0.0012062934 0.68800002 -0.016888106 2.2170363e-39 321 254
0.0024195998 0.69 -0.0169372 2.1244876e-39 322 254
0.0036346598 0.69099998 -0.016961746 2.3088788e-39 323 254
0.00486024 0.69300002 -0.01701084 2.3092418e-39 324 254
0.0060753003 0.69300002 -0.01701084 2.7702199e-39 325 254
0.0072903596 0.69300002 -0.01701084 2.4968728e-39 326 254
0.0085176928 0.69400001 -0.017035386 3.1422422e-39 327 254
0.0097345067 0.69400001 -0.017035386 4.5219439e-39 328 254
0.01099866 0.69700003 -0.017109027 5.8126827e-39 329 254
0.012238266 0.69800001 -0.017133573 7.1912984e-39 330 254
0.013462093 0.69800001 -0.017133573 7.7444707e-39 331 254
-0.037829921 0.69599998 -0.018304799 2.4928974e-39 289 255
-0.036609598 0.69599998 -0.018304799 1.8478909e-39 290 255
-0.035389278 0.69599998 -0.018304799 2.0326423e-39 291 255
-0.034168959 0.69599998 -0.018304799 2.0304899e-39 292 255
-0.032853961 0.69400001 -0.0182522 1.8464588e-39 293 255
-0.031591557 0.69300002 -0.018225901 1.5713138e-39 294 255
-0.0303765 0.69300002 -0.018225901 1.8475406e-39 295 255
-0.029077278 0.69099998 -0.0181733 2.1237687e-39 296 255
-0.027865725 0.69099998 -0.0181733 2.3999955e-39 297 255
-0.026615599 0.69 -0.018146999 2.7673361e-39 298 255
-0.025405798 0.69 -0.018146999 2.6751404e-39 299 255
-0.024195999 0.69 -0.018146999 2.2166804e-39 300 255
-0.022986198 0.69 -0.018146999 2.1244848e-39 301 255
-0.021713281 0.68800002 -0.0180944 2.0319332e-39 302 255
-0.020506985 0.68800002 -0.0180944 2.0319332e-39 303 255
-0.019300694 0.68800002 -0.0180944 2.031213e-39 304 255
-0.0180944 0.68800002 -0.0180944 2.3077998e-39 305 255
-0.016888106 0.68800002 -0.0180944 2.2166832e-39 306 255
-0.015681813 0.68800002 -0.0180944 2.5851056e-39 307 255
-0.014475521 0.68800002 -0.0180944 2.4017961e-39 308 255
-0.013269227 0.68800002 -0.0180944 2.4017961e-39 309 255
-0.012045399 0.68699998 -0.018068098 2.3088816e-39 310 255
-0.010840859 0.68699998 -0.018068098 2.2163273e-39 311 255
-0.0096363192 0.68699998 -0.018068098 2.2174021e-39 312 255
-0.0084317802 0.68699998 -0.018068098 2.2174021e-39 313 255
-0.0072272392 0.68699998 -0.018068098 2.4943463e-39 314 255
-0.0060226996 0.68699998 -0.018068098 2.5865419e-39 315 255
-0.0048181596 0.68699998 -0.018068098 2.6794536e-39 316 255
-0.0036136196 0.68699998 -0.018068098 2.6794536e-39 317 255
-0.0024090798 0.68699998 -0.018068098 2.7705703e-39 318 255
-0.0012062934 0.68800002 -0.0180944 2.4021465e-39 319 255
0 0.68800002 -0.0180944 2.309232e-39 320 255
0.0012097999 0.69 -0.018146999 2.2170363e-39 321 255
0.0024195998 0.69 -0.018146999 2.1252008e-39 322 255
0.0036346598 0.69099998 -0.0181733 2.3099508e-39 323 255
0.00486024 0.69300002 -0.018225901 2.4021465e-39 324 255
0.0060753003 0.69300002 -0.018225901 2.5865391e-39 325 255
0.0072903596 0.69300002 -0.018225901 2.5887027e-39 326 255
0.0085176928 0.69400001 -0.0182522 2.8652896e-39 327 255
0.0097345067 0.69400001 -0.0182522 3.4191893e-39 328 255
0.01099866 0.69700003 -0.018331099 5.2631019e-39 329 255
0.012238266 0.69800001 -0.0183574 8.5749391e-39 330 255
0.013462093 0.69800001 -0.0183574 9.4965352e-39 331 255
-0.037884273 0.69700003 -0.019553173 4.3324912e-39 289 256
-0.036662199 0.69700003 -0.019553173 2.7658885e-39 290 256
-0.035440128 0.69700003 -0.019553173 2.6736915e-39 291 256
-0.034168959 0.69599998 -0.019525118 2.1226827e-39 292 256
-0.032948639 0.69599998 -0.019525118 1.846456e-39 293 256
-0.031637147 0.69400001 -0.019469013 1.6635094e-39 294 256
-0.0303765 0.69300002 -0.01944096 1.8475406e-39 295 256
-0.029161438 0.69300002 -0.01944096 2.0312158e-39 296 256
-0.027865725 0.69099998 -0.019384852 2.3074439e-39 297 256
-0.026654173 0.69099998 -0.019384852 2.4914694e-39 298 256
-0.025405798 0.69 -0.019356798 2.6758593e-39 299 256
-0.024195999 0.69 -0.019356798 2.2166804e-39 300 256
-0.023019511 0.69099998 -0.019384852 2.0322891e-39 301 256
-0.021776399 0.69 -0.019356798 1.8486238e-39 302 256
-0.020566599 0.69 -0.019356798 1.8486238e-39 303 256
-0.019300694 0.68800002 -0.019300694 2.0312158e-39 304 256
-0.0180944 0.68800002 -0.019300694 2.1234128e-39 305 256
-0.016888106 0.68800002 -0.019300694 2.3074467e-39 306 256
-0.015681813 0.68800002 -0.019300694 2.5840336e-39 307 256
-0.014475521 0.68800002 -0.019300694 2.4936372e-39 308 256
-0.013269227 0.68800002 -0.019300694 2.4014402e-39 309 256
-0.012062933 0.68800002 -0.019300694 2.3088816e-39 310 256
-0.010856641 0.68800002 -0.019300694 2.2163273e-39 311 256
-0.0096503468 0.68800002 -0.019300694 2.3095977e-39 312 256
-0.0084440531 0.68800002 -0.019300694 2.3095977e-39 313 256
-0.0072377604 0.68800002 -0.019300694 2.4017905e-39 314 256
-0.0060226996 0.68699998 -0.019272638 2.5865419e-39 315 256
-0.0048181596 0.68699998 -0.019272638 2.6794536e-39 316 256
-0.0036188802 0.68800002 -0.019300694 2.6794536e-39 317 256
-0.0024125867 0.68800002 -0.019300694 2.8624029e-39 318 256
-0.0012062934 0.68800002 -0.019300694 2.6780117e-39 319 256
0 0.69 -0.019356798 2.3099508e-39 320 256
0.0012097999 0.69 -0.019356798 2.2173965e-39 321 256
0.0024231065 0.69099998 -0.019384852 2.309232e-39 322 256
0.0036451798 0.69300002 -0.01944096 2.5854587e-39 323 256
0.00486024 0.69300002 -0.01944096 2.4943463e-39 324 256
0.0060840664 0.69400001 -0.019469013 2.5865419e-39 325 256
0.0073008798 0.69400001 -0.019469013 2.5887083e-39 326 256
0.0085176928 0.69400001 -0.019469013 2.9571321e-39 327 256
0.0097625591 0.69599998 -0.019525118 4.1546033e-39 328 256
0.01101444 0.69800001 -0.019581227 5.9985145e-39 329 256
0.012273333 0.69999999 -0.019637333 9.9571504e-39 330 256
-0.037884273 0.69700003 -0.020775247 4.8867411e-39 289 257
-0.036662199 0.69700003 -0.020775247 3.0424754e-39 290 257
-0.035440128 0.69700003 -0.020775247 2.9502798e-39 291 257
-0.034168959 0.69599998 -0.020745439 2.3067082e-39 292 257
-0.032948639 0.69599998 -0.020745439 2.122317e-39 293 257
-0.031637147 0.69400001 -0.020685827 1.571311e-39 294 257
-0.0303765 0.69300002 -0.020656019 1.8475378e-39 295 257
-0.029161438 0.69300002 -0.020656019 2.1237687e-39 296 257
-0.027946379 0.69300002 -0.020656019 2.3077998e-39 297 257
-0.026654173 0.69099998 -0.020596405 2.6751404e-39 298 257
-0.025442619 0.69099998 -0.020596405 2.7673361e-39 299 257
-0.024231065 0.69099998 -0.020596405 2.3999927e-39 300 257
-0.023019511 0.69099998 -0.020596405 2.1237659e-39 301 257
-0.021807959 0.69099998 -0.020596405 2.031936e-39 302 257
-0.020566599 0.69 -0.020566599 1.939739e-39 303 257
-0.019300694 0.68800002 -0.020506985 2.1223352e-39 304 257
-0.0180944 0.68800002 -0.020506985 2.3067278e-39 305 257
-0.016888106 0.68800002 -0.020506985 2.3996423e-39 306 257
-0.015681813 0.68800002 -0.020506985 2.5840336e-39 307 257
-0.014475521 0.68800002 -0.020506985 2.4017961e-39 308 257
-0.013269227 0.68800002 -0.020506985 2.3092418e-39 309 257
-0.012062933 0.68800002 -0.020506985 2.2170461e-39 310 257
-0.010856641 0.68800002 -0.020506985 2.2170461e-39 311 257
-0.0096503468 0.68800002 -0.020506985 2.3088816e-39 312 257
-0.0084440531 0.68800002 -0.020506985 2.4929128e-39 313 257
-0.0072377604 0.68800002 -0.020506985 2.4017933e-39 314 257
-0.0060314666 0.68800002 -0.020506985 2.586186e-39 315 257
-0.0048251734 0.68800002 -0.020506985 2.5872608e-39 316 257
-0.0036188802 0.68800002 -0.020506985 2.6794564e-39 317 257
-0.0024125867 0.68800002 -0.020506985 2.8624029e-39 318 257
-0.0012097999 0.69 -0.020566599 2.6780117e-39 319 257
0 0.69099998 -0.020596405 2.1266358e-39 320 257
0.0012115532 0.69099998 -0.020596405 2.1266358e-39 321 257
0.00243012 0.69300002 -0.020656019 2.4932631e-39 322 257
0.0036451798 0.69300002 -0.020656019 2.5854587e-39 323 257
0.0048672534 0.69400001 -0.020685827 2.6773026e-39 324 257
0.0060840664 0.69400001 -0.020685827 2.9542483e-39 325 257
0.0073008798 0.69400001 -0.020685827 2.8649365e-39 326 257
0.0085422397 0.69599998 -0.020745439 3.3262748e-39 327 257
0.0097625591 0.69599998 -0.020745439 4.3393533e-39 328 257
-0.039274666 0.69999999 -0.022091998 8.4838154e-39 288 258
-0.037938625 0.69800001 -0.02202888 4.8881859e-39 289 258
-0.036662199 0.69700003 -0.02199732 3.5960149e-39 290 258
-0.035440128 0.69700003 -0.02199732 3.2275925e-39 291 258
-0.034168959 0.69599998 -0.021965759 2.308153e-39 292 258
-0.032948639 0.69599998 -0.021965759 1.9393704e-39 293 258
-0.031637147 0.69400001 -0.021902639 1.5716767e-39 294 258
-0.0303765 0.69300002 -0.021871079 1.6638724e-39 295 258
-0.029161438 0.69300002 -0.021871079 2.1234128e-39 296 258
-0.027946379 0.69300002 -0.021871079 2.3999983e-39 297 258
-0.026654173 0.69099998 -0.021807959 2.4914722e-39 298 258
-0.025442619 0.69099998 -0.021807959 2.4914722e-39 299 258
-0.024231065 0.69099998 -0.021807959 2.3077998e-39 300 258
-0.023019511 0.69099998 -0.021807959 2.1237687e-39 301 258
-0.021807959 0.69099998 -0.021807959 2.0312158e-39 302 258
-0.020566599 0.69 -0.021776399 1.9390201e-39 303 258
-0.019356798 0.69 -0.021776399 2.1219793e-39 304 258
-0.018146999 0.69 -0.021776399 2.2141749e-39 305 258
-0.016888106 0.68800002 -0.021713281 2.3989263e-39 306 258
-0.015681813 0.68800002 -0.021713281 2.7673487e-39 307 258
-0.014475521 0.68800002 -0.021713281 2.218128e-39 308 258
-0.013269227 0.68800002 -0.021713281 2.218128e-39 309 258
-0.012062933 0.68800002 -0.021713281 2.3085257e-39 310 258
-0.010856641 0.68800002 -0.021713281 2.2163301e-39 311 258
-0.0096503468 0.68800002 -0.021713281 2.2170461e-39 312 258
-0.0084440531 0.68800002 -0.021713281 2.3092418e-39 313 258
-0.0072377604 0.68800002 -0.021713281 2.4017961e-39 314 258
-0.0060314666 0.68800002 -0.021713281 2.5861888e-39 315 258
-0.0048251734 0.68800002 -0.021713281 2.5869049e-39 316 258
-0.0036293997 0.69 -0.021776399 2.6794592e-39 317 258
-0.0024195998 0.69 -0.021776399 2.6794536e-39 318 258
-0.0012097999 0.69 -0.021776399 2.4950624e-39 319 258
0 0.69099998 -0.021807959 2.2188342e-39 320 258
0.00121506 0.69300002 -0.021871079 2.1262798e-39 321 258
0.00243012 0.69300002 -0.021871079 2.4929072e-39 322 258
0.0036504399 0.69400001 -0.021902639 2.5854615e-39 323 258
0.0048672534 0.69400001 -0.021902639 2.769857e-39 324 258
0.0060840664 0.69400001 -0.021902639 3.230475e-39 325 258
0.0073008798 0.69400001 -0.021902639 3.1418793e-39 326 258
0.0085176928 0.69400001 -0.021902639 3.6950531e-39 327 258
0.0097345067 0.69400001 -0.021902639 4.1553222e-39 328 258
-0.039274666 0.69999999 -0.023319334 8.7604023e-39 288 259
-0.037938625 0.69800001 -0.023252707 5.4413596e-39 289 259
-0.0367148 0.69800001 -0.023252707 4.7023457e-39 290 259
-0.035440128 0.69700003 -0.023219392 4.2413689e-39 291 259
-0.034218054 0.69700003 -0.023219392 3.2290121e-39 292 259
-0.032948639 0.69599998 -0.023186078 2.8605883e-39 293 259
-0.031637147 0.69400001 -0.023119451 2.1241162e-39 294 259
-0.030420333 0.69400001 -0.023119451 2.3081474e-39 295 259
-0.029161438 0.69300002 -0.02308614 2.2166832e-39 296 259
-0.027946379 0.69300002 -0.02308614 2.3088788e-39 297 259
-0.02673132 0.69300002 -0.02308614 2.6755034e-39 298 259
-0.025442619 0.69099998 -0.023019511 2.6755034e-39 299 259
-0.024231065 0.69099998 -0.023019511 2.3992766e-39 300 259
-0.023019511 0.69099998 -0.023019511 2.2148839e-39 301 259
-0.021871079 0.69300002 -0.02308614 2.2145308e-39 302 259
-0.020596405 0.69099998 -0.023019511 2.1223352e-39 303 259
-0.019356798 0.69 -0.022986198 2.2141749e-39 304 259
-0.018146999 0.69 -0.022986198 2.3067307e-39 305 259
-0.0169372 0.69 -0.022986198 2.2170518e-39 306 259
-0.015727401 0.69 -0.022986198 2.3092474e-39 307 259
-0.014517599 0.69 -0.022986198 2.4021605e-39 308 259
-0.0133078 0.69 -0.022986198 2.218128e-39 309 259
-0.012097999 0.69 -0.022986198 2.4929128e-39 310 259
-0.010888199 0.69 -0.022986198 2.3088816e-39 311 259
-0.0096783992 0.69 -0.022986198 2.491838e-39 312 259
-0.0084686 0.69 -0.022986198 2.5840336e-39 313 259
-0.0072587994 0.69 -0.022986198 2.4014402e-39 314 259
-0.0060489997 0.69 -0.022986198 2.4936372e-39 315 259
-0.0048391996 0.69 -0.022986198 2.7705759e-39 316 259
-0.0036293997 0.69 -0.022986198 2.8627715e-39 317 259
-0.0024195998 0.69 -0.022986198 2.8631218e-39 318 259
-0.0012115532 0.69099998 -0.023019511 2.7709262e-39 319 259
0 0.69300002 -0.02308614 2.7694884e-39 320 259
0.00121506 0.69300002 -0.02308614 2.6772914e-39 321 259
0.0024336267 0.69400001 -0.023119451 2.9528035e-39 322 259
0.0036504399 0.69400001 -0.023119451 3.1371948e-39 323 259
0.0048672534 0.69400001 -0.023119451 3.1397157e-39 324 259
0.0060840664 0.69400001 -0.023119451 3.6003337e-39 325 259
0.0073008798 0.69400001 -0.023119451 3.3273468e-39 326 259
0.0085176928 0.69400001 -0.023119451 3.7879648e-39 327 259
0.0097345067 0.69400001 -0.023119451 4.2471549e-39 328 259
0.011140679 0.70599997 -0.023519212 4.2471549e-39 329 259
-0.037938625 0.69800001 -0.024476532 6.6370288e-39 289 260
-0.0367148 0.69800001 -0.024476532 5.0718681e-39 290 260
-0.035490975 0.69800001 -0.024476532 4.6112487e-39 291 260
-0.034218054 0.69700003 -0.024441468 3.6918133e-39 292 260
-0.032948639 0.69599998 -0.0244064 2.9542483e-39 293 260
-0.031591557 0.69300002 -0.024301201 1.7607441e-39 294 260
-0.0303765 0.69300002 -0.024301201 1.6685471e-39 295 260
-0.029161438 0.69300002 -0.024301201 2.218128e-39 296 260
-0.027946379 0.69300002 -0.024301201 2.218128e-39 297 260
-0.026654173 0.69099998 -0.024231065 2.4929128e-39 298 260
-0.025442619 0.69099998 -0.024231065 2.3088816e-39 299 260
-0.024231065 0.69099998 -0.024231065 2.3074439e-39 300 260
-0.023019511 0.69099998 -0.024231065 2.1234128e-39 301 260
-0.021871079 0.69300002 -0.024301201 2.214528e-39 302 260
-0.020596405 0.69099998 -0.024231065 2.214528e-39 303 260
-0.019384852 0.69099998 -0.024231065 1.939739e-39 304 260
-0.0181733 0.69099998 -0.024231065 2.1241317e-39 305 260
-0.0169372 0.69 -0.024195999 2.217049e-39 306 260
-0.015727401 0.69 -0.024195999 2.3092446e-39 307 260
-0.014517599 0.69 -0.024195999 2.2181308e-39 308 260
-0.0133078 0.69 -0.024195999 2.4021633e-39 309 260
-0.012097999 0.69 -0.024195999 2.491838e-39 310 260
-0.010888199 0.69 -0.024195999 2.491838e-39 311 260
-0.0096783992 0.69 -0.024195999 2.5843895e-39 312 260
-0.0084686 0.69 -0.024195999 2.5843895e-39 313 260
-0.0072587994 0.69 -0.024195999 2.5851056e-39 314 260
-0.0060577663 0.69099998 -0.024231065 2.8620526e-39 315 260
-0.0048462129 0.69099998 -0.024231065 2.8627659e-39 316 260
-0.0036346598 0.69099998 -0.024231065 3.0475159e-39 317 260
-0.0024231065 0.69099998 -0.024231065 2.7716493e-39 318 260
-0.00121506 0.69300002 -0.024301201 2.587258e-39 319 260
0 0.69300002 -0.024301201 2.7698542e-39 320 260
0.00121506 0.69300002 -0.024301201 2.7698542e-39 321 260
0.0024336267 0.69400001 -0.024336265 2.8627715e-39 322 260
0.0036504399 0.69400001 -0.024336265 3.2315554e-39 323 260
0.0048672534 0.69400001 -0.024336265 3.1425954e-39 324 260
0.0060840664 0.69400001 -0.024336265 3.4195424e-39 325 260
0.0073008798 0.69400001 -0.024336265 3.7879676e-39 326 260
0.0085176928 0.69400001 -0.024336265 3.9723602e-39 327 260
0.0099028256 0.70599997 -0.024757065 4.8900034e-39 328 260
0.011140679 0.70599997 -0.024757065 5.2587859e-39 329 260
0.012378532 0.70599997 -0.024757065 8.0242862e-39 330 260
0.013616386 0.70599997 -0.024757065 9.315025e-39 331 260
-0.034218054 0.69700003 -0.025663542 3.9701924e-39 292 261
-0.032948639 0.69599998 -0.025626717 3.6936056e-39 293 261
-0.031591557 0.69300002 -0.02551626 3.2329777e-39 294 261
-0.0303765 0.69300002 -0.02551626 3.0485851e-39 295 261
-0.029161438 0.69300002 -0.02551626 3.0475159e-39 296 261
-0.027946379 0.69300002 -0.02551626 2.7705703e-39 297 261
-0.026654173 0.69099998 -0.025442619 3.1357598e-39 298 261
-0.025442619 0.69099998 -0.025442619 2.8595317e-39 299 261
-0.024231065 0.69099998 -0.025442619 2.7680521e-39 300 261
-0.023019511 0.69099998 -0.025442619 2.3996297e-39 301 261
-0.021871079 0.69300002 -0.02551626 2.3070782e-39 302 261
-0.020656019 0.69300002 -0.02551626 2.3070782e-39 303 261
-0.019384852 0.69099998 -0.025442619 2.031936e-39 304 261
-0.0181733 0.69099998 -0.025442619 2.1241317e-39 305 261
-0.016961746 0.69099998 -0.025442619 2.2163329e-39 306 261
-0.015727401 0.69 -0.025405798 2.4925596e-39 307 261
-0.014517599 0.69 -0.025405798 2.5858357e-39 308 261
-0.0133078 0.69 -0.025405798 2.5858357e-39 309 261
-0.012097999 0.69 -0.025405798 2.4025164e-39 310 261
-0.010888199 0.69 -0.025405798 2.2181251e-39 311 261
-0.0096783992 0.69 -0.025405798 2.49291e-39 312 261
-0.008480873 0.69099998 -0.025442619 2.5851056e-39 313 261
-0.0072693196 0.69099998 -0.025442619 2.769857e-39 314 261
-0.0060577663 0.69099998 -0.025442619 2.9542483e-39 315 261
-0.0048462129 0.69099998 -0.025442619 2.9549643e-39 316 261
-0.0036451798 0.69300002 -0.02551626 3.1397157e-39 317 261
-0.00243012 0.69300002 -0.02551626 3.4155767e-39 318 261
-0.00121506 0.69300002 -0.02551626 3.3233811e-39 319 261
0 0.69300002 -0.02551626 3.5974499e-39 320 261
0.0012168133 0.69400001 -0.025553079 3.5052542e-39 321 261
0.0024336267 0.69400001 -0.025553079 3.5985359e-39 322 261
0.0036504399 0.69400001 -0.025553079 3.9676771e-39 323 261
0.0048672534 0.69400001 -0.025553079 3.6028575e-39 324 261
0.0061015999 0.69599998 -0.025626717 3.7872487e-39 325 261
0.0073219193 0.69599998 -0.025626717 4.0624063e-39 326 261
0.008677247 0.70700002 -0.02603174 4.3393533e-39 327 261
0.0099028256 0.70599997 -0.025994917 4.9825647e-39 328 261
0.011140679 0.70599997 -0.025994917 5.7204899e-39 329 261
0.012378532 0.70599997 -0.025994917 8.3905604e-39 330 261
0.013616386 0.70599997 -0.025994917 8.5753104e-39 331 261
-0.027946379 0.69300002 -0.02673132 2.7712989e-39 297 262
-0.026654173 0.69099998 -0.026654173 3.1368444e-39 298 262
-0.025442619 0.69099998 -0.026654173 3.0446488e-39 299 262
-0.024231065 0.69099998 -0.026654173 2.6769383e-39 300 262
-0.023019511 0.69099998 -0.026654173 2.6769383e-39 301 262
-0.021871079 0.69300002 -0.02673132 2.4921911e-39 302 262
-0.020656019 0.69300002 -0.02673132 2.3077998e-39 303 262
-0.019384852 0.69099998 -0.026654173 2.1234156e-39 304 262
-0.0181733 0.69099998 -0.026654173 2.3996423e-39 305 262
-0.016961746 0.69099998 -0.026654173 2.3085257e-39 306 262
-0.015750192 0.69099998 -0.026654173 2.6773082e-39 307 262
-0.014538639 0.69099998 -0.026654173 2.5869105e-39 308 262
-0.013327086 0.69099998 -0.026654173 2.5869105e-39 309 262
-0.012097999 0.69 -0.026615599 2.4936372e-39 310 262
-0.010888199 0.69 -0.026615599 2.4936372e-39 311 262
-0.0096783992 0.69 -0.026615599 2.6773054e-39 312 262
-0.008480873 0.69099998 -0.026654173 2.7695011e-39 313 262
-0.0072693196 0.69099998 -0.026654173 3.0453649e-39 314 262
-0.0060753003 0.69300002 -0.02673132 3.2297561e-39 315 262
-0.00486024 0.69300002 -0.02673132 3.1397157e-39 316 262
-0.0036451798 0.69300002 -0.02673132 3.4159425e-39 317 262
-0.0024336267 0.69400001 -0.026769891 3.5081381e-39 318 262
-0.0012168133 0.69400001 -0.026769891 3.5081381e-39 319 262
0 0.69400001 -0.026769891 3.6900126e-39 320 262
0.0012168133 0.69400001 -0.026769891 3.597817e-39 321 262
0.0024336267 0.69400001 -0.026769891 3.5070689e-39 322 262
0.0036504399 0.69400001 -0.026769891 3.9680471e-39 323 262
0.0048672534 0.69400001 -0.026769891 3.9702107e-39 324 262
0.0061015999 0.69599998 -0.026847038 4.0624063e-39 325 262
0.0073219193 0.69599998 -0.026847038 4.4301168e-39 326 262
0.008677247 0.70700002 -0.027271347 4.6145081e-39 327 262
0.0099168532 0.70700002 -0.027271347 5.2580768e-39 328 262
0.011156459 0.70700002 -0.027271347 6.4566186e-39 329 262
0.012396066 0.70700002 -0.027271347 8.1150483e-39 330 262
0.013635674 0.70700002 -0.027271347 8.0228527e-39 331 262
-0.027946379 0.69300002 -0.027946379 3.1397255e-39 297 263
-0.02673132 0.69300002 -0.027946379 3.5967436e-39 298 263
-0.02551626 0.69300002 -0.027946379 3.504548e-39 299 263
-0.024231065 0.69099998 -0.027865725 3.230475e-39 300 263
-0.023019511 0.69099998 -0.027865725 3.0464439e-39 301 263
-0.021871079 0.69300002 -0.027946379 2.5861888e-39 302 263
-0.020656019 0.69300002 -0.027946379 2.4017961e-39 303 263
-0.01944096 0.69300002 -0.027946379 2.3092474e-39 304 263
-0.018225901 0.69300002 -0.027946379 2.3092474e-39 305 263
-0.016961746 0.69099998 -0.027865725 2.3110467e-39 306 263
-0.015750192 0.69099998 -0.027865725 2.5872734e-39 307 263
-0.014538639 0.69099998 -0.027865725 2.4961568e-39 308 263
-0.013327086 0.69099998 -0.027865725 2.4961568e-39 309 263
-0.012097999 0.69 -0.027825398 2.6787502e-39 310 263
-0.010888199 0.69 -0.027825398 2.6787502e-39 311 263
-0.0096783992 0.69 -0.027825398 2.7713017e-39 312 263
-0.008480873 0.69099998 -0.027865725 2.7713017e-39 313 263
-0.0072693196 0.69099998 -0.027865725 3.0471655e-39 314 263
-0.0060753003 0.69300002 -0.027946379 3.2315582e-39 315 263
-0.00486024 0.69300002 -0.027946379 3.0489648e-39 316 263
-0.0036451798 0.69300002 -0.027946379 3.3251916e-39 317 263
-0.0024336267 0.69400001 -0.027986705 3.4177431e-39 318 263
-0.0012168133 0.69400001 -0.027986705 3.5099402e-39 319 263
0 0.69400001 -0.027986705 3.7829299e-39 320 263
0.0012168133 0.69400001 -0.027986705 3.5985387e-39 321 263
0.0024336267 0.69400001 -0.027986705 3.7825796e-39 322 263
0.0036504399 0.69400001 -0.027986705 4.2435577e-39 323 263
0.0048672534 0.69400001 -0.027986705 3.7865425e-39 324 263
0.0060840664 0.69400001 -0.027986705 3.9712939e-39 325 263
0.0074376399 0.70700002 -0.028510952 4.154253e-39 326 263
0.008677247 0.70700002 -0.028510952 4.3386443e-39 327 263
0.0099168532 0.70700002 -0.028510952 4.9832906e-39 328 263
0.011156459 0.70700002 -0.028510952 6.5506163e-39 329 263
0.0124136 0.708 -0.02855128 8.3923611e-39 330 263
0.013654959 0.708 -0.02855128 8.3001655e-39 331 263
0.014959441 0.71100003 -0.028672259 8.7604023e-39 332 263
-0.027946379 0.69300002 -0.029161438 3.3248412e-39 297 264
-0.026654173 0.69099998 -0.029077278 3.5070689e-39 298 264
-0.025442619 0.69099998 -0.029077278 3.5070689e-39 299 264
-0.024231065 0.69099998 -0.029077278 3.3244699e-39 300 264
-0.023019511 0.69099998 -0.029077278 3.3244699e-39 301 264
-0.021871079 0.69300002 -0.029161438 2.9567664e-39 302 264
-0.020656019 0.69300002 -0.029161438 2.7723737e-39 303 264
-0.01944096 0.69300002 -0.029161438 2.7712989e-39 304 264
-0.018225901 0.69300002 -0.029161438 2.7712989e-39 305 264
-0.01701084 0.69300002 -0.029161438 2.8645708e-39 306 264
-0.015750192 0.69099998 -0.029077278 2.9567664e-39 307 264
-0.014538639 0.69099998 -0.029077278 2.9574881e-39 308 264
-0.013327086 0.69099998 -0.029077278 2.9574881e-39 309 264
-0.012115533 0.69099998 -0.029077278 3.1397255e-39 310 264
-0.010888199 0.69 -0.029035198 3.1397255e-39 311 264
-0.0096783992 0.69 -0.029035198 3.0486089e-39 312 264
-0.008480873 0.69099998 -0.029077278 3.0486089e-39 313 264
-0.0072693196 0.69099998 -0.029077278 3.2329987e-39 314 264
-0.0060753003 0.69300002 -0.029161438 3.41739e-39 315 264
-0.00486024 0.69300002 -0.029161438 3.5103031e-39 316 264
-0.0036504399 0.69400001 -0.029203519 3.6950531e-39 317 264
-0.0024336267 0.69400001 -0.029203519 3.6950503e-39 318 264
-0.0012168133 0.69400001 -0.029203519 3.6028547e-39 319 264
0 0.69400001 -0.029203519 3.967324e-39 320 264
0.0012168133 0.69400001 -0.029203519 3.7829327e-39 321 264
0.0024336267 0.69400001 -0.029203519 3.9669709e-39 322 264
0.0036504399 0.69400001 -0.029203519 4.3357534e-39 323 264
0.0048672534 0.69400001 -0.029203519 3.9698547e-39 324 264
0.0060840664 0.69400001 -0.029203519 4.1546061e-39 325 264
0.0074376399 0.70700002 -0.029750559 4.154253e-39 326 264
0.008677247 0.70700002 -0.029750559 4.2464486e-39 327 264
0.0099168532 0.70700002 -0.029750559 4.6163101e-39 328 264
0.011156459 0.70700002 -0.029750559 5.907049e-39 329 264
0.012448666 0.70999998 -0.029876797 8.5774726e-39 330 264
0.013693533 0.70999998 -0.029876797 9.3150377e-39 331 264
0.014959441 0.71100003 -0.029918881 1.0510317e-38 332 264
0.01620606 0.71100003 -0.029918881 1.087946e-38 333 264
-0.026654173 0.69099998 -0.030288832 3.5074346e-39 298 265
-0.025442619 0.69099998 -0.030288832 3.5074346e-39 299 265
-0.024231065 0.69099998 -0.030288832 3.1433255e-39 300 265
-0.023019511 0.69099998 -0.030288832 3.0511298e-39 301 265
-0.021871079 0.69300002 -0.0303765 2.9596531e-39 302 265
-0.020656019 0.69300002 -0.0303765 2.7756205e-39 303 265
-0.01944096 0.69300002 -0.0303765 2.6834249e-39 304 265
-0.018225901 0.69300002 -0.0303765 2.7756205e-39 305 265
-0.01701084 0.69300002 -0.0303765 2.6841438e-39 306 265
-0.015795778 0.69300002 -0.0303765 2.7763408e-39 307 265
-0.014580719 0.69300002 -0.0303765 3.0511326e-39 308 265
-0.01336566 0.69300002 -0.0303765 3.0511326e-39 309 265
-0.012150601 0.69300002 -0.0303765 3.0507767e-39 310 265
-0.01090398 0.69099998 -0.030288832 3.0507767e-39 311 265
-0.0096924258 0.69099998 -0.030288832 3.0507767e-39 312 265
-0.008480873 0.69099998 -0.030288832 3.0507767e-39 313 265
-0.0072903596 0.69300002 -0.0303765 3.5099556e-39 314 265
-0.0060753003 0.69300002 -0.0303765 3.6943468e-39 315 265
-0.0048672534 0.69400001 -0.030420333 3.6035861e-39 316 265
-0.0036504399 0.69400001 -0.030420333 3.7876173e-39 317 265
-0.0024336267 0.69400001 -0.030420333 3.7876145e-39 318 265
-0.0012168133 0.69400001 -0.030420333 3.5113877e-39 319 265
0 0.69400001 -0.030420333 3.8769304e-39 320 265
0.0012168133 0.69400001 -0.030420333 3.5999834e-39 321 265
0.0024336267 0.69400001 -0.030420333 3.9680471e-39 322 265
0.0036609597 0.69599998 -0.030507999 4.2446339e-39 323 265
0.0048812795 0.69599998 -0.030507999 4.0624063e-39 324 265
0.0061892662 0.70599997 -0.030946331 4.1546033e-39 325 265
0.0074271196 0.70599997 -0.030946331 4.154253e-39 326 265
0.0086649731 0.70599997 -0.030946331 4.2464486e-39 327 265
0.0099028256 0.70599997 -0.030946331 4.3393631e-39 328 265
0.011156459 0.70700002 -0.030990168 4.8925369e-39 329 265
0.012448666 0.70999998 -0.031121666 7.9342542e-39 330 265
0.013693533 0.70999998 -0.031121666 9.5937755e-39 331 265
0.014938398 0.70999998 -0.031121666 1.0325204e-38 332 265
0.016183265 0.70999998 -0.031121666 1.0048976e-38 333 265
0.018672999 0.70999998 -0.031121666 1.1334299e-38 335 265
-0.025442619 0.69099998 -0.031500384 4.2432046e-39 299 266
-0.024231065 0.69099998 -0.031500384 3.3266405e-39 300 266
-0.021871079 0.69300002 -0.031591557 3.6035833e-39 302 266
-0.020656019 0.69300002 -0.031591557 3.6035833e-39 303 266
-0.01944096 0.69300002 -0.031591557 3.4199053e-39 304 266
-0.018225901 0.69300002 -0.031591557 3.4199053e-39 305 266
-0.01701084 0.69300002 -0.031591557 3.5121038e-39 306 266
-0.015795778 0.69300002 -0.031591557 3.5121038e-39 307 266
-0.014580719 0.69300002 -0.031591557 3.6035833e-39 308 266
-0.01336566 0.69300002 -0.031591557 3.6035833e-39 309 266
-0.0085054198 0.69300002 -0.031591557 3.2362456e-39 313 266
-0.0072903596 0.69300002 -0.031591557 3.7858264e-39 314 266
-0.0060840664 0.69400001 -0.031637147 3.9698575e-39 315 266
-0.0048672534 0.69400001 -0.031637147 3.7865453e-39 316 266
-0.0036504399 0.69400001 -0.031637147 3.8787409e-39 317 266
-0.0024336267 0.69400001 -0.031637147 3.879094e-39 318 266
-0.0012168133 0.69400001 -0.031637147 3.6947028e-39 319 266
0 0.69400001 -0.031637147 4.0602427e-39 320 266
0.0012203199 0.69599998 -0.031728316 4.0602427e-39 321 266
0.0024406398 0.69599998 -0.031728316 3.8769304e-39 322 266
0.0036609597 0.69599998 -0.031728316 4.2453528e-39 323 266
0.0048953067 0.69800001 -0.031819493 4.1538859e-39 324 266
0.0061366665 0.69999999 -0.031910665 4.3379184e-39 325 266
0.0073955595 0.70300001 -0.032047424 4.154253e-39 326 266
0.0086404262 0.704 -0.032093015 4.2464486e-39 327 266
0.0098747732 0.704 -0.032093015 4.1549719e-39 328 266
0.011140679 0.70599997 -0.032184184 4.1549719e-39 329 266
0.0124136 0.708 -0.03227536 7.0090581e-39 330 266
0.013693533 0.70999998 -0.032366529 9.2213931e-39 331 266
0.014938398 0.70999998 -0.032366529 1.0231567e-38 332 266
0.016183265 0.70999998 -0.032366529 1.0139371e-38 333 266
0.017428132 0.70999998 -0.032366529 8.6624235e-39 334 266
0.018672999 0.70999998 -0.032366529 1.0506336e-38 335 266
0.01994592 0.71100003 -0.032412119 1.7696134e-38 336 266
-0.021902639 0.69400001 -0.032853961 3.6035987e-39 302 267
-0.020685827 0.69400001 -0.032853961 3.6035987e-39 303 267
-0.019469013 0.69400001 -0.032853961 3.5114031e-39 304 267
-0.018225901 0.69300002 -0.03280662 3.6035987e-39 305 267
-0.01701084 0.69300002 -0.03280662 3.4202865e-39 306 267
-0.0073008798 0.69400001 -0.032853961 3.9698603e-39 314 267
-0.0060840664 0.69400001 -0.032853961 3.9698603e-39 315 267
-0.0048672534 0.69400001 -0.032853961 3.7865481e-39 316 267
-0.0036504399 0.69400001 -0.032853961 3.7865481e-39 317 267
-0.0024336267 0.69400001 -0.032853961 3.8787437e-39 318 267
-0.0012168133 0.69400001 -0.032853961 3.7865481e-39 319 267
0 0.69400001 -0.032853961 3.7858236e-39 320 267
0.0012203199 0.69599998 -0.032948639 3.693628e-39 321 267
0.0024406398 0.69599998 -0.032948639 3.7861795e-39 322 267
0.0036609597 0.69599998 -0.032948639 4.0624063e-39 323 267
0.0048953067 0.69800001 -0.033043321 3.9712911e-39 324 267
0.0061366665 0.69999999 -0.033137999 4.1553222e-39 325 267
0.0073745195 0.70099998 -0.03318534 4.0642084e-39 326 267
0.0086281532 0.70300001 -0.033280019 4.0642084e-39 327 267
0.0098607466 0.70300001 -0.033280019 4.5226656e-39 328 267
0.011109119 0.704 -0.03332736 4.1538831e-39 329 267
0.0124136 0.708 -0.033516716 6.2725651e-39 330 267
0.013693533 0.70999998 -0.033611398 9.1306296e-39 331 267
0.014938398 0.70999998 -0.033611398 1.0507784e-38 332 267
0.016183265 0.70999998 -0.033611398 1.0599981e-38 333 267
0.017428132 0.70999998 -0.033611398 9.1259058e-39 334 267
0.0186993 0.71100003 -0.033658739 1.050884e-38 335 267
0.01994592 0.71100003 -0.033658739 1.7695765e-38 336 267
0.021192541 0.71100003 -0.033658739 1.8986504e-38 337 267
-0.0061103669 0.69700003 -0.034218054 3.9695044e-39 315 268
-0.0048812795 0.69599998 -0.034168959 3.6939965e-39 316 268
-0.0036609597 0.69599998 -0.034168959 3.7861921e-39 317 268
-0.0024406398 0.69599998 -0.034168959 3.7872669e-39 318 268
-0.0012203199 0.69599998 -0.034168959 3.7872669e-39 319 268
0 0.69599998 -0.034168959 3.8787381e-39 320 268
0.0012220733 0.69700003 -0.034218054 3.8787381e-39 321 268
0.0024441467 0.69700003 -0.034218054 3.879094e-39 322 268
0.0036714801 0.69800001 -0.034267146 3.9712911e-39 323 268
0.0049093333 0.69999999 -0.034365334 3.9716568e-39 324 268
0.0061454331 0.70099998 -0.034414422 3.9716568e-39 325 268
0.0073745195 0.70099998 -0.034414422 4.1549691e-39 326 268
0.0086036054 0.70099998 -0.034414422 4.2475234e-39 327 268
0.0098326923 0.70099998 -0.034414422 4.3389974e-39 328 268
0.011109119 0.704 -0.034561705 4.431193e-39 329 268
0.0124136 0.708 -0.034758076 7.560427e-39 330 268
0.013693533 0.70999998 -0.034856264 1.0326655e-38 331 268
0.014938398 0.70999998 -0.034856264 1.069397e-38 332 268
0.016183265 0.70999998 -0.034856264 1.0325189e-38 333 268
0.017428132 0.70999998 -0.034856264 9.6772775e-39 334 268
0.018672999 0.70999998 -0.034856264 1.1152409e-38 335 268
0.019917866 0.70999998 -0.034856264 1.7419538e-38 336 268
0.021162732 0.70999998 -0.034856264 1.8895027e-38 337 268
-0.00733244 0.69700003 -0.035440128 3.6028771e-39 314 269
-0.0061103669 0.69700003 -0.035440128 3.6028771e-39 315 269
-0.0048882933 0.69700003 -0.035440128 3.6028771e-39 316 269
-0.0036609597 0.69599998 -0.035389278 3.6028771e-39 317 269
-0.0024406398 0.69599998 -0.035389278 3.6028771e-39 318 269
-0.0012220733 0.69700003 -0.035440128 3.7872669e-39 319 269
0 0.69800001 -0.035490975 3.7872669e-39 320 269
0.0012273333 0.69999999 -0.035592664 3.7872669e-39 321 269
0.0024546667 0.69999999 -0.035592664 3.7872669e-39 322 269
0.0036819996 0.69999999 -0.035592664 3.879464e-39 323 269
0.0049163462 0.70099998 -0.035643511 4.1549691e-39 324 269
0.0061454331 0.70099998 -0.035643511 4.1549691e-39 325 269
0.0073745195 0.70099998 -0.035643511 4.2468046e-39 326 269
0.0085913334 0.69999999 -0.035592664 4.2468046e-39 327 269
0.0098186666 0.69999999 -0.035592664 4.7059778e-39 328 269
0.011045999 0.69999999 -0.035592664 5.4435429e-39 329 269
0.0124136 0.708 -0.03599944 8.3905436e-39 330 269
0.013693533 0.70999998 -0.036101133 1.0234456e-38 331 269
0.014938398 0.70999998 -0.036101133 1.0417387e-38 332 269
0.016183265 0.70999998 -0.036101133 1.0232995e-38 333 269
0.017428132 0.70999998 -0.036101133 9.4928933e-39 334 269
0.018672999 0.70999998 -0.036101133 1.1244251e-38 335 269
0.019917866 0.70999998 -0.036101133 1.7052561e-38 336 269
0.021162732 0.70999998 -0.036101133 1.8804276e-38 337 269
0.022407599 0.70999998 -0.036101133 1.9905586e-38 338 269
-0.0073008798 0.69400001 -0.036504399 3.603233e-39 314 270
-0.0060840664 0.69400001 -0.036504399 3.7872641e-39 315 270
-0.0048882933 0.69700003 -0.036662199 3.7861921e-39 316 270
-0.00366622 0.69700003 -0.036662199 3.7861921e-39 317 270
-0.0024441467 0.69700003 -0.036662199 3.7861949e-39 318 270
-0.0012238267 0.69800001 -0.0367148 3.878392e-39 319 270
0 0.69999999 -0.036819998 3.879108e-39 320 270
0.0012290865 0.70099998 -0.036872596 3.879108e-39 321 270
0.0024581731 0.70099998 -0.036872596 3.7872641e-39 322 270
0.0036872597 0.70099998 -0.036872596 3.8794612e-39 323 270
0.0049163462 0.70099998 -0.036872596 3.9709379e-39 324 270
0.0061629666 0.70300001 -0.036977798 3.9709379e-39 325 270
0.0073745195 0.70099998 -0.036872596 4.1542502e-39 326 270
