# .PCD v.7 - Point Cloud Data file format
FIELDS x y z rgb imX imY
SIZE 4 4 4 4 4 4
TYPE F F F F F F
COUNT 1 1 1 1 1 1
WIDTH 847
HEIGHT 1
VIEWPOINT 0 0 0 1 0 0 0
POINTS 847
DATA ascii
-0.02057712 0.65200001 0.06744723 1.6597734e-38 302 181
-0.019433947 0.65200001 0.06744723 1.6873961e-38 303 181
-0.018290773 0.65200001 0.06744723 1.6691016e-38 304 181
-0.017147599 0.65200001 0.06744723 1.678357e-38 305 181
-0.016004426 0.65200001 0.06744723 1.7059429e-38 306 181
-0.014861252 0.65200001 0.06744723 1.6137832e-38 307 181
-0.01371808 0.65200001 0.06744723 1.6136737e-38 308 181
-0.012574906 0.65200001 0.06744723 1.6228932e-38 309 181
-0.011431733 0.65200001 0.06744723 1.6227134e-38 310 181
-0.01028856 0.65200001 0.06744723 1.6134939e-38 311 181
-0.0091453865 0.65200001 0.06744723 1.6317528e-38 312 181
-0.0080022132 0.65200001 0.06744723 1.6041301e-38 313 181
-0.0068590399 0.65200001 0.06744723 1.59491e-38 314 181
-0.0057158666 0.65200001 0.06744723 1.5764709e-38 315 181
-0.0045726933 0.65200001 0.06744723 1.5764341e-38 316 181
-0.0034347798 0.653 0.067550674 1.5672146e-38 317 181
-0.0022968664 0.65499997 0.067757562 1.5854736e-38 318 181
-0.0011484332 0.65499997 0.067757562 1.5762541e-38 319 181
0 0.65700001 0.067964457 1.5394114e-38 320 181
0.0011554466 0.65899998 0.068171352 1.5301919e-38 321 181
0.0023214133 0.662 0.068481691 1.5117525e-38 322 181
0.0034821199 0.662 0.068481691 1.5025329e-38 323 181
0.0046428265 0.662 0.068481691 1.5023174e-38 324 181
0.0058122999 0.66299999 0.068585135 1.4746947e-38 325 181
-0.025265532 0.65499997 0.066609129 1.7148365e-38 298 182
-0.024080278 0.65399998 0.066507436 1.6964334e-38 299 182
-0.022898532 0.653 0.066405743 1.6781387e-38 300 182
-0.021753605 0.653 0.066405743 1.6781387e-38 301 182
-0.02057712 0.65200001 0.066304058 1.6690283e-38 302 182
-0.019433947 0.65200001 0.066304058 1.6874314e-38 303 182
-0.018290773 0.65200001 0.066304058 1.6599899e-38 304 182
-0.017147599 0.65200001 0.066304058 1.6599899e-38 305 182
-0.016004426 0.65200001 0.066304058 1.6508057e-38 306 182
-0.014861252 0.65200001 0.066304058 1.6047079e-38 307 182
-0.01371808 0.65200001 0.066304058 1.6229298e-38 308 182
-0.012574906 0.65200001 0.066304058 1.6045267e-38 309 182
-0.011431733 0.65200001 0.066304058 1.6136018e-38 310 182
-0.01028856 0.65200001 0.066304058 1.6136018e-38 311 182
-0.0091453865 0.65200001 0.066304058 1.5950903e-38 312 182
-0.0080144862 0.653 0.066405743 1.5858708e-38 313 182
-0.0068590399 0.65200001 0.066304058 1.59491e-38 314 182
-0.0057158666 0.65200001 0.066304058 1.5856904e-38 315 182
-0.0045867199 0.65399998 0.066507436 1.5672865e-38 316 182
-0.0034400397 0.65399998 0.066507436 1.5488834e-38 317 182
-0.0022968664 0.65499997 0.066609129 1.5763262e-38 318 182
-0.00115194 0.65700001 0.066812515 1.539448e-38 319 182
0 0.65899998 0.067015901 1.5394836e-38 320 182
0.0011589533 0.66100001 0.067219295 1.5210086e-38 321 182
0.0023214133 0.662 0.067320988 1.5117527e-38 322 182
0.0034821199 0.662 0.067320988 1.5024973e-38 323 182
0.0046428265 0.662 0.067320988 1.4839864e-38 324 182
0.0058122999 0.66299999 0.067422673 1.4655114e-38 325 182
-0.025226958 0.65399998 0.065360755 1.6965052e-38 298 183
-0.024043459 0.653 0.06526082 1.6872498e-38 299 183
-0.022863466 0.65200001 0.065160878 1.668991e-38 300 183
-0.021720294 0.65200001 0.065160878 1.668991e-38 301 183
-0.02057712 0.65200001 0.065160878 1.6690283e-38 302 183
-0.019433947 0.65200001 0.065160878 1.6874314e-38 303 183
-0.018290773 0.65200001 0.065160878 1.6507704e-38 304 183
-0.017147599 0.65200001 0.065160878 1.6599899e-38 305 183
-0.016004426 0.65200001 0.065160878 1.6324745e-38 306 183
-0.014861252 0.65200001 0.065160878 1.6047798e-38 307 183
-0.01371808 0.65200001 0.065160878 1.6321495e-38 308 183
-0.012574906 0.65200001 0.065160878 1.6045267e-38 309 183
-0.011431733 0.65200001 0.065160878 1.5953066e-38 310 183
-0.01028856 0.65200001 0.065160878 1.5768674e-38 311 183
-0.0091594132 0.653 0.06526082 1.5951624e-38 312 183
-0.0080267601 0.65399998 0.065360755 1.5859427e-38 313 183
-0.0068695596 0.653 0.06526082 1.5949819e-38 314 183
-0.0057246331 0.653 0.06526082 1.5673592e-38 315 183
-0.0045937328 0.65499997 0.065460697 1.5672509e-38 316 183
-0.0034610799 0.65799999 0.065760516 1.5488478e-38 317 183
-0.0023073866 0.65799999 0.065760516 1.5763262e-38 318 183
-0.0011554466 0.65899998 0.065860458 1.5486677e-38 319 183
0 0.66100001 0.066060342 1.5578148e-38 320 183
0.0011607066 0.662 0.066160277 1.5301921e-38 321 183
0.0023249199 0.66299999 0.066260219 1.530084e-38 322 183
0.0034873798 0.66299999 0.066260219 1.5024253e-38 323 183
0.0046498398 0.66299999 0.066260219 1.4747666e-38 324 183
-0.025226958 0.65399998 0.064214081 1.7148009e-38 298 184
-0.024043459 0.653 0.064115889 1.7148009e-38 299 184
-0.022863466 0.65200001 0.064017706 1.6781034e-38 300 184
-0.021653665 0.64999998 0.063821331 1.6781034e-38 301 184
-0.020513998 0.64999998 0.063821331 1.659809e-38 302 184
-0.019374331 0.64999998 0.063821331 1.6874317e-38 303 184
-0.018234665 0.64999998 0.063821331 1.6600255e-38 304 184
-0.017147599 0.65200001 0.064017706 1.6600255e-38 305 184
-0.016004426 0.65200001 0.064017706 1.6600252e-38 306 184
-0.014861252 0.65200001 0.064017706 1.6047079e-38 307 184
-0.013739119 0.653 0.064115889 1.6412975e-38 308 184
-0.012594193 0.653 0.064115889 1.6320777e-38 309 184
-0.011449266 0.653 0.064115889 1.6136381e-38 310 184
-0.010304339 0.653 0.064115889 1.5951989e-38 311 184
-0.0091734398 0.65399998 0.064214081 1.6227134e-38 312 184
-0.008039033 0.65499997 0.064312264 1.5950547e-38 313 184
-0.0068800794 0.65399998 0.064214081 1.5949822e-38 314 184
-0.0057333997 0.65399998 0.064214081 1.5673595e-38 315 184
-0.0046077599 0.65700001 0.064508639 1.585654e-38 316 184
-0.0034663398 0.65899998 0.064705007 1.5579594e-38 317 184
-0.0023108933 0.65899998 0.064705007 1.5762544e-38 318 184
-0.0011589533 0.66100001 0.064901382 1.5670348e-38 319 184
0 0.662 0.064999565 1.530264e-38 320 184
0.0011607066 0.662 0.064999565 1.5210086e-38 321 184
0.0023249199 0.66299999 0.065097757 1.5117527e-38 322 184
0.0034873798 0.66299999 0.065097757 1.4932776e-38 323 184
0.0046498398 0.66299999 0.065097757 1.4839143e-38 324 184
-0.024043459 0.653 0.062970966 1.7148012e-38 299 185
-0.022863466 0.65200001 0.062874533 1.6964346e-38 300 185
-0.021653665 0.64999998 0.062681668 1.6964346e-38 301 185
-0.020513998 0.64999998 0.062681668 1.6690283e-38 302 185
-0.019374331 0.64999998 0.062681668 1.6874314e-38 303 185
-0.018234665 0.64999998 0.062681668 1.6691369e-38 304 185
-0.017147599 0.65200001 0.062874533 1.6691369e-38 305 185
-0.016004426 0.65200001 0.062874533 1.6507337e-38 306 185
-0.014861252 0.65200001 0.062874533 1.6322945e-38 307 185
-0.013739119 0.653 0.062970966 1.6320422e-38 308 185
-0.012594193 0.653 0.062970966 1.6228226e-38 309 185
-0.011449266 0.653 0.062970966 1.6135665e-38 310 185
-0.010304339 0.653 0.062970966 1.6135665e-38 311 185
-0.0091734398 0.65399998 0.063067392 1.6226778e-38 312 185
-0.008039033 0.65499997 0.063163824 1.595055e-38 313 185
-0.0068905996 0.65499997 0.063163824 1.6041301e-38 314 185
-0.0057596997 0.65700001 0.063356705 1.585691e-38 315 185
-0.0046147732 0.65799999 0.06345313 1.585654e-38 316 185
-0.00347686 0.66100001 0.063742429 1.567179e-38 317 185
-0.0023179066 0.66100001 0.063742429 1.5763262e-38 318 185
-0.0011589533 0.66100001 0.063742429 1.539448e-38 319 185
0 0.662 0.063838862 1.5394836e-38 320 185
0.00116246 0.66299999 0.063935295 1.5210086e-38 321 185
0.0023249199 0.66299999 0.063935295 1.5117171e-38 322 185
0.0034873798 0.66299999 0.063935295 1.4932779e-38 323 185
0.0046708798 0.66600001 0.064224601 1.4563998e-38 324 185
-0.02057712 0.65200001 0.061731357 1.6690286e-38 302 186
-0.019433947 0.65200001 0.061731357 1.6874317e-38 303 186
-0.018290773 0.65200001 0.061731357 1.6782851e-38 304 186
-0.017147599 0.65200001 0.061731357 1.6690296e-38 305 186
-0.016028972 0.653 0.061826039 1.6598456e-38 306 186
-0.014884046 0.653 0.061826039 1.650626e-38 307 186
-0.013739119 0.653 0.061826039 1.659629e-38 308 186
-0.012594193 0.653 0.061826039 1.6504093e-38 309 186
-0.011449266 0.653 0.061826039 1.6411528e-38 310 186
-0.01032012 0.65399998 0.061920714 1.6319333e-38 311 186
-0.0091874655 0.65499997 0.062015396 1.6318611e-38 312 186
-0.0080635799 0.65700001 0.06220476 1.6134218e-38 313 186
-0.0069116396 0.65700001 0.06220476 1.6133494e-38 314 186
-0.0057684663 0.65799999 0.062299434 1.5949103e-38 315 186
-0.0046217865 0.65899998 0.062394116 1.5856537e-38 316 186
-0.00347686 0.66100001 0.062583476 1.5672146e-38 317 186
-0.0023179066 0.66100001 0.062583476 1.5855092e-38 318 186
-0.0011607066 0.662 0.062678158 1.5670342e-38 319 186
0 0.662 0.062678158 1.5394111e-38 320 186
0.00116246 0.66299999 0.062772833 1.5301916e-38 321 186
0.0023249199 0.66299999 0.062772833 1.5300837e-38 322 186
0.0034873798 0.66299999 0.062772833 1.5024609e-38 323 186
-0.024043459 0.653 0.060681112 1.7148365e-38 299 187
-0.022793332 0.64999998 0.060402326 1.6781387e-38 300 187
-0.021653665 0.64999998 0.060402326 1.6781387e-38 301 187
-0.020513998 0.64999998 0.060402326 1.6598804e-38 302 187
-0.019433947 0.65200001 0.060588185 1.6690999e-38 303 187
-0.018290773 0.65200001 0.060588185 1.6691369e-38 304 187
-0.017147599 0.65200001 0.060588185 1.6691369e-38 305 187
-0.016028972 0.653 0.060681112 1.641586e-38 306 187
-0.014884046 0.653 0.060681112 1.6047079e-38 307 187
-0.013739119 0.653 0.060681112 1.6321142e-38 308 187
-0.012594193 0.653 0.060681112 1.6044914e-38 309 187
-0.011449266 0.653 0.060681112 1.6319693e-38 310 187
-0.010335899 0.65499997 0.060866963 1.6135662e-38 311 187
-0.0092155198 0.65700001 0.061052818 1.6226415e-38 312 187
-0.0080635799 0.65700001 0.061052818 1.6134218e-38 313 187
-0.0069221598 0.65799999 0.061145745 1.6040945e-38 314 187
-0.0057772328 0.65899998 0.061238669 1.594875e-38 315 187
-0.0046217865 0.65899998 0.061238669 1.5764711e-38 316 187
-0.00347686 0.66100001 0.061424527 1.5672514e-38 317 187
-0.0023179066 0.66100001 0.061424527 1.5763262e-38 318 187
-0.0011607066 0.662 0.061517447 1.5486677e-38 319 187
0 0.662 0.061517447 1.5395553e-38 320 187
0.0011607066 0.662 0.061517447 1.502713e-38 321 187
-0.026413966 0.65499997 0.059718527 1.7240195e-38 297 188
-0.025188386 0.653 0.059536185 1.6964334e-38 298 188
-0.024043459 0.653 0.059536185 1.7148365e-38 299 188
-0.022898532 0.653 0.059536185 1.6781031e-38 300 188
-0.021653665 0.64999998 0.059262663 1.6873227e-38 301 188
-0.020513998 0.64999998 0.059262663 1.6691002e-38 302 188
-0.019433947 0.65200001 0.059445009 1.6783199e-38 303 188
-0.018290773 0.65200001 0.059445009 1.68754e-38 304 188
-0.017147599 0.65200001 0.059445009 1.6782846e-38 305 188
-0.01605352 0.65399998 0.059627358 1.6598809e-38 306 188
-0.014906839 0.65399998 0.059627358 1.6506255e-38 307 188
-0.013760159 0.65399998 0.059627358 1.6412972e-38 308 188
-0.012613479 0.65399998 0.059627358 1.6228579e-38 309 188
-0.011484332 0.65499997 0.059718527 1.6320049e-38 310 188
-0.010335899 0.65499997 0.059718527 1.6136018e-38 311 188
-0.0092155198 0.65700001 0.05990088 1.6226413e-38 312 188
-0.0080635799 0.65700001 0.05990088 1.604202e-38 313 188
-0.0069221598 0.65799999 0.059992049 1.5766153e-38 314 188
-0.0057772328 0.65899998 0.060083222 1.5581762e-38 315 188
-0.0046358132 0.66100001 0.060265575 1.5856188e-38 316 188
-0.00347686 0.66100001 0.060265575 1.5671796e-38 317 188
-0.0023179066 0.66100001 0.060265575 1.5763262e-38 318 188
-0.0011607066 0.662 0.060356744 1.5486677e-38 319 188
0 0.662 0.060356744 1.5302637e-38 320 188
0.0011607066 0.662 0.060356744 1.5118246e-38 321 188
0.0023249199 0.66299999 0.060447913 1.5116453e-38 322 188
-0.027688639 0.65799999 0.058838356 1.7147996e-38 296 189
-0.026413966 0.65499997 0.058570094 1.7240192e-38 297 189
-0.025188386 0.653 0.058391262 1.6872854e-38 298 189
-0.024043459 0.653 0.058391262 1.696505e-38 299 189
-0.022898532 0.653 0.058391262 1.6781387e-38 300 189
-0.021720294 0.65200001 0.058301836 1.6781387e-38 301 189
-0.02057712 0.65200001 0.058301836 1.669028e-38 302 189
-0.019433947 0.65200001 0.058301836 1.6966867e-38 303 189
-0.018290773 0.65200001 0.058301836 1.6783202e-38 304 189
-0.017173899 0.653 0.058391262 1.6783202e-38 305 189
-0.01605352 0.65399998 0.05848068 1.6415494e-38 306 189
-0.014929632 0.65499997 0.058570094 1.6138548e-38 307 189
-0.013781199 0.65499997 0.058570094 1.6321495e-38 308 189
-0.012613479 0.65399998 0.05848068 1.6045267e-38 309 189
-0.011466799 0.65399998 0.05848068 1.6136737e-38 310 189
-0.01032012 0.65399998 0.05848068 1.6044541e-38 311 189
-0.0091874655 0.65499997 0.058570094 1.6134936e-38 312 189
-0.0080635799 0.65700001 0.058748938 1.5950903e-38 313 189
-0.0069221598 0.65799999 0.058838356 1.5858708e-38 314 189
-0.0057772328 0.65899998 0.058927774 1.5581762e-38 315 189
-0.0046358132 0.66100001 0.059106622 1.5581399e-38 316 189
-0.00347686 0.66100001 0.059106622 1.5396648e-38 317 189
-0.0023179066 0.66100001 0.059106622 1.5579594e-38 318 189
-0.0011607066 0.662 0.05919604 1.5211172e-38 319 189
0 0.662 0.05919604 1.5210089e-38 320 189
0.0011607066 0.662 0.05919604 1.5117893e-38 321 189
0.0023249199 0.66299999 0.059285458 1.5116455e-38 322 189
-0.027688639 0.65799999 0.057684667 1.7147999e-38 296 190
-0.026413966 0.65499997 0.057421666 1.7147999e-38 297 190
-0.025226958 0.65399998 0.057333998 1.6781737e-38 298 190
-0.024043459 0.653 0.057246335 1.6781737e-38 299 190
-0.022898532 0.653 0.057246335 1.6781387e-38 300 190
-0.021720294 0.65200001 0.057158668 1.6781387e-38 301 190
-0.02057712 0.65200001 0.057158668 1.6873948e-38 302 190
-0.019463753 0.653 0.057246335 1.7058341e-38 303 190
-0.018318826 0.653 0.057246335 1.6783199e-38 304 190
-0.017173899 0.653 0.057246335 1.6783199e-38 305 190
-0.01605352 0.65399998 0.057333998 1.6598806e-38 306 190
-0.014929632 0.65499997 0.057421666 1.6230025e-38 307 190
-0.013781199 0.65499997 0.057421666 1.6321495e-38 308 190
-0.012613479 0.65399998 0.057333998 1.6045267e-38 309 190
-0.011466799 0.65399998 0.057333998 1.6135662e-38 310 190
-0.01032012 0.65399998 0.057333998 1.6135662e-38 311 190
-0.0091874655 0.65499997 0.057421666 1.5859071e-38 312 190
-0.0080635799 0.65700001 0.057596996 1.5766875e-38 313 190
-0.0069221598 0.65799999 0.057684667 1.5674677e-38 314 190
-0.0057772328 0.65899998 0.057772331 1.5490645e-38 315 190
-0.0046358132 0.66100001 0.057947662 1.5581399e-38 316 190
-0.00347686 0.66100001 0.057947662 1.5396648e-38 317 190
-0.0023179066 0.66100001 0.057947662 1.5487401e-38 318 190
-0.0011607066 0.662 0.058035329 1.5210816e-38 319 190
0 0.662 0.058035329 1.5301568e-38 320 190
0.00116246 0.66299999 0.058122993 1.5024623e-38 321 190
-0.027688639 0.65799999 0.056530971 1.7239839e-38 296 191
-0.026413966 0.65499997 0.056273226 1.7239839e-38 297 191
-0.025226958 0.65399998 0.056187313 1.6965052e-38 298 191
-0.024043459 0.653 0.056101404 1.6965052e-38 299 191
-0.022898532 0.653 0.056101404 1.6781387e-38 300 191
-0.021753605 0.653 0.056101404 1.6873583e-38 301 191
-0.020608678 0.653 0.056101404 1.669028e-38 302 191
-0.019493559 0.65399998 0.056187313 1.687467e-38 303 191
-0.01834688 0.65399998 0.056187313 1.6691722e-38 304 191
-0.017200198 0.65399998 0.056187313 1.650769e-38 305 191
-0.01605352 0.65399998 0.056187313 1.6506608e-38 306 191
-0.014906839 0.65399998 0.056187313 1.6414412e-38 307 191
-0.013760159 0.65399998 0.056187313 1.6321495e-38 308 191
-0.012613479 0.65399998 0.056187313 1.6045267e-38 309 191
-0.011466799 0.65399998 0.056187313 1.6318977e-38 310 191
-0.01032012 0.65399998 0.056187313 1.6226781e-38 311 191
-0.0091874655 0.65499997 0.056273226 1.6134939e-38 312 191
-0.008039033 0.65499997 0.056273226 1.5858352e-38 313 191
-0.0069326796 0.65899998 0.056616884 1.5766153e-38 314 191
-0.0057772328 0.65899998 0.056616884 1.5581762e-38 315 191
-0.0046358132 0.66100001 0.056788713 1.5581399e-38 316 191
-0.0034821199 0.662 0.056874625 1.5396648e-38 317 191
-0.0023214133 0.662 0.056874625 1.5578878e-38 318 191
-0.0011607066 0.662 0.056874625 1.5394487e-38 319 191
0 0.66600001 0.057218276 1.5392329e-38 320 191
0.0011694733 0.667 0.057304189 1.5023907e-38 321 191
-0.027688639 0.65799999 0.055377278 1.7147643e-38 296 192
-0.026534945 0.65799999 0.055377278 1.7239839e-38 297 192
-0.025265532 0.65499997 0.055124797 1.6781737e-38 298 192
-0.024117097 0.65499997 0.055124797 1.6781737e-38 299 192
-0.022968665 0.65499997 0.055124797 1.6781384e-38 300 192
-0.021820232 0.65499997 0.055124797 1.6781384e-38 301 192
-0.020671798 0.65499997 0.055124797 1.6873948e-38 302 192
-0.019493559 0.65399998 0.055040635 1.6966144e-38 303 192
-0.01834688 0.65399998 0.055040635 1.6691722e-38 304 192
-0.017200198 0.65399998 0.055040635 1.650769e-38 305 192
-0.01605352 0.65399998 0.055040635 1.6415494e-38 306 192
-0.014906839 0.65399998 0.055040635 1.6138548e-38 307 192
-0.013760159 0.65399998 0.055040635 1.6412972e-38 308 192
-0.012613479 0.65399998 0.055040635 1.6228579e-38 309 192
-0.011466799 0.65399998 0.055040635 1.6136383e-38 310 192
-0.01032012 0.65399998 0.055040635 1.5951992e-38 311 192
-0.0091874655 0.65499997 0.055124797 1.5950553e-38 312 192
-0.008039033 0.65499997 0.055124797 1.5857999e-38 313 192
-0.0069326796 0.65899998 0.055461437 1.5673961e-38 314 192
-0.0057772328 0.65899998 0.055461437 1.5581765e-38 315 192
-0.0046217865 0.65899998 0.055461437 1.5764711e-38 316 192
-0.00347686 0.66100001 0.05562976 1.5488125e-38 317 192
-0.0023179066 0.66100001 0.05562976 1.5487401e-38 318 192
-0.0011607066 0.662 0.055713918 1.5118619e-38 319 192
0 0.66600001 0.056050558 1.5301212e-38 320 192
-0.028842334 0.65799999 0.054223582 1.7330591e-38 295 193
-0.027688639 0.65799999 0.054223582 1.7330955e-38 296 193
-0.026534945 0.65799999 0.054223582 1.742351e-38 297 193
-0.025342681 0.65700001 0.054141179 1.7148362e-38 298 193
-0.024190739 0.65700001 0.054141179 1.7148362e-38 299 193
-0.023038799 0.65700001 0.054141179 1.6964699e-38 300 193
-0.021886859 0.65700001 0.054141179 1.7056895e-38 301 193
-0.020671798 0.65499997 0.053976361 1.6873951e-38 302 193
-0.019523365 0.65499997 0.053976361 1.6966147e-38 303 193
-0.018374931 0.65499997 0.053976361 1.6783202e-38 304 193
-0.017226499 0.65499997 0.053976361 1.6691005e-38 305 193
-0.016078066 0.65499997 0.053976361 1.6506608e-38 306 193
-0.014929632 0.65499997 0.053976361 1.6414412e-38 307 193
-0.013781199 0.65499997 0.053976361 1.6321131e-38 308 193
-0.012613479 0.65399998 0.053893957 1.6321131e-38 309 193
-0.011466799 0.65399998 0.053893957 1.6136737e-38 310 193
-0.010335899 0.65499997 0.053976361 1.6044541e-38 311 193
-0.0092295464 0.65799999 0.054223582 1.6134939e-38 312 193
-0.0080881258 0.65899998 0.054305989 1.5766156e-38 313 193
-0.0069221598 0.65799999 0.054223582 1.5766153e-38 314 193
-0.0057684663 0.65799999 0.054223582 1.5581762e-38 315 193
-0.0046217865 0.65899998 0.054305989 1.5672512e-38 316 193
-0.00347686 0.66100001 0.054470807 1.548848e-38 317 193
-0.0023179066 0.66100001 0.054470807 1.5487396e-38 318 193
-0.0011607066 0.662 0.054553211 1.5211168e-38 319 193
-0.028842334 0.65799999 0.05306989 1.7422785e-38 295 194
-0.027688639 0.65799999 0.05306989 1.7331311e-38 296 194
-0.026534945 0.65799999 0.05306989 1.7423507e-38 297 194
-0.025342681 0.65700001 0.052989237 1.7148362e-38 298 194
-0.024190739 0.65700001 0.052989237 1.7148362e-38 299 194
-0.023038799 0.65700001 0.052989237 1.7056892e-38 300 194
-0.021886859 0.65700001 0.052989237 1.7056892e-38 301 194
-0.020671798 0.65499997 0.052827932 1.6873946e-38 302 194
-0.019523365 0.65499997 0.052827932 1.69665e-38 303 194
-0.018374931 0.65499997 0.052827932 1.6690999e-38 304 194
-0.017226499 0.65499997 0.052827932 1.6690999e-38 305 194
-0.01612716 0.65700001 0.052989237 1.6415491e-38 306 194
-0.01497522 0.65700001 0.052989237 1.6138904e-38 307 194
-0.013781199 0.65499997 0.052827932 1.6229295e-38 308 194
-0.012632766 0.65499997 0.052827932 1.6045264e-38 309 194
-0.011484332 0.65499997 0.052827932 1.5953068e-38 310 194
-0.010335899 0.65499997 0.052827932 1.5860873e-38 311 194
-0.0092295464 0.65799999 0.05306989 1.5858718e-38 312 194
-0.0080758529 0.65799999 0.05306989 1.5766522e-38 313 194
-0.0069221598 0.65799999 0.05306989 1.5857276e-38 314 194
-0.0057684663 0.65799999 0.05306989 1.5673244e-38 315 194
-0.0046217865 0.65899998 0.053150542 1.5581043e-38 316 194
-0.00347686 0.66100001 0.053311851 1.5396651e-38 317 194
-0.0023179066 0.66100001 0.053311851 1.5304086e-38 318 194
-0.00116772 0.66600001 0.053715117 1.4934944e-38 319 194
-0.028842334 0.65799999 0.051916201 1.7513906e-38 295 195
-0.027688639 0.65799999 0.051916201 1.7330958e-38 296 195
-0.026534945 0.65799999 0.051916201 1.7423154e-38 297 195
-0.025342681 0.65700001 0.051837299 1.7239841e-38 298 195
-0.024190739 0.65700001 0.051837299 1.7239841e-38 299 195
-0.023038799 0.65700001 0.051837299 1.7148012e-38 300 195
-0.021886859 0.65700001 0.051837299 1.7240207e-38 301 195
-0.020734919 0.65700001 0.051837299 1.6873948e-38 302 195
-0.0172791 0.65700001 0.051837299 1.6598809e-38 305 195
-0.01612716 0.65700001 0.051837299 1.6598085e-38 306 195
-0.01497522 0.65700001 0.051837299 1.6505889e-38 307 195
-0.013781199 0.65499997 0.051679496 1.6321128e-38 308 195
-0.012632766 0.65499997 0.051679496 1.6228932e-38 309 195
-0.011519399 0.65700001 0.051837299 1.6136018e-38 310 195
-0.01036746 0.65700001 0.051837299 1.6043822e-38 311 195
-0.0092155198 0.65700001 0.051837299 1.6134583e-38 312 195
-0.0080635799 0.65700001 0.051837299 1.5858355e-38 313 195
-0.0069221598 0.65799999 0.051916201 1.5949468e-38 314 195
-0.0057684663 0.65799999 0.051916201 1.5673242e-38 315 195
-0.0046217865 0.65899998 0.051995095 1.5672512e-38 316 195
-0.00347686 0.66100001 0.052152898 1.548848e-38 317 195
-0.0023214133 0.662 0.0522318 1.5486677e-38 318 195
-0.00116772 0.66600001 0.052547399 1.5302284e-38 319 195
-0.028886165 0.65899998 0.050839648 1.7606456e-38 295 196
-0.027730718 0.65899998 0.050839648 1.7330955e-38 296 196
-0.026575271 0.65899998 0.050839648 1.742351e-38 297 196
-0.025419824 0.65899998 0.050839648 1.6964334e-38 298 196
-0.024264378 0.65899998 0.050839648 1.6964334e-38 299 196
-0.023073865 0.65799999 0.050762504 1.6964697e-38 300 196
-0.021920172 0.65799999 0.050762504 1.6964697e-38 301 196
-0.019493559 0.65399998 0.050453916 1.6873948e-38 303 196
-0.01834688 0.65399998 0.050453916 1.6598806e-38 304 196
-0.0172791 0.65700001 0.050685361 1.6598806e-38 305 196
-0.016078066 0.65499997 0.050531063 1.6598085e-38 306 196
-0.014929632 0.65499997 0.050531063 1.6413693e-38 307 196
-0.013781199 0.65499997 0.050531063 1.6413328e-38 308 196
-0.012632766 0.65499997 0.050531063 1.6321131e-38 309 196
-0.011519399 0.65700001 0.050685361 1.6135662e-38 310 196
-0.01036746 0.65700001 0.050685361 1.6043466e-38 311 196
-0.0092155198 0.65700001 0.050685361 1.622606e-38 312 196
-0.0080635799 0.65700001 0.050685361 1.6041667e-38 313 196
-0.0069221598 0.65799999 0.050762504 1.5857273e-38 314 196
-0.0057772328 0.65899998 0.050839648 1.5673242e-38 315 196
-0.0046358132 0.66100001 0.050993945 1.5764711e-38 316 196
-0.0034821199 0.662 0.051071092 1.5488125e-38 317 196
-0.0023354399 0.66600001 0.051379681 1.5486683e-38 318 196
-0.00116772 0.66600001 0.051379681 1.5209736e-38 319 196
-0.028886165 0.65899998 0.049684204 1.7606453e-38 295 197
-0.027730718 0.65899998 0.049684204 1.7240195e-38 296 197
-0.026655925 0.66100001 0.049834993 1.7240195e-38 297 197
-0.025419824 0.65899998 0.049684204 1.7148362e-38 298 197
-0.024264378 0.65899998 0.049684204 1.7148362e-38 299 197
-0.023108931 0.65899998 0.049684204 1.6964699e-38 300 197
-0.021953486 0.65899998 0.049684204 1.6964699e-38 301 197
-0.019493559 0.65399998 0.049307238 1.6874667e-38 303 197
-0.01834688 0.65399998 0.049307238 1.6598806e-38 304 197
-0.017226499 0.65499997 0.049382631 1.6598806e-38 305 197
-0.016078066 0.65499997 0.049382631 1.6690283e-38 306 197
-0.014929632 0.65499997 0.049382631 1.6505892e-38 307 197
-0.013823279 0.65700001 0.049533416 1.6321495e-38 308 197
-0.01267134 0.65700001 0.049533416 1.6229298e-38 309 197
-0.011519399 0.65700001 0.049533416 1.6136381e-38 310 197
-0.01038324 0.65799999 0.049608808 1.6044185e-38 311 197
-0.0092435731 0.65899998 0.049684204 1.622606e-38 312 197
-0.0080881258 0.65899998 0.049684204 1.6041667e-38 313 197
-0.0069326796 0.65899998 0.049684204 1.5949468e-38 314 197
-0.0057947668 0.66100001 0.049834993 1.5673242e-38 315 197
-0.0046428265 0.662 0.049910385 1.5763635e-38 316 197
-0.0034821199 0.662 0.049910385 1.5579244e-38 317 197
-0.0023354399 0.66600001 0.050211959 1.5577799e-38 318 197
-0.00116772 0.66600001 0.050211959 1.5301212e-38 319 197
-0.028973831 0.66100001 0.04867604 1.75139e-38 295 198
-0.02781488 0.66100001 0.04867604 1.7330955e-38 296 198
-0.026655925 0.66100001 0.04867604 1.742351e-38 297 198
-0.025419824 0.65899998 0.048528757 1.7148009e-38 298 198
-0.024264378 0.65899998 0.048528757 1.7148009e-38 299 198
-0.023108931 0.65899998 0.048528757 1.6964346e-38 300 198
-0.021953486 0.65899998 0.048528757 1.6964346e-38 301 198
-0.019493559 0.65399998 0.048160557 1.6690283e-38 303 198
-0.01834688 0.65399998 0.048160557 1.6874317e-38 304 198
-0.017226499 0.65499997 0.048234195 1.6690286e-38 305 198
-0.01612716 0.65700001 0.048381478 1.67814e-38 306 198
-0.01497522 0.65700001 0.048381478 1.6689204e-38 307 198
-0.013823279 0.65700001 0.048381478 1.6321495e-38 308 198
-0.01267134 0.65700001 0.048381478 1.6229298e-38 309 198
-0.011519399 0.65700001 0.048381478 1.6319333e-38 310 198
-0.010399019 0.65899998 0.048528757 1.6226778e-38 311 198
-0.0092435731 0.65899998 0.048528757 1.6226415e-38 312 198
-0.0080881258 0.65899998 0.048528757 1.6041664e-38 313 198
-0.00695372 0.66100001 0.04867604 1.5949824e-38 314 198
-0.0057947668 0.66100001 0.04867604 1.5673239e-38 315 198
-0.0046428265 0.662 0.048749682 1.5856191e-38 316 198
-0.0034873798 0.66299999 0.048823316 1.5487048e-38 317 198
-0.0023354399 0.66600001 0.04904424 1.5669273e-38 318 198
-0.00116772 0.66600001 0.04904424 1.5577076e-38 319 198
-0.030223956 0.66299999 0.047660857 1.7513903e-38 294 199
-0.028973831 0.66100001 0.047517084 1.76061e-38 295 199
-0.02781488 0.66100001 0.047517084 1.7147646e-38 296 199
-0.026696252 0.662 0.047588971 1.7239841e-38 297 199
-0.025496973 0.66100001 0.047517084 1.6964697e-38 298 199
-0.02433802 0.66100001 0.047517084 1.6964697e-38 299 199
-0.023108931 0.65899998 0.04737331 1.7056898e-38 300 199
-0.021886859 0.65700001 0.04722954 1.7056898e-38 301 199
-0.020734919 0.65700001 0.04722954 1.669028e-38 302 199
-0.019493559 0.65399998 0.047013879 1.687467e-38 303 199
-0.01834688 0.65399998 0.047013879 1.6691005e-38 304 199
-0.017226499 0.65499997 0.047085766 1.6691005e-38 305 199
-0.01612716 0.65700001 0.04722954 1.6690283e-38 306 199
-0.01497522 0.65700001 0.04722954 1.6505892e-38 307 199
-0.01384432 0.65799999 0.047301427 1.6321495e-38 308 199
-0.012690626 0.65799999 0.047301427 1.6229298e-38 309 199
-0.011554466 0.65899998 0.04737331 1.6318977e-38 310 199
-0.010399019 0.65899998 0.04737331 1.6226781e-38 311 199
-0.0092435731 0.65899998 0.04737331 1.5950553e-38 312 199
-0.0080881258 0.65899998 0.04737331 1.5857999e-38 313 199
-0.00695372 0.66100001 0.047517084 1.5948752e-38 314 199
-0.0057947668 0.66100001 0.047517084 1.5856557e-38 315 199
-0.0046428265 0.662 0.047588971 1.5763635e-38 316 199
-0.0034873798 0.66299999 0.047660857 1.5487048e-38 317 199
-0.0023284266 0.66399997 0.047732744 1.5945859e-38 318 199
-0.0011694733 0.667 0.047948405 1.5577076e-38 319 199
-0.030223956 0.66299999 0.046498399 1.7147279e-38 294 200
-0.029017664 0.662 0.046428263 1.7331311e-38 295 200
-0.02781488 0.66100001 0.046358135 1.7239841e-38 296 200
-0.026655925 0.66100001 0.046358135 1.7239841e-38 297 200
-0.025419824 0.65899998 0.046217863 1.7148012e-38 298 200
-0.024264378 0.65899998 0.046217863 1.7148012e-38 299 200
-0.023073865 0.65799999 0.04614773 1.7056542e-38 300 200
-0.021820232 0.65499997 0.04593733 1.7056542e-38 301 200
-0.020671798 0.65499997 0.04593733 1.6690283e-38 302 200
-0.019493559 0.65399998 0.045867197 1.6874314e-38 303 200
-0.01834688 0.65399998 0.045867197 1.6874317e-38 304 200
-0.017226499 0.65499997 0.04593733 1.6690286e-38 305 200
-0.01612716 0.65700001 0.046077598 1.6781403e-38 306 200
-0.01497522 0.65700001 0.046077598 1.6689207e-38 307 200
-0.01384432 0.65799999 0.04614773 1.6596643e-38 308 200
-0.012690626 0.65799999 0.04614773 1.6411891e-38 309 200
-0.011554466 0.65899998 0.046217863 1.6502645e-38 310 200
-0.010399019 0.65899998 0.046217863 1.6318614e-38 311 200
-0.0092435731 0.65899998 0.046217863 1.6409731e-38 312 200
-0.0081126727 0.66100001 0.046358135 1.6040948e-38 313 200
-0.0069642398 0.662 0.046428263 1.6224613e-38 314 200
-0.0058035329 0.662 0.046428263 1.6040222e-38 315 200
-0.0046498398 0.66299999 0.046498399 1.5947301e-38 316 200
-0.0034873798 0.66299999 0.046498399 1.5578878e-38 317 200
-0.0023284266 0.66399997 0.046568532 1.5669622e-38 318 200
-0.0011694733 0.667 0.046778932 1.5393035e-38 319 200
-0.030223956 0.66299999 0.045335937 1.7423507e-38 294 201
-0.029017664 0.662 0.04526756 1.7331311e-38 295 201
-0.02781488 0.66100001 0.045199182 1.7147643e-38 296 201
-0.026655925 0.66100001 0.045199182 1.7239839e-38 297 201
-0.025419824 0.65899998 0.045062415 1.7148009e-38 298 201
-0.024264378 0.65899998 0.045062415 1.7148009e-38 299 201
-0.023073865 0.65799999 0.044994038 1.6964699e-38 300 201
-0.021820232 0.65499997 0.044788897 1.6964699e-38 301 201
-0.020671798 0.65499997 0.044788897 1.6690636e-38 302 201
-0.019523365 0.65499997 0.044788897 1.6690636e-38 303 201
-0.018374931 0.65499997 0.044788897 1.6873961e-38 304 201
-0.017305398 0.65799999 0.044994038 1.668993e-38 305 201
-0.016151706 0.65799999 0.044994038 1.6781047e-38 306 201
-0.014998012 0.65799999 0.044994038 1.6596655e-38 307 201
-0.01390744 0.66100001 0.045199182 1.6412977e-38 308 201
-0.012748486 0.66100001 0.045199182 1.6228226e-38 309 201
-0.011589534 0.66100001 0.045199182 1.6411172e-38 310 201
-0.01043058 0.66100001 0.045199182 1.6226781e-38 311 201
-0.0092716264 0.66100001 0.045199182 1.6133865e-38 312 201
-0.0081249457 0.662 0.04526756 1.604167e-38 313 201
-0.0069747595 0.66299999 0.045335937 1.594875e-38 314 201
-0.0058122999 0.66299999 0.045335937 1.5856554e-38 315 201
-0.0046498398 0.66299999 0.045335937 1.5764709e-38 316 201
-0.0034873798 0.66299999 0.045335937 1.5396285e-38 317 201
-0.0023284266 0.66399997 0.045404319 1.548668e-38 318 201
-0.0011694733 0.667 0.045609459 1.5210092e-38 319 201
-0.030269546 0.66399997 0.044240102 1.751534e-38 294 202
-0.02910533 0.66399997 0.044240102 1.751534e-38 295 202
-0.027899038 0.66299999 0.044173479 1.7239839e-38 296 202
-0.026696252 0.662 0.044106852 1.7239839e-38 297 202
-0.025496973 0.66100001 0.044040225 1.7239844e-38 298 202
-0.024264378 0.65899998 0.043906972 1.7239844e-38 299 202
-0.023108931 0.65899998 0.043906972 1.6873227e-38 300 202
-0.021920172 0.65799999 0.043840345 1.6873227e-38 301 202
-0.02076648 0.65799999 0.043840345 1.6873951e-38 302 202
-0.019582979 0.65700001 0.043773718 1.6873951e-38 303 202
-0.01843104 0.65700001 0.043773718 1.668993e-38 304 202
-0.017331699 0.65899998 0.043906972 1.668993e-38 305 202
-0.016176252 0.65899998 0.043906972 1.6505536e-38 306 202
-0.015020805 0.65899998 0.043906972 1.6505536e-38 307 202
-0.01390744 0.66100001 0.044040225 1.6596643e-38 308 202
-0.012748486 0.66100001 0.044040225 1.6504087e-38 309 202
-0.011589534 0.66100001 0.044040225 1.6594841e-38 310 202
-0.01044636 0.662 0.044106852 1.6502645e-38 311 202
-0.009285653 0.662 0.044106852 1.6409728e-38 312 202
-0.0081249457 0.662 0.044106852 1.61335e-38 313 202
-0.0069747595 0.66299999 0.044173479 1.6041301e-38 314 202
-0.0058122999 0.66299999 0.044173479 1.5949105e-38 315 202
-0.0046498398 0.66299999 0.044173479 1.5856185e-38 316 202
-0.0034873798 0.66299999 0.044173479 1.5671793e-38 317 202
-0.0023284266 0.66399997 0.044240102 1.548668e-38 318 202
-0.0011694733 0.667 0.044439986 1.5210092e-38 319 202
0 0.66799998 0.044506609 1.5300484e-38 320 202
-0.030360719 0.66600001 0.043205637 1.7423141e-38 294 203
-0.02910533 0.66399997 0.043075889 1.7423141e-38 295 203
-0.027856959 0.662 0.042946145 1.7331311e-38 296 203
-0.026696252 0.662 0.042946145 1.7423507e-38 297 203
-0.025496973 0.66100001 0.042881273 1.7148009e-38 298 203
-0.02433802 0.66100001 0.042881273 1.7240563e-38 299 203
-0.023179067 0.66100001 0.042881273 1.7056898e-38 300 203
-0.021920172 0.65799999 0.042686652 1.7056898e-38 301 203
-0.02076648 0.65799999 0.042686652 1.6872876e-38 302 203
-0.019612785 0.65799999 0.042686652 1.7056908e-38 303 203
-0.018459093 0.65799999 0.042686652 1.6691005e-38 304 203
-0.017331699 0.65899998 0.042751525 1.6598809e-38 305 203
-0.016176252 0.65899998 0.042751525 1.6598087e-38 306 203
-0.015020805 0.65899998 0.042751525 1.6413696e-38 307 203
-0.01390744 0.66100001 0.042881273 1.6504087e-38 308 203
-0.012748486 0.66100001 0.042881273 1.6411891e-38 309 203
-0.011589534 0.66100001 0.042881273 1.6411528e-38 310 203
-0.01044636 0.662 0.042946145 1.6226778e-38 311 203
-0.009285653 0.662 0.042946145 1.6226415e-38 312 203
-0.0081249457 0.662 0.042946145 1.6041664e-38 313 203
-0.0069747595 0.66299999 0.043011017 1.6224616e-38 314 203
-0.0058210664 0.66399997 0.043075889 1.6132062e-38 315 203
-0.0046568532 0.66399997 0.043075889 1.5856191e-38 316 203
-0.0034926396 0.66399997 0.043075889 1.567144e-38 317 203
-0.0023354399 0.66600001 0.043205637 1.5578875e-38 318 203
-0.0011694733 0.667 0.04327051 1.5302287e-38 319 203
0 0.66799998 0.043335386 1.5393035e-38 320 203
-0.02910533 0.66399997 0.041911677 1.7698649e-38 295 204
-0.027856959 0.662 0.041785441 1.7239839e-38 296 204
-0.026696252 0.662 0.041785441 1.7239839e-38 297 204
-0.025496973 0.66100001 0.04172232 1.7148009e-38 298 204
-0.02433802 0.66100001 0.04172232 1.7148009e-38 299 204
-0.023179067 0.66100001 0.04172232 1.7056898e-38 300 204
-0.021953486 0.65899998 0.041596077 1.7056898e-38 301 204
-0.020798039 0.65899998 0.041596077 1.6781397e-38 302 204
-0.019612785 0.65799999 0.04153296 1.6966147e-38 303 204
-0.018459093 0.65799999 0.04153296 1.6783199e-38 304 204
-0.0173843 0.66100001 0.04172232 1.6691002e-38 305 204
-0.016225345 0.66100001 0.04172232 1.6598085e-38 306 204
-0.015066394 0.66100001 0.04172232 1.6413693e-38 307 204
-0.01390744 0.66100001 0.04172232 1.6412972e-38 308 204
-0.012748486 0.66100001 0.04172232 1.6320775e-38 309 204
-0.011607066 0.662 0.041785441 1.6319693e-38 310 204
-0.01044636 0.662 0.041785441 1.6043466e-38 311 204
-0.009285653 0.662 0.041785441 1.6133862e-38 312 204
-0.0081249457 0.662 0.041785441 1.6041667e-38 313 204
-0.0069747595 0.66299999 0.041848559 1.594875e-38 314 204
-0.0058210664 0.66399997 0.041911677 1.5856554e-38 315 204
-0.0046568532 0.66399997 0.041911677 1.5856191e-38 316 204
-0.0034926396 0.66399997 0.041911677 1.567144e-38 317 204
-0.0023354399 0.66600001 0.042037919 1.5578875e-38 318 204
-0.0011694733 0.667 0.042101037 1.5210092e-38 319 204
0 0.66799998 0.042164158 1.520972e-38 320 204
-0.029061496 0.66299999 0.040686097 1.7423138e-38 295 205
-0.027856959 0.662 0.04062473 1.7239839e-38 296 205
-0.026696252 0.662 0.04062473 1.7239839e-38 297 205
-0.025496973 0.66100001 0.040563367 1.7148012e-38 298 205
-0.02433802 0.66100001 0.040563367 1.7148012e-38 299 205
-0.023179067 0.66100001 0.040563367 1.6781034e-38 300 205
-0.021953486 0.65899998 0.04044063 1.687323e-38 301 205
-0.020798039 0.65899998 0.04044063 1.6873595e-38 302 205
-0.019642593 0.65899998 0.04044063 1.6965791e-38 303 205
-0.018487146 0.65899998 0.04044063 1.6691002e-38 304 205
-0.0173843 0.66100001 0.040563367 1.6598806e-38 305 205
-0.016225345 0.66100001 0.040563367 1.6598441e-38 306 205
-0.015066394 0.66100001 0.040563367 1.6506245e-38 307 205
-0.01390744 0.66100001 0.040563367 1.6413325e-38 308 205
-0.012748486 0.66100001 0.040563367 1.6228932e-38 309 205
-0.011607066 0.662 0.04062473 1.6411526e-38 310 205
-0.01044636 0.662 0.04062473 1.631933e-38 311 205
-0.009285653 0.662 0.04062473 1.6226413e-38 312 205
-0.0081249457 0.662 0.04062473 1.604202e-38 313 205
-0.0069747595 0.66299999 0.040686097 1.5949822e-38 314 205
-0.0058210664 0.66399997 0.040747464 1.5857626e-38 315 205
-0.0046568532 0.66399997 0.040747464 1.5856185e-38 316 205
-0.0034926396 0.66399997 0.040747464 1.5579597e-38 317 205
-0.0023354399 0.66600001 0.040870197 1.5762541e-38 318 205
-0.0011712266 0.66799998 0.040992931 1.5394117e-38 319 205
0 0.67000002 0.041115668 1.5301193e-38 320 205
0.0011747333 0.67000002 0.041115668 1.493241e-38 321 205
-0.029061496 0.66299999 0.039523639 1.7606451e-38 295 206
-0.027856959 0.662 0.039464023 1.7240195e-38 296 206
-0.026696252 0.662 0.039464023 1.7240195e-38 297 206
-0.025535546 0.662 0.039464023 1.6964697e-38 298 206
-0.024374841 0.662 0.039464023 1.6964697e-38 299 206
-0.023214132 0.662 0.039464023 1.6873583e-38 300 206
-0.022020113 0.66100001 0.039404415 1.6873583e-38 301 206
-0.02086116 0.66100001 0.039404415 1.7057261e-38 302 206
-0.019642593 0.65899998 0.039285187 1.7149456e-38 303 206
-0.018487146 0.65899998 0.039285187 1.6691005e-38 304 206
-0.0173843 0.66100001 0.039404415 1.6598809e-38 305 206
-0.016225345 0.66100001 0.039404415 1.6598087e-38 306 206
-0.015066394 0.66100001 0.039404415 1.6413696e-38 307 206
-0.01392848 0.662 0.039464023 1.6412975e-38 308 206
-0.012767773 0.662 0.039464023 1.6228582e-38 309 206
-0.011607066 0.662 0.039464023 1.6136383e-38 310 206
-0.01044636 0.662 0.039464023 1.5951992e-38 311 206
-0.009285653 0.662 0.039464023 1.6134218e-38 312 206
-0.0081249457 0.662 0.039464023 1.6041664e-38 313 206
-0.0069747595 0.66299999 0.039523639 1.5949824e-38 314 206
-0.0058210664 0.66399997 0.039583251 1.5673239e-38 315 206
-0.0046568532 0.66399997 0.039583251 1.5856185e-38 316 206
-0.0034926396 0.66399997 0.039583251 1.5671793e-38 317 206
-0.0023389466 0.667 0.039762091 1.5487752e-38 318 206
-0.0011712266 0.66799998 0.039821707 1.5118969e-38 319 206
0 0.67000002 0.039940935 1.520972e-38 320 206
0.0011747333 0.67000002 0.039940935 1.4749101e-38 321 206
-0.029061496 0.66299999 0.038361177 1.7423138e-38 295 207
-0.027899038 0.66299999 0.038361177 1.7423507e-38 296 207
-0.026736578 0.66299999 0.038361177 1.7423507e-38 297 207
-0.025574118 0.66299999 0.038361177 1.724056e-38 298 207
-0.024411658 0.66299999 0.038361177 1.7148365e-38 299 207
-0.0232492 0.66299999 0.038361177 1.6781031e-38 300 207
-0.02208674 0.66299999 0.038361177 1.6781031e-38 301 207
-0.020892721 0.662 0.038303319 1.6873595e-38 302 207
-0.019702207 0.66100001 0.038245458 1.6965791e-38 303 207
-0.018543253 0.66100001 0.038245458 1.6598809e-38 304 207
-0.017410601 0.662 0.038303319 1.6598809e-38 305 207
-0.016249891 0.662 0.038303319 1.6414415e-38 306 207
-0.015089186 0.662 0.038303319 1.6414415e-38 307 207
-0.01392848 0.662 0.038303319 1.6320775e-38 308 207
-0.012767773 0.662 0.038303319 1.6228579e-38 309 207
-0.011607066 0.662 0.038303319 1.6502642e-38 310 207
-0.01044636 0.662 0.038303319 1.6318611e-38 311 207
-0.009285653 0.662 0.038303319 1.6226769e-38 312 207
-0.0081494926 0.66399997 0.038419038 1.6042017e-38 313 207
-0.0069852793 0.66399997 0.038419038 1.5949822e-38 314 207
-0.0058210664 0.66399997 0.038419038 1.5673595e-38 315 207
-0.0046568532 0.66399997 0.038419038 1.5764344e-38 316 207
-0.0035031599 0.66600001 0.03853476 1.567179e-38 317 207
-0.0023389466 0.667 0.038592618 1.5670342e-38 318 207
-0.0011747333 0.67000002 0.038766202 1.5394114e-38 319 207
0 0.671 0.038824059 1.5300474e-38 320 207
0.0011764866 0.671 0.038824059 1.5023527e-38 321 207
0.0023529732 0.671 0.038824059 1.5113562e-38 322 207
-0.029061496 0.66299999 0.037198719 1.7607532e-38 295 208
-0.027899038 0.66299999 0.037198719 1.7423507e-38 296 208
-0.026736578 0.66299999 0.037198719 1.7423507e-38 297 208
-0.025574118 0.66299999 0.037198719 1.7148365e-38 298 208
-0.024411658 0.66299999 0.037198719 1.7148365e-38 299 208
-0.0232492 0.66299999 0.037198719 1.6689191e-38 300 208
-0.022053426 0.662 0.037142612 1.6781387e-38 301 208
-0.020892721 0.662 0.037142612 1.669028e-38 302 208
-0.019732011 0.662 0.037142612 1.669028e-38 303 208
-0.018571306 0.662 0.037142612 1.6690286e-38 304 208
-0.017410601 0.662 0.037142612 1.659809e-38 305 208
-0.016249891 0.662 0.037142612 1.6506611e-38 306 208
-0.015089186 0.662 0.037142612 1.6230025e-38 307 208
-0.013949519 0.66299999 0.037198719 1.6320775e-38 308 208
-0.012787059 0.66299999 0.037198719 1.6228579e-38 309 208
-0.011607066 0.662 0.037142612 1.6411526e-38 310 208
-0.01044636 0.662 0.037142612 1.6227134e-38 311 208
-0.009285653 0.662 0.037142612 1.6134933e-38 312 208
-0.0081494926 0.66399997 0.037254825 1.5950901e-38 313 208
-0.0070063197 0.66600001 0.037367038 1.604202e-38 314 208
-0.0058210664 0.66399997 0.037254825 1.5673239e-38 315 208
-0.0046568532 0.66399997 0.037254825 1.5856185e-38 316 208
-0.0034926396 0.66399997 0.037254825 1.5671793e-38 317 208
-0.0023389466 0.667 0.037423145 1.5579229e-38 318 208
-0.0011747333 0.67000002 0.037591465 1.5210086e-38 319 208
0 0.671 0.037647571 1.5301193e-38 320 208
0.0011764866 0.671 0.037647571 1.4840215e-38 321 208
0.0023529732 0.671 0.037647571 1.4838047e-38 322 208
0.0084317802 0.68699998 0.038545277 1.4270503e-38 327 208
-0.030269546 0.66399997 0.036090612 1.7423504e-38 294 209
-0.029061496 0.66299999 0.036036257 1.7423504e-38 295 209
-0.027856959 0.662 0.035981905 1.742351e-38 296 209
-0.026696252 0.662 0.035981905 1.742351e-38 297 209
-0.025574118 0.66299999 0.036036257 1.7239841e-38 298 209
-0.024374841 0.662 0.035981905 1.7147646e-38 299 209
-0.023214132 0.662 0.035981905 1.6964699e-38 300 209
-0.022053426 0.662 0.035981905 1.6964699e-38 301 209
-0.020892721 0.662 0.035981905 1.6598085e-38 302 209
-0.019732011 0.662 0.035981905 1.687467e-38 303 209
-0.018571306 0.662 0.035981905 1.6598809e-38 304 209
-0.017410601 0.662 0.035981905 1.6598809e-38 305 209
-0.016249891 0.662 0.035981905 1.6414412e-38 306 209
-0.015089186 0.662 0.035981905 1.6230381e-38 307 209
-0.013949519 0.66299999 0.036036257 1.6229295e-38 308 209
-0.012787059 0.66299999 0.036036257 1.6045264e-38 309 209
-0.011607066 0.662 0.035981905 1.6320046e-38 310 209
-0.01044636 0.662 0.035981905 1.6136015e-38 311 209
-0.009285653 0.662 0.035981905 1.6134936e-38 312 209
-0.0081494926 0.66399997 0.036090612 1.5858708e-38 313 209
-0.0070063197 0.66600001 0.03619932 1.604202e-38 314 209
-0.0058210664 0.66399997 0.036090612 1.585727e-38 315 209
-0.0046568532 0.66399997 0.036090612 1.6040219e-38 316 209
-0.0034926396 0.66399997 0.036090612 1.5671796e-38 317 209
-0.0023389466 0.667 0.036253672 1.5670345e-38 318 209
-0.0011747333 0.67000002 0.036416732 1.5301921e-38 319 209
0 0.671 0.036471087 1.5116803e-38 320 209
0.0011764866 0.671 0.036471087 1.4840215e-38 321 209
0.0023529732 0.671 0.036471087 1.4744406e-38 322 209
0.0060139326 0.68599999 0.037286382 1.3907816e-38 325 209
0.0072167199 0.68599999 0.037286382 1.4181175e-38 326 209
0.0084317802 0.68699998 0.037340738 1.4365567e-38 327 209
0.0096363192 0.68699998 0.037340738 1.4090056e-38 328 209
-0.031433757 0.66399997 0.0349264 1.751569e-38 293 210
-0.030223956 0.66299999 0.034873798 1.7331311e-38 294 210
-0.029061496 0.66299999 0.034873798 1.7423507e-38 295 210
-0.027856959 0.662 0.034821201 1.7239839e-38 296 210
-0.026696252 0.662 0.034821201 1.7239839e-38 297 210
-0.025574118 0.66299999 0.034873798 1.7239841e-38 298 210
-0.024374841 0.662 0.034821201 1.7239841e-38 299 210
-0.023214132 0.662 0.034821201 1.6964699e-38 300 210
-0.022053426 0.662 0.034821201 1.6964699e-38 301 210
-0.020892721 0.662 0.034821201 1.669028e-38 302 210
-0.019761819 0.66299999 0.034873798 1.669028e-38 303 210
-0.018571306 0.662 0.034821201 1.659809e-38 304 210
-0.017410601 0.662 0.034821201 1.659809e-38 305 210
-0.016274439 0.66299999 0.034873798 1.6414412e-38 306 210
-0.015111978 0.66299999 0.034873798 1.6230381e-38 307 210
-0.013949519 0.66299999 0.034873798 1.6321131e-38 308 210
-0.012787059 0.66299999 0.034873798 1.6228576e-38 309 210
-0.011607066 0.662 0.034821201 1.6320046e-38 310 210
-0.01044636 0.662 0.034821201 1.6136015e-38 311 210
-0.0093137063 0.66399997 0.0349264 1.5950547e-38 312 210
-0.0081740404 0.66600001 0.035031598 1.5858352e-38 313 210
-0.0070168395 0.667 0.035084199 1.6040945e-38 314 210
-0.0058385995 0.66600001 0.035031598 1.594875e-38 315 210
-0.0046708798 0.66600001 0.035031598 1.5856188e-38 316 210
-0.0035031599 0.66600001 0.035031598 1.5671796e-38 317 210
-0.0023424532 0.66799998 0.035136797 1.5761822e-38 318 210
-0.0011747333 0.67000002 0.035241999 1.5485234e-38 319 210
0 0.671 0.0352946 1.5300474e-38 320 210
0.0011764866 0.671 0.0352946 1.4839496e-38 321 210
0.0023529732 0.671 0.0352946 1.5018479e-38 322 210
0.0060139326 0.68599999 0.036083598 1.4644302e-38 325 210
0.0072167199 0.68599999 0.036083598 1.4460636e-38 326 210
0.0084317802 0.68699998 0.036136195 1.4368439e-38 327 210
0.0096363192 0.68699998 0.036136195 1.4275522e-38 328 210
0.010856641 0.68800002 0.0361888 1.3998576e-38 329 210
-0.034118112 0.671 0.034118112 1.4657268e-38 291 211
-0.032892533 0.67000002 0.034067266 1.7238024e-38 292 211
-0.031433757 0.66399997 0.033762183 1.7883393e-38 293 211
-0.030223956 0.66299999 0.033711337 1.7331311e-38 294 211
-0.029061496 0.66299999 0.033711337 1.7515703e-38 295 211
-0.027856959 0.662 0.033660494 1.7332037e-38 296 211
-0.026696252 0.662 0.033660494 1.7332037e-38 297 211
-0.025574118 0.66299999 0.033711337 1.7240563e-38 298 211
-0.024374841 0.662 0.033660494 1.7240563e-38 299 211
-0.023214132 0.662 0.033660494 1.6781031e-38 300 211
-0.022053426 0.662 0.033660494 1.6781031e-38 301 211
-0.020892721 0.662 0.033660494 1.67814e-38 302 211
-0.019761819 0.66299999 0.033711337 1.6873595e-38 303 211
-0.018571306 0.662 0.033660494 1.6598806e-38 304 211
-0.017410601 0.662 0.033660494 1.6506611e-38 305 211
-0.016298985 0.66399997 0.033762183 1.6414409e-38 306 211
-0.015134773 0.66399997 0.033762183 1.6138183e-38 307 211
-0.013970559 0.66399997 0.033762183 1.6229295e-38 308 211
-0.012806346 0.66399997 0.033762183 1.6045264e-38 309 211
-0.011677199 0.66600001 0.03386388 1.6136381e-38 310 211
-0.01050948 0.66600001 0.03386388 1.5951989e-38 311 211
-0.0093417596 0.66600001 0.03386388 1.595055e-38 312 211
-0.0081863133 0.667 0.033914726 1.5858355e-38 313 211
-0.0070168395 0.667 0.033914726 1.6040945e-38 314 211
-0.0058473665 0.667 0.033914726 1.5856554e-38 315 211
-0.0046778931 0.667 0.033914726 1.5856188e-38 316 211
-0.0035084197 0.667 0.033914726 1.5579241e-38 317 211
-0.0023424532 0.66799998 0.033965573 1.5761822e-38 318 211
-0.0011782399 0.67199999 0.034168959 1.5485234e-38 319 211
0 0.67199999 0.034168959 1.5300121e-38 320 211
0.0011782399 0.67199999 0.034168959 1.4746947e-38 321 211
0.0047971201 0.68400002 0.03477912 1.4829062e-38 324 211
0.0059964 0.68400002 0.03477912 1.4736866e-38 325 211
0.0071956799 0.68400002 0.03477912 1.4460999e-38 326 211
0.0084317802 0.68699998 0.034931656 1.4184771e-38 327 211
0.0096363192 0.68699998 0.034931656 1.4183689e-38 328 211
-0.035347197 0.67199999 0.03299072 1.3273978e-38 290 212
-0.034067266 0.67000002 0.032892533 1.4841664e-38 291 212
-0.032794341 0.66799998 0.032794341 1.7330225e-38 292 212
-0.031433757 0.66399997 0.03259797 1.7975595e-38 293 212
-0.030269546 0.66399997 0.03259797 1.7423507e-38 294 212
-0.029192999 0.66600001 0.032696161 1.7515703e-38 295 212
-0.027941117 0.66399997 0.03259797 1.7424233e-38 296 212
-0.026736578 0.66299999 0.032548878 1.7424233e-38 297 212
-0.025574118 0.66299999 0.032548878 1.7332759e-38 298 212
-0.024374841 0.662 0.032499783 1.7240563e-38 299 212
-0.023214132 0.662 0.032499783 1.6873227e-38 300 212
-0.022053426 0.662 0.032499783 1.6873227e-38 301 212
-0.020892721 0.662 0.032499783 1.6781397e-38 302 212
-0.019761819 0.66299999 0.032548878 1.6966147e-38 303 212
-0.018599359 0.66299999 0.032548878 1.6873951e-38 304 212
-0.0174632 0.66399997 0.03259797 1.6781397e-38 305 212
-0.016298985 0.66399997 0.03259797 1.6689557e-38 306 212
-0.015134773 0.66399997 0.03259797 1.6597362e-38 307 212
-0.014012639 0.66600001 0.032696161 1.6504443e-38 308 212
-0.01284492 0.66600001 0.032696161 1.6412247e-38 309 212
-0.011677199 0.66600001 0.032696161 1.6411526e-38 310 212
-0.01050948 0.66600001 0.032696161 1.631933e-38 311 212
