# .PCD v.7 - Point Cloud Data file format
FIELDS x y z rgb imX imY
SIZE 4 4 4 4 4 4
TYPE F F F F F F
COUNT 1 1 1 1 1 1
WIDTH 834
HEIGHT 1
VIEWPOINT 0 0 0 1 0 0 0
POINTS 834
DATA ascii
-0.020864666 0.69999999 -0.0036819996 1.7684256e-38 303 243
-0.019637333 0.69999999 -0.0036819996 1.7592429e-38 304 243
-0.018409999 0.69999999 -0.0036819996 1.7684625e-38 305 243
-0.017182667 0.69999999 -0.0036819996 1.731764e-38 306 243
-0.015955333 0.69999999 -0.0036819996 1.713325e-38 307 243
-0.014727999 0.69999999 -0.0036819996 1.7499512e-38 308 243
-0.013500666 0.69999999 -0.0036819996 1.7407315e-38 309 243
-0.012273333 0.69999999 -0.0036819996 1.73162e-38 310 243
-0.011045999 0.69999999 -0.0036819996 1.7500231e-38 311 243
-0.0098186666 0.69999999 -0.0036819996 1.7224007e-38 312 243
-0.0085913334 0.69999999 -0.0036819996 1.7224007e-38 313 243
-0.0073639993 0.69999999 -0.0036819996 1.7314769e-38 314 243
-0.0061366665 0.69999999 -0.0036819996 1.7130738e-38 315 243
-0.0049093333 0.69999999 -0.0036819996 1.7131101e-38 316 243
-0.0036872597 0.70099998 -0.0036872597 1.7038905e-38 317 243
-0.0024581731 0.70099998 -0.0036872597 1.7038539e-38 318 243
-0.0012290865 0.70099998 -0.0036872597 1.6946344e-38 319 243
0 0.70099998 -0.0036872597 1.703709e-38 320 243
0.0012290865 0.70099998 -0.0036872597 1.703709e-38 321 243
0.0024651866 0.70300001 -0.0036977797 1.7036736e-38 322 243
0.0036977797 0.70300001 -0.0036977797 1.7221486e-38 323 243
0.0049373866 0.704 -0.0037030398 1.6854145e-38 324 243
0.0061717331 0.704 -0.0037030398 1.6946341e-38 325 243
0.0074060797 0.704 -0.0037030398 1.6854861e-38 326 243
0.0086404262 0.704 -0.0037030398 1.6854861e-38 327 243
0.0098747732 0.704 -0.0037030398 1.6579351e-38 328 243
0.011109119 0.704 -0.0037030398 1.6579351e-38 329 243
0.012343466 0.704 -0.0037030398 1.657863e-38 330 243
0.013577812 0.704 -0.0037030398 1.6486435e-38 331 243
0.014854239 0.70599997 -0.0037135598 1.6669031e-38 332 243
0.016092092 0.70599997 -0.0037135598 1.6576835e-38 333 243
0.017329946 0.70599997 -0.0037135598 1.6575766e-38 334 243
0.018567799 0.70599997 -0.0037135598 1.6851993e-38 335 243
0.019833706 0.70700002 -0.0037188199 1.6396054e-38 336 243
0.021103119 0.708 -0.00372408 1.7318369e-38 337 243
0.022344479 0.708 -0.00372408 1.6129897e-38 338 243
0.023652466 0.70999998 -0.0037345996 1.6314289e-38 339 243
0.024932399 0.71100003 -0.0037398601 1.6039866e-38 340 243
0.026142199 0.70999998 -0.0037345996 1.6039866e-38 341 243
0.027387066 0.70999998 -0.0037345996 1.5947306e-38 342 243
0.028631933 0.70999998 -0.0037345996 1.5394134e-38 343 243
0.029876797 0.70999998 -0.0037345996 1.7054024e-38 344 243
0.031121666 0.70999998 -0.0037345996 2.009648e-38 345 243
-0.042833932 0.69800001 -0.0048953067 1.8436229e-38 285 244
-0.041610107 0.69800001 -0.0048953067 1.8620974e-38 286 244
-0.040386278 0.69800001 -0.0048953067 1.8620974e-38 287 244
-0.039274666 0.69999999 -0.0049093333 1.8345832e-38 288 244
-0.038047329 0.69999999 -0.0049093333 1.8253636e-38 289 244
-0.0367148 0.69800001 -0.0048953067 1.779446e-38 290 244
-0.035490975 0.69800001 -0.0048953067 1.7702264e-38 291 244
-0.034267146 0.69800001 -0.0048953067 1.7426756e-38 292 244
-0.033043321 0.69800001 -0.0048953067 1.7334561e-38 293 244
-0.031819493 0.69800001 -0.0048953067 1.760935e-38 294 244
-0.030595668 0.69800001 -0.0048953067 1.7517154e-38 295 244
-0.02932976 0.69700003 -0.0048882933 1.779086e-38 296 244
-0.028107686 0.69700003 -0.0048882933 1.7422438e-38 297 244
-0.026885614 0.69700003 -0.0048882933 1.7696497e-38 298 244
-0.025700359 0.69800001 -0.0048953067 1.6497953e-38 299 244
-0.024476532 0.69800001 -0.0048953067 1.7409467e-38 300 244
-0.023252707 0.69800001 -0.0048953067 1.7225076e-38 301 244
-0.02202888 0.69800001 -0.0048953067 1.7775376e-38 302 244
-0.020864666 0.69999999 -0.0049093333 1.7775376e-38 303 244
-0.019637333 0.69999999 -0.0049093333 1.7316921e-38 304 244
-0.018409999 0.69999999 -0.0049093333 1.7501313e-38 305 244
-0.017182667 0.69999999 -0.0049093333 1.7317284e-38 306 244
-0.015955333 0.69999999 -0.0049093333 1.7041058e-38 307 244
-0.014727999 0.69999999 -0.0049093333 1.7406963e-38 308 244
-0.013500666 0.69999999 -0.0049093333 1.7406963e-38 309 244
-0.012273333 0.69999999 -0.0049093333 1.7316565e-38 310 244
-0.011045999 0.69999999 -0.0049093333 1.7316565e-38 311 244
-0.0098186666 0.69999999 -0.0049093333 1.7132174e-38 312 244
-0.0085913334 0.69999999 -0.0049093333 1.7132174e-38 313 244
-0.0073639993 0.69999999 -0.0049093333 1.7131457e-38 314 244
-0.0061366665 0.69999999 -0.0049093333 1.7131457e-38 315 244
-0.0049163462 0.70099998 -0.0049163462 1.7130738e-38 316 244
-0.0036872597 0.70099998 -0.0049163462 1.7314769e-38 317 244
-0.0024651866 0.70300001 -0.0049303733 1.7039255e-38 318 244
-0.0012290865 0.70099998 -0.0049163462 1.6854864e-38 319 244
0 0.70099998 -0.0049163462 1.7037455e-38 320 244
0.0012325933 0.70300001 -0.0049303733 1.6853424e-38 321 244
0.0024651866 0.70300001 -0.0049303733 1.7036739e-38 322 244
0.0037030398 0.704 -0.0049373866 1.7036739e-38 323 244
0.0049373866 0.704 -0.0049373866 1.6854145e-38 324 244
0.0061717331 0.704 -0.0049373866 1.6854145e-38 325 244
0.0074060797 0.704 -0.0049373866 1.6488237e-38 326 244
0.0086404262 0.704 -0.0049373866 1.6396041e-38 327 244
0.0098747732 0.704 -0.0049373866 1.667083e-38 328 244
0.011109119 0.704 -0.0049373866 1.6578635e-38 329 244
0.012343466 0.704 -0.0049373866 1.6578635e-38 330 244
0.013577812 0.704 -0.0049373866 1.6578635e-38 331 244
0.014854239 0.70599997 -0.0049514128 1.6485363e-38 332 244
0.016092092 0.70599997 -0.0049514128 1.6300972e-38 333 244
0.017329946 0.70599997 -0.0049514128 1.639317e-38 334 244
0.018567799 0.70599997 -0.0049514128 1.6669397e-38 335 244
0.019833706 0.70700002 -0.0049584266 1.6213458e-38 336 244
0.021103119 0.708 -0.0049654399 1.7135774e-38 337 244
0.022344479 0.708 -0.0049654399 1.6222095e-38 338 244
0.023685781 0.71100003 -0.0049864799 1.6314292e-38 339 244
0.024932399 0.71100003 -0.0049864799 1.6039866e-38 340 244
0.026142199 0.70999998 -0.0049794666 1.6039866e-38 341 244
0.027387066 0.70999998 -0.0049794666 1.567144e-38 342 244
0.028631933 0.70999998 -0.0049794666 1.502607e-38 343 244
0.029876797 0.70999998 -0.0049794666 1.7422085e-38 344 244
-0.042956665 0.69999999 -0.0061366665 1.8252201e-38 285 245
-0.041610107 0.69800001 -0.006119133 1.8713177e-38 286 245
-0.040386278 0.69800001 -0.006119133 1.8620979e-38 287 245
-0.039330769 0.70099998 -0.0061454331 1.8345832e-38 288 245
-0.038101684 0.70099998 -0.0061454331 1.8345832e-38 289 245
-0.036819998 0.69999999 -0.0061366665 1.7978128e-38 290 245
-0.035592664 0.69999999 -0.0061366665 1.7885933e-38 291 245
-0.034365334 0.69999999 -0.0061366665 1.7793378e-38 292 245
-0.033137999 0.69999999 -0.0061366665 1.7793378e-38 293 245
-0.031910665 0.69999999 -0.0061366665 1.7700462e-38 294 245
-0.030595668 0.69800001 -0.006119133 1.7608267e-38 295 245
-0.029371841 0.69800001 -0.006119133 1.7791216e-38 296 245
-0.028148014 0.69800001 -0.006119133 1.7422435e-38 297 245
-0.026924185 0.69800001 -0.006119133 1.769685e-38 298 245
-0.025700359 0.69800001 -0.006119133 1.6590504e-38 299 245
-0.024476532 0.69800001 -0.006119133 1.7777892e-38 300 245
-0.023252707 0.69800001 -0.006119133 1.7316916e-38 301 245
-0.02202888 0.69800001 -0.006119133 1.7684262e-38 302 245
-0.020894472 0.70099998 -0.0061454331 1.7591708e-38 303 245
-0.019665385 0.70099998 -0.0061454331 1.7409117e-38 304 245
-0.018409999 0.69999999 -0.0061366665 1.7501313e-38 305 245
-0.017182667 0.69999999 -0.0061366665 1.731764e-38 306 245
-0.015978126 0.70099998 -0.0061454331 1.713325e-38 307 245
-0.014727999 0.69999999 -0.0061366665 1.7224007e-38 308 245
-0.013500666 0.69999999 -0.0061366665 1.7316202e-38 309 245
-0.012273333 0.69999999 -0.0061366665 1.7224373e-38 310 245
-0.011045999 0.69999999 -0.0061366665 1.7224373e-38 311 245
-0.0098326923 0.70099998 -0.0061454331 1.7041058e-38 312 245
-0.0086036054 0.70099998 -0.0061454331 1.6948862e-38 313 245
-0.0073745195 0.70099998 -0.0061454331 1.7131454e-38 314 245
-0.0061454331 0.70099998 -0.0061454331 1.7039258e-38 315 245
-0.0049303733 0.70300001 -0.0061629666 1.7131457e-38 316 245
-0.0036977797 0.70300001 -0.0061629666 1.7038902e-38 317 245
-0.0024686933 0.704 -0.0061717331 1.6948495e-38 318 245
-0.0012325933 0.70300001 -0.0061629666 1.685594e-38 319 245
0 0.70300001 -0.0061629666 1.7037808e-38 320 245
0.0012325933 0.70300001 -0.0061629666 1.6853775e-38 321 245
0.0024686933 0.704 -0.0061717331 1.7036016e-38 322 245
0.0037030398 0.704 -0.0061717331 1.7220407e-38 323 245
0.0049373866 0.704 -0.0061717331 1.6854145e-38 324 245
0.0061717331 0.704 -0.0061717331 1.6854145e-38 325 245
0.0074060797 0.704 -0.0061717331 1.667083e-38 326 245
0.0086649731 0.70599997 -0.0061892662 1.6854861e-38 327 245
0.0098747732 0.704 -0.0061717331 1.6578635e-38 328 245
0.011109119 0.704 -0.0061717331 1.6486438e-38 329 245
0.012378532 0.70599997 -0.0061892662 1.6579353e-38 330 245
0.013616386 0.70599997 -0.0061892662 1.6579353e-38 331 245
0.014854239 0.70599997 -0.0061892662 1.6669747e-38 332 245
0.016092092 0.70599997 -0.0061892662 1.6485716e-38 333 245
0.017329946 0.70599997 -0.0061892662 1.6669747e-38 334 245
0.018567799 0.70599997 -0.0061892662 1.6946694e-38 335 245
0.019833706 0.70700002 -0.0061980332 1.6398205e-38 336 245
0.021103119 0.708 -0.0062067998 1.7411998e-38 337 245
0.022344479 0.708 -0.0062067998 1.6405407e-38 338 245
0.023685781 0.71100003 -0.0062330998 1.65898e-38 339 245
0.024932399 0.71100003 -0.0062330998 1.6131343e-38 340 245
0.026179021 0.71100003 -0.0062330998 1.6131343e-38 341 245
0.027425639 0.71100003 -0.0062330998 1.567144e-38 342 245
0.028672259 0.71100003 -0.0062330998 1.502607e-38 343 245
0.029918881 0.71100003 -0.0062330998 1.7514636e-38 344 245
-0.042956665 0.69999999 -0.0073639993 1.8437311e-38 285 246
-0.041610107 0.69800001 -0.0073429602 1.8713174e-38 286 246
-0.040386278 0.69800001 -0.0073429602 1.8713174e-38 287 246
-0.039330769 0.70099998 -0.0073745195 1.8254716e-38 288 246
-0.038101684 0.70099998 -0.0073745195 1.8162519e-38 289 246
-0.036872596 0.70099998 -0.0073745195 1.7887012e-38 290 246
-0.035643511 0.70099998 -0.0073745195 1.7794816e-38 291 246
-0.034414422 0.70099998 -0.0073745195 1.7610066e-38 292 246
-0.03318534 0.70099998 -0.0073745195 1.7610066e-38 293 246
-0.031910665 0.69999999 -0.0073639993 1.760935e-38 294 246
-0.030683333 0.69999999 -0.0073639993 1.760935e-38 295 246
-0.029455997 0.69999999 -0.0073639993 1.7699743e-38 296 246
-0.028228667 0.69999999 -0.0073639993 1.7330961e-38 297 246
-0.027001332 0.69999999 -0.0073639993 1.7420986e-38 298 246
-0.025773998 0.69999999 -0.0073639993 1.6407194e-38 299 246
-0.024546666 0.69999999 -0.0073639993 1.7777174e-38 300 246
-0.023319334 0.69999999 -0.0073639993 1.7224e-38 301 246
-0.022091998 0.69999999 -0.0073639993 1.7591708e-38 302 246
-0.020894472 0.70099998 -0.0073745195 1.7591708e-38 303 246
-0.019665385 0.70099998 -0.0073745195 1.7409836e-38 304 246
-0.018436298 0.70099998 -0.0073745195 1.7686424e-38 305 246
-0.017207211 0.70099998 -0.0073745195 1.7226889e-38 306 246
-0.015978126 0.70099998 -0.0073745195 1.6765913e-38 307 246
-0.014749039 0.70099998 -0.0073745195 1.7224017e-38 308 246
-0.013519952 0.70099998 -0.0073745195 1.7131821e-38 309 246
-0.012290866 0.70099998 -0.0073745195 1.7133256e-38 310 246
-0.011061779 0.70099998 -0.0073745195 1.7133256e-38 311 246
-0.0098326923 0.70099998 -0.0073745195 1.7041058e-38 312 246
-0.0086281532 0.70300001 -0.0073955595 1.7041058e-38 313 246
-0.0073955595 0.70300001 -0.0073955595 1.7132174e-38 314 246
-0.0061629666 0.70300001 -0.0073955595 1.6948142e-38 315 246
-0.0049303733 0.70300001 -0.0073955595 1.7130735e-38 316 246
-0.0037030398 0.704 -0.0074060797 1.7314766e-38 317 246
-0.0024686933 0.704 -0.0074060797 1.7039258e-38 318 246
-0.0012343467 0.704 -0.0074060797 1.7131454e-38 319 246
0 0.704 -0.0074060797 1.6947063e-38 320 246
0.0012343467 0.704 -0.0074060797 1.6670477e-38 321 246
0.0024686933 0.704 -0.0074060797 1.703746e-38 322 246
0.0037030398 0.704 -0.0074060797 1.703746e-38 323 246
0.0049373866 0.704 -0.0074060797 1.676195e-38 324 246
0.0061717331 0.704 -0.0074060797 1.676195e-38 325 246
0.0074060797 0.704 -0.0074060797 1.6761947e-38 326 246
0.0086649731 0.70599997 -0.0074271196 1.6761947e-38 327 246
0.0099028256 0.70599997 -0.0074271196 1.6761947e-38 328 246
0.011140679 0.70599997 -0.0074271196 1.6761947e-38 329 246
0.012378532 0.70599997 -0.0074271196 1.6672271e-38 330 246
0.013616386 0.70599997 -0.0074271196 1.6764466e-38 331 246
0.01487528 0.70700002 -0.0074376399 1.6213445e-38 332 246
0.016114887 0.70700002 -0.0074376399 1.6121249e-38 333 246
0.017354494 0.70700002 -0.0074376399 1.6396038e-38 334 246
0.0186204 0.708 -0.0074481601 1.6488234e-38 335 246
0.01986176 0.708 -0.0074481601 1.6398202e-38 336 246
0.021162732 0.70999998 -0.0074691991 1.7412354e-38 337 246
0.022407599 0.70999998 -0.0074691991 1.6222813e-38 338 246
0.023685781 0.71100003 -0.0074797203 1.6222813e-38 339 246
0.024932399 0.71100003 -0.0074797203 1.6132062e-38 340 246
0.026179021 0.71100003 -0.0074797203 1.6132062e-38 341 246
0.027425639 0.71100003 -0.0074797203 1.5671442e-38 342 246
0.028672259 0.71100003 -0.0074797203 1.4933877e-38 343 246
0.029918881 0.71100003 -0.0074797203 1.7514999e-38 344 246
0.031165501 0.71100003 -0.0074797203 2.0188672e-38 345 246
-0.041729331 0.69999999 -0.0085913334 1.871353e-38 286 247
-0.040559858 0.70099998 -0.0086036054 1.871353e-38 287 247
-0.039442986 0.70300001 -0.0086281532 1.8438385e-38 288 247
-0.038210396 0.70300001 -0.0086281532 1.8346188e-38 289 247
-0.036977798 0.70300001 -0.0086281532 1.8070321e-38 290 247
-0.035745207 0.70300001 -0.0086281532 1.7978125e-38 291 247
-0.034414422 0.70099998 -0.0086036054 1.7977407e-38 292 247
-0.03318534 0.70099998 -0.0086036054 1.7977407e-38 293 247
-0.031956252 0.70099998 -0.0086036054 1.7792659e-38 294 247
-0.030727165 0.70099998 -0.0086036054 1.7792659e-38 295 247
-0.029498078 0.70099998 -0.0086036054 1.779086e-38 296 247
-0.028268991 0.70099998 -0.0086036054 1.7514633e-38 297 247
-0.027039904 0.70099998 -0.0086036054 1.7512463e-38 298 247
-0.025810819 0.70099998 -0.0086036054 1.6498309e-38 299 247
-0.024581732 0.70099998 -0.0086036054 1.7777174e-38 300 247
-0.023352645 0.70099998 -0.0086036054 1.7500587e-38 301 247
-0.022123558 0.70099998 -0.0086036054 1.7684262e-38 302 247
-0.020954086 0.70300001 -0.0086281532 1.7776458e-38 303 247
-0.019721493 0.70300001 -0.0086281532 1.7502031e-38 304 247
-0.018436298 0.70099998 -0.0086036054 1.7502031e-38 305 247
-0.017207211 0.70099998 -0.0086036054 1.7501315e-38 306 247
-0.015978126 0.70099998 -0.0086036054 1.7316565e-38 307 247
-0.014749039 0.70099998 -0.0086036054 1.7406966e-38 308 247
-0.013519952 0.70099998 -0.0086036054 1.7499162e-38 309 247
-0.012290866 0.70099998 -0.0086036054 1.7041776e-38 310 247
-0.011061779 0.70099998 -0.0086036054 1.7041776e-38 311 247
-0.0098326923 0.70099998 -0.0086036054 1.7316921e-38 312 247
-0.0086281532 0.70300001 -0.0086281532 1.7224367e-38 313 247
-0.0073955595 0.70300001 -0.0086281532 1.7132171e-38 314 247
-0.0061629666 0.70300001 -0.0086281532 1.6948139e-38 315 247
-0.0049373866 0.704 -0.0086404262 1.7130735e-38 316 247
-0.0037030398 0.704 -0.0086404262 1.7314766e-38 317 247
-0.0024686933 0.704 -0.0086404262 1.7038902e-38 318 247
-0.0012343467 0.704 -0.0086404262 1.6946707e-38 319 247
0 0.704 -0.0086404262 1.6855946e-38 320 247
0.0012343467 0.704 -0.0086404262 1.6763392e-38 321 247
0.0024686933 0.704 -0.0086404262 1.6854861e-38 322 247
0.0037030398 0.704 -0.0086404262 1.6854861e-38 323 247
0.0049373866 0.704 -0.0086404262 1.667083e-38 324 247
0.0061717331 0.704 -0.0086404262 1.6578635e-38 325 247
0.0074271196 0.70599997 -0.0086649731 1.6761947e-38 326 247
0.0086649731 0.70599997 -0.0086649731 1.6761947e-38 327 247
0.0099028256 0.70599997 -0.0086649731 1.6854143e-38 328 247
0.011140679 0.70599997 -0.0086649731 1.6946338e-38 329 247
0.012378532 0.70599997 -0.0086649731 1.685594e-38 330 247
0.013635674 0.70700002 -0.008677247 1.6763745e-38 331 247
0.01489632 0.708 -0.008689519 1.6672621e-38 332 247
0.01613768 0.708 -0.008689519 1.648859e-38 333 247
0.017379038 0.708 -0.008689519 1.6672618e-38 334 247
0.0186204 0.708 -0.008689519 1.6672618e-38 335 247
0.019917866 0.70999998 -0.0087140659 1.6308162e-38 336 247
0.021162732 0.70999998 -0.0087140659 1.6953531e-38 337 247
0.022407599 0.70999998 -0.0087140659 1.6039136e-38 338 247
0.023685781 0.71100003 -0.0087263398 1.6315364e-38 339 247
0.025002534 0.713 -0.0087508867 1.6131343e-38 340 247
0.026179021 0.71100003 -0.0087263398 1.6223897e-38 341 247
0.027425639 0.71100003 -0.0087263398 1.5854755e-38 342 247
0.028672259 0.71100003 -0.0087263398 1.5209385e-38 343 247
0.029918881 0.71100003 -0.0087263398 1.7791946e-38 344 247
-0.040675577 0.70300001 -0.0098607466 1.8805372e-38 287 248
-0.039442986 0.70300001 -0.0098607466 1.8438029e-38 288 248
-0.038210396 0.70300001 -0.0098607466 1.8438029e-38 289 248
-0.036977798 0.70300001 -0.0098607466 1.8070677e-38 290 248
-0.035745207 0.70300001 -0.0098607466 1.7978481e-38 291 248
-0.034512613 0.70300001 -0.0098607466 1.7977407e-38 292 248
-0.033280019 0.70300001 -0.0098607466 1.7885211e-38 293 248
-0.032047424 0.70300001 -0.0098607466 1.7884858e-38 294 248
-0.030814834 0.70300001 -0.0098607466 1.7700467e-38 295 248
-0.029582238 0.70300001 -0.0098607466 1.7790863e-38 296 248
-0.028349647 0.70300001 -0.0098607466 1.7514636e-38 297 248
-0.027117053 0.70300001 -0.0098607466 1.7696499e-38 298 248
-0.025884461 0.70300001 -0.0098607466 1.6590153e-38 299 248
-0.024651866 0.70300001 -0.0098607466 1.7684978e-38 300 248
-0.023352645 0.70099998 -0.0098326923 1.7224e-38 301 248
-0.022123558 0.70099998 -0.0098326923 1.7775373e-38 302 248
-0.020954086 0.70300001 -0.0098607466 1.7960123e-38 303 248
-0.019721493 0.70300001 -0.0098607466 1.7502034e-38 304 248
-0.018436298 0.70099998 -0.0098326923 1.7502034e-38 305 248
-0.017207211 0.70099998 -0.0098326923 1.7409485e-38 306 248
-0.015978126 0.70099998 -0.0098326923 1.7040704e-38 307 248
-0.014749039 0.70099998 -0.0098326923 1.7406969e-38 308 248
-0.013519952 0.70099998 -0.0098326923 1.7499164e-38 309 248
-0.012290866 0.70099998 -0.0098326923 1.7133256e-38 310 248
-0.011061779 0.70099998 -0.0098326923 1.7133256e-38 311 248
-0.0098607466 0.70300001 -0.0098607466 1.7224373e-38 312 248
-0.0086281532 0.70300001 -0.0098607466 1.7316568e-38 313 248
-0.0073955595 0.70300001 -0.0098607466 1.7224373e-38 314 248
-0.0061629666 0.70300001 -0.0098607466 1.7132177e-38 315 248
-0.0049373866 0.704 -0.0098747732 1.7223651e-38 316 248
-0.0037030398 0.704 -0.0098747732 1.7223651e-38 317 248
-0.0024686933 0.704 -0.0098747732 1.7132177e-38 318 248
-0.0012343467 0.704 -0.0098747732 1.6947786e-38 319 248
0 0.704 -0.0098747732 1.676555e-38 320 248
0.0012343467 0.704 -0.0098747732 1.6672994e-38 321 248
0.0024686933 0.704 -0.0098747732 1.6764466e-38 322 248
0.0037030398 0.704 -0.0098747732 1.6672271e-38 323 248
0.0049373866 0.704 -0.0098747732 1.6671552e-38 324 248
0.0061717331 0.704 -0.0098747732 1.6763748e-38 325 248
0.0074271196 0.70599997 -0.0099028256 1.667083e-38 326 248
0.0086649731 0.70599997 -0.0099028256 1.667083e-38 327 248
0.0099028256 0.70599997 -0.0099028256 1.6763745e-38 328 248
0.011140679 0.70599997 -0.0099028256 1.685594e-38 329 248
0.012378532 0.70599997 -0.0099028256 1.6764466e-38 330 248
0.013654959 0.708 -0.0099308798 1.6764466e-38 331 248
0.01489632 0.708 -0.0099308798 1.6763748e-38 332 248
0.01613768 0.708 -0.0099308798 1.6763748e-38 333 248
0.017428132 0.70999998 -0.0099589331 1.6213811e-38 334 248
0.018672999 0.70999998 -0.0099589331 1.6490758e-38 335 248
0.019917866 0.70999998 -0.0099589331 1.6309609e-38 336 248
0.021192541 0.71100003 -0.0099729598 1.6954979e-38 337 248
0.022439159 0.71100003 -0.0099729598 1.6131343e-38 338 248
0.023685781 0.71100003 -0.0099729598 1.6131343e-38 339 248
0.025002534 0.713 -0.010001013 1.6132065e-38 340 248
0.026179021 0.71100003 -0.0099729598 1.6132065e-38 341 248
0.027425639 0.71100003 -0.0099729598 1.603915e-38 342 248
0.028672259 0.71100003 -0.0099729598 1.5301584e-38 343 248
0.029918881 0.71100003 -0.0099729598 1.8159652e-38 344 248
-0.040675577 0.70300001 -0.01109334 1.8806091e-38 287 249
-0.039442986 0.70300001 -0.01109334 1.8713895e-38 288 249
-0.038210396 0.70300001 -0.01109334 1.86217e-38 289 249
-0.036977798 0.70300001 -0.01109334 1.8253992e-38 290 249
-0.035745207 0.70300001 -0.01109334 1.8069602e-38 291 249
-0.034512613 0.70300001 -0.01109334 1.788593e-38 292 249
-0.033280019 0.70300001 -0.01109334 1.788593e-38 293 249
-0.032047424 0.70300001 -0.01109334 1.7975974e-38 294 249
-0.030814834 0.70300001 -0.01109334 1.7791943e-38 295 249
-0.029624319 0.704 -0.011109119 1.779086e-38 296 249
-0.028389972 0.704 -0.011109119 1.7514633e-38 297 249
-0.027117053 0.70300001 -0.01109334 1.7971644e-38 298 249
-0.025884461 0.70300001 -0.01109334 1.6957494e-38 299 249
-0.024651866 0.70300001 -0.01109334 1.7776811e-38 300 249
-0.023352645 0.70099998 -0.011061779 1.7684256e-38 301 249
-0.022123558 0.70099998 -0.011061779 1.7867927e-38 302 249
-0.020954086 0.70300001 -0.01109334 1.7960123e-38 303 249
-0.019721493 0.70300001 -0.01109334 1.7502034e-38 304 249
-0.018488899 0.70300001 -0.01109334 1.7502034e-38 305 249
-0.017256306 0.70300001 -0.01109334 1.7500959e-38 306 249
-0.016023712 0.70300001 -0.01109334 1.7408764e-38 307 249
-0.014791119 0.70300001 -0.01109334 1.7316568e-38 308 249
-0.013558527 0.70300001 -0.01109334 1.7408764e-38 309 249
-0.012325933 0.70300001 -0.01109334 1.7133972e-38 310 249
-0.011109119 0.704 -0.011109119 1.7133972e-38 311 249
-0.0098747732 0.704 -0.011109119 1.7133256e-38 312 249
-0.0086404262 0.704 -0.011109119 1.704106e-38 313 249
-0.0074060797 0.704 -0.011109119 1.7132177e-38 314 249
-0.0061717331 0.704 -0.011109119 1.7224373e-38 315 249
-0.0049373866 0.704 -0.011109119 1.7041058e-38 316 249
-0.0037135598 0.70599997 -0.011140679 1.7041058e-38 317 249
-0.0024757064 0.70599997 -0.011140679 1.6948862e-38 318 249
-0.0012378532 0.70599997 -0.011140679 1.6948862e-38 319 249
0 0.70599997 -0.011140679 1.6949578e-38 320 249
0.0012378532 0.70599997 -0.011140679 1.6765547e-38 321 249
0.0024757064 0.70599997 -0.011140679 1.6581154e-38 322 249
0.0037135598 0.70599997 -0.011140679 1.6581154e-38 323 249
0.0049514128 0.70599997 -0.011140679 1.6763392e-38 324 249
0.0061892662 0.70599997 -0.011140679 1.6671196e-38 325 249
0.0074271196 0.70599997 -0.011140679 1.6671552e-38 326 249
0.0086649731 0.70599997 -0.011140679 1.6671552e-38 327 249
0.0099028256 0.70599997 -0.011140679 1.6764464e-38 328 249
0.011140679 0.70599997 -0.011140679 1.6856659e-38 329 249
0.012396066 0.70700002 -0.011156459 1.6763748e-38 330 249
0.013654959 0.708 -0.01117224 1.6855943e-38 331 249
0.014938398 0.70999998 -0.011203799 1.676411e-38 332 249
0.016183265 0.70999998 -0.011203799 1.7133253e-38 333 249
0.017428132 0.70999998 -0.011203799 1.612666e-38 334 249
0.018672999 0.70999998 -0.011203799 1.6310692e-38 335 249
0.01994592 0.71100003 -0.01121958 1.6219941e-38 336 249
0.021192541 0.71100003 -0.01121958 1.6496887e-38 337 249
0.022439159 0.71100003 -0.01121958 1.6131343e-38 338 249
0.023752406 0.713 -0.011251139 1.6223897e-38 339 249
0.025002534 0.713 -0.011251139 1.6132062e-38 340 249
0.026252659 0.713 -0.011251139 1.6132062e-38 341 249
0.027502786 0.713 -0.011251139 1.6038427e-38 342 249
0.028752912 0.713 -0.011251139 1.5577449e-38 343 249
0.030003037 0.713 -0.011251139 1.825257e-38 344 249
-0.039499093 0.704 -0.012343466 1.8713895e-38 288 250
-0.038264744 0.704 -0.012343466 1.86217e-38 289 250
-0.037030395 0.704 -0.012343466 1.8162517e-38 290 250
-0.035745207 0.70300001 -0.012325933 1.8070321e-38 291 250
-0.034512613 0.70300001 -0.012325933 1.7978125e-38 292 250
-0.03332736 0.704 -0.012343466 1.788593e-38 293 250
-0.032093015 0.704 -0.012343466 1.7975974e-38 294 250
-0.030858666 0.704 -0.012343466 1.7975974e-38 295 250
-0.029624319 0.704 -0.012343466 1.7699743e-38 296 250
-0.028389972 0.704 -0.012343466 1.7423157e-38 297 250
-0.027117053 0.70300001 -0.012325933 1.7971639e-38 298 250
-0.025884461 0.70300001 -0.012325933 1.6865651e-38 299 250
-0.024651866 0.70300001 -0.012325933 1.796012e-38 300 250
-0.023419274 0.70300001 -0.012325933 1.796012e-38 301 250
-0.02218668 0.70300001 -0.012325933 1.7960123e-38 302 250
-0.020983893 0.704 -0.012343466 1.7960123e-38 303 250
-0.019749546 0.704 -0.012343466 1.7501313e-38 304 250
-0.018488899 0.70300001 -0.012325933 1.7501313e-38 305 250
-0.017256306 0.70300001 -0.012325933 1.7501678e-38 306 250
-0.016046507 0.704 -0.012343466 1.7409483e-38 307 250
-0.014812159 0.704 -0.012343466 1.7409483e-38 308 250
-0.013577812 0.704 -0.012343466 1.7409483e-38 309 250
-0.012343466 0.704 -0.012343466 1.722617e-38 310 250
-0.011109119 0.704 -0.012343466 1.722617e-38 311 250
-0.0098747732 0.704 -0.012343466 1.7132903e-38 312 250
-0.0086404262 0.704 -0.012343466 1.7040707e-38 313 250
-0.0074271196 0.70599997 -0.012378532 1.7041426e-38 314 250
-0.0061892662 0.70599997 -0.012378532 1.7041426e-38 315 250
-0.0049514128 0.70599997 -0.012378532 1.704142e-38 316 250
-0.0037135598 0.70599997 -0.012378532 1.704142e-38 317 250
-0.0024757064 0.70599997 -0.012378532 1.6949225e-38 318 250
-0.0012378532 0.70599997 -0.012378532 1.6949225e-38 319 250
0 0.70599997 -0.012378532 1.676555e-38 320 250
0.0012378532 0.70599997 -0.012378532 1.6949581e-38 321 250
0.0024757064 0.70599997 -0.012378532 1.6672994e-38 322 250
0.0037135598 0.70599997 -0.012378532 1.6672994e-38 323 250
0.0049514128 0.70599997 -0.012378532 1.6764113e-38 324 250
0.0061892662 0.70599997 -0.012378532 1.6671918e-38 325 250
0.0074271196 0.70599997 -0.012378532 1.6764466e-38 326 250
0.0086649731 0.70599997 -0.012378532 1.6764466e-38 327 250
0.0099028256 0.70599997 -0.012378532 1.6581149e-38 328 250
0.011156459 0.70700002 -0.012396066 1.6673703e-38 329 250
0.0124136 0.708 -0.0124136 1.6397839e-38 330 250
0.013693533 0.70999998 -0.012448666 1.658187e-38 331 250
0.014938398 0.70999998 -0.012448666 1.6490768e-38 332 250
0.016183265 0.70999998 -0.012448666 1.7228691e-38 333 250
0.01745268 0.71100003 -0.0124662 1.6589803e-38 334 250
0.0186993 0.71100003 -0.0124662 1.6589803e-38 335 250
0.01994592 0.71100003 -0.0124662 1.6315011e-38 336 250
0.021192541 0.71100003 -0.0124662 1.6315011e-38 337 250
0.022439159 0.71100003 -0.0124662 1.6132418e-38 338 250
0.023752406 0.713 -0.012501267 1.6224613e-38 339 250
0.025002534 0.713 -0.012501267 1.6224616e-38 340 250
0.026252659 0.713 -0.012501267 1.6224616e-38 341 250
0.027502786 0.713 -0.012501267 1.5856191e-38 342 250
0.028752912 0.713 -0.012501267 1.5487048e-38 343 250
-0.040964879 0.708 -0.013654959 1.8898287e-38 287 251
-0.039611302 0.70599997 -0.013616386 1.8530227e-38 288 251
-0.038264744 0.704 -0.013577812 1.8438032e-38 289 251
-0.037030395 0.704 -0.013577812 1.8162519e-38 290 251
-0.035745207 0.70300001 -0.013558527 1.8070324e-38 291 251
-0.034512613 0.70300001 -0.013558527 1.7794816e-38 292 251
-0.03332736 0.704 -0.013577812 1.7702262e-38 293 251
-0.032093015 0.704 -0.013577812 1.7884858e-38 294 251
-0.030858666 0.704 -0.013577812 1.7792662e-38 295 251
-0.029624319 0.704 -0.013577812 1.7608269e-38 296 251
-0.028389972 0.704 -0.013577812 1.7331684e-38 297 251
-0.027155625 0.704 -0.013577812 1.7789048e-38 298 251
-0.02592128 0.704 -0.013577812 1.6774898e-38 299 251
-0.024651866 0.70300001 -0.013558527 1.7776811e-38 300 251
-0.023419274 0.70300001 -0.013558527 1.7776811e-38 301 251
-0.02218668 0.70300001 -0.013558527 1.7960842e-38 302 251
-0.020983893 0.704 -0.013577812 1.7960842e-38 303 251
-0.019749546 0.704 -0.013577812 1.7593864e-38 304 251
-0.018515198 0.704 -0.013577812 1.7593864e-38 305 251
-0.017280852 0.704 -0.013577812 1.7318366e-38 306 251
-0.016046507 0.704 -0.013577812 1.7318366e-38 307 251
-0.014812159 0.704 -0.013577812 1.7225817e-38 308 251
-0.013577812 0.704 -0.013577812 1.7225817e-38 309 251
-0.012378532 0.70599997 -0.013616386 1.7226536e-38 310 251
-0.011140679 0.70599997 -0.013616386 1.7042505e-38 311 251
-0.0099028256 0.70599997 -0.013616386 1.7042505e-38 312 251
-0.0086649731 0.70599997 -0.013616386 1.6950309e-38 313 251
-0.0074271196 0.70599997 -0.013616386 1.6950309e-38 314 251
-0.0061892662 0.70599997 -0.013616386 1.6950309e-38 315 251
-0.0049514128 0.70599997 -0.013616386 1.6858114e-38 316 251
-0.0037135598 0.70599997 -0.013616386 1.6950309e-38 317 251
-0.0024757064 0.70599997 -0.013616386 1.6766278e-38 318 251
-0.0012378532 0.70599997 -0.013616386 1.6766278e-38 319 251
0 0.70599997 -0.013616386 1.6766634e-38 320 251
0.0012378532 0.70599997 -0.013616386 1.6766634e-38 321 251
0.0024757064 0.70599997 -0.013616386 1.6765915e-38 322 251
0.0037135598 0.70599997 -0.013616386 1.667372e-38 323 251
0.0049514128 0.70599997 -0.013616386 1.667372e-38 324 251
0.0061892662 0.70599997 -0.013616386 1.6581164e-38 325 251
0.0074271196 0.70599997 -0.013616386 1.6398572e-38 326 251
0.0086649731 0.70599997 -0.013616386 1.6583322e-38 327 251
0.0099168532 0.70700002 -0.013635674 1.6583319e-38 328 251
0.01117224 0.708 -0.013654959 1.6675515e-38 329 251
0.0124136 0.708 -0.013654959 1.6218132e-38 330 251
0.013693533 0.70999998 -0.013693533 1.6310328e-38 331 251
0.014938398 0.70999998 -0.013693533 1.6495442e-38 332 251
0.016183265 0.70999998 -0.013693533 1.6587638e-38 333 251
0.01745268 0.71100003 -0.01371282 1.6496884e-38 334 251
0.0186993 0.71100003 -0.01371282 1.6773471e-38 335 251
0.01994592 0.71100003 -0.01371282 1.6222816e-38 336 251
0.021192541 0.71100003 -0.01371282 1.6315011e-38 337 251
0.022502279 0.713 -0.013751393 1.6132062e-38 338 251
0.023752406 0.713 -0.013751393 1.6224616e-38 339 251
0.025212931 0.71899998 -0.013867113 1.6224616e-38 340 251
0.02647358 0.71899998 -0.013867113 1.6224616e-38 341 251
0.027734226 0.71899998 -0.013867113 1.6039866e-38 342 251
-0.040964879 0.708 -0.01489632 1.8898287e-38 287 252
-0.039667413 0.70700002 -0.01487528 1.8622779e-38 288 252
-0.038373452 0.70599997 -0.014854239 1.8530583e-38 289 252
-0.037030395 0.704 -0.014812159 1.8162519e-38 290 252
-0.035796054 0.704 -0.014812159 1.8070324e-38 291 252
-0.034561705 0.704 -0.014812159 1.7978128e-38 292 252
-0.03332736 0.704 -0.014812159 1.7978128e-38 293 252
-0.032093015 0.704 -0.014812159 1.7885933e-38 294 252
-0.030858666 0.704 -0.014812159 1.7609347e-38 295 252
-0.029708479 0.70599997 -0.014854239 1.7699746e-38 296 252
-0.028470624 0.70599997 -0.014854239 1.7607551e-38 297 252
-0.027155625 0.704 -0.014812159 1.7790497e-38 298 252
-0.02592128 0.704 -0.014812159 1.6868182e-38 299 252
-0.024686933 0.704 -0.014812159 1.7595298e-38 300 252
-0.023419274 0.70300001 -0.014791119 1.7595298e-38 301 252
-0.02218668 0.70300001 -0.014791119 1.7871878e-38 302 252
-0.020983893 0.704 -0.014812159 1.7687128e-38 303 252
-0.019749546 0.704 -0.014812159 1.7595298e-38 304 252
-0.018515198 0.704 -0.014812159 1.7595298e-38 305 252
-0.017280852 0.704 -0.014812159 1.7136123e-38 306 252
-0.016046507 0.704 -0.014812159 1.7136123e-38 307 252
-0.014812159 0.704 -0.014812159 1.7410563e-38 308 252
-0.013577812 0.704 -0.014812159 1.7318366e-38 309 252
-0.012378532 0.70599997 -0.014854239 1.7226889e-38 310 252
-0.011140679 0.70599997 -0.014854239 1.7319086e-38 311 252
-0.0099028256 0.70599997 -0.014854239 1.7135771e-38 312 252
-0.0086649731 0.70599997 -0.014854239 1.7043574e-38 313 252
-0.0074271196 0.70599997 -0.014854239 1.6767357e-38 314 252
-0.0061892662 0.70599997 -0.014854239 1.6675162e-38 315 252
-0.0049514128 0.70599997 -0.014854239 1.6675162e-38 316 252
-0.0037135598 0.70599997 -0.014854239 1.6767357e-38 317 252
-0.0024757064 0.70599997 -0.014854239 1.6676231e-38 318 252
-0.0012378532 0.70599997 -0.014854239 1.6676231e-38 319 252
0 0.70599997 -0.014854239 1.6768785e-38 320 252
0.0012378532 0.70599997 -0.014854239 1.6768785e-38 321 252
0.0024757064 0.70599997 -0.014854239 1.6675881e-38 322 252
0.0037135598 0.70599997 -0.014854239 1.6583685e-38 323 252
0.0049584266 0.70700002 -0.01487528 1.6400022e-38 324 252
0.0061980332 0.70700002 -0.01487528 1.6307827e-38 325 252
0.0074376399 0.70700002 -0.01487528 1.621671e-38 326 252
0.008689519 0.708 -0.01489632 1.6492937e-38 327 252
0.0099589331 0.70999998 -0.014938398 1.6402169e-38 328 252
0.01117224 0.708 -0.01489632 1.6494723e-38 329 252
0.0124136 0.708 -0.01489632 1.6312843e-38 330 252
0.013693533 0.70999998 -0.014938398 1.6405039e-38 331 252
0.014959441 0.71100003 -0.014959441 1.6587282e-38 332 252
0.01620606 0.71100003 -0.014959441 1.6679836e-38 333 252
0.01745268 0.71100003 -0.014959441 1.6312493e-38 334 252
0.018751899 0.713 -0.015001519 1.6496884e-38 335 252
0.020002026 0.713 -0.015001519 1.6221376e-38 336 252
0.021252153 0.713 -0.015001519 1.6497605e-38 337 252
0.022502279 0.713 -0.015001519 1.6039866e-38 338 252
0.023752406 0.713 -0.015001519 1.6132062e-38 339 252
0.025002534 0.713 -0.015001519 1.6040945e-38 340 252
0.026252659 0.713 -0.015001519 1.61335e-38 341 252
-0.041138459 0.71100003 -0.01620606 1.9082678e-38 287 253
-0.039723519 0.708 -0.01613768 1.8623142e-38 288 253
-0.038427804 0.70700002 -0.016114887 1.8346915e-38 289 253
-0.037135597 0.70599997 -0.016092092 1.8071046e-38 290 253
-0.035796054 0.704 -0.016046507 1.7886656e-38 291 253
-0.034561705 0.704 -0.016046507 1.7886658e-38 292 253
-0.03332736 0.704 -0.016046507 1.7702267e-38 293 253
-0.032093015 0.704 -0.016046507 1.7885224e-38 294 253
-0.030858666 0.704 -0.016046507 1.7608997e-38 295 253
-0.029708479 0.70599997 -0.016092092 1.7699393e-38 296 253
-0.028470624 0.70599997 -0.016092092 1.7515002e-38 297 253
-0.027155625 0.704 -0.016046507 1.7514633e-38 298 253
-0.02592128 0.704 -0.016046507 1.6684873e-38 299 253
-0.024686933 0.704 -0.016046507 1.7508147e-38 300 253
-0.023452586 0.704 -0.016046507 1.7415951e-38 301 253
-0.022218239 0.704 -0.016046507 1.7782215e-38 302 253
-0.020983893 0.704 -0.016046507 1.7782215e-38 303 253
-0.019749546 0.704 -0.016046507 1.7140812e-38 304 253
-0.018515198 0.704 -0.016046507 1.7048257e-38 305 253
-0.017280852 0.704 -0.016046507 1.7323055e-38 306 253
-0.016092092 0.70599997 -0.016092092 1.7323055e-38 307 253
-0.014854239 0.70599997 -0.016092092 1.7139387e-38 308 253
-0.013616386 0.70599997 -0.016092092 1.7323418e-38 309 253
-0.012378532 0.70599997 -0.016092092 1.6956437e-38 310 253
-0.011140679 0.70599997 -0.016092092 1.6864242e-38 311 253
-0.0099028256 0.70599997 -0.016092092 1.6864598e-38 312 253
-0.0086649731 0.70599997 -0.016092092 1.6956793e-38 313 253
-0.0074271196 0.70599997 -0.016092092 1.6865316e-38 314 253
-0.0061892662 0.70599997 -0.016092092 1.6588731e-38 315 253
-0.0049514128 0.70599997 -0.016092092 1.649761e-38 316 253
-0.0037135598 0.70599997 -0.016092092 1.6221023e-38 317 253
-0.0024757064 0.70599997 -0.016092092 1.6221376e-38 318 253
-0.0012378532 0.70599997 -0.016092092 1.6129181e-38 319 253
0 0.70599997 -0.016092092 1.6312496e-38 320 253
0.0012378532 0.70599997 -0.016092092 1.6404691e-38 321 253
0.0024757064 0.70599997 -0.016092092 1.6404336e-38 322 253
0.0037188199 0.70700002 -0.016114887 1.649689e-38 323 253
0.0049584266 0.70700002 -0.016114887 1.6311777e-38 324 253
0.0061980332 0.70700002 -0.016114887 1.6311777e-38 325 253
0.0074376399 0.70700002 -0.016114887 1.6311774e-38 326 253
0.0087140659 0.70999998 -0.016183265 1.6495805e-38 327 253
0.0099589331 0.70999998 -0.016183265 1.6129181e-38 328 253
0.011203799 0.70999998 -0.016183265 1.6221376e-38 329 253
0.012448666 0.70999998 -0.016183265 1.6221376e-38 330 253
0.01371282 0.71100003 -0.01620606 1.6036985e-38 331 253
0.014959441 0.71100003 -0.01620606 1.6312127e-38 332 253
0.01620606 0.71100003 -0.01620606 1.5850789e-38 333 253
0.01745268 0.71100003 -0.01620606 1.6583316e-38 334 253
0.018778199 0.71399999 -0.016274439 1.6491121e-38 335 253
0.020030079 0.71399999 -0.016274439 1.5942269e-38 336 253
0.021281958 0.71399999 -0.016274439 1.6772029e-38 337 253
0.022533838 0.71399999 -0.016274439 1.6132062e-38 338 253
0.02378572 0.71399999 -0.016274439 1.6224616e-38 339 253
0.025037598 0.71399999 -0.016274439 1.6316812e-38 340 253
0.026584039 0.722 -0.016456785 1.6316812e-38 341 253
0.027849946 0.722 -0.016456785 1.6132062e-38 342 253
-0.042504307 0.713 -0.017501773 1.9266343e-38 286 254
-0.041138459 0.71100003 -0.01745268 1.9266343e-38 287 254
-0.039723519 0.708 -0.017379038 1.8898287e-38 288 254
-0.038482159 0.708 -0.017379038 1.8806091e-38 289 254
-0.037135597 0.70599997 -0.017329946 1.8438029e-38 290 254
-0.035897743 0.70599997 -0.017329946 1.8345832e-38 291 254
-0.034659892 0.70599997 -0.017329946 1.8070327e-38 292 254
-0.033422034 0.70599997 -0.017329946 1.7977772e-38 293 254
-0.032093015 0.704 -0.017280852 1.7977056e-38 294 254
-0.030858666 0.704 -0.017280852 1.7792665e-38 295 254
-0.029624319 0.704 -0.017280852 1.7883059e-38 296 254
-0.028389972 0.704 -0.017280852 1.7606832e-38 297 254
-0.027155625 0.704 -0.017280852 1.7606103e-38 298 254
-0.02592128 0.704 -0.017280852 1.7145125e-38 299 254
-0.024686933 0.704 -0.017280852 1.7969122e-38 300 254
-0.023452586 0.704 -0.017280852 1.7600698e-38 301 254
-0.022218239 0.704 -0.017280852 1.7784376e-38 302 254
-0.021043506 0.70599997 -0.017329946 1.7969128e-38 303 254
-0.019805651 0.70599997 -0.017329946 1.7601078e-38 304 254
-0.018567799 0.70599997 -0.017329946 1.7417045e-38 305 254
-0.017329946 0.70599997 -0.017329946 1.7417413e-38 306 254
-0.016092092 0.70599997 -0.017329946 1.7417413e-38 307 254
-0.014854239 0.70599997 -0.017329946 1.7049711e-38 308 254
-0.013616386 0.70599997 -0.017329946 1.7049711e-38 309 254
-0.012396066 0.70700002 -0.017354494 1.7050429e-38 310 254
-0.011156459 0.70700002 -0.017354494 1.7050429e-38 311 254
-0.0099168532 0.70700002 -0.017354494 1.6774566e-38 312 254
-0.008677247 0.70700002 -0.017354494 1.668237e-38 313 254
-0.0074271196 0.70599997 -0.017329946 1.6499055e-38 314 254
-0.0061892662 0.70599997 -0.017329946 1.6314664e-38 315 254
-0.0049584266 0.70700002 -0.017354494 1.6315014e-38 316 254
-0.0037188199 0.70700002 -0.017354494 1.6222818e-38 317 254
-0.0024792133 0.70700002 -0.017354494 1.6314292e-38 318 254
-0.0012396066 0.70700002 -0.017354494 1.6222095e-38 319 254
0 0.70700002 -0.017354494 1.6222818e-38 320 254
0.0012396066 0.70700002 -0.017354494 1.6038427e-38 321 254
0.00248272 0.708 -0.017379038 1.6038433e-38 322 254
0.00372408 0.708 -0.017379038 1.6038433e-38 323 254
0.0049654399 0.708 -0.017379038 1.5946234e-38 324 254
0.0062067998 0.708 -0.017379038 1.5854039e-38 325 254
0.0074481601 0.708 -0.017379038 1.5762203e-38 326 254
0.0087140659 0.70999998 -0.017428132 1.5762203e-38 327 254
0.0099589331 0.70999998 -0.017428132 1.5763288e-38 328 254
0.011203799 0.70999998 -0.017428132 1.6131711e-38 329 254
0.012448666 0.70999998 -0.017428132 1.6406491e-38 330 254
0.01371282 0.71100003 -0.01745268 1.6037348e-38 331 254
0.014959441 0.71100003 -0.01745268 1.6033017e-38 332 254
0.01620606 0.71100003 -0.01745268 1.5940821e-38 333 254
0.017526319 0.71399999 -0.017526319 1.6490758e-38 334 254
0.018778199 0.71399999 -0.017526319 1.6490758e-38 335 254
0.020086186 0.71600002 -0.017575413 1.6124859e-38 336 254
0.021341572 0.71600002 -0.017575413 1.6862783e-38 337 254
0.022596961 0.71600002 -0.017575413 1.6407926e-38 338 254
0.023852346 0.71600002 -0.017575413 1.6500121e-38 339 254
0.025318133 0.722 -0.017722692 1.604202e-38 340 254
0.026584039 0.722 -0.017722692 1.6134216e-38 341 254
0.027849946 0.722 -0.017722692 1.594875e-38 342 254
0.029156178 0.72299999 -0.017747238 1.5764358e-38 343 254
-0.043754432 0.713 -0.018751899 1.9818814e-38 285 255
-0.042504307 0.713 -0.018751899 1.9082681e-38 286 255
-0.041138459 0.71100003 -0.0186993 1.9266713e-38 287 255
-0.039835732 0.70999998 -0.018672999 1.8897934e-38 288 255
-0.038482159 0.708 -0.0186204 1.8805738e-38 289 255
-0.037188202 0.70700002 -0.018594101 1.853023e-38 290 255
-0.035897743 0.70599997 -0.018567799 1.8438034e-38 291 255
-0.034659892 0.70599997 -0.018567799 1.8069971e-38 292 255
-0.033422034 0.70599997 -0.018567799 1.7977775e-38 293 255
-0.032093015 0.704 -0.018515198 1.8069255e-38 294 255
-0.030858666 0.704 -0.018515198 1.7884505e-38 295 255
-0.029624319 0.704 -0.018515198 1.7791946e-38 296 255
-0.028389972 0.704 -0.018515198 1.7607195e-38 297 255
-0.027155625 0.704 -0.018515198 1.7605747e-38 298 255
-0.02592128 0.704 -0.018515198 1.7052932e-38 299 255
-0.024686933 0.704 -0.018515198 1.7876928e-38 300 255
-0.023452586 0.704 -0.018515198 1.7600342e-38 301 255
-0.022218239 0.704 -0.018515198 1.7690743e-38 302 255
-0.021043506 0.70599997 -0.018567799 1.796697e-38 303 255
-0.019805651 0.70599997 -0.018567799 1.7508518e-38 304 255
-0.018567799 0.70599997 -0.018567799 1.7600714e-38 305 255
-0.017329946 0.70599997 -0.018567799 1.6959309e-38 306 255
-0.016114887 0.70700002 -0.018594101 1.7051504e-38 307 255
-0.01487528 0.70700002 -0.018594101 1.6776362e-38 308 255
-0.013635674 0.70700002 -0.018594101 1.6684166e-38 309 255
-0.012396066 0.70700002 -0.018594101 1.6408304e-38 310 255
-0.011156459 0.70700002 -0.018594101 1.6223913e-38 311 255
-0.0099168532 0.70700002 -0.018594101 1.6406509e-38 312 255
-0.008677247 0.70700002 -0.018594101 1.6406509e-38 313 255
-0.0074376399 0.70700002 -0.018594101 1.5948052e-38 314 255
-0.0061980332 0.70700002 -0.018594101 1.6132443e-38 315 255
-0.0049584266 0.70700002 -0.018594101 1.5765105e-38 316 255
-0.0037188199 0.70700002 -0.018594101 1.5672551e-38 317 255
-0.0024792133 0.70700002 -0.018594101 1.6223206e-38 318 255
-0.0012396066 0.70700002 -0.018594101 1.6315402e-38 319 255
0 0.70700002 -0.018594101 1.6040247e-38 320 255
0.00124136 0.708 -0.0186204 1.5948052e-38 321 255
0.00248272 0.708 -0.0186204 1.5947696e-38 322 255
0.00372408 0.708 -0.0186204 1.5947696e-38 323 255
0.0049654399 0.708 -0.0186204 1.5304128e-38 324 255
0.0062243328 0.70999998 -0.018672999 1.5211931e-38 325 255
0.0074691991 0.70999998 -0.018672999 1.5027537e-38 326 255
0.0087140659 0.70999998 -0.018672999 1.4842787e-38 327 255
0.0099589331 0.70999998 -0.018672999 1.4938586e-38 328 255
0.01121958 0.71100003 -0.0186993 1.6505551e-38 329 255
0.0124662 0.71100003 -0.0186993 1.6868929e-38 330 255
0.013751393 0.713 -0.018751899 1.5762581e-38 331 255
0.015001519 0.713 -0.018751899 1.6030867e-38 332 255
0.016251646 0.713 -0.018751899 1.621526e-38 333 255
0.017526319 0.71399999 -0.018778199 1.667335e-38 334 255
0.0188308 0.71600002 -0.0188308 1.7041774e-38 335 255
0.020086186 0.71600002 -0.0188308 1.6768432e-38 336 255
0.021341572 0.71600002 -0.0188308 1.7413801e-38 337 255
0.022596961 0.71600002 -0.0188308 1.6407928e-38 338 255
0.023852346 0.71600002 -0.0188308 1.6500124e-38 339 255
0.025318133 0.722 -0.0189886 1.6133144e-38 340 255
0.026584039 0.722 -0.0189886 1.6317175e-38 341 255
0.02788852 0.72299999 -0.019014901 1.6040948e-38 342 255
0.029156178 0.72299999 -0.019014901 1.5764361e-38 343 255
-0.043815799 0.71399999 -0.020030079 1.9635504e-38 285 256
-0.042504307 0.713 -0.020002026 1.9266713e-38 286 256
-0.041254178 0.713 -0.020002026 1.9082681e-38 287 256
-0.039891839 0.71100003 -0.01994592 1.91738e-38 288 256
-0.038590867 0.70999998 -0.019917866 1.8897215e-38 289 256
-0.0372408 0.708 -0.01986176 1.8621347e-38 290 256
-0.03599944 0.708 -0.01986176 1.8621347e-38 291 256
-0.034708988 0.70700002 -0.019833706 1.8253283e-38 292 256
-0.033469379 0.70700002 -0.019833706 1.8253283e-38 293 256
-0.032184184 0.70599997 -0.019805651 1.8252564e-38 294 256
-0.030946331 0.70599997 -0.019805651 1.7975977e-38 295 256
-0.029624319 0.704 -0.019749546 1.7975256e-38 296 256
-0.028389972 0.704 -0.019749546 1.7606832e-38 297 256
-0.027232772 0.70599997 -0.019805651 1.7697583e-38 298 256
-0.025994917 0.70599997 -0.019805651 1.6683071e-38 299 256
-0.024686933 0.704 -0.019749546 1.7964807e-38 300 256
-0.023452586 0.704 -0.019749546 1.7596026e-38 301 256
-0.022218239 0.704 -0.019749546 1.7779695e-38 302 256
-0.021043506 0.70599997 -0.019805651 1.787189e-38 303 256
-0.019833706 0.70700002 -0.019833706 1.7688946e-38 304 256
-0.018594101 0.70700002 -0.019833706 1.805737e-38 305 256
-0.017354494 0.70700002 -0.019833706 1.7236617e-38 306 256
-0.016114887 0.70700002 -0.019833706 1.7513204e-38 307 256
-0.01487528 0.70700002 -0.019833706 1.6686336e-38 308 256
-0.013635674 0.70700002 -0.019833706 1.6225359e-38 309 256
-0.012396066 0.70700002 -0.019833706 1.5398841e-38 310 256
-0.011156459 0.70700002 -0.019833706 1.5122254e-38 311 256
-0.0099168532 0.70700002 -0.019833706 1.5672554e-38 312 256
-0.008677247 0.70700002 -0.019833706 1.5580358e-38 313 256
-0.0074376399 0.70700002 -0.019833706 1.4755642e-38 314 256
-0.0061980332 0.70700002 -0.019833706 1.4939673e-38 315 256
-0.0049584266 0.70700002 -0.019833706 1.429575e-38 316 256
-0.0037188199 0.70700002 -0.019833706 1.4111357e-38 317 256
-0.0024792133 0.70700002 -0.019833706 1.5027197e-38 318 256
-0.00124136 0.708 -0.01986176 1.4658774e-38 319 256
0 0.708 -0.01986176 1.3368757e-38 320 256
0.0012448666 0.70999998 -0.019917866 1.4014127e-38 321 256
0.0024897333 0.70999998 -0.019917866 1.4202837e-38 322 256
0.0037345996 0.70999998 -0.019917866 1.3925891e-38 323 256
0.0049794666 0.70999998 -0.019917866 1.1901903e-38 324 256
0.0062243328 0.70999998 -0.019917866 1.0611164e-38 325 256
0.0074797203 0.71100003 -0.01994592 1.1989064e-38 326 256
0.0087263398 0.71100003 -0.01994592 1.2357845e-38 327 256
0.0099729598 0.71100003 -0.01994592 1.2824583e-38 328 256
0.01121958 0.71100003 -0.01994592 1.5498256e-38 329 256
0.0124662 0.71100003 -0.01994592 1.6594511e-38 330 256
0.013751393 0.713 -0.020002026 1.5211575e-38 331 256
0.015001519 0.713 -0.020002026 1.5939394e-38 332 256
0.016274439 0.71399999 -0.020030079 1.6215981e-38 333 256
0.017575413 0.71600002 -0.020086186 1.667407e-38 334 256
0.0188308 0.71600002 -0.020086186 1.7042853e-38 335 256
0.020086186 0.71600002 -0.020086186 1.658584e-38 336 256
0.021341572 0.71600002 -0.020086186 1.7231209e-38 337 256
0.022596961 0.71600002 -0.020086186 1.640721e-38 338 256
0.024052227 0.722 -0.020254506 1.6591601e-38 339 256
0.025318133 0.722 -0.020254506 1.6500851e-38 340 256
0.026620859 0.72299999 -0.020282559 1.6500851e-38 341 256
0.02788852 0.72299999 -0.020282559 1.6591967e-38 342 256
0.029156178 0.72299999 -0.020282559 1.6223544e-38 343 256
0.030423839 0.72299999 -0.020282559 1.9727345e-38 344 256
-0.043815799 0.71399999 -0.021281958 1.9452556e-38 285 257
-0.042563915 0.71399999 -0.021281958 1.9175599e-38 286 257
-0.041254178 0.713 -0.021252153 1.9083404e-38 287 257
-0.039891839 0.71100003 -0.021192541 1.9265993e-38 288 257
-0.038590867 0.70999998 -0.021162732 1.9081602e-38 289 257
-0.0372408 0.708 -0.021103119 1.853023e-38 290 257
-0.03599944 0.708 -0.021103119 1.8438034e-38 291 257
-0.034708988 0.70700002 -0.021073313 1.8253283e-38 292 257
-0.033469379 0.70700002 -0.021073313 1.8253283e-38 293 257
-0.032184184 0.70599997 -0.021043506 1.8252564e-38 294 257
-0.030946331 0.70599997 -0.021043506 1.8068173e-38 295 257
-0.029708479 0.70599997 -0.021043506 1.8067451e-38 296 257
-0.028510952 0.70700002 -0.021073313 1.7790863e-38 297 257
-0.027271347 0.70700002 -0.021073313 1.7698302e-38 298 257
-0.025994917 0.70599997 -0.021043506 1.603878e-38 299 257
-0.024757065 0.70599997 -0.021043506 1.7501666e-38 300 257
-0.023519212 0.70599997 -0.021043506 1.7316916e-38 301 257
-0.022281358 0.70599997 -0.021043506 1.7685328e-38 302 257
-0.021103119 0.708 -0.021103119 1.7777524e-38 303 257
-0.01986176 0.708 -0.021103119 1.7041776e-38 304 257
-0.0186204 0.708 -0.021103119 1.7687146e-38 305 257
-0.017379038 0.708 -0.021103119 1.7881283e-38 306 257
-0.01613768 0.708 -0.021103119 1.8342261e-38 307 257
-0.01487528 0.70700002 -0.021073313 1.6596681e-38 308 257
-0.013635674 0.70700002 -0.021073313 1.5859115e-38 309 257
-0.012396066 0.70700002 -0.021073313 1.4571263e-38 310 257
-0.011156459 0.70700002 -0.021073313 1.4202481e-38 311 257
-0.0099168532 0.70700002 -0.021073313 1.4755655e-38 312 257
-0.008677247 0.70700002 -0.021073313 1.4294678e-38 313 257
-0.0074376399 0.70700002 -0.021073313 1.3560351e-38 314 257
-0.0061980332 0.70700002 -0.021073313 1.3284124e-38 315 257
-0.0049584266 0.70700002 -0.021073313 1.2544404e-38 316 257
-0.0037188199 0.70700002 -0.021073313 1.3189774e-38 317 257
-0.0024792133 0.70700002 -0.021073313 1.3645711e-38 318 257
-0.00124136 0.708 -0.021103119 1.2078744e-38 319 257
