# .PCD v.7 - Point Cloud Data file format
FIELDS x y z rgb imX imY
SIZE 4 4 4 4 4 4
TYPE F F F F F F
COUNT 1 1 1 1 1 1
WIDTH 851
HEIGHT 1
VIEWPOINT 0 0 0 1 0 0 0
POINTS 851
DATA ascii
0.01014654 0.64300001 0.11950368 9.4111625e-39 329 134
0.011291467 0.64399999 0.11968954 9.4093647e-39 330 134
0.012478473 0.64700001 0.1202471 9.1327792e-39 331 134
0.013612879 0.64700001 0.1202471 8.6710751e-39 332 134
0.014747286 0.64700001 0.1202471 8.4866825e-39 333 134
0.015881693 0.64700001 0.1202471 8.3934023e-39 334 134
0.0170161 0.64700001 0.1202471 8.7618246e-39 335 134
-0.028053332 0.63999999 0.11782399 1.069612e-38 295 135
-0.026931198 0.63999999 0.11782399 1.0605018e-38 296 135
-0.025728412 0.63800001 0.1174558 1.0973441e-38 297 135
-0.024609786 0.63800001 0.1174558 1.0791577e-38 298 135
-0.02345434 0.63700002 0.1172717 1.1068163e-38 299 135
-0.022302398 0.63599998 0.1170876 1.0977058e-38 300 135
-0.021187279 0.63599998 0.1170876 1.1161807e-38 301 135
-0.020072158 0.63599998 0.1170876 1.0703366e-38 302 135
-0.018927233 0.63499999 0.11690349 1.0795561e-38 303 135
-0.017813865 0.63499999 0.11690349 1.0891737e-38 304 135
-0.016726799 0.63599998 0.1170876 1.162966e-38 305 135
-0.015611678 0.63599998 0.1170876 1.3011889e-38 306 135
-0.014496559 0.63599998 0.1170876 1.2182128e-38 307 135
-0.013381439 0.63599998 0.1170876 1.116725e-38 308 135
-0.012266319 0.63599998 0.1170876 1.0798828e-38 309 135
-0.011151199 0.63599998 0.1170876 1.0797023e-38 310 135
-0.010036079 0.63599998 0.1170876 1.0612632e-38 311 135
-0.0089209592 0.63599998 0.1170876 1.0520066e-38 312 135
-0.0078058392 0.63599998 0.1170876 1.0151285e-38 313 135
-0.0066907196 0.63599998 0.1170876 1.0150559e-38 314 135
-0.0055755996 0.63599998 0.1170876 9.8743309e-39 315 135
-0.0044604796 0.63599998 0.1170876 9.5977412e-39 316 135
-0.0033453598 0.63599998 0.1170876 9.3211543e-39 317 135
-0.0022337467 0.63700002 0.1172717 9.3204284e-39 318 135
-0.0011168733 0.63700002 0.1172717 9.2282328e-39 319 135
0 0.63700002 0.1172717 8.9520033e-39 320 135
0.0011186267 0.63800001 0.1174558 8.9520033e-39 321 135
0.0022372534 0.63800001 0.1174558 9.1353155e-39 322 135
0.00335588 0.63800001 0.1174558 9.0431185e-39 323 135
0.0044955462 0.64099997 0.1180081 9.1345925e-39 324 135
0.0056194332 0.64099997 0.1180081 9.0423968e-39 325 135
0.0067433193 0.64099997 0.1180081 9.0427471e-39 326 135
0.0078794798 0.64200002 0.1181922 9.1353015e-39 327 135
0.0090191467 0.64300001 0.11837629 9.410808e-39 328 135
0.01016232 0.64399999 0.1185604 9.410808e-39 329 135
0.011326533 0.64600003 0.1189286 9.3178921e-39 330 135
0.012478473 0.64700001 0.11911271 9.0413052e-39 331 135
0.013612879 0.64700001 0.11911271 8.8561909e-39 332 135
0.014747286 0.64700001 0.11911271 8.3952141e-39 333 135
0.015881693 0.64700001 0.11911271 8.4866853e-39 334 135
0.0170161 0.64700001 0.11911271 8.4866853e-39 335 135
-0.028053332 0.63999999 0.11670186 1.0971983e-38 295 136
-0.026931198 0.63999999 0.11670186 1.0513539e-38 296 136
-0.025809065 0.63999999 0.11670186 1.0882681e-38 297 136
-0.024609786 0.63800001 0.11633718 1.0792299e-38 298 136
-0.023491161 0.63800001 0.11633718 1.097669e-38 299 136
-0.022372533 0.63800001 0.11633718 1.1252571e-38 300 136
-0.021220595 0.63700002 0.11615483 1.1436962e-38 301 136
-0.020072158 0.63599998 0.11597247 1.0795561e-38 302 136
-0.018957037 0.63599998 0.11597247 1.0887758e-38 303 136
-0.017841918 0.63599998 0.11597247 1.11676e-38 304 136
-0.016726799 0.63599998 0.11597247 1.1905166e-38 305 136
-0.015611678 0.63599998 0.11597247 1.291969e-38 306 136
-0.014496559 0.63599998 0.11597247 1.2274321e-38 307 136
-0.013381439 0.63599998 0.11597247 1.1076134e-38 308 136
-0.012266319 0.63599998 0.11597247 1.0891742e-38 309 136
-0.011151199 0.63599998 0.11597247 1.1165438e-38 310 136
-0.010036079 0.63599998 0.11597247 1.0796657e-38 311 136
-0.0089209592 0.63599998 0.11597247 1.061226e-38 312 136
-0.0078058392 0.63599998 0.11597247 1.0427868e-38 313 136
-0.0066907196 0.63599998 0.11597247 1.0517902e-38 314 136
-0.0055755996 0.63599998 0.11597247 1.0333151e-38 315 136
-0.0044604796 0.63599998 0.11597247 9.9658007e-39 316 136
-0.0033453598 0.63599998 0.11597247 9.6892152e-39 317 136
-0.0022337467 0.63700002 0.11615483 9.5044568e-39 318 136
-0.0011168733 0.63700002 0.11615483 9.4122611e-39 319 136
0 0.63700002 0.11615483 9.3200627e-39 320 136
0.0011186267 0.63800001 0.11633718 9.2278671e-39 321 136
0.0022442664 0.63999999 0.11670186 9.2278671e-39 322 136
0.0033716597 0.64099997 0.1168842 9.1353127e-39 323 136
0.00450256 0.64200002 0.11706656 9.2271454e-39 324 136
0.0056281998 0.64200002 0.11706656 9.1349484e-39 325 136
0.00675384 0.64200002 0.11706656 9.5941259e-39 326 136
0.0078917528 0.64300001 0.11724891 9.5941259e-39 327 136
0.0090331733 0.64399999 0.11743125 9.6863187e-39 328 136
0.01019388 0.64600003 0.11779595 9.7788731e-39 329 136
0.011326533 0.64600003 0.11779595 9.6859515e-39 330 136
0.012478473 0.64700001 0.11797829 9.4093647e-39 331 136
0.01363392 0.648 0.11816064 9.0409381e-39 332 136
0.014770079 0.648 0.11816064 8.4877657e-39 333 136
0.015906241 0.648 0.11816064 8.8543902e-39 334 136
-0.028053332 0.63999999 0.11557972 1.1064176e-38 295 137
-0.026931198 0.63999999 0.11557972 1.0698286e-38 296 137
-0.025809065 0.63999999 0.11557972 1.1067429e-38 297 137
-0.024609786 0.63800001 0.11521855 1.0885214e-38 298 137
-0.023491161 0.63800001 0.11521855 1.1069606e-38 299 137
-0.022372533 0.63800001 0.11521855 1.125365e-38 300 137
-0.021220595 0.63700002 0.11503795 1.1345846e-38 301 137
-0.020072158 0.63599998 0.11485735 1.0888474e-38 302 137
-0.018957037 0.63599998 0.11485735 1.0796279e-38 303 137
-0.017841918 0.63599998 0.11485735 1.153566e-38 304 137
-0.0167531 0.63700002 0.11503795 1.2273226e-38 305 137
-0.015636226 0.63700002 0.11503795 1.310444e-38 306 137
-0.014496559 0.63599998 0.11485735 1.2459071e-38 307 137
-0.013381439 0.63599998 0.11485735 1.1352362e-38 308 137
-0.012266319 0.63599998 0.11485735 1.0983938e-38 309 137
-0.011151199 0.63599998 0.11485735 1.1074323e-38 310 137
-0.010036079 0.63599998 0.11485735 1.0889572e-38 311 137
-0.0089209592 0.63599998 0.11485735 1.0888127e-38 312 137
-0.0078058392 0.63599998 0.11485735 1.0611899e-38 313 137
-0.0066907196 0.63599998 0.11485735 1.0610095e-38 314 137
-0.0055755996 0.63599998 0.11485735 1.0425704e-38 315 137
-0.0044604796 0.63599998 0.11485735 1.0149473e-38 316 137
-0.0033506199 0.63700002 0.11503795 9.9650818e-39 317 137
-0.0022337467 0.63700002 0.11503795 9.7806877e-39 318 137
-0.0011168733 0.63700002 0.11503795 9.5041008e-39 319 137
0 0.63800001 0.11521855 9.3197068e-39 320 137
0.0011186267 0.63800001 0.11521855 9.3197068e-39 321 137
0.0022477731 0.64099997 0.11576031 9.3200627e-39 322 137
0.0033716597 0.64099997 0.11576031 9.2278671e-39 323 137
0.00450256 0.64200002 0.11594091 9.4104577e-39 324 137
0.0056281998 0.64200002 0.11594091 9.4104577e-39 325 137
0.0067643598 0.64300001 0.11612152 9.6863187e-39 326 137
0.0079040267 0.64399999 0.1163021 9.6863187e-39 327 137
0.0090331733 0.64399999 0.1163021 9.9621825e-39 328 137
0.01019388 0.64600003 0.11666329 9.9621825e-39 329 137
0.011326533 0.64600003 0.11666329 9.9618168e-39 330 137
0.012478473 0.64700001 0.11684388 9.8696197e-39 331 137
0.01363392 0.648 0.11702448 9.0409381e-39 332 137
-0.026931198 0.63999999 0.11445759 1.1158189e-38 296 138
-0.025809065 0.63999999 0.11445759 1.1619166e-38 297 138
-0.024609786 0.63800001 0.11409992 1.1345473e-38 298 138
-0.023491161 0.63800001 0.11409992 1.1345473e-38 299 138
-0.022372533 0.63800001 0.11409992 1.1346199e-38 300 138
-0.021220595 0.63700002 0.11392108 1.1622427e-38 301 138
-0.020072158 0.63599998 0.11374222 1.1348735e-38 302 138
-0.018957037 0.63599998 0.11374222 1.1256539e-38 303 138
-0.017841918 0.63599998 0.11374222 1.1719702e-38 304 138
-0.0167531 0.63700002 0.11392108 1.2549822e-38 305 138
-0.015636226 0.63700002 0.11392108 1.3565062e-38 306 138
-0.014519353 0.63700002 0.11392108 1.2735302e-38 307 138
-0.01340248 0.63700002 0.11392108 1.1537112e-38 308 138
-0.012285607 0.63700002 0.11392108 1.1076134e-38 309 138
-0.011168733 0.63700002 0.11392108 1.1258354e-38 310 138
-0.01005186 0.63700002 0.11392108 1.0889572e-38 311 138
-0.0089209592 0.63599998 0.11374222 1.0888124e-38 312 138
-0.0078058392 0.63599998 0.11374222 1.0795928e-38 313 138
-0.0066907196 0.63599998 0.11374222 1.070301e-38 314 138
-0.0055755996 0.63599998 0.11374222 1.0334587e-38 315 138
-0.0044674934 0.63700002 0.11392108 1.0333504e-38 316 138
-0.0033506199 0.63700002 0.11392108 9.9650818e-39 317 138
-0.0022337467 0.63700002 0.11392108 9.7806877e-39 318 138
-0.0011186267 0.63800001 0.11409992 9.688132e-39 319 138
0 0.63800001 0.11409992 9.5044568e-39 320 138
0.0011238866 0.64099997 0.11463643 9.4122611e-39 321 138
0.00225128 0.64200002 0.11481528 9.2285859e-39 322 138
0.00337692 0.64200002 0.11481528 9.2285859e-39 323 138
0.0045095733 0.64300001 0.11499412 9.5033722e-39 324 138
0.0056369668 0.64300001 0.11499412 9.5033722e-39 325 138
0.0067748795 0.64399999 0.11517295 9.7777983e-39 326 138
0.0079040267 0.64399999 0.11517295 9.7777983e-39 327 138
0.0090331733 0.64399999 0.11517295 9.8710687e-39 328 138
0.01019388 0.64600003 0.11553065 9.9632643e-39 329 138
0.011344067 0.64700001 0.11570948 9.6866718e-39 330 138
0.012478473 0.64700001 0.11570948 9.7788674e-39 331 138
-0.024686933 0.63999999 0.11333546 1.1620265e-38 298 139
-0.023491161 0.63800001 0.1129813 1.1896852e-38 299 139
-0.022372533 0.63800001 0.1129813 1.1713906e-38 300 139
-0.021220595 0.63700002 0.11280421 1.2082688e-38 301 139
-0.020103721 0.63700002 0.11280421 1.1441301e-38 302 139
-0.018957037 0.63599998 0.11262712 1.1625692e-38 303 139
-0.017841918 0.63599998 0.11262712 1.2089211e-38 304 139
-0.0167531 0.63700002 0.11280421 1.2826776e-38 305 139
-0.015636226 0.63700002 0.11280421 1.375018e-38 306 139
-0.014519353 0.63700002 0.11280421 1.2551636e-38 307 139
-0.01340248 0.63700002 0.11280421 1.162967e-38 308 139
-0.012285607 0.63700002 0.11280421 1.0984301e-38 309 139
-0.011168733 0.63700002 0.11280421 1.1258354e-38 310 139
-0.01005186 0.63700002 0.11280421 1.0981767e-38 311 139
-0.0089209592 0.63599998 0.11262712 1.1256184e-38 312 139
-0.0078058392 0.63599998 0.11262712 1.0979957e-38 313 139
-0.0066907196 0.63599998 0.11262712 1.0978871e-38 314 139
-0.0055755996 0.63599998 0.11262712 1.0702644e-38 315 139
-0.0044674934 0.63700002 0.11280421 1.0517531e-38 316 139
-0.0033506199 0.63700002 0.11280421 1.0333138e-38 317 139
-0.0022372534 0.63800001 0.1129813 1.0424252e-38 318 139
-0.0011186267 0.63800001 0.1129813 1.0148026e-38 319 139
0 0.63999999 0.11333546 1.0239495e-38 320 139
0.0011238866 0.64099997 0.11351255 1.0239495e-38 321 139
0.00225128 0.64200002 0.11368964 9.8717875e-39 322 139
0.00337692 0.64200002 0.11368964 9.8717875e-39 323 139
0.0045095733 0.64300001 0.11386672 1.0146574e-38 324 139
0.0056457333 0.64399999 0.11404381 1.0054378e-38 325 139
0.0067748795 0.64399999 0.11404381 1.0328807e-38 326 139
0.0079040267 0.64399999 0.11404381 1.0512838e-38 327 139
0.0090612266 0.64600003 0.11439799 1.0514284e-38 328 139
0.01019388 0.64600003 0.11439799 1.060648e-38 329 139
0.011344067 0.64700001 0.11457507 1.0606836e-38 330 139
0.012478473 0.64700001 0.11457507 1.1067454e-38 331 139
-0.023491161 0.63800001 0.11186267 1.2173789e-38 299 140
-0.022372533 0.63800001 0.11186267 1.1623862e-38 300 140
-0.021253906 0.63800001 0.11186267 1.1807893e-38 301 140
-0.020103721 0.63700002 0.11168733 1.1718606e-38 302 140
-0.018986847 0.63700002 0.11168733 1.2179945e-38 303 140
-0.017869974 0.63700002 0.11168733 1.2458716e-38 304 140
-0.016779399 0.63800001 0.11186267 1.3288476e-38 305 140
-0.015660774 0.63800001 0.11186267 1.2651022e-38 306 140
-0.014519353 0.63700002 0.11168733 1.163651e-38 307 140
-0.01340248 0.63700002 0.11168733 1.153891e-38 308 140
-0.012285607 0.63700002 0.11168733 1.0893542e-38 309 140
-0.011168733 0.63700002 0.11168733 1.1350547e-38 310 140
-0.01005186 0.63700002 0.11168733 1.0982123e-38 311 140
-0.0089349868 0.63700002 0.11168733 1.1165067e-38 312 140
-0.0078058392 0.63599998 0.11151199 1.0980676e-38 313 140
-0.0066907196 0.63599998 0.11151199 1.0795205e-38 314 140
-0.0055755996 0.63599998 0.11151199 1.0610814e-38 315 140
-0.0044674934 0.63700002 0.11168733 1.0242389e-38 316 140
-0.00335588 0.63800001 0.11186267 1.0057996e-38 317 140
-0.0022372534 0.63800001 0.11186267 9.9657979e-39 318 140
-0.0011186267 0.63800001 0.11186267 9.8736022e-39 319 140
0 0.63999999 0.11221333 9.5973727e-39 320 140
0.00112564 0.64200002 0.112564 9.5973727e-39 321 140
0.00225128 0.64200002 0.112564 9.8732365e-39 322 140
0.0033821799 0.64300001 0.11273933 9.6884851e-39 323 140
0.0045095733 0.64300001 0.11273933 9.8714344e-39 324 140
0.0056457333 0.64399999 0.11291467 1.0055827e-38 325 140
0.00679592 0.64600003 0.11326534 1.0608631e-38 326 140
0.0079285735 0.64600003 0.11326534 1.1254e-38 327 140
0.0090612266 0.64600003 0.11326534 1.2265629e-38 328 140
0.01019388 0.64600003 0.11326534 1.2818802e-38 329 140
0.011344067 0.64700001 0.11344067 1.3739317e-38 330 140
0.012478473 0.64700001 0.11344067 1.3923708e-38 331 140
-0.022372533 0.63800001 0.11074404 1.2267079e-38 300 141
-0.021253906 0.63800001 0.11074404 1.2267079e-38 301 141
-0.02013528 0.63800001 0.11074404 1.1903002e-38 302 141
-0.019016653 0.63800001 0.11074404 1.2548371e-38 303 141
-0.017898027 0.63800001 0.11074404 1.3287034e-38 304 141
-0.016779399 0.63800001 0.11074404 1.3932403e-38 305 141
-0.015660774 0.63800001 0.11074404 1.384237e-38 306 141
-0.014542148 0.63800001 0.11074404 1.2920412e-38 307 141
-0.01342352 0.63800001 0.11074404 1.1721856e-38 308 141
-0.012285607 0.63700002 0.11057046 1.1537106e-38 309 141
-0.011168733 0.63700002 0.11057046 1.1718244e-38 310 141
-0.01005186 0.63700002 0.11057046 1.1533494e-38 311 141
-0.0089349868 0.63700002 0.11057046 1.1624243e-38 312 141
-0.0078181131 0.63700002 0.11057046 1.1348016e-38 313 141
-0.0067012399 0.63700002 0.11057046 1.143913e-38 314 141
-0.0055843666 0.63700002 0.11057046 1.1346934e-38 315 141
-0.0044674934 0.63700002 0.11057046 1.1070701e-38 316 141
-0.00335588 0.63800001 0.11074404 1.0886309e-38 317 141
-0.0022372534 0.63800001 0.11074404 1.1161101e-38 318 141
-0.0011221332 0.63999999 0.11109119 1.097671e-38 319 141
0 0.64099997 0.11126477 1.0793042e-38 320 141
0.00112564 0.64200002 0.11143836 1.0793042e-38 321 141
0.0022547867 0.64300001 0.11161194 1.1712473e-38 322 141
0.0033821799 0.64300001 0.11161194 1.1896866e-38 323 141
0.0045165867 0.64399999 0.11178552 1.1896854e-38 324 141
0.0056632664 0.64600003 0.11213268 1.2173083e-38 325 141
0.00679592 0.64600003 0.11213268 1.1897925e-38 326 141
0.0079285735 0.64600003 0.11213268 1.2543294e-38 327 141
0.0090752533 0.64700001 0.11230626 1.3278692e-38 328 141
0.010225439 0.648 0.11247984 1.3831865e-38 329 141
0.0113616 0.648 0.11247984 1.4199922e-38 330 141
0.012517046 0.64899999 0.11265341 1.4199922e-38 331 141
-0.021320533 0.63999999 0.10996906 1.3096114e-38 301 142
-0.02013528 0.63800001 0.10962541 1.2270696e-38 302 142
-0.019016653 0.63800001 0.10962541 1.2823869e-38 303 142
-0.017898027 0.63800001 0.10962541 1.3746207e-38 304 142
-0.016779399 0.63800001 0.10962541 1.4391576e-38 305 142
-0.015709866 0.63999999 0.10996906 1.3750163e-38 306 142
-0.014587732 0.63999999 0.10996906 1.2827848e-38 307 142
-0.013465599 0.63999999 0.10996906 1.2088468e-38 308 142
-0.012343466 0.63999999 0.10996906 1.1719687e-38 309 142
-0.011221332 0.63999999 0.10996906 1.1993386e-38 310 142
-0.0100992 0.63999999 0.10996906 1.1808636e-38 311 142
-0.0089490134 0.63800001 0.10962541 1.1348732e-38 312 142
-0.007830387 0.63800001 0.10962541 1.1348732e-38 313 142
-0.0067117601 0.63800001 0.10962541 1.1440562e-38 314 142
-0.0055931332 0.63800001 0.10962541 1.1624593e-38 315 142
-0.0044745067 0.63800001 0.10962541 1.199229e-38 316 142
-0.00335588 0.63800001 0.10962541 1.199229e-38 317 142
-0.0022372534 0.63800001 0.10962541 1.2635137e-38 318 142
-0.0011221332 0.63999999 0.10996906 1.2635137e-38 319 142
0 0.64099997 0.11014088 1.2819884e-38 320 142
0.00112564 0.64200002 0.11031272 1.3003915e-38 321 142
0.0022547867 0.64300001 0.11048454 1.3463456e-38 322 142
0.0033874398 0.64399999 0.11065637 1.3647847e-38 323 142
0.0045306133 0.64600003 0.11100002 1.4016628e-38 324 142
0.0056720334 0.64700001 0.11117186 1.4108825e-38 325 142
0.0068064397 0.64700001 0.11117186 1.3741117e-38 326 142
0.0079408465 0.64700001 0.11117186 1.3741117e-38 327 142
0.0090892799 0.648 0.11134368 1.4200644e-38 328 142
0.01024122 0.64899999 0.1115155 1.4200644e-38 329 142
0.011396666 0.64999998 0.11168732 1.4200275e-38 330 142
0.012536332 0.64999998 0.11168732 1.410808e-38 331 142
0.01371808 0.65200001 0.11203098 1.4015881e-38 332 142
0.014861252 0.65200001 0.11203098 1.3739653e-38 333 142
-0.021320533 0.63999999 0.10884693 1.4386134e-38 301 143
-0.020198399 0.63999999 0.10884693 1.3559267e-38 302 143
-0.019076265 0.63999999 0.10884693 1.3835493e-38 303 143
-0.017954132 0.63999999 0.10884693 1.4021702e-38 304 143
-0.016831998 0.63999999 0.10884693 1.4298649e-38 305 143
-0.015709866 0.63999999 0.10884693 1.4481961e-38 306 143
-0.014587732 0.63999999 0.10884693 1.4020983e-38 307 143
-0.013465599 0.63999999 0.10884693 1.3743301e-38 308 143
-0.012343466 0.63999999 0.10884693 1.3374519e-38 309 143
-0.011221332 0.63999999 0.10884693 1.3557462e-38 310 143
-0.0100992 0.63999999 0.10884693 1.3465266e-38 311 143
-0.0089490134 0.63800001 0.10850678 1.3190477e-38 312 143
-0.007830387 0.63800001 0.10850678 1.3190477e-38 313 143
-0.0067327996 0.63999999 0.10884693 1.3098635e-38 314 143
-0.0055931332 0.63800001 0.10850678 1.319083e-38 315 143
-0.0044745067 0.63800001 0.10850678 1.3466335e-38 316 143
-0.0033663998 0.63999999 0.10884693 1.3282304e-38 317 143
-0.0022442664 0.63999999 0.10884693 1.3465972e-38 318 143
-0.0011238866 0.64099997 0.109017 1.3373777e-38 319 143
0 0.64099997 0.109017 1.3741833e-38 320 143
0.00112564 0.64200002 0.10918708 1.3649638e-38 321 143
0.0022547867 0.64300001 0.10935716 1.4016978e-38 322 143
0.0033821799 0.64300001 0.10935716 1.3924783e-38 323 143
0.0045306133 0.64600003 0.10986737 1.383331e-38 324 143
0.0056720334 0.64700001 0.11003745 1.383331e-38 325 143
0.0068169599 0.648 0.11020751 1.3924427e-38 326 143
0.0079531204 0.648 0.11020751 1.3924427e-38 327 143
0.0091033066 0.64899999 0.11037759 1.4107729e-38 328 143
0.01024122 0.64899999 0.11037759 1.4107729e-38 329 143
0.011396666 0.64999998 0.11054766 1.4015884e-38 330 143
0.012536332 0.64999998 0.11054766 1.4015884e-38 331 143
0.01371808 0.65200001 0.11088781 1.383185e-38 332 143
0.014861252 0.65200001 0.11088781 1.3739653e-38 333 143
-0.021353846 0.64099997 0.10789311 1.5124405e-38 301 144
-0.020198399 0.63999999 0.10772479 1.4756358e-38 302 144
-0.019076265 0.63999999 0.10772479 1.4664162e-38 303 144
-0.017954132 0.63999999 0.10772479 1.4205355e-38 304 144
-0.016831998 0.63999999 0.10772479 1.4297551e-38 305 144
-0.015709866 0.63999999 0.10772479 1.4389749e-38 306 144
-0.014587732 0.63999999 0.10772479 1.4389749e-38 307 144
-0.013486639 0.64099997 0.10789311 1.4572693e-38 308 144
-0.012362752 0.64099997 0.10789311 1.4480497e-38 309 144
-0.011238866 0.64099997 0.10789311 1.4571245e-38 310 144
-0.010114979 0.64099997 0.10789311 1.4571245e-38 311 144
-0.0089910924 0.64099997 0.10789311 1.4755636e-38 312 144
-0.0078672068 0.64099997 0.10789311 1.4663441e-38 313 144
-0.0067433193 0.64099997 0.10789311 1.4111705e-38 314 144
-0.0056194332 0.64099997 0.10789311 1.420426e-38 315 144
-0.0044955462 0.64099997 0.10789311 1.4479403e-38 316 144
-0.0033663998 0.63999999 0.10772479 1.4387206e-38 317 144
-0.0022442664 0.63999999 0.10772479 1.4295007e-38 318 144
-0.0011238866 0.64099997 0.10789311 1.401878e-38 319 144
0 0.64200002 0.10806144 1.4386484e-38 320 144
0.00112564 0.64200002 0.10806144 1.4109897e-38 321 144
0.0022547867 0.64300001 0.10822976 1.4201727e-38 322 144
0.0033821799 0.64300001 0.10822976 1.4109171e-38 323 144
0.0045306133 0.64600003 0.10873472 1.4109527e-38 324 144
0.0056720334 0.64700001 0.10890304 1.4109527e-38 325 144
0.0068169599 0.648 0.10907136 1.4200288e-38 326 144
0.0079531204 0.648 0.10907136 1.4200288e-38 327 144
0.0091033066 0.64899999 0.10923968 1.4199925e-38 328 144
0.01024122 0.64899999 0.10923968 1.4199925e-38 329 144
0.011396666 0.64999998 0.10940799 1.4199556e-38 330 144
0.012536332 0.64999998 0.10940799 1.4107361e-38 331 144
0.01371808 0.65200001 0.10974464 1.4015162e-38 332 144
0.014861252 0.65200001 0.10974464 1.3922965e-38 333 144
0.01605352 0.65399998 0.11008127 1.3830048e-38 334 144
-0.020229958 0.64099997 0.10676923 1.5033302e-38 302 145
-0.019076265 0.63999999 0.10660266 1.5217333e-38 303 145
-0.017954132 0.63999999 0.10660266 1.4575567e-38 304 145
-0.016831998 0.63999999 0.10660266 1.4575567e-38 305 145
-0.015734414 0.64099997 0.10676923 1.4483731e-38 306 145
-0.014610525 0.64099997 0.10676923 1.4668481e-38 307 145
-0.013486639 0.64099997 0.10676923 1.5311331e-38 308 145
-0.012362752 0.64099997 0.10676923 1.4758157e-38 309 145
-0.011238866 0.64099997 0.10676923 1.4756355e-38 310 145
-0.010114979 0.64099997 0.10676923 1.466416e-38 311 145
-0.0089910924 0.64099997 0.10676923 1.4571964e-38 312 145
-0.0078672068 0.64099997 0.10676923 1.4571964e-38 313 145
-0.0067433193 0.64099997 0.10676923 1.4296453e-38 314 145
-0.0056194332 0.64099997 0.10676923 1.4296453e-38 315 145
-0.0044955462 0.64099997 0.10676923 1.44794e-38 316 145
-0.0033716597 0.64099997 0.10676923 1.4295007e-38 317 145
-0.0022477731 0.64099997 0.10676923 1.4295004e-38 318 145
-0.00112564 0.64200002 0.1069358 1.4110973e-38 319 145
0 0.64200002 0.1069358 1.4110973e-38 320 145
0.00112564 0.64200002 0.1069358 1.4018778e-38 321 145
0.00225128 0.64200002 0.1069358 1.4018775e-38 322 145
0.0033821799 0.64300001 0.10710236 1.4018775e-38 323 145
0.0045306133 0.64600003 0.10760207 1.4201727e-38 324 145
0.0056720334 0.64700001 0.10776863 1.4109171e-38 325 145
0.0068169599 0.648 0.1079352 1.4292842e-38 326 145
0.0079653924 0.64899999 0.10810176 1.4200288e-38 327 145
0.0091173323 0.64999998 0.10826832 1.4200641e-38 328 145
0.010256999 0.64999998 0.10826832 1.401661e-38 329 145
0.011396666 0.64999998 0.10826832 1.4200275e-38 330 145
0.012574906 0.65200001 0.10860147 1.410808e-38 331 145
0.01371808 0.65200001 0.10860147 1.4107358e-38 332 145
0.014884046 0.653 0.10876803 1.3922965e-38 333 145
0.01605352 0.65399998 0.10893459 1.4105556e-38 334 145
-0.021353846 0.64099997 0.10564534 1.5768337e-38 301 146
-0.020229958 0.64099997 0.10564534 1.5401362e-38 302 146
-0.019106071 0.64099997 0.10564534 1.5401362e-38 303 146
-0.017954132 0.63999999 0.10548053 1.5034743e-38 304 146
-0.016831998 0.63999999 0.10548053 1.5126938e-38 305 146
-0.015734414 0.64099997 0.10564534 1.5312047e-38 306 146
-0.014610525 0.64099997 0.10564534 1.5312047e-38 307 146
-0.013486639 0.64099997 0.10564534 1.5311328e-38 308 146
-0.012362752 0.64099997 0.10564534 1.503474e-38 309 146
-0.011238866 0.64099997 0.10564534 1.5033299e-38 310 146
-0.010114979 0.64099997 0.10564534 1.4848907e-38 311 146
-0.0089910924 0.64099997 0.10564534 1.4757064e-38 312 146
-0.0078672068 0.64099997 0.10564534 1.466451e-38 313 146
-0.0067433193 0.64099997 0.10564534 1.466451e-38 314 146
-0.0056194332 0.64099997 0.10564534 1.4388283e-38 315 146
-0.0044955462 0.64099997 0.10564534 1.4571951e-38 316 146
-0.0033716597 0.64099997 0.10564534 1.4479754e-38 317 146
-0.0022477731 0.64099997 0.10564534 1.4662345e-38 318 146
-0.00112564 0.64200002 0.10581017 1.4662345e-38 319 146
0 0.64200002 0.10581017 1.4846013e-38 320 146
0.00112564 0.64200002 0.10581017 1.4661982e-38 321 146
0.00225128 0.64200002 0.10581017 1.4569784e-38 322 146
0.0033821799 0.64300001 0.10597497 1.4569784e-38 323 146
0.0045306133 0.64600003 0.10646942 1.4385036e-38 324 146
0.0056720334 0.64700001 0.10663422 1.4292839e-38 325 146
0.0068169599 0.648 0.10679904 1.4384316e-38 326 146
0.0079653924 0.64899999 0.10696385 1.429212e-38 327 146
0.0091173323 0.64999998 0.10712866 1.4292471e-38 328 146
0.010256999 0.64999998 0.10712866 1.4292471e-38 329 146
0.011396666 0.64999998 0.10712866 1.4383941e-38 330 146
0.012574906 0.65200001 0.10745829 1.4199909e-38 331 146
0.01371808 0.65200001 0.10745829 1.4565815e-38 332 146
0.014884046 0.653 0.1076231 1.4473619e-38 333 146
0.01605352 0.65399998 0.10778791 1.4289577e-38 334 146
0.017200198 0.65399998 0.10778791 1.401335e-38 335 146
-0.024956945 0.64700001 0.10549982 1.6044911e-38 298 147
-0.023822539 0.64700001 0.10549982 1.6044911e-38 299 147
-0.022582933 0.64399999 0.10501064 1.5677576e-38 300 147
-0.021420473 0.64300001 0.10484757 1.5677576e-38 301 147
-0.020229958 0.64099997 0.10452145 1.5402081e-38 302 147
-0.019106071 0.64099997 0.10452145 1.5402081e-38 303 147
-0.017982185 0.64099997 0.10452145 1.5035466e-38 304 147
-0.016858298 0.64099997 0.10452145 1.5127663e-38 305 147
-0.015734414 0.64099997 0.10452145 1.522058e-38 306 147
-0.014610525 0.64099997 0.10452145 1.5497166e-38 307 147
-0.013486639 0.64099997 0.10452145 1.5128382e-38 308 147
-0.01238204 0.64200002 0.10468452 1.4851793e-38 309 147
-0.011238866 0.64099997 0.10452145 1.4850709e-38 310 147
-0.010114979 0.64099997 0.10452145 1.4665959e-38 311 147
-0.0089910924 0.64099997 0.10452145 1.4756708e-38 312 147
-0.0078672068 0.64099997 0.10452145 1.4756708e-38 313 147
-0.00675384 0.64200002 0.10468452 1.44812e-38 314 147
-0.0056281998 0.64200002 0.10468452 1.4389005e-38 315 147
-0.0044955462 0.64099997 0.10452145 1.4571598e-38 316 147
-0.0033716597 0.64099997 0.10452145 1.4479403e-38 317 147
-0.0022477731 0.64099997 0.10452145 1.4571231e-38 318 147
-0.00112564 0.64200002 0.10468452 1.4479035e-38 319 147
0 0.64200002 0.10468452 1.4846013e-38 320 147
0.00112564 0.64200002 0.10468452 1.4661982e-38 321 147
0.0022547867 0.64300001 0.10484757 1.4569781e-38 322 147
0.0033874398 0.64399999 0.10501064 1.4477585e-38 323 147
0.0045376266 0.64700001 0.10549982 1.438539e-38 324 147
0.0056720334 0.64700001 0.10549982 1.438539e-38 325 147
0.0068169599 0.648 0.10566287 1.4384669e-38 326 147
0.0079653924 0.64899999 0.10582593 1.4384669e-38 327 147
0.0091173323 0.64999998 0.10598899 1.4475783e-38 328 147
0.010256999 0.64999998 0.10598899 1.4475783e-38 329 147
0.011431733 0.65200001 0.10631512 1.4383943e-38 330 147
0.012574906 0.65200001 0.10631512 1.4199554e-38 331 147
0.013739119 0.653 0.10647818 1.4382856e-38 332 147
0.014884046 0.653 0.10647818 1.4198105e-38 333 147
0.01605352 0.65399998 0.10664123 1.428993e-38 334 147
0.017200198 0.65399998 0.10664123 1.4013345e-38 335 147
-0.02613168 0.648 0.10452672 1.705473e-38 297 148
-0.024956945 0.64700001 0.10436542 1.6321131e-38 298 148
-0.023822539 0.64700001 0.10436542 1.6321131e-38 299 148
-0.022582933 0.64399999 0.10388149 1.6228945e-38 300 148
-0.021420473 0.64300001 0.10372019 1.6044914e-38 301 148
-0.020261521 0.64200002 0.10355888 1.5494629e-38 302 148
-0.019106071 0.64099997 0.10339756 1.5586825e-38 303 148
-0.017982185 0.64099997 0.10339756 1.5403883e-38 304 148
-0.016858298 0.64099997 0.10339756 1.5496078e-38 305 148
-0.015734414 0.64099997 0.10339756 1.5497163e-38 306 148
-0.014610525 0.64099997 0.10339756 1.5681556e-38 307 148
-0.013486639 0.64099997 0.10339756 1.5495725e-38 308 148
-0.012362752 0.64099997 0.10339756 1.5218778e-38 309 148
-0.011238866 0.64099997 0.10339756 1.5309885e-38 310 148
-0.010114979 0.64099997 0.10339756 1.5033299e-38 311 148
-0.00900512 0.64200002 0.10355888 1.5032572e-38 312 148
-0.0078794798 0.64200002 0.10355888 1.4940377e-38 313 148
-0.00675384 0.64200002 0.10355888 1.4940377e-38 314 148
-0.0056281998 0.64200002 0.10355888 1.4756345e-38 315 148
-0.00450256 0.64200002 0.10355888 1.4939658e-38 316 148
-0.00337692 0.64200002 0.10355888 1.4755266e-38 317 148
-0.00225128 0.64200002 0.10355888 1.4938212e-38 318 148
-0.00112564 0.64200002 0.10355888 1.4938212e-38 319 148
0 0.64200002 0.10355888 1.4938562e-38 320 148
0.0011273933 0.64300001 0.10372019 1.4846366e-38 321 148
0.0022547867 0.64300001 0.10372019 1.4845642e-38 322 148
0.00339796 0.64600003 0.10420411 1.4753446e-38 323 148
0.0045376266 0.64700001 0.10436542 1.4660532e-38 324 148
0.0056720334 0.64700001 0.10436542 1.4660532e-38 325 148
0.0068169599 0.648 0.10452672 1.4659814e-38 326 148
0.0079653924 0.64899999 0.10468803 1.4659814e-38 327 148
0.0091173323 0.64999998 0.10484933 1.4750928e-38 328 148
0.010256999 0.64999998 0.10484933 1.4750928e-38 329 148
0.011396666 0.64999998 0.10484933 1.465873e-38 330 148
0.012574906 0.65200001 0.10517195 1.4566534e-38 331 148
0.013739119 0.653 0.10533325 1.4566165e-38 332 148
0.014884046 0.653 0.10533325 1.447397e-38 333 148
0.016028972 0.653 0.10533325 1.4381404e-38 334 148
0.017200198 0.65399998 0.10549456 1.4104817e-38 335 148
-0.027225759 0.64700001 0.10323101 1.7423154e-38 296 149
-0.026091354 0.64700001 0.10323101 1.7330958e-38 297 149
-0.024918374 0.64600003 0.10307146 1.6321851e-38 298 149
-0.023785722 0.64600003 0.10307146 1.6321851e-38 299 149
-0.022582933 0.64399999 0.10275234 1.6045633e-38 300 149
-0.021420473 0.64300001 0.10259279 1.6045633e-38 301 149
-0.020261521 0.64200002 0.10243323 1.5679022e-38 302 149
-0.019106071 0.64099997 0.10227368 1.5679022e-38 303 149
-0.017982185 0.64099997 0.10227368 1.5404602e-38 304 149
-0.016858298 0.64099997 0.10227368 1.5588993e-38 305 149
-0.015734414 0.64099997 0.10227368 1.5773388e-38 306 149
-0.014610525 0.64099997 0.10227368 1.5773388e-38 307 149
-0.013486639 0.64099997 0.10227368 1.5680112e-38 308 149
-0.012362752 0.64099997 0.10227368 1.5311331e-38 309 149
-0.011238866 0.64099997 0.10227368 1.5584674e-38 310 149
-0.010114979 0.64099997 0.10227368 1.5492478e-38 311 149
-0.00900512 0.64200002 0.10243323 1.5124772e-38 312 149
-0.0078794798 0.64200002 0.10243323 1.5032575e-38 313 149
-0.00675384 0.64200002 0.10243323 1.5124049e-38 314 149
-0.0056281998 0.64200002 0.10243323 1.5031853e-38 315 149
-0.00450256 0.64200002 0.10243323 1.5122967e-38 316 149
-0.00337692 0.64200002 0.10243323 1.4938936e-38 317 149
-0.00225128 0.64200002 0.10243323 1.4847094e-38 318 149
-0.0011273933 0.64300001 0.10259279 1.4847094e-38 319 149
0 0.64300001 0.10259279 1.4847447e-38 320 149
0.0011273933 0.64300001 0.10259279 1.4662695e-38 321 149
0.0022582933 0.64399999 0.10275234 1.4845998e-38 322 149
0.00339796 0.64600003 0.10307146 1.4661248e-38 323 149
0.0045376266 0.64700001 0.10323101 1.48442e-38 324 149
0.0056720334 0.64700001 0.10323101 1.48442e-38 325 149
0.0068169599 0.648 0.10339055 1.4935321e-38 326 149
0.0079653924 0.64899999 0.10355011 1.4843124e-38 327 149
0.0091173323 0.64999998 0.10370966 1.4750928e-38 328 149
0.010256999 0.64999998 0.10370966 1.4750928e-38 329 149
0.011396666 0.64999998 0.10370966 1.4659086e-38 330 149
0.012574906 0.65200001 0.10402877 1.456689e-38 331 149
0.013739119 0.653 0.10418832 1.4566521e-38 332 149
0.014884046 0.653 0.10418832 1.438177e-38 333 149
0.016028972 0.653 0.10418832 1.4381404e-38 334 149
0.017200198 0.65399998 0.10434788 1.4197013e-38 335 149
-0.027225759 0.64700001 0.10209659 1.724056e-38 296 150
-0.026091354 0.64700001 0.10209659 1.6964334e-38 297 150
-0.024918374 0.64600003 0.1019388 1.6506242e-38 298 150
-0.023785722 0.64600003 0.1019388 1.6414047e-38 299 150
-0.022547867 0.64300001 0.1014654 1.641334e-38 300 150
-0.02138716 0.64200002 0.1013076 1.641334e-38 301 150
-0.020261521 0.64200002 0.1013076 1.595453e-38 302 150
-0.019106071 0.64099997 0.1011498 1.595453e-38 303 150
-0.017982185 0.64099997 0.1011498 1.5496797e-38 304 150
-0.016858298 0.64099997 0.1011498 1.5773385e-38 305 150
-0.015734414 0.64099997 0.1011498 1.6325123e-38 306 150
-0.014610525 0.64099997 0.1011498 1.5956701e-38 307 150
-0.013486639 0.64099997 0.1011498 1.5954901e-38 308 150
-0.012362752 0.64099997 0.1011498 1.558612e-38 309 150
-0.011238866 0.64099997 0.1011498 1.5584674e-38 310 150
-0.010114979 0.64099997 0.1011498 1.5584674e-38 311 150
-0.00900512 0.64200002 0.1013076 1.5309163e-38 312 150
-0.0078794798 0.64200002 0.1013076 1.5216968e-38 313 150
-0.00675384 0.64200002 0.1013076 1.5307361e-38 314 150
-0.0056281998 0.64200002 0.1013076 1.5307361e-38 315 150
-0.00450256 0.64200002 0.1013076 1.5306995e-38 316 150
-0.00337692 0.64200002 0.1013076 1.52148e-38 317 150
-0.00225128 0.64200002 0.1013076 1.4940008e-38 318 150
-0.0011273933 0.64300001 0.1014654 1.4755617e-38 319 150
0 0.64300001 0.1014654 1.4847447e-38 320 150
0.0011291467 0.64399999 0.10162319 1.4754891e-38 321 150
0.0022582933 0.64399999 0.10162319 1.4846717e-38 322 150
0.00339796 0.64600003 0.1019388 1.4662685e-38 323 150
0.0045376266 0.64700001 0.10209659 1.475308e-38 324 150
0.0056720334 0.64700001 0.10209659 1.4660885e-38 325 150
0.0068169599 0.648 0.1022544 1.4935674e-38 326 150
0.0079653924 0.64899999 0.10241219 1.4843477e-38 327 150
0.0091173323 0.64999998 0.10256999 1.4843477e-38 328 150
0.010256999 0.64999998 0.10256999 1.4659086e-38 329 150
0.011396666 0.64999998 0.10256999 1.4659083e-38 330 150
0.012574906 0.65200001 0.1028856 1.4566887e-38 331 150
0.013739119 0.653 0.1030434 1.4566519e-38 332 150
0.014884046 0.653 0.1030434 1.4382126e-38 333 150
0.016028972 0.653 0.1030434 1.4381404e-38 334 150
0.017200198 0.65399998 0.10320119 1.4197013e-38 335 150
-0.028447833 0.64899999 0.10127428 1.6408282e-38 295 151
-0.02726784 0.648 0.10111824 1.724056e-38 296 151
-0.026091354 0.64700001 0.10096219 1.7148365e-38 297 151
-0.024918374 0.64600003 0.10080615 1.6689557e-38 298 151
-0.023785722 0.64600003 0.10080615 1.6689557e-38 299 151
-0.022547867 0.64300001 0.100338 1.6505536e-38 300 151
-0.02138716 0.64200002 0.10018196 1.6505536e-38 301 151
-0.020261521 0.64200002 0.10018196 1.6047084e-38 302 151
-0.019106071 0.64099997 0.1000259 1.6047084e-38 303 151
-0.017982185 0.64099997 0.1000259 1.5864501e-38 304 151
-0.016858298 0.64099997 0.1000259 1.5864501e-38 305 151
-0.01575896 0.64200002 0.10018196 1.6325126e-38 306 151
-0.014610525 0.64099997 0.1000259 1.6048899e-38 307 151
-0.013486639 0.64099997 0.1000259 1.6047097e-38 308 151
-0.012362752 0.64099997 0.1000259 1.5678674e-38 309 151
-0.011238866 0.64099997 0.1000259 1.5769421e-38 310 151
-0.010114979 0.64099997 0.1000259 1.5677226e-38 311 151
-0.00900512 0.64200002 0.10018196 1.5585027e-38 312 151
-0.0078794798 0.64200002 0.10018196 1.5216245e-38 313 151
-0.00675384 0.64200002 0.10018196 1.5216245e-38 314 151
-0.0056281998 0.64200002 0.10018196 1.5031853e-38 315 151
-0.00450256 0.64200002 0.10018196 1.5307714e-38 316 151
-0.00337692 0.64200002 0.10018196 1.5215519e-38 317 151
-0.0022547867 0.64300001 0.100338 1.5123676e-38 318 151
-0.0011273933 0.64300001 0.100338 1.5123676e-38 319 151
0 0.64300001 0.100338 1.5030756e-38 320 151
0.0011291467 0.64399999 0.10049405 1.5030756e-38 321 151
0.0022653067 0.64600003 0.10080615 1.4938912e-38 322 151
0.0034032199 0.64700001 0.10096219 1.4662685e-38 323 151
0.0045376266 0.64700001 0.10096219 1.5028944e-38 324 151
0.0056720334 0.64700001 0.10096219 1.4844194e-38 325 151
0.0068274797 0.64899999 0.10127428 1.5119342e-38 326 151
0.0079776663 0.64999998 0.10143033 1.5027145e-38 327 151
0.0091173323 0.64999998 0.10143033 1.5026789e-38 328 151
0.010256999 0.64999998 0.10143033 1.4934593e-38 329 151
0.011396666 0.64999998 0.10143033 1.4750915e-38 330 151
0.012574906 0.65200001 0.10174242 1.4658361e-38 331 151
0.013739119 0.653 0.10189847 1.4566154e-38 332 151
0.014884046 0.653 0.10189847 1.44736e-38 333 151
0.016028972 0.653 0.10189847 1.4564354e-38 334 151
0.017200198 0.65399998 0.10205451 1.4379604e-38 335 151
-0.028447833 0.64899999 0.10013637 1.7236597e-38 295 152
-0.02726784 0.648 0.099982083 1.7700097e-38 296 152
-0.02613168 0.648 0.099982083 1.742351e-38 297 152
-0.024956945 0.64700001 0.099827781 1.6689554e-38 298 152
-0.02371208 0.64399999 0.099364907 1.678175e-38 299 152
-0.022582933 0.64399999 0.099364907 1.6414059e-38 300 152
-0.021420473 0.64300001 0.099210612 1.6414059e-38 301 152
-0.020293079 0.64300001 0.099210612 1.6047084e-38 302 152
-0.019135879 0.64200002 0.099056318 1.6231115e-38 303 152
-0.017982185 0.64099997 0.098902017 1.5955977e-38 304 152
-0.016858298 0.64099997 0.098902017 1.6232564e-38 305 152
-0.01575896 0.64200002 0.099056318 1.6049618e-38 306 152
-0.01463332 0.64200002 0.099056318 1.5957422e-38 307 152
-0.01350768 0.64200002 0.099056318 1.5954545e-38 308 152
-0.01238204 0.64200002 0.099056318 1.586235e-38 309 152
-0.011238866 0.64099997 0.098902017 1.5769786e-38 310 152
-0.010114979 0.64099997 0.098902017 1.5585393e-38 311 152
-0.00900512 0.64200002 0.099056318 1.5309163e-38 312 152
-0.0078794798 0.64200002 0.099056318 1.5216968e-38 313 152
-0.00675384 0.64200002 0.099056318 1.5124768e-38 314 152
-0.0056281998 0.64200002 0.099056318 1.5032572e-38 315 152
-0.0045095733 0.64300001 0.099210612 1.5215519e-38 316 152
-0.0033821799 0.64300001 0.099210612 1.5215519e-38 317 152
-0.0022547867 0.64300001 0.099210612 1.5307349e-38 318 152
-0.0011273933 0.64300001 0.099210612 1.5215153e-38 319 152
0 0.64399999 0.099364907 1.5122952e-38 320 152
0.0011291467 0.64399999 0.099364907 1.4938559e-38 321 152
0.0022653067 0.64600003 0.099673495 1.5030392e-38 322 152
0.0034032199 0.64700001 0.099827781 1.4937837e-38 323 152
0.0045376266 0.64700001 0.099827781 1.5028588e-38 324 152
0.0056807999 0.648 0.099982083 1.4844197e-38 325 152
0.0068274797 0.64899999 0.10013637 1.5026426e-38 326 152
0.0079776663 0.64999998 0.10029066 1.5118622e-38 327 152
0.0091173323 0.64999998 0.10029066 1.4934591e-38 328 152
0.010256999 0.64999998 0.10029066 1.4934591e-38 329 152
0.011431733 0.65200001 0.10059925 1.4934228e-38 330 152
0.012574906 0.65200001 0.10059925 1.4842032e-38 331 152
0.013739119 0.653 0.10075355 1.4749112e-38 332 152
0.014884046 0.653 0.10075355 1.4564719e-38 333 152
0.01605352 0.65399998 0.10090783 1.4747666e-38 334 152
-0.02726784 0.648 0.098845914 1.7515349e-38 296 153
-0.026091354 0.64700001 0.098693378 1.7423154e-38 297 153
-0.024918374 0.64600003 0.098540843 1.687323e-38 298 153
-0.02371208 0.64399999 0.098235756 1.687323e-38 299 153
-0.022547867 0.64300001 0.09808322 1.6597734e-38 300 153
-0.021420473 0.64300001 0.09808322 1.6505539e-38 301 153
-0.020293079 0.64300001 0.09808322 1.6230041e-38 302 153
-0.019135879 0.64200002 0.097930677 1.6414791e-38 303 153
-0.01801024 0.64200002 0.097930677 1.6140013e-38 304 153
-0.016884599 0.64200002 0.097930677 1.6232208e-38 305 153
-0.01575896 0.64200002 0.097930677 1.6325126e-38 306 153
-0.01463332 0.64200002 0.097930677 1.6048899e-38 307 153
-0.01350768 0.64200002 0.097930677 1.5954901e-38 308 153
-0.01238204 0.64200002 0.097930677 1.5678674e-38 309 153
-0.0112564 0.64200002 0.097930677 1.5861614e-38 310 153
-0.01013076 0.64200002 0.097930677 1.5677223e-38 311 153
-0.00900512 0.64200002 0.097930677 1.5585024e-38 312 153
-0.0078794798 0.64200002 0.097930677 1.5400633e-38 313 153
-0.00675384 0.64200002 0.097930677 1.540063e-38 314 153
-0.0056369668 0.64300001 0.09808322 1.5216598e-38 315 153
-0.0045095733 0.64300001 0.09808322 1.5399547e-38 316 153
-0.0033821799 0.64300001 0.09808322 1.5307351e-38 317 153
-0.0022547867 0.64300001 0.09808322 1.5490298e-38 318 153
-0.0011273933 0.64300001 0.09808322 1.5490298e-38 319 153
0 0.64399999 0.098235756 1.5306623e-38 320 153
0.0011326533 0.64600003 0.098540843 1.5122233e-38 321 153
0.0022653067 0.64600003 0.098540843 1.5121506e-38 322 153
0.0034032199 0.64700001 0.098693378 1.502931e-38 323 153
0.00454464 0.648 0.098845914 1.5303733e-38 324 153
0.0056807999 0.648 0.098845914 1.5119342e-38 325 153
0.0068274797 0.64899999 0.09899845 1.5301931e-38 326 153
0.0079776663 0.64999998 0.099150993 1.5209736e-38 327 153
0.0091173323 0.64999998 0.099150993 1.5118975e-38 328 153
0.010256999 0.64999998 0.099150993 1.5026421e-38 329 153
0.011431733 0.65200001 0.099456072 1.5116821e-38 330 153
0.012574906 0.65200001 0.099456072 1.493243e-38 331 153
0.013739119 0.653 0.099608615 1.5115019e-38 332 153
0.014884046 0.653 0.099608615 1.4838792e-38 333 153
0.01605352 0.65399998 0.099761158 1.4746944e-38 334 153
-0.026051028 0.64600003 0.09740819 1.7332037e-38 297 154
-0.024841227 0.64399999 0.097106606 1.7057261e-38 298 154
-0.02371208 0.64399999 0.097106606 1.687323e-38 299 154
-0.022547867 0.64300001 0.096955821 1.6506255e-38 300 154
-0.021420473 0.64300001 0.096955821 1.6414059e-38 301 154
-0.020293079 0.64300001 0.096955821 1.6322592e-38 302 154
-0.019135879 0.64200002 0.096805044 1.6414788e-38 303 154
-0.01801024 0.64200002 0.096805044 1.6324041e-38 304 154
-0.016884599 0.64200002 0.096805044 1.6600268e-38 305 154
-0.01575896 0.64200002 0.096805044 1.6141092e-38 306 154
-0.01463332 0.64200002 0.096805044 1.5956701e-38 307 154
-0.01350768 0.64200002 0.096805044 1.5954536e-38 308 154
-0.01238204 0.64200002 0.096805044 1.5954536e-38 309 154
-0.0112564 0.64200002 0.096805044 1.5770137e-38 310 154
-0.01013076 0.64200002 0.096805044 1.5585746e-38 311 154
-0.00900512 0.64200002 0.096805044 1.5492831e-38 312 154
-0.0078794798 0.64200002 0.096805044 1.5492831e-38 313 154
-0.0067643598 0.64300001 0.096955821 1.5400633e-38 314 154
-0.0056369668 0.64300001 0.096955821 1.5216601e-38 315 154
-0.0045095733 0.64300001 0.096955821 1.5583578e-38 316 154
-0.0033821799 0.64300001 0.096955821 1.5307351e-38 317 154
-0.0022582933 0.64399999 0.097106606 1.5491017e-38 318 154
-0.0011291467 0.64399999 0.097106606 1.5398462e-38 319 154
0 0.64600003 0.09740819 1.530662e-38 320 154
0.0011344067 0.64700001 0.097558975 1.5030392e-38 321 154
0.0022688133 0.64700001 0.097558975 1.5212982e-38 322 154
0.00340848 0.648 0.09770976 1.5120787e-38 323 154
0.0045516533 0.64899999 0.097860545 1.5487046e-38 324 154
0.0056895665 0.64899999 0.097860545 1.5210819e-38 325 154
0.0068379994 0.64999998 0.09801133 1.5301212e-38 326 154
0.0079776663 0.64999998 0.09801133 1.5393767e-38 327 154
0.0091173323 0.64999998 0.09801133 1.5210092e-38 328 154
0.010256999 0.64999998 0.09801133 1.5117537e-38 329 154
0.011431733 0.65200001 0.098312907 1.5116453e-38 330 154
0.012594193 0.653 0.098463692 1.5024256e-38 331 154
0.013760159 0.65399998 0.098614477 1.502353e-38 332 154
0.014906839 0.65399998 0.098614477 1.4839499e-38 333 154
0.016078066 0.65499997 0.098765261 1.4655467e-38 334 154
-0.027225759 0.64700001 0.096424565 1.7332037e-38 296 155
-0.026051028 0.64600003 0.096275538 1.7239841e-38 297 155
-0.024841227 0.64399999 0.095977463 1.6873232e-38 298 155
-0.02371208 0.64399999 0.095977463 1.6873232e-38 299 155
-0.022547867 0.64300001 0.095828429 1.6781403e-38 300 155
-0.021420473 0.64300001 0.095828429 1.6781403e-38 301 155
-0.020261521 0.64200002 0.095679402 1.6323311e-38 302 155
-0.019135879 0.64200002 0.095679402 1.6415507e-38 303 155
-0.01801024 0.64200002 0.095679402 1.6416956e-38 304 155
-0.016884599 0.64200002 0.095679402 1.6509151e-38 305 155
-0.01575896 0.64200002 0.095679402 1.6324763e-38 306 155
-0.01463332 0.64200002 0.095679402 1.6232208e-38 307 155
-0.01350768 0.64200002 0.095679402 1.604745e-38 308 155
-0.01238204 0.64200002 0.095679402 1.5678669e-38 309 155
-0.0112564 0.64200002 0.095679402 1.5769418e-38 310 155
-0.01013076 0.64200002 0.095679402 1.5677223e-38 311 155
-0.00900512 0.64200002 0.095679402 1.5768337e-38 312 155
-0.0078917528 0.64300001 0.095828429 1.549211e-38 313 155
-0.0067643598 0.64300001 0.095828429 1.5492107e-38 314 155
-0.0056457333 0.64399999 0.095977463 1.539991e-38 315 155
-0.0045165867 0.64399999 0.095977463 1.5583575e-38 316 155
-0.0033874398 0.64399999 0.095977463 1.5399544e-38 317 155
-0.0022582933 0.64399999 0.095977463 1.5674329e-38 318 155
-0.0011291467 0.64399999 0.095977463 1.5490298e-38 319 155
0 0.64600003 0.096275538 1.53981e-38 320 155
0.0011344067 0.64700001 0.096424565 1.5305904e-38 321 155
0.0022688133 0.64700001 0.096424565 1.5305534e-38 322 155
0.00340848 0.648 0.096573599 1.5120784e-38 323 155
0.0045516533 0.64899999 0.096722633 1.5486683e-38 324 155
0.0056895665 0.64899999 0.096722633 1.5301931e-38 325 155
0.0068379994 0.64999998 0.096871659 1.5484878e-38 326 155
0.0079776663 0.64999998 0.096871659 1.5484878e-38 327 155
0.0091173323 0.64999998 0.096871659 1.5301921e-38 328 155
0.010256999 0.64999998 0.096871659 1.5209367e-38 329 155
0.011431733 0.65200001 0.097169735 1.5116808e-38 330 155
0.012594193 0.653 0.097318769 1.5024253e-38 331 155
0.013781199 0.65499997 0.097616829 1.5023883e-38 332 155
0.014929632 0.65499997 0.097616829 1.5023883e-38 333 155
0.01612716 0.65700001 0.097914897 1.4747297e-38 334 155
-0.028447833 0.64899999 0.095584713 1.7881949e-38 295 156
-0.027225759 0.64700001 0.095290154 1.724056e-38 296 156
-0.026051028 0.64600003 0.095142886 1.724056e-38 297 156
-0.024841227 0.64399999 0.09484832 1.687323e-38 298 156
-0.02371208 0.64399999 0.09484832 1.6781034e-38 299 156
-0.022547867 0.64300001 0.094701037 1.6690286e-38 300 156
-0.021420473 0.64300001 0.094701037 1.659809e-38 301 156
-0.020261521 0.64200002 0.094553761 1.6507704e-38 302 156
-0.019135879 0.64200002 0.094553761 1.6599899e-38 303 156
-0.01801024 0.64200002 0.094553761 1.6692463e-38 304 156
-0.016910899 0.64300001 0.094701037 1.6692463e-38 305 156
-0.01575896 0.64200002 0.094553761 1.6416958e-38 306 156
-0.01463332 0.64200002 0.094553761 1.6324763e-38 307 156
-0.01350768 0.64200002 0.094553761 1.6047094e-38 308 156
-0.01238204 0.64200002 0.094553761 1.5862703e-38 309 156
-0.0112564 0.64200002 0.094553761 1.5861617e-38 310 156
-0.01013076 0.64200002 0.094553761 1.5677226e-38 311 156
-0.0090191467 0.64300001 0.094701037 1.5768337e-38 312 156
-0.0078917528 0.64300001 0.094701037 1.5584305e-38 313 156
-0.0067748795 0.64399999 0.09484832 1.5675778e-38 314 156
-0.0056457333 0.64399999 0.09484832 1.5675778e-38 315 156
-0.0045165867 0.64399999 0.09484832 1.5400266e-38 316 156
-0.0033874398 0.64399999 0.09484832 1.530807e-38 317 156
-0.0022582933 0.64399999 0.09484832 1.5766169e-38 318 156
-0.0011326533 0.64600003 0.095142886 1.5489942e-38 319 156
0 0.64700001 0.095290154 1.53981e-38 320 156
0.0011344067 0.64700001 0.095290154 1.5305904e-38 321 156
0.0022688133 0.64700001 0.095290154 1.5305534e-38 322 156
0.00340848 0.648 0.095437437 1.5120784e-38 323 156
0.0045516533 0.64899999 0.095584713 1.5577796e-38 324 156
0.0056895665 0.64899999 0.095584713 1.5209373e-38 325 156
0.0068379994 0.64999998 0.095731996 1.557671e-38 326 156
0.0079776663 0.64999998 0.095731996 1.5484515e-38 327 156
0.0091173323 0.64999998 0.095731996 1.5393038e-38 328 156
0.010256999 0.64999998 0.095731996 1.5393038e-38 329 156
0.011431733 0.65200001 0.096026562 1.5300837e-38 330 156
0.012594193 0.653 0.096173838 1.5116806e-38 331 156
0.013823279 0.65700001 0.096762955 1.5116076e-38 332 156
0.01497522 0.65700001 0.096762955 1.4839849e-38 333 156
0.016151706 0.65799999 0.096910238 1.4839849e-38 334 156
0.017331699 0.65899998 0.097057514 1.4747653e-38 335 156
-0.029585747 0.64899999 0.094446808 1.76972e-38 294 157
-0.028447833 0.64899999 0.094446808 1.8066343e-38 295 157
-0.027309919 0.64899999 0.094446808 1.7332756e-38 296 157
-0.026051028 0.64600003 0.094010234 1.724056e-38 297 157
-0.024918374 0.64600003 0.094010234 1.7057264e-38 298 157
-0.023785722 0.64600003 0.094010234 1.7057264e-38 299 157
-0.022582933 0.64399999 0.093719169 1.6691005e-38 300 157
-0.021420473 0.64300001 0.093573645 1.6598809e-38 301 157
-0.020261521 0.64200002 0.09342812 1.6415507e-38 302 157
-0.019135879 0.64200002 0.09342812 1.6599899e-38 303 157
-0.01801024 0.64200002 0.09342812 1.6600268e-38 304 157
-0.016910899 0.64300001 0.093573645 1.6785018e-38 305 157
-0.015783506 0.64300001 0.093573645 1.6417677e-38 306 157
-0.014656113 0.64300001 0.093573645 1.6141092e-38 307 157
-0.01350768 0.64200002 0.09342812 1.6047094e-38 308 157
-0.01238204 0.64200002 0.09342812 1.5862703e-38 309 157
-0.011273934 0.64300001 0.093573645 1.6045285e-38 310 157
-0.01014654 0.64300001 0.093573645 1.6045285e-38 311 157
-0.0090331733 0.64399999 0.093719169 1.5860888e-38 312 157
-0.0079040267 0.64399999 0.093719169 1.5768693e-38 313 157
-0.0067748795 0.64399999 0.093719169 1.5584659e-38 314 157
-0.0056457333 0.64399999 0.093719169 1.5492463e-38 315 157
-0.0045306133 0.64600003 0.094010234 1.5675055e-38 316 157
-0.0033874398 0.64399999 0.093719169 1.5582859e-38 317 157
-0.0022582933 0.64399999 0.093719169 1.5674329e-38 318 157
-0.0011326533 0.64600003 0.094010234 1.5674329e-38 319 157
0 0.64700001 0.094155751 1.530662e-38 320 157
