# .PCD v.7 - Point Cloud Data file format
FIELDS x y z rgb imX imY
SIZE 4 4 4 4 4 4
TYPE F F F F F F
COUNT 1 1 1 1 1 1
WIDTH 833
HEIGHT 1
VIEWPOINT 0 0 0 1 0 0 0
POINTS 833
DATA ascii
0.0074060797 0.704 -0.028389972 9.8339567e-39 326 263
0.0086404262 0.704 -0.028389972 1.0110185e-38 327 263
0.0098747732 0.704 -0.028389972 9.7446449e-39 328 263
0.011109119 0.704 -0.028389972 9.9293949e-39 329 263
0.012343466 0.704 -0.028389972 9.8404433e-39 330 263
0.013577812 0.704 -0.028389972 1.0393617e-38 331 263
0.014854239 0.70599997 -0.028470624 1.1042571e-38 332 263
0.016092092 0.70599997 -0.028470624 1.3440018e-38 333 263
0.017329946 0.70599997 -0.028470624 1.6124116e-38 334 263
0.018567799 0.70599997 -0.028470624 1.6216312e-38 335 263
-0.058179103 0.70599997 -0.029708479 8.0138101e-39 273 264
-0.056699295 0.70300001 -0.029582238 8.5622994e-39 274 264
-0.055229999 0.69999999 -0.029455997 8.1935168e-39 275 264
-0.053848371 0.69800001 -0.029371841 9.1993675e-39 276 264
-0.052624546 0.69800001 -0.029371841 8.5539981e-39 277 264
-0.051327083 0.69700003 -0.02932976 9.5573488e-39 278 264
-0.050033119 0.69599998 -0.029287677 8.819795e-39 279 264
-0.048672531 0.69400001 -0.029203519 9.4590561e-39 280 264
-0.047387339 0.69300002 -0.029161438 9.4590561e-39 281 264
-0.04617228 0.69300002 -0.029161438 9.4590603e-39 282 264
-0.044827472 0.69099998 -0.029077278 9.7356472e-39 283 264
-0.043615919 0.69099998 -0.029077278 9.4597792e-39 284 264
-0.042342998 0.69 -0.029035198 9.2753879e-39 285 264
-0.041133199 0.69 -0.029035198 9.1835496e-39 286 264
-0.039807681 0.68800002 -0.028951041 9.1835496e-39 287 264
-0.038601387 0.68800002 -0.028951041 9.0917141e-39 288 264
-0.037340738 0.68699998 -0.028908957 9.1835496e-39 289 264
-0.036136195 0.68699998 -0.028908957 8.9080445e-39 290 264
-0.034931656 0.68699998 -0.028908957 8.8162076e-39 291 264
-0.033727121 0.68699998 -0.028908957 8.816209e-39 292 264
-0.032475237 0.68599999 -0.02886688 8.816209e-39 293 264
-0.031272452 0.68599999 -0.02886688 8.816209e-39 294 264
-0.030069664 0.68599999 -0.02886688 8.816209e-39 295 264
-0.02878272 0.68400002 -0.02878272 8.7243721e-39 296 264
-0.027583439 0.68400002 -0.02878272 8.99988e-39 297 264
-0.02638416 0.68400002 -0.02878272 8.8169307e-39 298 264
-0.02514806 0.68300003 -0.028740639 9.001322e-39 299 264
-0.023950534 0.68300003 -0.028740639 8.8201775e-39 300 264
-0.022753006 0.68300003 -0.028740639 9.649578e-39 301 264
-0.02155548 0.68300003 -0.028740639 1.095507e-38 302 264
-0.020357953 0.68300003 -0.028740639 1.4181917e-38 303 264
-0.019160427 0.68300003 -0.028740639 1.1981819e-38 304 264
-0.0179892 0.68400002 -0.02878272 1.1981819e-38 305 264
-0.016789921 0.68400002 -0.02878272 1.1981822e-38 306 264
-0.015636226 0.68599999 -0.02886688 1.1981822e-38 307 264
-0.01443344 0.68599999 -0.02886688 1.1982541e-38 308 264
-0.013230653 0.68599999 -0.02886688 1.1982541e-38 309 264
-0.012027865 0.68599999 -0.02886688 1.1891073e-38 310 264
-0.010825079 0.68599999 -0.02886688 1.2444245e-38 311 264
-0.0096222926 0.68599999 -0.02886688 1.2813748e-38 312 264
-0.0079531204 0.648 -0.02726784 1.3366922e-38 313 264
-0.0068169599 0.648 -0.02726784 1.3273627e-38 314 264
-0.0056807999 0.648 -0.02726784 1.0876901e-38 315 264
-0.00454464 0.648 -0.02726784 1.1784458e-38 316 264
-0.00340848 0.648 -0.02726784 1.132348e-38 317 264
-0.00227232 0.648 -0.02726784 1.1506079e-38 318 264
-0.00113616 0.648 -0.02726784 1.0952905e-38 319 264
0 0.648 -0.02726784 1.2158648e-38 320 264
0.0011379133 0.64899999 -0.027309919 1.3541582e-38 321 264
0.0022793331 0.64999998 -0.027351998 1.35477e-38 322 264
0.0034137398 0.64899999 -0.027309919 1.1980375e-38 323 264
0.0045516533 0.64899999 -0.027309919 1.0952905e-38 324 264
0.0056895665 0.64899999 -0.027309919 7.7260591e-39 325 264
0.0074060797 0.704 -0.029624319 9.4659e-39 326 264
0.0086404262 0.704 -0.029624319 9.9268782e-39 327 264
0.0098747732 0.704 -0.029624319 9.4687839e-39 328 264
0.011109119 0.704 -0.029624319 9.8379266e-39 329 264
0.012343466 0.704 -0.029624319 9.9326389e-39 330 264
0.013577812 0.704 -0.029624319 1.0301421e-38 331 264
0.014854239 0.70599997 -0.029708479 1.1134407e-38 332 264
0.016092092 0.70599997 -0.029708479 1.3715525e-38 333 264
0.017329946 0.70599997 -0.029708479 1.5664214e-38 334 264
-0.05826151 0.70700002 -0.030990168 8.0120165e-39 273 265
-0.056779943 0.704 -0.030858666 7.4606335e-39 274 265
-0.0554667 0.70300001 -0.030814834 7.4606335e-39 275 265
-0.054002665 0.69999999 -0.030683333 8.8334744e-39 276 265
-0.052624546 0.69800001 -0.030595668 8.2803021e-39 277 265
-0.051400717 0.69800001 -0.030595668 9.5595208e-39 278 265
-0.050105009 0.69700003 -0.030551834 8.4531746e-39 279 265
-0.048812799 0.69599998 -0.030507999 9.4594162e-39 280 265
-0.047455717 0.69400001 -0.030420333 9.7356444e-39 281 265
-0.04617228 0.69300002 -0.0303765 9.6445306e-39 282 265
-0.044957221 0.69300002 -0.0303765 9.7367262e-39 283 265
-0.043742158 0.69300002 -0.0303765 9.5526951e-39 284 265
-0.042404365 0.69099998 -0.030288832 9.2764669e-39 285 265
-0.041192811 0.69099998 -0.030288832 9.3672206e-39 286 265
-0.0399234 0.69 -0.030244999 9.2753851e-39 287 265
-0.038601387 0.68800002 -0.030157333 9.0917141e-39 288 265
-0.037395094 0.68800002 -0.030157333 9.1835496e-39 289 265
-0.0361888 0.68800002 -0.030157333 8.9080459e-39 290 265
-0.034931656 0.68699998 -0.030113498 8.9080459e-39 291 265
-0.033727121 0.68699998 -0.030113498 8.7243735e-39 292 265
-0.032522578 0.68699998 -0.030113498 8.5407011e-39 293 265
-0.031272452 0.68599999 -0.030069664 8.8162076e-39 294 265
-0.030069664 0.68599999 -0.030069664 8.8162076e-39 295 265
-0.02886688 0.68599999 -0.030069664 8.9080431e-39 296 265
-0.027664091 0.68599999 -0.030069664 8.9080431e-39 297 265
-0.02638416 0.68400002 -0.029982001 8.99988e-39 298 265
-0.025184879 0.68400002 -0.029982001 9.1842713e-39 299 265
-0.023950534 0.68300003 -0.029938167 9.0949469e-39 300 265
-0.022753006 0.68300003 -0.029938167 9.4637294e-39 301 265
-0.02158704 0.68400002 -0.029982001 1.067811e-38 302 265
-0.020387759 0.68400002 -0.029982001 1.427374e-38 303 265
-0.01918848 0.68400002 -0.029982001 1.2073292e-38 304 265
-0.018041799 0.68599999 -0.030069664 1.2165488e-38 305 265
-0.016839013 0.68599999 -0.030069664 1.1982538e-38 306 265
-0.015659019 0.68699998 -0.030113498 1.1982538e-38 307 265
-0.014454478 0.68699998 -0.030113498 1.1890343e-38 308 265
-0.013230653 0.68599999 -0.030069664 1.1982538e-38 309 265
-0.012027865 0.68599999 -0.030069664 1.2350246e-38 310 265
-0.010825079 0.68599999 -0.030069664 1.2719387e-38 311 265
-0.0096222926 0.68599999 -0.030069664 1.2629354e-38 312 265
-0.0079531204 0.648 -0.028404001 1.3182528e-38 313 265
-0.0068169599 0.648 -0.028404001 1.3364025e-38 314 265
-0.0056807999 0.648 -0.028404001 1.1427917e-38 315 265
-0.00454464 0.648 -0.028404001 1.1786973e-38 316 265
-0.0034137398 0.64899999 -0.028447833 1.1141604e-38 317 265
-0.0022758266 0.64899999 -0.028447833 1.150895e-38 318 265
-0.0011379133 0.64899999 -0.028447833 1.0586633e-38 319 265
0 0.64899999 -0.028447833 1.206573e-38 320 265
0.0011379133 0.64899999 -0.028447833 1.3449024e-38 321 265
0.0022793331 0.64999998 -0.028491667 1.3731368e-38 322 265
0.0034189997 0.64999998 -0.028491667 1.2256238e-38 323 265
0.0045516533 0.64899999 -0.028447833 1.1046539e-38 324 265
0.0056895665 0.64899999 -0.028447833 7.4512701e-39 325 265
0.0068274797 0.64899999 -0.028447833 9.0985567e-39 326 265
0.0086649731 0.70599997 -0.030946331 9.6517304e-39 327 265
0.0099028256 0.70599997 -0.030946331 9.5613355e-39 328 265
0.011109119 0.704 -0.030858666 9.7457267e-39 329 265
0.012343466 0.704 -0.030858666 1.002339e-38 330 265
0.013577812 0.704 -0.030858666 1.0484368e-38 331 265
0.014854239 0.70599997 -0.030946331 1.1042208e-38 332 265
0.01613768 0.708 -0.031034 1.3623686e-38 333 265
0.017379038 0.708 -0.031034 1.5664214e-38 334 265
-0.056779943 0.704 -0.032093015 7.3698728e-39 274 266
-0.0554667 0.70300001 -0.032047424 7.1851228e-39 275 266
-0.054079808 0.70099998 -0.031956252 7.733968e-39 276 266
-0.052775331 0.69999999 -0.031910665 7.0885986e-39 277 266
-0.051400717 0.69800001 -0.031819493 8.6436728e-39 278 266
-0.050105009 0.69700003 -0.03177391 8.1830547e-39 279 266
-0.048812799 0.69599998 -0.031728316 9.3711667e-39 280 266
-0.047592476 0.69599998 -0.031728316 9.4633609e-39 281 266
-0.046238903 0.69400001 -0.031637147 9.3718897e-39 282 266
-0.044957221 0.69300002 -0.031591557 9.3718897e-39 283 266
-0.043742158 0.69300002 -0.031591557 9.4622875e-39 284 266
-0.042527102 0.69300002 -0.031591557 9.2775375e-39 285 266
-0.041192811 0.69099998 -0.031500384 9.4601323e-39 286 266
-0.0399234 0.69 -0.031454802 9.0917141e-39 287 266
-0.038713597 0.69 -0.031454802 9.2753851e-39 288 266
-0.037395094 0.68800002 -0.031363625 9.1835496e-39 289 266
-0.0361888 0.68800002 -0.031363625 8.9998786e-39 290 266
-0.034931656 0.68699998 -0.031318039 8.9998786e-39 291 266
-0.033727121 0.68699998 -0.031318039 9.0917141e-39 292 266
-0.032522578 0.68699998 -0.031318039 9.0917141e-39 293 266
-0.031318039 0.68699998 -0.031318039 9.0917141e-39 294 266
-0.030069664 0.68599999 -0.031272452 9.1835496e-39 295 266
-0.02886688 0.68599999 -0.031272452 9.0917141e-39 296 266
-0.027664091 0.68599999 -0.031272452 9.2757438e-39 297 266
-0.026461305 0.68599999 -0.031272452 9.0927945e-39 298 266
-0.025184879 0.68400002 -0.03118128 9.2771872e-39 299 266
-0.0239856 0.68400002 -0.03118128 9.0038401e-39 300 266
-0.022786319 0.68400002 -0.03118128 9.0963945e-39 301 266
-0.02158704 0.68400002 -0.03118128 1.0584842e-38 302 266
-0.020387759 0.68400002 -0.03118128 1.4457059e-38 303 266
-0.019244585 0.68599999 -0.031272452 1.1982538e-38 304 266
-0.018041799 0.68599999 -0.031272452 1.1890343e-38 305 266
-0.01686356 0.68699998 -0.031318039 1.2074371e-38 306 266
-0.015659019 0.68699998 -0.031318039 1.2074371e-38 307 266
-0.014454478 0.68699998 -0.031318039 1.2165132e-38 308 266
-0.013249939 0.68699998 -0.031318039 1.2257327e-38 309 266
-0.012045399 0.68699998 -0.031318039 1.2075457e-38 310 266
-0.010840859 0.68699998 -0.031318039 1.2352044e-38 311 266
-0.0096363192 0.68699998 -0.031318039 1.2262002e-38 312 266
-0.0079531204 0.648 -0.029540159 1.2722621e-38 313 266
-0.0068169599 0.648 -0.029540159 1.3364025e-38 314 266
-0.0056807999 0.648 -0.029540159 1.2534625e-38 315 266
-0.0045516533 0.64899999 -0.029585747 1.2621411e-38 316 266
-0.0034137398 0.64899999 -0.029585747 1.1422868e-38 317 266
-0.0022758266 0.64899999 -0.029585747 1.1601143e-38 318 266
-0.0011379133 0.64899999 -0.029585747 1.0402599e-38 319 266
0 0.64899999 -0.029585747 1.2065012e-38 320 266
0.0011379133 0.64899999 -0.029585747 1.3632336e-38 321 266
0.0022793331 0.64999998 -0.029631332 1.3731013e-38 322 266
0.0034189997 0.64999998 -0.029631332 1.2440274e-38 323 266
0.0045516533 0.64899999 -0.029585747 1.123273e-38 324 266
0.0056895665 0.64899999 -0.029585747 7.1761223e-39 325 266
0.0068274797 0.64899999 -0.029585747 9.0985567e-39 326 266
0.0086649731 0.70599997 -0.032184184 9.6517304e-39 327 266
0.0099028256 0.70599997 -0.032184184 9.3776673e-39 328 266
0.011140679 0.70599997 -0.032184184 9.7464498e-39 329 266
0.012378532 0.70599997 -0.032184184 9.839737e-39 330 266
0.013616386 0.70599997 -0.032184184 1.0392911e-38 331 266
0.014854239 0.70599997 -0.032184184 1.0858908e-38 332 266
0.01613768 0.708 -0.03227536 1.334819e-38 333 266
0.017379038 0.708 -0.03227536 1.5572019e-38 334 266
-0.059585281 0.708 -0.033516716 1.1332853e-38 272 267
-0.05826151 0.70700002 -0.033469379 8.7513752e-39 273 267
-0.056941248 0.70599997 -0.033422034 7.4624356e-39 274 267
-0.055545598 0.704 -0.03332736 7.1858473e-39 275 267
-0.054079808 0.70099998 -0.03318534 7.1826047e-39 276 267
-0.052775331 0.69999999 -0.033137999 6.9982135e-39 277 267
-0.051400717 0.69800001 -0.033043321 7.9118881e-39 278 267
-0.050105009 0.69700003 -0.03299598 7.4512701e-39 279 267
-0.048812799 0.69599998 -0.032948639 8.8255655e-39 280 267
-0.047592476 0.69599998 -0.032948639 8.5489786e-39 281 267
-0.046238903 0.69400001 -0.032853961 9.281506e-39 282 267
-0.044957221 0.69300002 -0.03280662 9.0971133e-39 283 267
-0.043742158 0.69300002 -0.03280662 9.278985e-39 284 267
-0.042527102 0.69300002 -0.03280662 9.1867894e-39 285 267
-0.041192811 0.69099998 -0.032711938 9.3697387e-39 286 267
-0.039981257 0.69099998 -0.032711938 9.2771844e-39 287 267
-0.038713597 0.69 -0.032664597 9.3675835e-39 288 267
-0.037503798 0.69 -0.032664597 9.4597792e-39 289 267
-0.0361888 0.68800002 -0.032569919 9.1849873e-39 290 267
-0.03498251 0.68800002 -0.032569919 9.1849873e-39 291 267
-0.033727121 0.68699998 -0.032522578 9.0016751e-39 292 267
-0.032522578 0.68699998 -0.032522578 8.9094795e-39 293 267
-0.031318039 0.68699998 -0.032522578 8.9094795e-39 294 267
-0.030069664 0.68599999 -0.032475237 9.0016751e-39 295 267
-0.02886688 0.68599999 -0.032475237 9.0023954e-39 296 267
-0.027664091 0.68599999 -0.032475237 9.0023954e-39 297 267
-0.026461305 0.68599999 -0.032475237 8.9112815e-39 298 267
-0.025258519 0.68599999 -0.032475237 9.0034772e-39 299 267
-0.024055731 0.68599999 -0.032475237 9.2800598e-39 300 267
-0.022852944 0.68599999 -0.032475237 9.2800598e-39 301 267
-0.021650158 0.68599999 -0.032475237 1.076923e-38 302 267
-0.020447372 0.68599999 -0.032475237 1.4641446e-38 303 267
-0.019244585 0.68599999 -0.032475237 1.2074015e-38 304 267
-0.018041799 0.68599999 -0.032475237 1.2074015e-38 305 267
-0.01686356 0.68699998 -0.032522578 1.2074015e-38 306 267
-0.015659019 0.68699998 -0.032522578 1.2074015e-38 307 267
-0.014454478 0.68699998 -0.032522578 1.1982541e-38 308 267
-0.013249939 0.68699998 -0.032522578 1.1982541e-38 309 267
-0.012045399 0.68699998 -0.032522578 1.2167287e-38 310 267
-0.010840859 0.68699998 -0.032522578 1.2351678e-38 311 267
-0.0096363192 0.68699998 -0.032522578 1.2629344e-38 312 267
-0.0079653924 0.64899999 -0.030723657 1.2997766e-38 313 267
-0.0068274797 0.64899999 -0.030723657 1.3272555e-38 314 267
-0.0056895665 0.64899999 -0.030723657 1.3272555e-38 315 267
-0.0045516533 0.64899999 -0.030723657 1.3176397e-38 316 267
-0.0034137398 0.64899999 -0.030723657 1.1516876e-38 317 267
-0.0022758266 0.64899999 -0.030723657 1.1415326e-38 318 267
-0.0011379133 0.64899999 -0.030723657 1.1138738e-38 319 267
0 0.64899999 -0.030723657 1.1880619e-38 320 267
0.0011379133 0.64899999 -0.030723657 1.335575e-38 321 267
0.0022793331 0.64999998 -0.030770998 1.3455502e-38 322 267
0.0034189997 0.64999998 -0.030770998 1.2441349e-38 323 267
0.0045516533 0.64899999 -0.030723657 1.123525e-38 324 267
0.0056895665 0.64899999 -0.030723657 6.9942506e-39 325 267
0.0068274797 0.64899999 -0.030723657 9.005645e-39 326 267
0.008677247 0.70700002 -0.033469379 9.74321e-39 327 267
0.0099168532 0.70700002 -0.033469379 9.3780232e-39 328 267
0.011156459 0.70700002 -0.033469379 9.65425e-39 329 267
0.012396066 0.70700002 -0.033469379 9.9319103e-39 330 267
0.013635674 0.70700002 -0.033469379 1.0116302e-38 331 267
0.01487528 0.70700002 -0.033469379 1.0859615e-38 332 267
0.01613768 0.708 -0.033516716 1.3256341e-38 333 267
0.017379038 0.708 -0.033516716 1.5480902e-38 334 267
0.0204088 0.77600002 -0.036735836 1.5757129e-38 335 267
-0.062506333 0.713 -0.035003547 1.5574206e-38 270 268
-0.060826641 0.708 -0.034758076 1.3545902e-38 271 268
-0.059585281 0.708 -0.034758076 1.1333933e-38 272 268
-0.05826151 0.70700002 -0.034708988 8.2911173e-39 273 268
-0.056941248 0.70599997 -0.034659892 7.8304979e-39 274 268
-0.055545598 0.704 -0.034561705 7.2773241e-39 275 268
-0.054234106 0.70300001 -0.034512613 6.7248678e-39 276 268
-0.052850723 0.70099998 -0.034414422 6.1720527e-39 277 268
-0.051400717 0.69800001 -0.034267146 6.3549992e-39 278 268
-0.050105009 0.69700003 -0.034218054 6.0780522e-39 279 268
-0.048882935 0.69700003 -0.034218054 7.3608667e-39 280 268
-0.047592476 0.69599998 -0.034168959 7.2686711e-39 281 268
-0.046372157 0.69599998 -0.034168959 8.5507709e-39 282 268
-0.045022093 0.69400001 -0.034070771 8.1823485e-39 283 268
-0.043742158 0.69300002 -0.034021679 9.1889432e-39 284 268
-0.042527102 0.69300002 -0.034021679 9.0041932e-39 285 268
-0.041312039 0.69300002 -0.034021679 9.1860706e-39 286 268
-0.039981257 0.69099998 -0.033923492 9.0938749e-39 287 268
-0.038769703 0.69099998 -0.033923492 9.27719e-39 288 268
-0.03755815 0.69099998 -0.033923492 9.27719e-39 289 268
-0.036293998 0.69 -0.0338744 9.3697387e-39 290 268
-0.035084199 0.69 -0.0338744 9.2771844e-39 291 268
-0.033776212 0.68800002 -0.033776212 9.094228e-39 292 268
-0.032569919 0.68800002 -0.033776212 9.1864237e-39 293 268
-0.031318039 0.68699998 -0.033727121 9.1864237e-39 294 268
-0.030113498 0.68699998 -0.033727121 9.1864237e-39 295 268
-0.028908957 0.68699998 -0.033727121 9.1867866e-39 296 268
-0.027704418 0.68699998 -0.033727121 9.094591e-39 297 268
-0.026499879 0.68699998 -0.033727121 9.1864363e-39 298 268
-0.025258519 0.68599999 -0.033678025 9.2786319e-39 299 268
-0.024055731 0.68599999 -0.033678025 9.0967602e-39 300 268
-0.022852944 0.68599999 -0.033678025 9.0045646e-39 301 268
-0.021650158 0.68599999 -0.033678025 1.0492297e-38 302 268
-0.020447372 0.68599999 -0.033678025 1.4456709e-38 303 268
-0.019244585 0.68599999 -0.033678025 1.1982541e-38 304 268
-0.018041799 0.68599999 -0.033678025 1.1982541e-38 305 268
-0.016888106 0.68800002 -0.033776212 1.1982538e-38 306 268
-0.015681813 0.68800002 -0.033776212 1.1982538e-38 307 268
-0.014454478 0.68699998 -0.033727121 1.1982538e-38 308 268
-0.013249939 0.68699998 -0.033727121 1.1982538e-38 309 268
-0.012045399 0.68699998 -0.033727121 1.2075457e-38 310 268
-0.010840859 0.68699998 -0.033727121 1.2259848e-38 311 268
-0.0096363192 0.68699998 -0.033727121 1.2445314e-38 312 268
-0.0079653924 0.64899999 -0.03186157 1.2721903e-38 313 268
-0.0068274797 0.64899999 -0.03186157 1.2904852e-38 314 268
-0.0056895665 0.64899999 -0.03186157 1.2812656e-38 315 268
-0.0045516533 0.64899999 -0.03186157 1.2440274e-38 316 268
-0.0034137398 0.64899999 -0.03186157 1.0965144e-38 317 268
-0.0022793331 0.64999998 -0.031910665 1.1233452e-38 318 268
-0.0011379133 0.64899999 -0.03186157 1.104906e-38 319 268
0 0.64899999 -0.03186157 1.1418918e-38 320 268
0.0011396665 0.64999998 -0.031910665 1.2986245e-38 321 268
0.0022793331 0.64999998 -0.031910665 1.3178195e-38 322 268
0.0034189997 0.64999998 -0.031910665 1.244063e-38 323 268
0.0045516533 0.64899999 -0.03186157 1.1603676e-38 324 268
0.0056895665 0.64899999 -0.03186157 7.0860903e-39 325 268
0.0068274797 0.64899999 -0.03186157 8.8205432e-39 326 268
0.008689519 0.708 -0.034758076 9.6506641e-39 327 268
0.0099308798 0.708 -0.034758076 9.4687867e-39 328 268
0.01117224 0.708 -0.034758076 9.7453736e-39 329 268
0.0124136 0.708 -0.034758076 9.656052e-39 330 268
0.013635674 0.70700002 -0.034708988 9.9326389e-39 331 268
0.01487528 0.70700002 -0.034708988 1.0951454e-38 332 268
0.01613768 0.708 -0.034758076 1.3348541e-38 333 268
0.017379038 0.708 -0.034758076 1.5480546e-38 334 268
-0.062506333 0.713 -0.036253672 1.5666402e-38 270 269
-0.060998458 0.70999998 -0.036101133 1.3730294e-38 271 269
-0.059585281 0.708 -0.03599944 1.1517964e-38 272 269
-0.058343921 0.708 -0.03599944 7.9226935e-39 273 269
-0.057021905 0.70700002 -0.035948593 7.7379491e-39 274 269
-0.055703394 0.70599997 -0.035897743 7.3691666e-39 275 269
-0.054311249 0.704 -0.035796054 6.4490053e-39 276 269
-0.053001512 0.70300001 -0.035745207 6.1724185e-39 277 269
-0.051621638 0.70099998 -0.035643511 6.0795012e-39 278 269
-0.050176892 0.69800001 -0.035490975 5.9873041e-39 279 269
-0.048953064 0.69800001 -0.035490975 6.6276331e-39 280 269
-0.047660861 0.69700003 -0.035440128 6.6276331e-39 281 269
-0.046372157 0.69599998 -0.035389278 7.5431098e-39 282 269
-0.045151837 0.69599998 -0.035389278 7.3587171e-39 283 269
-0.043805279 0.69400001 -0.035287585 8.5489786e-39 284 269
-0.042527102 0.69300002 -0.035236739 8.1801961e-39 285 269
-0.041312039 0.69300002 -0.035236739 9.0038429e-39 286 269
-0.039981257 0.69099998 -0.035135046 8.8194516e-39 287 269
-0.038769703 0.69099998 -0.035135046 9.1857174e-39 288 269
-0.03755815 0.69099998 -0.035135046 9.0935218e-39 289 269
-0.036346599 0.69099998 -0.035135046 9.2768341e-39 290 269
-0.035084199 0.69 -0.035084199 9.3690297e-39 291 269
-0.0338744 0.69 -0.035084199 9.3697486e-39 292 269
-0.032664597 0.69 -0.035084199 9.3697486e-39 293 269
-0.031363625 0.68800002 -0.03498251 9.3697486e-39 294 269
-0.030157333 0.68800002 -0.03498251 9.3697486e-39 295 269
-0.028951041 0.68800002 -0.03498251 9.1867922e-39 296 269
-0.027704418 0.68699998 -0.034931656 9.1867922e-39 297 269
-0.026499879 0.68699998 -0.034931656 9.3697486e-39 298 269
-0.025295338 0.68699998 -0.034931656 9.4623029e-39 299 269
-0.024090799 0.68699998 -0.034931656 9.2793536e-39 300 269
-0.022886258 0.68699998 -0.034931656 9.0031268e-39 301 269
-0.021681719 0.68699998 -0.034931656 1.0490496e-38 302 269
-0.020477179 0.68699998 -0.034931656 1.4639658e-38 303 269
-0.019272638 0.68699998 -0.034931656 1.1981819e-38 304 269
-0.018068098 0.68699998 -0.034931656 1.2074015e-38 305 269
-0.016888106 0.68800002 -0.03498251 1.1891422e-38 306 269
-0.015681813 0.68800002 -0.03498251 1.1799226e-38 307 269
-0.014475521 0.68800002 -0.03498251 1.2074737e-38 308 269
-0.013269227 0.68800002 -0.03498251 1.2074737e-38 309 269
-0.012062933 0.68800002 -0.03498251 1.2166936e-38 310 269
-0.010856641 0.68800002 -0.03498251 1.2259132e-38 311 269
-0.0096503468 0.68800002 -0.03498251 1.2444598e-38 312 269
-0.0079776663 0.64999998 -0.033050328 1.2628991e-38 313 269
-0.0068379994 0.64999998 -0.033050328 1.2904499e-38 314 269
-0.005698333 0.64999998 -0.033050328 1.2720106e-38 315 269
-0.0045586661 0.64999998 -0.033050328 1.1888908e-38 316 269
-0.0034189997 0.64999998 -0.033050328 1.0505614e-38 317 269
-0.0022793331 0.64999998 -0.033050328 1.1234901e-38 318 269
-0.0011396665 0.64999998 -0.033050328 1.0681727e-38 319 269
0 0.64999998 -0.033050328 1.1233099e-38 320 269
0.0011396665 0.64999998 -0.033050328 1.2800783e-38 321 269
0.0022793331 0.64999998 -0.033050328 1.2902331e-38 322 269
0.0034189997 0.64999998 -0.033050328 1.2256961e-38 323 269
0.0045586661 0.64999998 -0.033050328 1.1696228e-38 324 269
0.005698333 0.64999998 -0.033050328 6.9942506e-39 325 269
0.0074797203 0.71100003 -0.036151983 8.8190985e-39 326 269
0.0087263398 0.71100003 -0.036151983 9.8336092e-39 327 269
0.0099729598 0.71100003 -0.036151983 9.4680679e-39 328 269
0.01121958 0.71100003 -0.036151983 9.8364902e-39 329 269
0.0124662 0.71100003 -0.036151983 9.746447e-39 330 269
0.01371282 0.71100003 -0.036151983 1.0299619e-38 331 269
0.015001519 0.713 -0.036253672 1.0952173e-38 332 269
-0.062506333 0.713 -0.037503798 1.5482008e-38 270 270
-0.060998458 0.70999998 -0.037345998 1.373065e-38 271 270
-0.059753593 0.70999998 -0.037345998 1.1702712e-38 272 270
-0.058508728 0.70999998 -0.037345998 7.7382994e-39 273 270
-0.057102561 0.708 -0.0372408 7.3695225e-39 274 270
-0.055782299 0.70700002 -0.037188202 7.3695225e-39 275 270
-0.054465543 0.70599997 -0.037135597 6.4497256e-39 276 270
-0.053076904 0.704 -0.037030395 6.0813018e-39 277 270
-0.051621638 0.70099998 -0.036872596 5.7132424e-39 278 270
-0.050320663 0.69999999 -0.036819998 5.4362954e-39 279 270
-0.048953064 0.69800001 -0.0367148 5.5277721e-39 280 270
-0.047729239 0.69800001 -0.0367148 5.3433809e-39 281 270
-0.046438783 0.69700003 -0.036662199 6.351772e-39 282 270
-0.045151837 0.69599998 -0.036609598 6.2595764e-39 283 270
-0.043931518 0.69599998 -0.036609598 7.5423853e-39 284 270
-0.042588469 0.69400001 -0.036504399 7.2657998e-39 285 270
-0.041312039 0.69300002 -0.036451802 8.5479038e-39 286 270
-0.04009698 0.69300002 -0.036451802 8.2713155e-39 287 270
-0.038769703 0.69099998 -0.036346599 8.9105753e-39 288 270
-0.03755815 0.69099998 -0.036346599 8.9105753e-39 289 270
-0.036346599 0.69099998 -0.036346599 9.1857202e-39 290 270
-0.035135046 0.69099998 -0.036346599 9.1857202e-39 291 270
-0.033923492 0.69099998 -0.036346599 9.1860734e-39 292 270
-0.032664597 0.69 -0.036293998 9.3701045e-39 293 270
-0.031454802 0.69 -0.036293998 9.1860734e-39 294 270
-0.030244999 0.69 -0.036293998 9.3701045e-39 295 270
-0.029035198 0.69 -0.036293998 9.4623001e-39 296 270
-0.027744746 0.68800002 -0.0361888 9.3701045e-39 297 270
-0.026538454 0.68800002 -0.0361888 9.3697486e-39 298 270
-0.02533216 0.68800002 -0.0361888 9.4623029e-39 299 270
-0.024090799 0.68699998 -0.036136195 9.2793536e-39 300 270
-0.022886258 0.68699998 -0.036136195 8.9109312e-39 301 270
-0.021681719 0.68699998 -0.036136195 1.0489776e-38 302 270
-0.020477179 0.68699998 -0.036136195 1.4730775e-38 303 270
-0.019272638 0.68699998 -0.036136195 1.2074015e-38 304 270
-0.018068098 0.68699998 -0.036136195 1.2074015e-38 305 270
-0.0169372 0.69 -0.036293998 1.2074734e-38 306 270
-0.015727401 0.69 -0.036293998 1.2074734e-38 307 270
-0.014517599 0.69 -0.036293998 1.1982541e-38 308 270
-0.0133078 0.69 -0.036293998 1.2074737e-38 309 270
-0.012097999 0.69 -0.036293998 1.2166934e-38 310 270
-0.010888199 0.69 -0.036293998 1.2259129e-38 311 270
-0.0096783992 0.69 -0.036293998 1.2444598e-38 312 270
-0.0085054198 0.69300002 -0.036451802 1.2628991e-38 313 270
-0.0068379994 0.64999998 -0.034189999 1.2628991e-38 314 270
-0.005698333 0.64999998 -0.034189999 1.2536794e-38 315 270
-0.0045586661 0.64999998 -0.034189999 1.1797075e-38 316 270
-0.0034189997 0.64999998 -0.034189999 1.0506336e-38 317 270
-0.0022793331 0.64999998 -0.034189999 1.0772846e-38 318 270
-0.0011396665 0.64999998 -0.034189999 1.0404064e-38 319 270
0 0.64999998 -0.034189999 1.0495171e-38 320 270
0.0011396665 0.64999998 -0.034189999 1.2338723e-38 321 270
0.0022793331 0.64999998 -0.034189999 1.2901608e-38 322 270
0.0034189997 0.64999998 -0.034189999 1.2532825e-38 323 270
0.0045586661 0.64999998 -0.034189999 1.1972816e-38 324 270
0.005698333 0.64999998 -0.034189999 7.0864462e-39 325 270
0.0068590399 0.65200001 -0.034295198 8.6347115e-39 326 270
0.0087263398 0.71100003 -0.037398599 9.8332532e-39 327 270
0.0099729598 0.71100003 -0.037398599 9.4680679e-39 328 270
0.01121958 0.71100003 -0.037398599 9.8364902e-39 329 270
0.0124662 0.71100003 -0.037398599 9.6553304e-39 330 270
0.013751393 0.713 -0.037503798 1.03007e-38 331 270
0.015001519 0.713 -0.037503798 1.058627e-38 332 270
-0.062506333 0.713 -0.038753927 1.5389814e-38 270 271
-0.061084379 0.71100003 -0.038645219 1.3730294e-38 271 271
-0.059753593 0.70999998 -0.038590867 1.1978219e-38 272 271
-0.058508728 0.70999998 -0.038590867 7.8297762e-39 273 271
-0.057102561 0.708 -0.038482159 7.1851284e-39 274 271
-0.055782299 0.70700002 -0.038427804 7.2773241e-39 275 271
-0.054465543 0.70599997 -0.038373452 6.6337567e-39 276 271
-0.053076904 0.704 -0.038264744 6.3568097e-39 277 271
-0.051768921 0.70300001 -0.038210396 5.9891034e-39 278 271
-0.050392549 0.70099998 -0.038101684 5.7121564e-39 279 271
-0.049093332 0.69999999 -0.038047329 5.6192475e-39 280 271
-0.047729239 0.69800001 -0.037938625 5.5266931e-39 281 271
-0.046505414 0.69800001 -0.037938625 5.3426648e-39 282 271
-0.045216713 0.69700003 -0.037884273 5.3426648e-39 283 271
-0.043931518 0.69599998 -0.037829921 5.9840657e-39 284 271
-0.042588469 0.69400001 -0.037721213 5.9840657e-39 285 271
-0.041371655 0.69400001 -0.037721213 7.1743258e-39 286 271
-0.04009698 0.69300002 -0.037666857 6.8977404e-39 287 271
-0.03888192 0.69300002 -0.037666857 8.0887221e-39 288 271
-0.037666857 0.69300002 -0.037666857 7.9043323e-39 289 271
-0.036346599 0.69099998 -0.03755815 8.9116445e-39 290 271
-0.035135046 0.69099998 -0.03755815 8.8194488e-39 291 271
-0.033923492 0.69099998 -0.03755815 9.0945966e-39 292 271
-0.032711938 0.69099998 -0.03755815 9.0945966e-39 293 271
-0.031454802 0.69 -0.037503798 9.1864363e-39 294 271
-0.030244999 0.69 -0.037503798 9.1864363e-39 295 271
-0.029035198 0.69 -0.037503798 9.5537769e-39 296 271
-0.027744746 0.68800002 -0.037395094 9.5537769e-39 297 271
-0.026538454 0.68800002 -0.037395094 9.4623029e-39 298 271
-0.02533216 0.68800002 -0.037395094 9.4623029e-39 299 271
-0.024125867 0.68800002 -0.037395094 9.2793536e-39 300 271
-0.022919573 0.68800002 -0.037395094 8.9109312e-39 301 271
-0.021713281 0.68800002 -0.037395094 1.0580892e-38 302 271
-0.020506985 0.68800002 -0.037395094 1.5006282e-38 303 271
-0.019300694 0.68800002 -0.037395094 1.2258049e-38 304 271
-0.0180944 0.68800002 -0.037395094 1.2258049e-38 305 271
-0.0169372 0.69 -0.037503798 1.2258049e-38 306 271
-0.015727401 0.69 -0.037503798 1.2258049e-38 307 271
-0.014538639 0.69099998 -0.03755815 1.1982538e-38 308 271
-0.013327086 0.69099998 -0.03755815 1.1982538e-38 309 271
-0.012097999 0.69 -0.037503798 1.2166934e-38 310 271
-0.010888199 0.69 -0.037503798 1.2259129e-38 311 271
-0.0096924258 0.69099998 -0.03755815 1.2352044e-38 312 271
-0.0085054198 0.69300002 -0.037666857 1.2628991e-38 313 271
-0.0068379994 0.64999998 -0.035329666 1.2536788e-38 314 271
-0.005698333 0.64999998 -0.035329666 1.2352397e-38 315 271
-0.0045586661 0.64999998 -0.035329666 1.2072573e-38 316 271
-0.0034189997 0.64999998 -0.035329666 1.068928e-38 317 271
-0.0022793331 0.64999998 -0.035329666 1.0127474e-38 318 271
-0.0011396665 0.64999998 -0.035329666 1.0035277e-38 319 271
0 0.64999998 -0.035329666 1.0218221e-38 320 271
0.0011396665 0.64999998 -0.035329666 1.169371e-38 321 271
0.0022793331 0.64999998 -0.035329666 1.2900886e-38 322 271
0.0034189997 0.64999998 -0.035329666 1.2808689e-38 323 271
0.0045726933 0.65200001 -0.035438374 1.2065733e-38 324 271
0.0057158666 0.65200001 -0.035438374 7.1790048e-39 325 271
0.0068590399 0.65200001 -0.035438374 8.8187454e-39 326 271
0.0087263398 0.71100003 -0.038645219 9.833256e-39 327 271
0.0099729598 0.71100003 -0.038645219 9.3762352e-39 328 271
0.011251139 0.713 -0.038753927 9.7453764e-39 329 271
0.012501267 0.713 -0.038753927 9.4738188e-39 330 271
0.013751393 0.713 -0.038753927 1.0211384e-38 331 271
0.015085679 0.71700001 -0.038971342 1.0127457e-38 332 271
0.016342819 0.71700001 -0.038971342 1.197137e-38 333 271
-0.062506333 0.713 -0.040004052 1.5114306e-38 270 272
-0.061084379 0.71100003 -0.039891839 1.3823567e-38 271 272
-0.059837762 0.71100003 -0.039891839 1.2162969e-38 272 272
-0.058508728 0.70999998 -0.039835732 8.2907543e-39 273 272
-0.057263866 0.70999998 -0.039835732 7.2773213e-39 274 272
-0.055861197 0.708 -0.039723519 7.3695169e-39 275 272
-0.054619838 0.708 -0.039723519 6.7248734e-39 276 272
-0.053227689 0.70599997 -0.039611302 6.540122e-39 277 272
-0.051842559 0.704 -0.039499093 5.9898251e-39 278 272
-0.050536323 0.70300001 -0.039442986 5.7132396e-39 279 272
-0.049093332 0.69999999 -0.039274666 5.4362954e-39 280 272
-0.047865998 0.69999999 -0.039274666 5.1600686e-39 281 272
-0.046505414 0.69800001 -0.039162453 4.8852796e-39 282 272
-0.045216713 0.69700003 -0.039106347 4.7927252e-39 283 272
-0.043931518 0.69599998 -0.039050236 5.6174468e-39 284 272
-0.042711195 0.69599998 -0.039050236 5.6174468e-39 285 272
-0.041371655 0.69400001 -0.038938027 6.4425257e-39 286 272
-0.04009698 0.69300002 -0.03888192 6.2577743e-39 287 272
-0.03888192 0.69300002 -0.03888192 7.6324271e-39 288 272
-0.037666857 0.69300002 -0.03888192 7.448396e-39 289 272
-0.036451802 0.69300002 -0.03888192 8.7312161e-39 290 272
-0.035135046 0.69099998 -0.038769703 8.3627923e-39 291 272
-0.033923492 0.69099998 -0.038769703 9.0038457e-39 292 272
-0.032711938 0.69099998 -0.038769703 8.9116501e-39 293 272
-0.031500384 0.69099998 -0.038769703 9.1864363e-39 294 272
-0.030288832 0.69099998 -0.038769703 9.2786319e-39 295 272
-0.029077278 0.69099998 -0.038769703 9.4623029e-39 296 272
-0.027825398 0.69 -0.038713597 9.4623029e-39 297 272
-0.026615599 0.69 -0.038713597 9.461947e-39 298 272
-0.025405798 0.69 -0.038713597 9.461947e-39 299 272
-0.024125867 0.68800002 -0.038601387 9.5548517e-39 300 272
-0.022919573 0.68800002 -0.038601387 9.0938749e-39 301 272
-0.021776399 0.69 -0.038713597 1.0488328e-38 302 272
-0.020566599 0.69 -0.038713597 1.4913718e-38 303 272
-0.019300694 0.68800002 -0.038601387 1.2718308e-38 304 272
-0.0180944 0.68800002 -0.038601387 1.2441723e-38 305 272
-0.016961746 0.69099998 -0.038769703 1.2166934e-38 306 272
-0.015750192 0.69099998 -0.038769703 1.2074737e-38 307 272
-0.014538639 0.69099998 -0.038769703 1.1982541e-38 308 272
-0.013327086 0.69099998 -0.038769703 1.1982541e-38 309 272
-0.012115533 0.69099998 -0.038769703 1.2350602e-38 310 272
-0.01090398 0.69099998 -0.038769703 1.2442797e-38 311 272
-0.0097204801 0.69300002 -0.03888192 1.2535709e-38 312 272
-0.0085054198 0.69300002 -0.03888192 1.2812656e-38 313 272
-0.0068379994 0.64999998 -0.036469329 1.2536791e-38 314 272
-0.005698333 0.64999998 -0.036469329 1.2444595e-38 315 272
-0.0045586661 0.64999998 -0.036469329 1.2256964e-38 316 272
-0.0034189997 0.64999998 -0.036469329 1.087403e-38 317 272
-0.0022793331 0.64999998 -0.036469329 1.012783e-38 318 272
-0.0011396665 0.64999998 -0.036469329 9.7590475e-39 319 272
0 0.64999998 -0.036469329 1.0770676e-38 320 272
0.0011396665 0.64999998 -0.036469329 1.2522391e-38 321 272
0.0022863466 0.65200001 -0.036581546 1.2533176e-38 322 272
0.0034295199 0.65200001 -0.036581546 1.244098e-38 323 272
0.0045726933 0.65200001 -0.036581546 1.2066452e-38 324 272
0.0057158666 0.65200001 -0.036581546 7.2726395e-39 325 272
0.0068590399 0.65200001 -0.036581546 8.8205461e-39 326 272
0.0080022132 0.65200001 -0.036581546 9.7425038e-39 327 272
0.010001013 0.713 -0.040004052 9.4687867e-39 328 272
0.011251139 0.713 -0.040004052 9.7453736e-39 329 272
0.012501267 0.713 -0.040004052 9.3827022e-39 330 272
0.013751393 0.713 -0.040004052 1.0120269e-38 331 272
0.015085679 0.71700001 -0.040228479 9.2091009e-39 332 272
0.016342819 0.71700001 -0.040228479 1.1052655e-38 333 272
0.017599959 0.71700001 -0.040228479 1.4651877e-38 334 272
-0.062506333 0.713 -0.041254178 1.5114303e-38 270 273
-0.061256204 0.713 -0.041254178 1.3731368e-38 271 273
-0.059837762 0.71100003 -0.041138459 1.1979654e-38 272 273
-0.058591139 0.71100003 -0.041138459 8.4758617e-39 273 273
-0.057263866 0.70999998 -0.041080594 7.8286944e-39 274 273
-0.056018997 0.70999998 -0.041080594 7.4602706e-39 275 273
-0.054619838 0.708 -0.040964879 6.8163501e-39 276 273
-0.053303085 0.70700002 -0.040907022 6.5394031e-39 277 273
-0.051989835 0.70599997 -0.040849157 5.9887503e-39 278 273
-0.050608214 0.704 -0.040733438 5.8965546e-39 279 273
-0.049303733 0.70300001 -0.040675577 5.8961861e-39 280 273
-0.047865998 0.69999999 -0.040502001 5.7117934e-39 281 273
-0.046505414 0.69800001 -0.040386278 5.5274022e-39 282 273
-0.045281585 0.69800001 -0.040386278 5.3430123e-39 283 273
-0.043994639 0.69700003 -0.040328421 5.066794e-39 284 273
-0.042711195 0.69599998 -0.040270556 4.8827614e-39 285 273
-0.041490879 0.69599998 -0.040270556 5.0653548e-39 286 273
-0.040154841 0.69400001 -0.040154841 5.249386e-39 287 273
-0.038938027 0.69400001 -0.040154841 5.7993171e-39 288 273
-0.037666857 0.69300002 -0.04009698 5.8918715e-39 289 273
-0.036451802 0.69300002 -0.04009698 6.9910136e-39 290 273
-0.035236739 0.69300002 -0.04009698 6.8984592e-39 291 273
-0.034021679 0.69300002 -0.04009698 7.814289e-39 292 273
-0.032711938 0.69099998 -0.039981257 7.9983202e-39 293 273
-0.031500384 0.69099998 -0.039981257 8.6379344e-39 294 273
-0.030288832 0.69099998 -0.039981257 8.5457388e-39 295 273
-0.029077278 0.69099998 -0.039981257 9.1864363e-39 296 273
-0.027825398 0.69 -0.0399234 9.2786319e-39 297 273
-0.026615599 0.69 -0.0399234 9.2786347e-39 298 273
-0.025405798 0.69 -0.0399234 9.3708304e-39 299 273
-0.024195999 0.69 -0.0399234 9.1882342e-39 300 273
-0.022986198 0.69 -0.0399234 8.3584735e-39 301 273
-0.021776399 0.69 -0.0399234 1.0394336e-38 302 273
-0.020566599 0.69 -0.0399234 1.518851e-38 303 273
-0.019356798 0.69 -0.0399234 1.2534277e-38 304 273
-0.018146999 0.69 -0.0399234 1.2441723e-38 305 273
-0.016961746 0.69099998 -0.039981257 1.2166934e-38 306 273
-0.015750192 0.69099998 -0.039981257 1.2074737e-38 307 273
-0.014538639 0.69099998 -0.039981257 1.2074737e-38 308 273
-0.013327086 0.69099998 -0.039981257 1.2074737e-38 309 273
-0.012115533 0.69099998 -0.039981257 1.2074737e-38 310 273
-0.01090398 0.69099998 -0.039981257 1.2259129e-38 311 273
-0.0097204801 0.69300002 -0.04009698 1.2260204e-38 312 273
-0.0085054198 0.69300002 -0.04009698 1.2628988e-38 313 273
-0.0068379994 0.64999998 -0.037608996 1.2537144e-38 314 273
-0.005698333 0.64999998 -0.037608996 1.2260198e-38 315 273
-0.0045586661 0.64999998 -0.037608996 1.2440627e-38 316 273
-0.0034189997 0.64999998 -0.037608996 1.1334638e-38 317 273
-0.0022793331 0.64999998 -0.037608996 1.0775345e-38 318 273
-0.0011396665 0.64999998 -0.037608996 9.5768016e-39 319 273
0 0.64999998 -0.037608996 1.1237402e-38 320 273
0.0011396665 0.64999998 -0.037608996 1.2251552e-38 321 273
0.0022863466 0.65200001 -0.037724718 1.2256236e-38 322 273
0.0034295199 0.65200001 -0.037724718 1.2256236e-38 323 273
0.0045726933 0.65200001 -0.037724718 1.2066452e-38 324 273
0.0057158666 0.65200001 -0.037724718 7.2726395e-39 325 273
0.0068590399 0.65200001 -0.037724718 8.9127417e-39 326 273
0.0080022132 0.65200001 -0.037724718 9.6503081e-39 327 273
0.010001013 0.713 -0.041254178 9.3773142e-39 328 273
0.011251139 0.713 -0.041254178 9.9304879e-39 329 273
0.012518799 0.71399999 -0.041312039 8.8334983e-39 330 273
0.01377068 0.71399999 -0.041312039 9.4788677e-39 331 273
0.01506464 0.71600002 -0.041427758 8.5644602e-39 332 273
0.016342819 0.71700001 -0.041485619 1.0132146e-38 333 273
0.017599959 0.71700001 -0.041485619 1.437529e-38 334 273
-0.061256204 0.713 -0.042504307 1.373065e-38 271 274
-0.060006075 0.713 -0.042504307 1.1887103e-38 272 274
-0.058591139 0.71100003 -0.042385083 8.7524528e-39 273 274
-0.057263866 0.70999998 -0.042325463 8.1060057e-39 274 274
-0.056018997 0.70999998 -0.042325463 7.552832e-39 275 274
-0.054619838 0.708 -0.042206239 6.6315987e-39 276 274
-0.053303085 0.70700002 -0.042146627 6.4472075e-39 277 274
-0.051989835 0.70599997 -0.042087011 5.9880314e-39 278 274
-0.050608214 0.704 -0.041967787 6.1720625e-39 279 274
-0.049303733 0.70300001 -0.041908171 5.8043562e-39 280 274
-0.048071139 0.70300001 -0.041908171 5.8043562e-39 281 274
-0.046638668 0.69999999 -0.041729331 5.1615035e-39 282 274
-0.045281585 0.69800001 -0.041610107 4.9774724e-39 283 274
-0.04405776 0.69800001 -0.041610107 4.8841978e-39 284 274
-0.042772565 0.69700003 -0.041550495 4.7001666e-39 285 274
-0.041490879 0.69599998 -0.041490879 5.0660681e-39 286 274
-0.040270556 0.69599998 -0.041490879 5.0660681e-39 287 274
-0.038938027 0.69400001 -0.041371655 5.0660681e-39 288 274
-0.037721213 0.69400001 -0.041371655 4.9738725e-39 289 274
-0.036451802 0.69300002 -0.041312039 6.2570583e-39 290 274
-0.035236739 0.69300002 -0.041312039 6.3492539e-39 291 274
-0.034021679 0.69300002 -0.041312039 7.2661655e-39 292 274
-0.03280662 0.69300002 -0.041312039 7.1739699e-39 293 274
-0.031500384 0.69099998 -0.041192811 8.1816422e-39 294 274
-0.030288832 0.69099998 -0.041192811 8.0894466e-39 295 274
-0.029077278 0.69099998 -0.041192811 8.9138123e-39 296 274
-0.027865725 0.69099998 -0.041192811 8.7297797e-39 297 274
-0.026654173 0.69099998 -0.041192811 9.0960413e-39 298 274
-0.025405798 0.69 -0.041133199 9.0038457e-39 299 274
-0.024195999 0.69 -0.041133199 9.2797067e-39 300 274
-0.022986198 0.69 -0.041133199 8.5421417e-39 301 274
-0.021776399 0.69 -0.041133199 1.0303219e-38 302 274
-0.020566599 0.69 -0.041133199 1.4913001e-38 303 274
-0.019356798 0.69 -0.041133199 1.2442797e-38 304 274
-0.0181733 0.69099998 -0.041192811 1.2442797e-38 305 274
-0.01701084 0.69300002 -0.041312039 1.2166934e-38 306 274
-0.015795778 0.69300002 -0.041312039 1.2074737e-38 307 274
-0.014580719 0.69300002 -0.041312039 1.2074382e-38 308 274
-0.01336566 0.69300002 -0.041312039 1.1982185e-38 309 274
-0.012150601 0.69300002 -0.041312039 1.2074737e-38 310 274
-0.010935539 0.69300002 -0.041312039 1.2259129e-38 311 274
-0.0097204801 0.69300002 -0.041312039 1.23524e-38 312 274
-0.0080022132 0.65200001 -0.038867895 1.2444595e-38 313 274
-0.0068379994 0.64999998 -0.038748663 1.2536791e-38 314 274
-0.005698333 0.64999998 -0.038748663 1.23524e-38 315 274
-0.0045586661 0.64999998 -0.038748663 1.2625744e-38 316 274
-0.0034189997 0.64999998 -0.038748663 1.2164766e-38 317 274
-0.0022793331 0.64999998 -0.038748663 1.1883506e-38 318 274
-0.0011396665 0.64999998 -0.038748663 1.1054105e-38 319 274
0 0.64999998 -0.038748663 1.1884942e-38 320 274
0.0011396665 0.64999998 -0.038748663 1.234556e-38 321 274
0.0022863466 0.65200001 -0.038867895 1.2072921e-38 322 274
0.0034295199 0.65200001 -0.038867895 1.2165116e-38 323 274
0.0045726933 0.65200001 -0.038867895 1.2066449e-38 324 274
0.0057246331 0.653 -0.038927507 7.2726367e-39 325 274
0.0068695596 0.653 -0.038927507 8.8205461e-39 326 274
0.0080144862 0.653 -0.038927507 9.9268936e-39 327 274
0.010001013 0.713 -0.042504307 9.0124805e-39 328 274
0.011251139 0.713 -0.042504307 9.4730999e-39 329 274
0.012501267 0.713 -0.042504307 8.3764662e-39 330 274
0.013751393 0.713 -0.042504307 8.4686618e-39 331 274
0.015022559 0.71399999 -0.042563915 7.6457353e-39 332 274
0.016342819 0.71700001 -0.042742759 9.4896464e-39 333 274
0.017599959 0.71700001 -0.042742759 1.4283091e-38 334 274
0.018909698 0.71899998 -0.042861983 1.4652233e-38 335 274
-0.061256204 0.713 -0.043754432 1.373065e-38 271 275
-0.060006075 0.713 -0.043754432 1.2162969e-38 272 275
-0.058591139 0.71100003 -0.043631699 8.4751456e-39 273 275
-0.057263866 0.70999998 -0.043570329 8.1060057e-39 274 275
-0.056018997 0.70999998 -0.043570329 7.4606363e-39 275 275
-0.054774132 0.70999998 -0.043570329 6.7248734e-39 276 275
-0.053303085 0.70700002 -0.043386232 6.1716996e-39 277 275
-0.051989835 0.70599997 -0.043324865 5.6206936e-39 278 275
-0.050608214 0.704 -0.043202132 5.528498e-39 279 275
-0.049373865 0.704 -0.043202132 5.5292141e-39 280 275
-0.048071139 0.70300001 -0.043140765 5.3451829e-39 281 275
-0.046705291 0.70099998 -0.043018032 5.6210439e-39 282 275
-0.04541133 0.69999999 -0.042956665 5.5288469e-39 283 275
-0.04405776 0.69800001 -0.042833932 5.1611406e-39 284 275
-0.042772565 0.69700003 -0.042772565 4.9763906e-39 285 275
-0.041550495 0.69700003 -0.042772565 4.8834789e-39 286 275
-0.040270556 0.69599998 -0.042711195 4.7912819e-39 287 275
-0.039050236 0.69599998 -0.042711195 4.7909259e-39 288 275
-0.037721213 0.69400001 -0.042588469 4.6987303e-39 289 275
-0.036451802 0.69300002 -0.042527102 4.7902071e-39 290 275
-0.035236739 0.69300002 -0.042527102 4.7902071e-39 291 275
-0.034021679 0.69300002 -0.042527102 5.341213e-39 292 275
-0.03280662 0.69300002 -0.042527102 5.341213e-39 293 275
-0.031591557 0.69300002 -0.042527102 6.3496042e-39 294 275
-0.030288832 0.69099998 -0.042404365 6.5339941e-39 295 275
-0.029077278 0.69099998 -0.042404365 7.6327831e-39 296 275
-0.027865725 0.69099998 -0.042404365 7.4483932e-39 297 275
-0.026654173 0.69099998 -0.042404365 8.3645916e-39 298 275
-0.025442619 0.69099998 -0.042404365 8.2723959e-39 299 275
-0.024231065 0.69099998 -0.042404365 8.7297797e-39 300 275
-0.023019511 0.69099998 -0.042404365 7.8078234e-39 301 275
-0.021807959 0.69099998 -0.042404365 9.8426083e-39 302 275
-0.020596405 0.69099998 -0.042404365 1.4728975e-38 303 275
-0.019384852 0.69099998 -0.042404365 1.2442442e-38 304 275
-0.0181733 0.69099998 -0.042404365 1.2350246e-38 305 275
-0.01701084 0.69300002 -0.042527102 1.2258053e-38 306 275
-0.015795778 0.69300002 -0.042527102 1.2258053e-38 307 275
-0.014580719 0.69300002 -0.042527102 1.1982541e-38 308 275
-0.01336566 0.69300002 -0.042527102 1.1982541e-38 309 275
-0.012150601 0.69300002 -0.042527102 1.1891424e-38 310 275
-0.010935539 0.69300002 -0.042527102 1.2075457e-38 311 275
-0.0097204801 0.69300002 -0.042527102 1.2259848e-38 312 275
-0.0080022132 0.65200001 -0.040011063 1.2444598e-38 313 275
-0.0068590399 0.65200001 -0.040011063 1.23524e-38 314 275
-0.0057158666 0.65200001 -0.040011063 1.2260204e-38 315 275
-0.0045586661 0.64999998 -0.039888334 1.2442429e-38 316 275
-0.0034189997 0.64999998 -0.039888334 1.2165482e-38 317 275
-0.0022793331 0.64999998 -0.039888334 1.2155778e-38 318 275
-0.0011396665 0.64999998 -0.039888334 1.1141985e-38 319 275
0 0.65200001 -0.040011063 1.114415e-38 320 275
0.0011431733 0.65200001 -0.040011063 1.2342693e-38 321 275
0.0022863466 0.65200001 -0.040011063 1.189033e-38 322 275
0.0034295199 0.65200001 -0.040011063 1.189033e-38 323 275
0.0045797066 0.653 -0.04007243 1.2159004e-38 324 275
0.0057246331 0.653 -0.04007243 7.0882455e-39 325 275
0.0068695596 0.653 -0.04007243 8.3628049e-39 326 275
0.0080144862 0.653 -0.04007243 9.5613481e-39 327 275
0.0091594132 0.653 -0.04007243 8.464343e-39 328 275
0.011251139 0.713 -0.043754432 8.9253211e-39 329 275
0.012501267 0.713 -0.043754432 7.5506684e-39 330 275
0.013751393 0.713 -0.043754432 7.3662757e-39 331 275
0.015022559 0.71399999 -0.043815799 6.909615e-39 332 275
0.016320027 0.71600002 -0.043938532 9.0301144e-39 333 275
0.017599959 0.71700001 -0.043999899 1.4007583e-38 334 275
0.018909698 0.71899998 -0.044122629 1.4560756e-38 335 275
-0.061342116 0.71399999 -0.045067675 1.3731368e-38 271 276
-0.060006075 0.713 -0.045004558 1.2347362e-38 272 276
-0.058591139 0.71100003 -0.044878319 8.1060029e-39 273 276
-0.057344519 0.71100003 -0.044878319 7.8304979e-39 274 276
-0.056018997 0.70999998 -0.044815198 7.3695197e-39 275 276
-0.054774132 0.70999998 -0.044815198 6.5412024e-39 276 276
-0.053378478 0.708 -0.044688959 6.1724185e-39 277 276
-0.05206348 0.70700002 -0.044625837 5.7118074e-39 278 276
-0.050751984 0.70599997 -0.044562716 5.5277749e-39 279 276
-0.049373865 0.704 -0.044436477 5.436301e-39 280 276
-0.048071139 0.70300001 -0.04437336 5.528498e-39 281 276
-0.046705291 0.70099998 -0.044247117 5.2529859e-39 282 276
-0.045476202 0.70099998 -0.044247117 5.3451829e-39 283 276
-0.044183996 0.69999999 -0.044183996 4.9774724e-39 284 276
-0.042833932 0.69800001 -0.04405776 4.8852768e-39 285 276
-0.041610107 0.69800001 -0.04405776 4.9763906e-39 286 276
-0.040328421 0.69700003 -0.043994639 4.884195e-39 287 276
-0.039106347 0.69700003 -0.043994639 4.7909259e-39 288 276
-0.037829921 0.69599998 -0.043931518 4.5146992e-39 289 276
-0.036504399 0.69400001 -0.043805279 4.6980143e-39 290 276
-0.035287585 0.69400001 -0.043805279 4.6980143e-39 291 276
-0.034070771 0.69400001 -0.043805279 4.9728033e-39 292 276
-0.03280662 0.69300002 -0.043742158 4.9728033e-39 293 276
-0.031591557 0.69300002 -0.043742158 5.065352e-39 294 276
-0.0303765 0.69300002 -0.043742158 5.065352e-39 295 276
-0.029161438 0.69300002 -0.043742158 6.4407265e-39 296 276
-0.027946379 0.69300002 -0.043742158 6.6251177e-39 297 276
-0.026654173 0.69099998 -0.043615919 7.6335061e-39 298 276
-0.025442619 0.69099998 -0.043615919 7.4491149e-39 299 276
-0.024231065 0.69099998 -0.043615919 8.2723959e-39 300 276
-0.023019511 0.69099998 -0.043615919 7.3500795e-39 301 276
-0.021807959 0.69099998 -0.043615919 9.4756209e-39 302 276
-0.020596405 0.69099998 -0.043615919 1.4177598e-38 303 276
-0.019384852 0.69099998 -0.043615919 1.2442442e-38 304 276
-0.0181733 0.69099998 -0.043615919 1.2350246e-38 305 276
-0.01701084 0.69300002 -0.043742158 1.2166934e-38 306 276
-0.015795778 0.69300002 -0.043742158 1.2166934e-38 307 276
-0.014580719 0.69300002 -0.043742158 1.2074734e-38 308 276
-0.01336566 0.69300002 -0.043742158 1.2074734e-38 309 276
-0.012150601 0.69300002 -0.043742158 1.2166931e-38 310 276
-0.010935539 0.69300002 -0.043742158 1.2259485e-38 311 276
-0.0097345067 0.69400001 -0.043805279 1.2260204e-38 312 276
-0.0080144862 0.653 -0.041217357 1.2536791e-38 313 276
-0.0068590399 0.65200001 -0.041154239 1.2169087e-38 314 276
-0.0057158666 0.65200001 -0.041154239 1.2076533e-38 315 276
-0.0045726933 0.65200001 -0.041154239 1.2257683e-38 316 276
-0.0034295199 0.65200001 -0.041154239 1.1335368e-38 317 276
-0.0022863466 0.65200001 -0.041154239 1.1414249e-38 318 276
-0.0011431733 0.65200001 -0.041154239 1.1137663e-38 319 276
0 0.65200001 -0.041154239 1.021966e-38 320 276
0.0011431733 0.65200001 -0.041154239 1.1510397e-38 321 276
0.0022898533 0.653 -0.041217357 1.2165472e-38 322 276
0.0034347798 0.653 -0.041217357 1.2165472e-38 323 276
0.0045797066 0.653 -0.041217357 1.2067158e-38 324 276
0.0057246331 0.653 -0.041217357 7.2729871e-39 325 276
0.0068695596 0.653 -0.041217357 8.1819982e-39 326 276
0.0080144862 0.653 -0.041217357 9.472737e-39 327 276
0.0091594132 0.653 -0.041217357 8.0995191e-39 328 276
0.011266919 0.71399999 -0.045067675 8.1917162e-39 329 276
