# .PCD v.7 - Point Cloud Data file format
FIELDS x y z rgb imX imY
SIZE 4 4 4 4 4 4
TYPE F F F F F F
COUNT 1 1 1 1 1 1
WIDTH 836
HEIGHT 1
VIEWPOINT 0 0 0 1 0 0 0
POINTS 836
DATA ascii
0.034070771 0.69400001 -0.019469013 9.0038457e-39 348 256
0.035389278 0.69599998 -0.019525118 9.0038457e-39 349 256
0.036662199 0.69700003 -0.019553173 9.0034898e-39 350 256
0.037938625 0.69800001 -0.019581227 9.0034898e-39 351 256
0.039274666 0.69999999 -0.019637333 8.730486e-39 352 256
0.040502001 0.69999999 -0.019637333 9.283301e-39 353 256
0.041908171 0.70300001 -0.019721493 1.0667307e-38 354 256
0.043202132 0.704 -0.019749546 1.5645872e-38 355 256
0.044562716 0.70599997 -0.019805651 1.4741908e-38 356 256
0.04580057 0.70599997 -0.019805651 1.6216679e-38 357 256
-0.035948593 0.70700002 -0.021073313 1.6403244e-38 291 257
-0.034708988 0.70700002 -0.021073313 1.6033019e-38 292 257
-0.033422034 0.70599997 -0.021043506 1.4004357e-38 293 257
-0.032184184 0.70599997 -0.021043506 1.1406327e-38 294 257
-0.030946331 0.70599997 -0.021043506 1.1129381e-38 295 257
-0.029624319 0.704 -0.020983893 1.1589639e-38 296 257
-0.028389972 0.704 -0.020983893 1.24194e-38 297 257
-0.027117053 0.70300001 -0.020954086 1.1964183e-38 298 257
-0.025810819 0.70099998 -0.020894472 1.1687237e-38 299 257
-0.024476532 0.69800001 -0.020805053 1.1594677e-38 300 257
-0.023219392 0.69700003 -0.020775247 1.1318092e-38 301 257
-0.021902639 0.69400001 -0.020685827 1.1317366e-38 302 257
-0.020656019 0.69300002 -0.020656019 1.0579801e-38 303 257
-0.01944096 0.69300002 -0.020656019 1.020563e-38 304 257
-0.0181733 0.69099998 -0.020596405 9.2836724e-39 305 257
-0.0169372 0.69 -0.020566599 1.1137313e-38 306 257
-0.015727401 0.69 -0.020566599 1.3810986e-38 307 257
-0.014475521 0.68800002 -0.020506985 1.3175693e-38 308 257
-0.013269227 0.68800002 -0.020506985 9.1190857e-39 309 257
-0.012045399 0.68699998 -0.020477179 8.6325591e-39 310 257
-0.010840859 0.68699998 -0.020477179 8.724396e-39 311 257
-0.0096363192 0.68699998 -0.020477179 9.0917295e-39 312 257
-0.0084195063 0.68599999 -0.020447372 8.9998926e-39 313 257
-0.0072167199 0.68599999 -0.020447372 8.6325436e-39 314 257
-0.0059964 0.68400002 -0.020387759 8.5407067e-39 315 257
-0.0047971201 0.68400002 -0.020387759 8.8162104e-39 316 257
-0.0035925799 0.68300003 -0.020357953 9.0917211e-39 317 257
-0.0023950534 0.68300003 -0.020357953 8.7243749e-39 318 257
-0.0011975267 0.68300003 -0.020357953 8.4488656e-39 319 257
0 0.68300003 -0.020357953 1.0396498e-38 320 257
0.0011975267 0.68300003 -0.020357953 1.2793945e-38 321 257
0.0023950534 0.68300003 -0.020357953 1.3268605e-38 322 257
0.0035925799 0.68300003 -0.020357953 1.1425051e-38 323 257
0.0047901068 0.68300003 -0.020357953 1.0032039e-38 324 257
0.0059876335 0.68300003 -0.020357953 6.0676252e-39 325 257
0.0071851597 0.68300003 -0.020357953 9.2764697e-39 326 257
0.0083826864 0.68300003 -0.020357953 9.1842741e-39 327 257
0.0095802136 0.68300003 -0.020357953 8.9998786e-39 328 257
0.01077774 0.68300003 -0.020357953 8.9998786e-39 329 257
0.011975267 0.68300003 -0.020357953 9.0924316e-39 330 257
0.013172794 0.68300003 -0.020357953 9.0924316e-39 331 257
0.014370319 0.68300003 -0.020357953 8.9087606e-39 332 257
0.01559064 0.68400002 -0.020387759 8.9087606e-39 333 257
0.016789921 0.68400002 -0.020387759 8.7243721e-39 334 257
0.0179892 0.68400002 -0.020387759 1.0197702e-38 335 257
0.01918848 0.68400002 -0.020387759 1.1506792e-38 336 257
0.020447372 0.68599999 -0.020447372 1.3166673e-38 337 257
0.021650158 0.68599999 -0.020447372 1.1691187e-38 338 257
0.022852944 0.68599999 -0.020447372 6.4360363e-39 339 257
0.024090799 0.68699998 -0.020477179 8.8162076e-39 340 257
0.025295338 0.68699998 -0.020477179 9.6427327e-39 341 257
0.026499879 0.68699998 -0.020477179 8.9080515e-39 342 257
0.027744746 0.68800002 -0.020506985 8.9998884e-39 343 257
0.028951041 0.68800002 -0.020506985 8.9091291e-39 344 257
0.030288832 0.69099998 -0.020596405 9.0935218e-39 345 257
0.031591557 0.69300002 -0.020656019 9.0942435e-39 346 257
0.03280662 0.69300002 -0.020656019 9.0942435e-39 347 257
0.034070771 0.69400001 -0.020685827 9.0038457e-39 348 257
0.035389278 0.69599998 -0.020745439 8.9116501e-39 349 257
0.036662199 0.69700003 -0.020775247 8.8201747e-39 350 257
0.037938625 0.69800001 -0.020805053 8.8201747e-39 351 257
0.039274666 0.69999999 -0.020864666 8.823046e-39 352 257
0.040559858 0.70099998 -0.020894472 9.8371965e-39 353 257
0.041908171 0.70300001 -0.020954086 1.067163e-38 354 257
0.043202132 0.704 -0.020983893 1.5004465e-38 355 257
0.044562716 0.70599997 -0.021043506 1.4742631e-38 356 257
0.04580057 0.70599997 -0.021043506 1.6125565e-38 357 257
-0.03599944 0.708 -0.022344479 1.6494718e-38 291 258
-0.034758076 0.708 -0.022344479 1.630853e-38 292 258
-0.033469379 0.70700002 -0.022312919 1.4372422e-38 293 258
-0.032229774 0.70700002 -0.022312919 1.1499239e-38 294 258
-0.030990168 0.70700002 -0.022312919 1.0761674e-38 295 258
-0.029708479 0.70599997 -0.022281358 1.1310176e-38 296 258
-0.028389972 0.704 -0.022218239 1.2324688e-38 297 258
-0.027117053 0.70300001 -0.02218668 1.1686521e-38 298 258
-0.025810819 0.70099998 -0.022123558 1.1502128e-38 299 258
-0.024546666 0.69999999 -0.022091998 1.131881e-38 300 258
-0.023252707 0.69800001 -0.02202888 1.131881e-38 301 258
-0.021965759 0.69599998 -0.021965759 1.1224098e-38 302 258
-0.020685827 0.69400001 -0.021902639 1.0486532e-38 303 258
-0.01944096 0.69300002 -0.021871079 1.0120274e-38 304 258
-0.0181733 0.69099998 -0.021807959 1.1318457e-38 305 258
-0.0169372 0.69 -0.021776399 1.2434161e-38 306 258
-0.015727401 0.69 -0.021776399 1.3263923e-38 307 258
-0.014475521 0.68800002 -0.021713281 1.2346279e-38 308 258
-0.013269227 0.68800002 -0.021713281 8.0134444e-39 309 258
-0.012062933 0.68800002 -0.021713281 7.8060172e-39 310 258
-0.010840859 0.68699998 -0.021681719 8.9080599e-39 311 258
-0.0096363192 0.68699998 -0.021681719 8.9080599e-39 312 258
-0.0084317802 0.68699998 -0.021681719 8.816223e-39 313 258
-0.0072167199 0.68599999 -0.021650158 8.7243819e-39 314 258
-0.0060139326 0.68599999 -0.021650158 8.6325436e-39 315 258
-0.0048111463 0.68599999 -0.021650158 8.8162118e-39 316 258
-0.00359784 0.68400002 -0.02158704 8.9080501e-39 317 258
-0.0023950534 0.68300003 -0.02155548 8.4488656e-39 318 258
-0.0011975267 0.68300003 -0.02155548 8.0815237e-39 319 258
0 0.68300003 -0.02155548 9.3834224e-39 320 258
0.0011975267 0.68300003 -0.02155548 1.2887215e-38 321 258
0.0023950534 0.68300003 -0.02155548 1.2993448e-38 322 258
0.0035925799 0.68300003 -0.02155548 9.9513505e-39 323 258
0.0047901068 0.68300003 -0.02155548 8.4625409e-39 324 258
0.0059876335 0.68300003 -0.02155548 5.5126409e-39 325 258
0.0071851597 0.68300003 -0.02155548 8.7243721e-39 326 258
0.0083826864 0.68300003 -0.02155548 9.4597792e-39 327 258
0.0095802136 0.68300003 -0.02155548 8.8169279e-39 328 258
0.01077774 0.68300003 -0.02155548 8.8169279e-39 329 258
0.011975267 0.68300003 -0.02155548 8.9087606e-39 330 258
0.013172794 0.68300003 -0.02155548 9.0927917e-39 331 258
0.01439136 0.68400002 -0.02158704 8.9094823e-39 332 258
0.01559064 0.68400002 -0.02158704 8.8169279e-39 333 258
0.016839013 0.68599999 -0.021650158 8.5407011e-39 334 258
0.018041799 0.68599999 -0.021650158 1.0194827e-38 335 258
0.019244585 0.68599999 -0.021650158 1.104869e-38 336 258
0.020447372 0.68599999 -0.021650158 1.2155038e-38 337 258
0.021681719 0.68699998 -0.021681719 1.1049408e-38 338 258
0.022886258 0.68699998 -0.021681719 5.794257e-39 339 258
0.024090799 0.68699998 -0.021681719 8.6325366e-39 340 258
0.02533216 0.68800002 -0.021713281 9.5512587e-39 341 258
0.026538454 0.68800002 -0.021713281 8.9080515e-39 342 258
0.027825398 0.69 -0.021776399 9.0917253e-39 343 258
0.029035198 0.69 -0.021776399 8.9098452e-39 344 258
0.030288832 0.69099998 -0.021807959 9.0020422e-39 345 258
0.031591557 0.69300002 -0.021871079 9.0942407e-39 346 258
0.032853961 0.69400001 -0.021902639 9.1864363e-39 347 258
0.034168959 0.69599998 -0.021965759 9.0038429e-39 348 258
0.035440128 0.69700003 -0.02199732 9.0960385e-39 349 258
0.0367148 0.69800001 -0.02202888 8.9116445e-39 350 258
0.038047329 0.69999999 -0.022091998 9.0038401e-39 351 258
0.039330769 0.70099998 -0.022123558 8.9170353e-39 352 258
0.040675577 0.70300001 -0.02218668 9.7467959e-39 353 258
0.041967787 0.704 -0.022218239 9.8487026e-39 354 258
0.043324865 0.70599997 -0.022281358 1.390531e-38 355 258
0.044562716 0.70599997 -0.022281358 1.4375288e-38 356 258
0.04580057 0.70599997 -0.022281358 1.5850776e-38 357 258
-0.03599944 0.708 -0.023585839 1.6493637e-38 291 259
-0.034758076 0.708 -0.023585839 1.6032301e-38 292 259
-0.033516716 0.708 -0.023585839 1.4372419e-38 293 259
-0.03227536 0.708 -0.023585839 1.1500688e-38 294 259
-0.030990168 0.70700002 -0.023552528 1.0670927e-38 295 259
-0.029708479 0.70599997 -0.023519212 1.1494219e-38 296 259
-0.028349647 0.70300001 -0.023419274 1.1955197e-38 297 259
-0.027117053 0.70300001 -0.023419274 1.1223027e-38 298 259
-0.025810819 0.70099998 -0.023352645 1.1591451e-38 299 259
-0.024546666 0.69999999 -0.023319334 1.1501053e-38 300 259
-0.023252707 0.69800001 -0.023252707 1.1040435e-38 301 259
-0.021965759 0.69599998 -0.023186078 1.103828e-38 302 259
-0.020685827 0.69400001 -0.023119451 1.0946085e-38 303 259
-0.019469013 0.69400001 -0.023119451 1.1229508e-38 304 259
-0.018225901 0.69300002 -0.02308614 1.3350007e-38 305 259
-0.016961746 0.69099998 -0.023019511 1.3361144e-38 306 259
-0.015727401 0.69 -0.022986198 1.3637371e-38 307 259
-0.014517599 0.69 -0.022986198 1.2713231e-38 308 259
-0.013269227 0.68800002 -0.022919573 8.5644293e-39 309 259
-0.012062933 0.68800002 -0.022919573 8.2651947e-39 310 259
-0.010840859 0.68699998 -0.022886258 8.2651947e-39 311 259
-0.0096363192 0.68699998 -0.022886258 9.5508986e-39 312 259
-0.0084317802 0.68699998 -0.022886258 9.3672248e-39 313 259
-0.0072272392 0.68699998 -0.022886258 8.9080431e-39 314 259
-0.0060226996 0.68699998 -0.022886258 8.9998786e-39 315 259
-0.0048111463 0.68599999 -0.022852944 9.1835496e-39 316 259
-0.00360836 0.68599999 -0.022852944 9.0917141e-39 317 259
-0.0023985601 0.68400002 -0.022786319 8.0815461e-39 318 259
-0.00119928 0.68400002 -0.022786319 7.8060368e-39 319 259
0 0.68400002 -0.022786319 9.5728836e-39 320 259
0.00119928 0.68400002 -0.022786319 1.2154361e-38 321 259
0.0023985601 0.68400002 -0.022786319 1.2163673e-38 322 259
0.00359784 0.68400002 -0.022786319 1.0688184e-38 323 259
0.0047901068 0.68300003 -0.022753006 8.9242099e-39 324 259
0.0059876335 0.68300003 -0.022753006 6.3427477e-39 325 259
0.0071851597 0.68300003 -0.022753006 7.9896882e-39 326 259
0.0083826864 0.68300003 -0.022753006 8.9080431e-39 327 259
0.0095802136 0.68300003 -0.022753006 9.2753865e-39 328 259
0.01077774 0.68300003 -0.022753006 9.3672234e-39 329 259
0.011975267 0.68300003 -0.022753006 8.8169279e-39 330 259
0.01319208 0.68400002 -0.022786319 8.9094823e-39 331 259
0.01439136 0.68400002 -0.022786319 9.0023954e-39 332 259
0.015636226 0.68599999 -0.022852944 8.7261672e-39 333 259
0.016839013 0.68599999 -0.022852944 7.9896882e-39 334 259
0.018041799 0.68599999 -0.022852944 1.0197697e-38 335 259
0.019272638 0.68699998 -0.022886258 1.1143404e-38 336 259
0.020477179 0.68699998 -0.022886258 1.1788774e-38 337 259
0.021681719 0.68699998 -0.022886258 1.1143745e-38 338 259
0.022886258 0.68699998 -0.022886258 8.1931245e-39 339 259
0.024125867 0.68800002 -0.022919573 9.1860607e-39 340 259
0.02533216 0.68800002 -0.022919573 8.5407011e-39 341 259
0.026538454 0.68800002 -0.022919573 8.6325408e-39 342 259
0.027825398 0.69 -0.022986198 8.8162146e-39 343 259
0.029077278 0.69099998 -0.023019511 8.7258169e-39 344 259
0.0303765 0.69300002 -0.02308614 8.909848e-39 345 259
0.031637147 0.69400001 -0.023119451 8.9116473e-39 346 259
0.032853961 0.69400001 -0.023119451 8.9116473e-39 347 259
0.034168959 0.69599998 -0.023186078 8.9116473e-39 348 259
0.035440128 0.69700003 -0.023219392 9.0038429e-39 349 259
0.036819998 0.69999999 -0.023319334 8.9134479e-39 350 259
0.038101684 0.70099998 -0.023352645 9.005645e-39 351 259
0.039330769 0.70099998 -0.023352645 8.6433392e-39 352 259
0.040675577 0.70300001 -0.023419274 1.0026274e-38 353 259
0.041967787 0.704 -0.023452586 9.2080177e-39 354 259
0.043324865 0.70599997 -0.023519212 1.3172431e-38 355 259
0.044625837 0.70700002 -0.023552528 1.4650431e-38 356 259
0.045865446 0.70700002 -0.023552528 1.5848974e-38 357 259
-0.036101133 0.70999998 -0.024897331 1.6494718e-38 291 260
-0.034856264 0.70999998 -0.024897331 1.630853e-38 292 260
-0.033516716 0.708 -0.024827199 1.4556813e-38 293 260
-0.03227536 0.708 -0.024827199 1.1408489e-38 294 260
-0.031034 0.708 -0.024827199 1.0578729e-38 295 260
-0.029708479 0.70599997 -0.024757065 1.1309457e-38 296 260
-0.028349647 0.70300001 -0.024651866 1.1494207e-38 297 260
-0.027117053 0.70300001 -0.024651866 1.131198e-38 298 260
-0.025810819 0.70099998 -0.024581732 1.1496372e-38 299 260
-0.024546666 0.69999999 -0.024546666 1.1129031e-38 300 260
-0.023252707 0.69800001 -0.024476532 1.0760249e-38 301 260
-0.02199732 0.69700003 -0.024441468 1.1032162e-38 302 260
-0.020745439 0.69599998 -0.0244064 1.1216914e-38 303 260
-0.019469013 0.69400001 -0.024336265 1.2520966e-38 304 260
-0.018225901 0.69300002 -0.024301201 1.5102444e-38 305 260
-0.01701084 0.69300002 -0.024301201 1.3825016e-38 306 260
-0.015750192 0.69099998 -0.024231065 1.3455873e-38 307 260
-0.014517599 0.69 -0.024195999 1.3454059e-38 308 260
-0.0133078 0.69 -0.024195999 1.0780385e-38 309 260
-0.012062933 0.68800002 -0.024125867 9.9318976e-39 310 260
-0.010856641 0.68800002 -0.024125867 8.3642118e-39 311 260
-0.0096363192 0.68699998 -0.024090799 9.7464498e-39 312 260
-0.0084317802 0.68699998 -0.024090799 1.1405971e-38 313 260
-0.0072272392 0.68699998 -0.024090799 1.0387879e-38 314 260
-0.0060226996 0.68699998 -0.024090799 7.9904323e-39 315 260
-0.0048181596 0.68699998 -0.024090799 8.7243763e-39 316 260
-0.00360836 0.68599999 -0.024055731 1.038031e-38 317 260
-0.0024055731 0.68599999 -0.024055731 1.0492297e-38 318 260
-0.0012027866 0.68599999 -0.024055731 1.25206e-38 319 260
0 0.68599999 -0.024055731 1.1614479e-38 320 260
0.0012027866 0.68599999 -0.024055731 1.2075457e-38 321 260
0.0024055731 0.68599999 -0.024055731 1.2534627e-38 322 260
0.00359784 0.68400002 -0.0239856 1.225768e-38 323 260
0.0047971201 0.68400002 -0.0239856 1.2526695e-38 324 260
0.0059964 0.68400002 -0.0239856 1.095901e-38 325 260
0.0071956799 0.68400002 -0.0239856 1.0396469e-38 326 260
0.0083826864 0.68300003 -0.023950534 6.4320721e-39 327 260
0.0095802136 0.68300003 -0.023950534 9.2753851e-39 328 260
0.01077774 0.68300003 -0.023950534 9.5516091e-39 329 260
0.011975267 0.68300003 -0.023950534 8.8169335e-39 330 260
0.01319208 0.68400002 -0.0239856 8.9091291e-39 331 260
0.01443344 0.68599999 -0.024055731 8.4488699e-39 332 260
0.015636226 0.68599999 -0.024055731 9.5544985e-39 333 260
0.016839013 0.68599999 -0.024055731 9.5681696e-39 334 260
0.018041799 0.68599999 -0.024055731 1.2057452e-38 335 260
0.019272638 0.68699998 -0.024090799 1.1977854e-38 336 260
0.020477179 0.68699998 -0.024090799 1.2531027e-38 337 260
0.021681719 0.68699998 -0.024090799 1.2529213e-38 338 260
0.022886258 0.68699998 -0.024090799 1.1606898e-38 339 260
0.024125867 0.68800002 -0.024125867 1.0854929e-38 340 260
0.02533216 0.68800002 -0.024125867 6.6135907e-39 341 260
0.026615599 0.69 -0.024195999 8.4488656e-39 342 260
0.027865725 0.69099998 -0.024231065 9.0927945e-39 343 260
0.029077278 0.69099998 -0.024231065 8.6332625e-39 344 260
0.0303765 0.69300002 -0.024301201 8.909848e-39 345 260
0.031637147 0.69400001 -0.024336265 9.0020422e-39 346 260
0.032853961 0.69400001 -0.024336265 9.2789879e-39 347 260
0.034168959 0.69599998 -0.0244064 8.8205306e-39 348 260
0.035440128 0.69700003 -0.024441468 9.1889544e-39 349 260
0.036819998 0.69999999 -0.024546666 8.8237648e-39 350 260
0.038101684 0.70099998 -0.024581732 9.0085148e-39 351 260
0.039330769 0.70099998 -0.024581732 8.3699767e-39 352 260
0.040733438 0.704 -0.024686933 8.8309549e-39 353 260
0.042087011 0.70599997 -0.024757065 7.7386371e-39 354 260
0.043386232 0.70700002 -0.024792133 1.2163667e-38 355 260
0.044688959 0.708 -0.024827199 1.4742628e-38 356 260
0.045930319 0.708 -0.024827199 1.5756779e-38 357 260
-0.036101133 0.70999998 -0.026142199 1.6309604e-38 291 261
-0.034856264 0.70999998 -0.026142199 1.5940468e-38 292 261
-0.033611398 0.70999998 -0.026142199 1.4557532e-38 293 261
-0.03227536 0.708 -0.026068559 1.1501409e-38 294 261
-0.031034 0.708 -0.026068559 1.067129e-38 295 261
-0.029750559 0.70700002 -0.02603174 1.1677166e-38 296 261
-0.028389972 0.704 -0.02592128 1.1492775e-38 297 261
-0.027117053 0.70300001 -0.025884461 1.1216914e-38 298 261
-0.025810819 0.70099998 -0.025810819 1.1216914e-38 299 261
-0.024546666 0.69999999 -0.025773998 1.1031093e-38 300 261
-0.023252707 0.69800001 -0.025700359 1.0570116e-38 301 261
-0.02199732 0.69700003 -0.025663542 1.0201685e-38 302 261
-0.020775247 0.69700003 -0.025663542 1.0293881e-38 303 261
-0.019525118 0.69599998 -0.025626717 1.1875953e-38 304 261
-0.0182522 0.69400001 -0.025553079 1.51028e-38 305 261
-0.01701084 0.69300002 -0.02551626 1.3640988e-38 306 261
-0.015750192 0.69099998 -0.025442619 1.3364401e-38 307 261
-0.014538639 0.69099998 -0.025442619 1.3640618e-38 308 261
-0.0133078 0.69 -0.025405798 1.2073292e-38 309 261
-0.012062933 0.68800002 -0.02533216 1.0673797e-38 310 261
-0.010856641 0.68800002 -0.02533216 8.645493e-39 311 261
-0.0096503468 0.68800002 -0.02533216 1.0760973e-38 312 261
-0.0084317802 0.68699998 -0.025295338 1.4080017e-38 313 261
-0.0072272392 0.68699998 -0.025295338 1.159901e-38 314 261
-0.0060226996 0.68699998 -0.025295338 6.0672734e-39 315 261
-0.0048181596 0.68699998 -0.025295338 8.3584735e-39 316 261
-0.0036136196 0.68699998 -0.025295338 1.0939951e-38 317 261
-0.0024090798 0.68699998 -0.025295338 1.1787704e-38 318 261
-0.0012045399 0.68699998 -0.025295338 1.3723813e-38 319 261
0 0.68699998 -0.025295338 1.2534996e-38 320 261
0.0012045399 0.68699998 -0.025295338 1.2534996e-38 321 261
0.0024055731 0.68599999 -0.025258519 1.2351681e-38 322 261
0.00360836 0.68599999 -0.025258519 1.2351681e-38 323 261
0.0048111463 0.68599999 -0.025258519 1.2993082e-38 324 261
0.0059964 0.68400002 -0.025184879 1.2347712e-38 325 261
0.0071956799 0.68400002 -0.025184879 1.2062471e-38 326 261
0.0083949603 0.68400002 -0.025184879 6.7151231e-39 327 261
0.0095942402 0.68400002 -0.025184879 8.3570302e-39 328 261
0.010825079 0.68599999 -0.025258519 9.0942252e-39 329 261
0.012027865 0.68599999 -0.025258519 8.7258169e-39 330 261
0.013230653 0.68599999 -0.025258519 8.7258169e-39 331 261
0.01443344 0.68599999 -0.025258519 9.1907551e-39 332 261
0.015659019 0.68699998 -0.025295338 1.0481494e-38 333 261
0.01686356 0.68699998 -0.025295338 1.1142338e-38 334 261
0.018068098 0.68699998 -0.025295338 1.2433077e-38 335 261
0.019272638 0.68699998 -0.025295338 1.1980725e-38 336 261
0.020477179 0.68699998 -0.025295338 1.1980725e-38 337 261
0.021713281 0.68800002 -0.02533216 1.2348419e-38 338 261
0.022919573 0.68800002 -0.02533216 1.1795245e-38 339 261
0.024125867 0.68800002 -0.02533216 1.1693689e-38 340 261
0.025405798 0.69 -0.025405798 6.8073202e-39 341 261
0.026615599 0.69 -0.025405798 8.7243721e-39 342 261
0.027865725 0.69099998 -0.025442619 9.0927917e-39 343 261
0.029161438 0.69300002 -0.02551626 8.6332653e-39 344 261
0.030420333 0.69400001 -0.025553079 8.9094921e-39 345 261
0.031637147 0.69400001 -0.025553079 8.6361394e-39 346 261
0.032948639 0.69599998 -0.025626717 9.0045618e-39 347 261
0.034218054 0.69700003 -0.025663542 8.5482569e-39 348 261
0.035490975 0.69800001 -0.025700359 8.9166793e-39 349 261
0.036819998 0.69999999 -0.025773998 8.2767091e-39 350 261
0.038210396 0.70300001 -0.025884461 8.461099e-39 351 261
0.039442986 0.70300001 -0.025884461 7.3623072e-39 352 261
0.040733438 0.704 -0.02592128 8.0076766e-39 353 261
0.042087011 0.70599997 -0.025994917 8.0137919e-39 354 261
0.043386232 0.70700002 -0.02603174 1.2439182e-38 355 261
0.044688959 0.708 -0.026068559 1.4650435e-38 356 261
0.045930319 0.708 -0.026068559 1.5572392e-38 357 261
-0.036151983 0.71100003 -0.027425639 1.6309606e-38 291 262
-0.034905359 0.71100003 -0.027425639 1.5847915e-38 292 262
-0.033516716 0.708 -0.027309919 1.446498e-38 293 262
-0.03227536 0.708 -0.027309919 1.1776914e-38 294 262
-0.031034 0.708 -0.027309919 1.0947154e-38 295 262
-0.029708479 0.70599997 -0.027232772 1.1676797e-38 296 262
-0.028470624 0.70599997 -0.027232772 1.140021e-38 297 262
-0.027155625 0.704 -0.027155625 1.1214746e-38 298 262
-0.025810819 0.70099998 -0.027039904 1.1029996e-38 299 262
-0.024546666 0.69999999 -0.027001332 1.0936011e-38 300 262
-0.023252707 0.69800001 -0.026924185 1.0659424e-38 301 262
-0.02199732 0.69700003 -0.026885614 1.0381755e-38 302 262
-0.020775247 0.69700003 -0.026885614 1.0197364e-38 303 262
-0.019525118 0.69599998 -0.026847038 1.09522e-38 304 262
-0.0182522 0.69400001 -0.026769891 1.4640024e-38 305 262
-0.01701084 0.69300002 -0.02673132 1.3548791e-38 306 262
-0.015795778 0.69300002 -0.02673132 1.3364401e-38 307 262
-0.014580719 0.69300002 -0.02673132 1.318216e-38 308 262
-0.013327086 0.69099998 -0.026654173 1.216765e-38 309 262
-0.012097999 0.69 -0.026615599 1.0956479e-38 310 262
-0.010856641 0.68800002 -0.026538454 8.4671974e-39 311 262
-0.0096503468 0.68800002 -0.026538454 1.1226597e-38 312 262
-0.0084440531 0.68800002 -0.026538454 1.5744182e-38 313 262
-0.0072377604 0.68800002 -0.026538454 1.1880273e-38 314 262
-0.0060314666 0.68800002 -0.026538454 5.8871968e-39 315 262
-0.0048181596 0.68699998 -0.026499879 9.1907579e-39 316 262
-0.0036136196 0.68699998 -0.026499879 1.2325051e-38 317 262
-0.0024090798 0.68699998 -0.026499879 1.2989485e-38 318 262
-0.0012045399 0.68699998 -0.026499879 1.4003637e-38 319 262
0 0.68699998 -0.026499879 1.2534996e-38 320 262
0.0012045399 0.68699998 -0.026499879 1.2442442e-38 321 262
0.0024090798 0.68699998 -0.026499879 1.216765e-38 322 262
0.00360836 0.68599999 -0.026461305 1.216765e-38 323 262
0.0048111463 0.68599999 -0.026461305 1.2442432e-38 324 262
0.0060139326 0.68599999 -0.026461305 1.2534627e-38 325 262
0.0072167199 0.68599999 -0.026461305 1.2621411e-38 326 262
0.0084195063 0.68599999 -0.026461305 7.3659016e-39 327 262
0.0096222926 0.68599999 -0.026461305 8.6361338e-39 328 262
0.010825079 0.68599999 -0.026461305 8.8208838e-39 329 262
0.012027865 0.68599999 -0.026461305 8.9087634e-39 330 262
0.013230653 0.68599999 -0.026461305 8.7243721e-39 331 262
0.014454478 0.68699998 -0.026499879 1.0302135e-38 332 262
0.015659019 0.68699998 -0.026499879 1.3068362e-38 333 262
0.01686356 0.68699998 -0.026499879 1.2992729e-38 334 262
0.018068098 0.68699998 -0.026499879 1.2623945e-38 335 262
0.019300694 0.68800002 -0.026538454 1.1889258e-38 336 262
0.020506985 0.68800002 -0.026538454 1.1797062e-38 337 262
0.021713281 0.68800002 -0.026538454 1.1888175e-38 338 262
0.022919573 0.68800002 -0.026538454 1.1888175e-38 339 262
0.024125867 0.68800002 -0.026538454 1.188314e-38 340 262
0.025405798 0.69 -0.026615599 7.365554e-39 341 262
0.026654173 0.69099998 -0.026654173 9.005289e-39 342 262
0.027865725 0.69099998 -0.026654173 8.6365051e-39 343 262
0.029161438 0.69300002 -0.02673132 8.7254609e-39 344 262
0.030420333 0.69400001 -0.026769891 9.0020478e-39 345 262
0.031728316 0.69599998 -0.026847038 8.5457416e-39 346 262
0.032948639 0.69599998 -0.026847038 9.0985567e-39 347 262
0.034267146 0.69800001 -0.026924185 8.0923193e-39 348 262
0.035592664 0.69999999 -0.027001332 8.4607431e-39 349 262
0.036872596 0.70099998 -0.027039904 7.3615912e-39 350 262
0.038210396 0.70300001 -0.027117053 7.4537868e-39 351 262
0.039499093 0.704 -0.027155625 6.9049332e-39 352 262
0.040733438 0.704 -0.027155625 7.4577469e-39 353 262
0.042087011 0.70599997 -0.027232772 8.1989076e-39 354 262
0.043447599 0.708 -0.027309919 1.2255517e-38 355 262
0.044688959 0.708 -0.027309919 1.4742275e-38 356 262
-0.034758076 0.708 -0.02855128 1.5940468e-38 292 263
-0.033516716 0.708 -0.02855128 1.4557532e-38 293 263
-0.03227536 0.708 -0.02855128 1.177727e-38 294 263
-0.031034 0.708 -0.02855128 1.076312e-38 295 263
-0.029708479 0.70599997 -0.028470624 1.1677153e-38 296 263
-0.028470624 0.70599997 -0.028470624 1.1308011e-38 297 263
-0.027155625 0.704 -0.028389972 1.1121828e-38 298 263
-0.025884461 0.70300001 -0.028349647 1.0844881e-38 299 263
-0.024581732 0.70099998 -0.028268991 1.0843086e-38 300 263
-0.023319334 0.69999999 -0.028228667 1.0659055e-38 301 263
-0.02202888 0.69800001 -0.028148014 1.0198793e-38 302 263
-0.020775247 0.69700003 -0.028107686 9.9222063e-39 303 263
-0.019525118 0.69599998 -0.028067358 9.9337277e-39 304 263
-0.0182522 0.69400001 -0.027986705 1.3990335e-38 305 263
-0.017035386 0.69400001 -0.027986705 1.3272924e-38 306 263
-0.015795778 0.69300002 -0.027946379 1.3180728e-38 307 263
-0.014580719 0.69300002 -0.027946379 1.3365473e-38 308 263
-0.01336566 0.69300002 -0.027946379 1.28123e-38 309 263
-0.012115533 0.69099998 -0.027865725 1.2158632e-38 310 263
-0.010888199 0.69 -0.027825398 1.049911e-38 311 263
-0.0096783992 0.69 -0.027825398 1.1511465e-38 312 263
-0.0084440531 0.68800002 -0.027744746 1.4277334e-38 313 263
-0.0072377604 0.68800002 -0.027744746 1.1330336e-38 314 263
-0.0060314666 0.68800002 -0.027744746 4.5078595e-39 315 263
-0.0048251734 0.68800002 -0.027744746 9.4659155e-39 316 263
-0.0036136196 0.68699998 -0.027704418 1.3522525e-38 317 263
-0.0024090798 0.68699998 -0.027704418 1.2991285e-38 318 263
-0.0012045399 0.68699998 -0.027704418 1.372885e-38 319 263
0 0.68699998 -0.027704418 1.2534993e-38 320 263
0.0012045399 0.68699998 -0.027704418 1.2534993e-38 321 263
0.0024090798 0.68699998 -0.027704418 1.2535709e-38 322 263
0.00360836 0.68599999 -0.027664091 1.2351678e-38 323 263
0.0048111463 0.68599999 -0.027664091 1.2442795e-38 324 263
0.0060139326 0.68599999 -0.027664091 1.253499e-38 325 263
0.0072167199 0.68599999 -0.027664091 1.2716491e-38 326 263
0.0084195063 0.68599999 -0.027664091 8.1989048e-39 327 263
0.0096222926 0.68599999 -0.027664091 9.281506e-39 328 263
0.010825079 0.68599999 -0.027664091 7.9907672e-39 329 263
0.012045399 0.68699998 -0.027704418 8.9080431e-39 330 263
0.013249939 0.68699998 -0.027704418 8.6325366e-39 331 263
0.014454478 0.68699998 -0.027704418 1.0303214e-38 332 263
0.015659019 0.68699998 -0.027704418 1.3530061e-38 333 263
0.01686356 0.68699998 -0.027704418 1.2900889e-38 334 263
0.018068098 0.68699998 -0.027704418 1.2623942e-38 335 263
0.019300694 0.68800002 -0.027744746 1.2072567e-38 336 263
0.020506985 0.68800002 -0.027744746 1.1980372e-38 337 263
0.021713281 0.68800002 -0.027744746 1.1979652e-38 338 263
0.022919573 0.68800002 -0.027744746 1.2256238e-38 339 263
0.024195999 0.69 -0.027825398 1.1792742e-38 340 263
0.025405798 0.69 -0.027825398 7.090765e-39 341 263
0.026654173 0.69099998 -0.027865725 9.0982063e-39 342 263
0.027946379 0.69300002 -0.027946379 8.6372282e-39 343 263
0.029161438 0.69300002 -0.027946379 8.7290539e-39 344 263
0.030420333 0.69400001 -0.027986705 8.9134451e-39 345 263
0.031728316 0.69599998 -0.028067358 8.1823513e-39 346 263
0.032948639 0.69599998 -0.028067358 8.458578e-39 347 263
0.034267146 0.69800001 -0.028148014 7.2683179e-39 348 263
0.035592664 0.69999999 -0.028228667 7.3608723e-39 349 263
0.036872596 0.70099998 -0.028268991 6.6276331e-39 350 263
0.038210396 0.70300001 -0.028349647 6.7201874e-39 351 263
0.039499093 0.704 -0.028389972 6.4475578e-39 352 263
0.040849157 0.70599997 -0.028470624 7.0929272e-39 353 263
0.042146627 0.70700002 -0.028510952 8.4744169e-39 354 263
0.043447599 0.708 -0.02855128 1.262322e-38 355 263
-0.033658739 0.71100003 -0.029918881 1.4465334e-38 293 264
-0.03227536 0.708 -0.02979264 1.1870183e-38 294 264
-0.031034 0.708 -0.02979264 1.0579445e-38 295 264
-0.029750559 0.70700002 -0.029750559 1.1585671e-38 296 264
-0.028470624 0.70599997 -0.029708479 1.1125051e-38 297 264
-0.027155625 0.704 -0.029624319 1.1122179e-38 298 264
-0.025884461 0.70300001 -0.029582238 1.0753036e-38 299 264
-0.024651866 0.70300001 -0.029582238 1.0660124e-38 300 264
-0.023319334 0.69999999 -0.029455997 1.0567929e-38 301 264
-0.02202888 0.69800001 -0.029371841 1.0199865e-38 302 264
-0.020805053 0.69800001 -0.029371841 9.6466914e-39 303 264
-0.019553173 0.69700003 -0.02932976 9.3780232e-39 304 264
-0.018304799 0.69599998 -0.029287677 1.2604512e-38 305 264
-0.017035386 0.69400001 -0.029203519 1.3363309e-38 306 264
-0.015795778 0.69300002 -0.029161438 1.3824286e-38 307 264
-0.014580719 0.69300002 -0.029161438 1.3089965e-38 308 264
-0.01336566 0.69300002 -0.029161438 1.2813019e-38 309 264
-0.012115533 0.69099998 -0.029077278 1.2991648e-38 310 264
-0.010888199 0.69 -0.029035198 1.2070052e-38 311 264
-0.0096783992 0.69 -0.029035198 1.2345563e-38 312 264
-0.0084686 0.69 -0.029035198 1.2990932e-38 313 264
-0.0072587994 0.69 -0.029035198 1.040838e-38 314 264
-0.0060314666 0.68800002 -0.028951041 4.0468799e-39 315 264
-0.0048251734 0.68800002 -0.028951041 9.6503109e-39 316 264
-0.0036188802 0.68800002 -0.028951041 1.4260092e-38 317 264
-0.0024090798 0.68699998 -0.028908957 1.2992378e-38 318 264
-0.0012045399 0.68699998 -0.028908957 1.3545552e-38 319 264
0 0.68699998 -0.028908957 1.2535715e-38 320 264
0.0012062934 0.68800002 -0.028951041 1.2535715e-38 321 264
0.0024090798 0.68699998 -0.028908957 1.2535712e-38 322 264
0.0036136196 0.68699998 -0.028908957 1.2535712e-38 323 264
0.0048181596 0.68699998 -0.028908957 1.2442797e-38 324 264
0.0060226996 0.68699998 -0.028908957 1.2442797e-38 325 264
0.0072272392 0.68699998 -0.028908957 1.2809409e-38 326 264
0.0084317802 0.68699998 -0.028908957 9.2137798e-39 327 264
0.0096363192 0.68699998 -0.028908957 9.7449981e-39 328 264
0.010840859 0.68699998 -0.028908957 6.9794977e-39 329 264
0.012045399 0.68699998 -0.028908957 8.7243721e-39 330 264
0.013249939 0.68699998 -0.028908957 8.4488656e-39 331 264
0.014454478 0.68699998 -0.028908957 1.0302863e-38 332 264
0.015659019 0.68699998 -0.028908957 1.352971e-38 333 264
0.016888106 0.68800002 -0.028951041 1.2625024e-38 334 264
0.0180944 0.68800002 -0.028951041 1.2348078e-38 335 264
0.019300694 0.68800002 -0.028951041 1.1889255e-38 336 264
0.020506985 0.68800002 -0.028951041 1.179706e-38 337 264
0.021776399 0.69 -0.029035198 1.1979652e-38 338 264
0.022986198 0.69 -0.029035198 1.1979652e-38 339 264
0.024195999 0.69 -0.029035198 1.1239573e-38 340 264
0.025442619 0.69099998 -0.029077278 6.6297911e-39 341 264
0.026654173 0.69099998 -0.029077278 8.3642384e-39 342 264
0.027946379 0.69300002 -0.029161438 8.6408239e-39 343 264
0.029161438 0.69300002 -0.029161438 7.8150107e-39 344 264
0.030420333 0.69400001 -0.029203519 7.9072063e-39 345 264
0.031728316 0.69599998 -0.029287677 6.9917268e-39 346 264
0.03299598 0.69700003 -0.02932976 6.9917268e-39 347 264
0.034267146 0.69800001 -0.029371841 6.167378e-39 348 264
0.035592664 0.69999999 -0.029455997 6.2595736e-39 349 264
0.036977798 0.70300001 -0.029582238 5.8943896e-39 350 264
0.038264744 0.704 -0.029624319 6.0787809e-39 351 264
0.039499093 0.704 -0.029624319 6.1738506e-39 352 264
0.040907022 0.70700002 -0.029750559 6.63447e-39 353 264
0.042146627 0.70700002 -0.029750559 8.2903844e-39 354 264
-0.033658739 0.71100003 -0.031165501 1.4557532e-38 293 265
-0.032366529 0.70999998 -0.031121666 1.1598274e-38 294 265
-0.031034 0.708 -0.031034 1.0123144e-38 295 265
-0.029750559 0.70700002 -0.030990168 1.1311608e-38 296 265
-0.028510952 0.70700002 -0.030990168 1.0850269e-38 297 265
-0.027232772 0.70599997 -0.030946331 1.1030349e-38 298 265
-0.02592128 0.704 -0.030858666 1.0661925e-38 299 265
-0.024686933 0.704 -0.030858666 1.0660843e-38 300 265
-0.023352645 0.70099998 -0.030727165 1.0476812e-38 301 265
-0.022091998 0.69999999 -0.030683333 1.0109104e-38 302 265
-0.020805053 0.69800001 -0.030595668 9.6477676e-39 303 265
-0.019581227 0.69800001 -0.030595668 1.0022311e-38 304 265
-0.018331099 0.69700003 -0.030551834 1.2972571e-38 305 265
-0.017084479 0.69599998 -0.030507999 1.3638098e-38 306 265
-0.015818574 0.69400001 -0.030420333 1.4191272e-38 307 265
-0.01460176 0.69400001 -0.030420333 1.3089609e-38 308 265
-0.013384946 0.69400001 -0.030420333 1.2352044e-38 309 265
-0.012150601 0.69300002 -0.0303765 1.2070418e-38 310 265
-0.01090398 0.69099998 -0.030288832 1.2070418e-38 311 265
-0.0096924258 0.69099998 -0.030288832 1.2435239e-38 312 265
-0.008480873 0.69099998 -0.030288832 1.0222542e-38 313 265
-0.0072693196 0.69099998 -0.030288832 9.7565265e-39 314 265
-0.0060489997 0.69 -0.030244999 5.4233319e-39 315 265
-0.0048251734 0.68800002 -0.030157333 9.9276195e-39 316 265
-0.0036188802 0.68800002 -0.030157333 1.435301e-38 317 265
-0.0024125867 0.68800002 -0.030157333 1.3267892e-38 318 265
-0.0012062934 0.68800002 -0.030157333 1.3636316e-38 319 265
0 0.68800002 -0.030157333 1.2717952e-38 320 265
0.0012062934 0.68800002 -0.030157333 1.2810507e-38 321 265
0.0024090798 0.68699998 -0.030113498 1.2627192e-38 322 265
0.0036136196 0.68699998 -0.030113498 1.2627192e-38 323 265
0.0048181596 0.68699998 -0.030113498 1.2534993e-38 324 265
0.0060314666 0.68800002 -0.030157333 1.2350602e-38 325 265
0.0072377604 0.68800002 -0.030157333 1.2809053e-38 326 265
0.0084440531 0.68800002 -0.030157333 1.0412326e-38 327 265
0.0096363192 0.68699998 -0.030113498 1.0301772e-38 328 265
0.010840859 0.68699998 -0.030113498 6.9827291e-39 329 265
0.012045399 0.68699998 -0.030113498 8.7243777e-39 330 265
0.013269227 0.68800002 -0.030157333 8.5407025e-39 331 265
0.014475521 0.68800002 -0.030157333 1.0301431e-38 332 265
0.015681813 0.68800002 -0.030157333 1.3252052e-38 333 265
0.016888106 0.68800002 -0.030157333 1.2901252e-38 334 265
0.0180944 0.68800002 -0.030157333 1.2440274e-38 335 265
0.019300694 0.68800002 -0.030157333 1.1980372e-38 336 265
0.020566599 0.69 -0.030244999 1.2072567e-38 337 265
0.021776399 0.69 -0.030244999 1.1887453e-38 338 265
0.022986198 0.69 -0.030244999 1.1610866e-38 339 265
0.024231065 0.69099998 -0.030288832 1.0777513e-38 340 265
0.025442619 0.69099998 -0.030288832 6.1677311e-39 341 265
0.026654173 0.69099998 -0.030288832 7.7246284e-39 342 265
0.027946379 0.69300002 -0.0303765 7.909021e-39 343 265
0.029203519 0.69400001 -0.030420333 6.9913765e-39 344 265
0.030507999 0.69599998 -0.030507999 6.8991809e-39 345 265
0.03177391 0.69700003 -0.030551834 6.2581303e-39 346 265
0.033043321 0.69800001 -0.030595668 6.3503259e-39 347 265
0.034365334 0.69999999 -0.030683333 5.8925918e-39 348 265
0.035643511 0.70099998 -0.030727165 6.076983e-39 349 265
0.036977798 0.70300001 -0.030814834 5.8039919e-39 350 265
0.038264744 0.704 -0.030858666 5.9883845e-39 351 265
0.039611302 0.70599997 -0.030946331 6.6330239e-39 352 265
0.040907022 0.70700002 -0.030990168 6.7252209e-39 353 265
0.042146627 0.70700002 -0.030990168 8.2903816e-39 354 265
-0.033611398 0.70999998 -0.032366529 1.4558966e-38 293 266
-0.032366529 0.70999998 -0.032366529 1.1141256e-38 294 266
-0.031034 0.708 -0.03227536 9.8505172e-39 295 266
-0.02979264 0.708 -0.03227536 1.0673428e-38 296 266
-0.02855128 0.708 -0.03227536 1.0028059e-38 297 266
-0.027232772 0.70599997 -0.032184184 1.0575468e-38 298 266
-0.02592128 0.704 -0.032093015 1.0022294e-38 299 266
-0.024686933 0.704 -0.032093015 1.0570796e-38 300 266
-0.023352645 0.70099998 -0.031956252 1.0202015e-38 301 266
-0.022091998 0.69999999 -0.031910665 1.0109099e-38 302 266
-0.020805053 0.69800001 -0.031819493 9.4637294e-39 303 266
-0.019581227 0.69800001 -0.031819493 1.0299973e-38 304 266
-0.018331099 0.69700003 -0.03177391 1.334243e-38 305 266
-0.017084479 0.69599998 -0.031728316 1.3546621e-38 306 266
-0.015818574 0.69400001 -0.031637147 1.3915763e-38 307 266
-0.01460176 0.69400001 -0.031637147 1.336512e-38 308 266
-0.013384946 0.69400001 -0.031637147 1.2259132e-38 309 266
-0.012150601 0.69300002 -0.031591557 1.1239217e-38 310 266
-0.010935539 0.69300002 -0.031591557 1.0501652e-38 311 266
-0.0096924258 0.69099998 -0.031500384 1.1874487e-38 312 266
-0.008480873 0.69099998 -0.031500384 9.8461816e-39 313 266
-0.0072693196 0.69099998 -0.031500384 9.3740547e-39 314 266
-0.0060489997 0.69 -0.031454802 8.4517383e-39 315 266
-0.0048251734 0.68800002 -0.031363625 9.6528305e-39 316 266
-0.0036188802 0.68800002 -0.031363625 1.2879319e-38 317 266
-0.0024125867 0.68800002 -0.031363625 1.1884248e-38 318 266
-0.0012062934 0.68800002 -0.031363625 1.3082792e-38 319 266
0 0.68800002 -0.031363625 1.2903069e-38 320 266
0.0012062934 0.68800002 -0.031363625 1.2719037e-38 321 266
0.0024125867 0.68800002 -0.031363625 1.2902699e-38 322 266
0.0036188802 0.68800002 -0.031363625 1.2902699e-38 323 266
0.0048251734 0.68800002 -0.031363625 1.2718661e-38 324 266
0.0060314666 0.68800002 -0.031363625 1.2442076e-38 325 266
0.0072377604 0.68800002 -0.031363625 1.2808689e-38 326 266
0.0084440531 0.68800002 -0.031363625 1.151795e-38 327 266
0.0096503468 0.68800002 -0.031363625 1.0675593e-38 328 266
0.010856641 0.68800002 -0.031363625 6.434593e-39 329 266
0.012062933 0.68800002 -0.031363625 8.5407152e-39 330 266
0.013269227 0.68800002 -0.031363625 9.0009744e-39 331 266
0.014475521 0.68800002 -0.031363625 9.4731209e-39 332 266
0.015681813 0.68800002 -0.031363625 1.1778013e-38 333 266
0.0169372 0.69 -0.031454802 1.1793838e-38 334 266
0.018146999 0.69 -0.031454802 1.2254816e-38 335 266
0.019356798 0.69 -0.031454802 1.1797778e-38 336 266
0.020596405 0.69099998 -0.031500384 1.1797778e-38 337 266
0.021807959 0.69099998 -0.031500384 1.2348066e-38 338 266
0.023019511 0.69099998 -0.031500384 1.1978923e-38 339 266
0.024231065 0.69099998 -0.031500384 1.0316537e-38 340 266
0.02551626 0.69300002 -0.031591557 5.9829825e-39 341 266
0.02673132 0.69300002 -0.031591557 6.3499728e-39 342 266
0.027946379 0.69300002 -0.031591557 6.3499728e-39 343 266
0.029203519 0.69400001 -0.031637147 5.7996731e-39 344 266
0.030507999 0.69599998 -0.031728316 5.7996731e-39 345 266
0.03177391 0.69700003 -0.03177391 5.3412159e-39 346 266
0.033043321 0.69800001 -0.031819493 5.4334115e-39 347 266
0.034365334 0.69999999 -0.031910665 5.3430151e-39 348 266
0.035643511 0.70099998 -0.031956252 5.6192419e-39 349 266
0.036977798 0.70300001 -0.032047424 5.7121592e-39 350 266
0.038264744 0.704 -0.032093015 5.8965518e-39 351 266
0.039611302 0.70599997 -0.032184184 5.8983525e-39 352 266
0.040907022 0.70700002 -0.032229774 5.9905481e-39 353 266
0.042146627 0.70700002 -0.032229774 8.2903872e-39 354 266
-0.033658739 0.71100003 -0.033658739 1.4467133e-38 293 267
-0.032366529 0.70999998 -0.033611398 1.0224344e-38 294 267
-0.031121666 0.70999998 -0.033611398 9.1179969e-39 295 267
-0.02979264 0.708 -0.033516716 9.7579657e-39 296 267
-0.02855128 0.708 -0.033516716 9.2051506e-39 297 267
-0.027271347 0.70700002 -0.033469379 9.8429614e-39 298 267
-0.025994917 0.70599997 -0.033422034 9.5663731e-39 299 267
-0.024686933 0.704 -0.03332736 9.9311942e-39 300 267
-0.023352645 0.70099998 -0.03318534 9.7464442e-39 301 267
-0.022091998 0.69999999 -0.033137999 9.7435631e-39 302 267
-0.020864666 0.69999999 -0.033137999 9.2822248e-39 303 267
-0.019581227 0.69800001 -0.033043321 1.0393983e-38 304 267
-0.0183574 0.69800001 -0.033043321 1.3344603e-38 305 267
-0.017109027 0.69700003 -0.03299598 1.3822861e-38 306 267
-0.015864158 0.69599998 -0.032948639 1.3915056e-38 307 267
-0.01460176 0.69400001 -0.032853961 1.336512e-38 308 267
-0.013384946 0.69400001 -0.032853961 1.2074382e-38 309 267
-0.012150601 0.69300002 -0.03280662 1.0408007e-38 310 267
-0.010935539 0.69300002 -0.03280662 5.3372474e-39 311 267
-0.0097204801 0.69300002 -0.03280662 8.8162076e-39 312 267
-0.008480873 0.69099998 -0.032711938 1.019483e-38 313 267
-0.0072693196 0.69099998 -0.032711938 9.5559475e-39 314 267
-0.0060577663 0.69099998 -0.032711938 9.3711961e-39 315 267
-0.0048391996 0.69 -0.032664597 8.6368835e-39 316 267
-0.0036188802 0.68800002 -0.032569919 9.1896985e-39 317 267
-0.0024125867 0.68800002 -0.032569919 8.5587218e-39 318 267
-0.0012062934 0.68800002 -0.032569919 1.196996e-38 319 267
0 0.69 -0.032664597 1.2719031e-38 320 267
0.0012097999 0.69 -0.032664597 1.2903421e-38 321 267
0.0024125867 0.68800002 -0.032569919 1.2902699e-38 322 267
0.0036188802 0.68800002 -0.032569919 1.2902699e-38 323 267
0.0048391996 0.69 -0.032664597 1.2718305e-38 324 267
0.0060489997 0.69 -0.032664597 1.2718305e-38 325 267
0.0072587994 0.69 -0.032664597 1.2992729e-38 326 267
0.0084440531 0.68800002 -0.032569919 1.2439555e-38 327 267
0.0096503468 0.68800002 -0.032569919 1.1233086e-38 328 267
0.010856641 0.68800002 -0.032569919 6.9917268e-39 329 267
0.012062933 0.68800002 -0.032569919 8.7322979e-39 330 267
0.013269227 0.68800002 -0.032569919 9.0085246e-39 331 267
0.014475521 0.68800002 -0.032569919 8.1823765e-39 332 267
0.015681813 0.68800002 -0.032569919 9.4731153e-39 333 267
0.0169372 0.69 -0.032664597 1.0042111e-38 334 267
0.018146999 0.69 -0.032664597 1.1701993e-38 335 267
0.019384852 0.69099998 -0.032711938 1.2165485e-38 336 267
0.020596405 0.69099998 -0.032711938 1.2165485e-38 337 267
0.021807959 0.69099998 -0.032711938 1.1889974e-38 338 267
0.02308614 0.69300002 -0.03280662 1.1889974e-38 339 267
0.024301201 0.69300002 -0.03280662 1.0133591e-38 340 267
0.02551626 0.69300002 -0.03280662 5.2472224e-39 341 267
0.02673132 0.69300002 -0.03280662 4.6040194e-39 342 267
0.027946379 0.69300002 -0.03280662 5.4337814e-39 343 267
0.029287677 0.69599998 -0.032948639 5.3408599e-39 344 267
0.030551834 0.69700003 -0.03299598 5.4334157e-39 345 267
0.031819493 0.69800001 -0.033043321 5.3430151e-39 346 267
0.033137999 0.69999999 -0.033137999 5.5270462e-39 347 267
0.034365334 0.69999999 -0.033137999 5.4359296e-39 348 267
0.035745207 0.70300001 -0.033280019 5.5281252e-39 349 267
0.037030395 0.704 -0.03332736 5.8036359e-39 350 267
0.038373452 0.70599997 -0.033422034 5.895833e-39 351 267
0.039667413 0.70700002 -0.033469379 6.5397562e-39 352 267
0.040964879 0.708 -0.033516716 6.5397562e-39 353 267
0.042206239 0.708 -0.033516716 8.0155926e-39 354 267
-0.033658739 0.71100003 -0.034905359 1.4374584e-38 293 268
-0.032366529 0.70999998 -0.034856264 9.9495624e-39 294 268
-0.031121666 0.70999998 -0.034856264 9.1201619e-39 295 268
-0.02979264 0.708 -0.034758076 9.4849745e-39 296 268
-0.02855128 0.708 -0.034758076 8.7474095e-39 297 268
-0.027271347 0.70700002 -0.034708988 8.8367184e-39 298 268
-0.025994917 0.70599997 -0.034659892 8.5601315e-39 299 268
-0.024757065 0.70599997 -0.034659892 8.7420033e-39 300 268
-0.023419274 0.70300001 -0.034512613 8.465415e-39 301 268
-0.022091998 0.69999999 -0.034365334 8.7384089e-39 302 268
-0.020864666 0.69999999 -0.034365334 8.2774308e-39 303 268
-0.019581227 0.69800001 -0.034267146 8.9264184e-39 304 268
-0.0183574 0.69800001 -0.034267146 1.1968515e-38 305 268
-0.017109027 0.69700003 -0.034218054 1.3179659e-38 306 268
-0.015864158 0.69599998 -0.034168959 1.3640637e-38 307 268
-0.01460176 0.69400001 -0.034070771 1.3457319e-38 308 268
-0.013384946 0.69400001 -0.034070771 1.2535362e-38 309 268
-0.012168133 0.69400001 -0.034070771 1.1050502e-38 310 268
-0.010935539 0.69300002 -0.034021679 6.0722985e-39 311 268
-0.0097204801 0.69300002 -0.034021679 8.3570372e-39 312 268
-0.0085054198 0.69300002 -0.034021679 9.8310924e-39 313 268
-0.0072903596 0.69300002 -0.034021679 9.190402e-39 314 268
-0.0060577663 0.69099998 -0.033923492 9.190402e-39 315 268
-0.0048391996 0.69 -0.0338744 8.545048e-39 316 268
-0.0036293997 0.69 -0.0338744 7.5312562e-39 317 268
-0.0024195998 0.69 -0.0338744 8.9242646e-39 318 268
-0.0012097999 0.69 -0.0338744 1.1690133e-38 319 268
0 0.69 -0.0338744 1.2903053e-38 320 268
0.0012097999 0.69 -0.0338744 1.2995248e-38 321 268
0.0024195998 0.69 -0.0338744 1.2719387e-38 322 268
0.0036293997 0.69 -0.0338744 1.2627192e-38 323 268
0.0048391996 0.69 -0.0338744 1.2718661e-38 324 268
0.0060489997 0.69 -0.0338744 1.2534271e-38 325 268
0.0072587994 0.69 -0.0338744 1.2901252e-38 326 268
0.0084686 0.69 -0.0338744 1.2625024e-38 327 268
0.0096503468 0.68800002 -0.033776212 1.1790223e-38 328 268
0.010856641 0.68800002 -0.033776212 7.8258105e-39 329 268
0.012062933 0.68800002 -0.033776212 8.0937626e-39 330 268
0.0133078 0.69 -0.0338744 8.0937626e-39 331 268
0.014517599 0.69 -0.0338744 6.8991837e-39 332 268
0.015727401 0.69 -0.0338744 6.2538143e-39 333 268
0.0169372 0.69 -0.0338744 9.3967418e-39 334 268
0.0181733 0.69099998 -0.033923492 1.1425046e-38 335 268
0.01944096 0.69300002 -0.034021679 1.2350952e-38 336 268
0.020656019 0.69300002 -0.034021679 1.198217e-38 337 268
0.021871079 0.69300002 -0.034021679 1.2441349e-38 338 268
0.02308614 0.69300002 -0.034021679 1.1795979e-38 339 268
0.024301201 0.69300002 -0.034021679 9.6740517e-39 340 268
0.025553079 0.69400001 -0.034070771 5.1568246e-39 341 268
0.026769891 0.69400001 -0.034070771 4.6050941e-39 342 268
0.027986705 0.69400001 -0.034070771 5.3430179e-39 343 268
0.029287677 0.69599998 -0.034168959 5.2515384e-39 344 268
0.030595668 0.69800001 -0.034267146 5.2515384e-39 345 268
0.031819493 0.69800001 -0.034267146 5.34445e-39 346 268
0.033137999 0.69999999 -0.034365334 5.34445e-39 347 268
0.034414422 0.70099998 -0.034414422 5.5281252e-39 348 268
0.035796054 0.704 -0.034561705 5.5281252e-39 349 268
0.037030395 0.704 -0.034561705 5.5284924e-39 350 268
0.038373452 0.70599997 -0.034659892 5.6210467e-39 351 268
0.039667413 0.70700002 -0.034708988 6.081299e-39 352 268
0.040964879 0.708 -0.034758076 6.7266684e-39 353 268
0.042385083 0.71100003 -0.034905359 8.8424792e-39 354 268
-0.033611398 0.70999998 -0.036101133 1.4099075e-38 293 269
-0.032366529 0.70999998 -0.036101133 9.6733357e-39 294 269
-0.031121666 0.70999998 -0.036101133 8.9357706e-39 295 269
-0.029876797 0.70999998 -0.036101133 9.1179997e-39 296 269
-0.028631933 0.70999998 -0.036101133 8.5644658e-39 297 269
-0.027309919 0.708 -0.03599944 8.1034862e-39 298 269
-0.02603174 0.70700002 -0.035948593 7.9190936e-39 299 269
-0.024757065 0.70599997 -0.035897743 7.7339806e-39 300 269
-0.023452586 0.704 -0.035796054 7.4577525e-39 301 269
-0.02218668 0.70300001 -0.035745207 7.8236581e-39 302 269
-0.020894472 0.70099998 -0.035643511 8.0080508e-39 303 269
-0.019637333 0.69999999 -0.035592664 7.550681e-39 304 269
-0.0183574 0.69800001 -0.035490975 9.1183654e-39 305 269
-0.017133573 0.69800001 -0.035490975 1.1891075e-38 306 269
-0.015886955 0.69700003 -0.035440128 1.3089259e-38 307 269
-0.014643839 0.69599998 -0.035389278 1.3182174e-38 308 269
-0.013423519 0.69599998 -0.035389278 1.2444609e-38 309 269
-0.012168133 0.69400001 -0.035287585 1.1605491e-38 310 269
-0.01095132 0.69400001 -0.035287585 7.5492432e-39 311 269
-0.0097345067 0.69400001 -0.035287585 8.5518723e-39 312 269
-0.0085054198 0.69300002 -0.035236739 8.4596767e-39 313 269
-0.0072903596 0.69300002 -0.035236739 8.4589522e-39 314 269
-0.0060753003 0.69300002 -0.035236739 8.4589522e-39 315 269
-0.00486024 0.69300002 -0.035236739 8.4596711e-39 316 269
-0.0036346598 0.69099998 -0.035135046 8.3674754e-39 317 269
-0.0024231065 0.69099998 -0.035135046 1.0310419e-38 318 269
-0.0012115532 0.69099998 -0.035135046 1.2799701e-38 319 269
0 0.69099998 -0.035135046 1.3087445e-38 320 269
0.0012115532 0.69099998 -0.035135046 1.2995248e-38 321 269
0.0024231065 0.69099998 -0.035135046 1.2627189e-38 322 269
0.0036293997 0.69 -0.035084199 1.2627189e-38 323 269
0.0048391996 0.69 -0.035084199 1.2718305e-38 324 269
0.0060577663 0.69099998 -0.035135046 1.2718305e-38 325 269
0.0072693196 0.69099998 -0.035135046 1.2625394e-38 326 269
0.0084686 0.69 -0.035084199 1.2809785e-38 327 269
0.0096783992 0.69 -0.035084199 1.1702361e-38 328 269
0.010888199 0.69 -0.035084199 8.106733e-39 329 269
0.012097999 0.69 -0.035084199 7.0886112e-39 330 269
0.013327086 0.69099998 -0.035135046 6.4432418e-39 331 269
0.014538639 0.69099998 -0.035135046 6.4407265e-39 332 269
0.015750192 0.69099998 -0.035135046 5.9797483e-39 333 269
0.016961746 0.69099998 -0.035135046 8.7535402e-39 334 269
0.018225901 0.69300002 -0.035236739 1.1150987e-38 335 269
0.01944096 0.69300002 -0.035236739 1.2259482e-38 336 269
0.020656019 0.69300002 -0.035236739 1.1982535e-38 337 269
0.021871079 0.69300002 -0.035236739 1.2533547e-38 338 269
0.023119451 0.69400001 -0.035287585 1.1242808e-38 339 269
0.024336265 0.69400001 -0.035287585 9.0304858e-39 340 269
0.025553079 0.69400001 -0.035287585 5.2504664e-39 341 269
0.026847038 0.69599998 -0.035389278 5.2511852e-39 342 269
0.028107686 0.69700003 -0.035440128 5.3433809e-39 343 269
