# .PCD v.7 - Point Cloud Data file format
FIELDS x y z rgb imX imY
SIZE 4 4 4 4 4 4
TYPE F F F F F F
COUNT 1 1 1 1 1 1
WIDTH 831
HEIGHT 1
VIEWPOINT 0 0 0 1 0 0 0
POINTS 831
DATA ascii
-0.021902639 0.69400001 -0.0073008798 1.0213542e-38 302 246
-0.020685827 0.69400001 -0.0073008798 6.2491297e-39 303 246
-0.01944096 0.69300002 -0.0072903596 1.0487978e-38 304 246
-0.0181733 0.69099998 -0.0072693196 1.3530432e-38 305 246
-0.0169372 0.69 -0.0072587994 9.380554e-39 306 246
-0.015681813 0.68800002 -0.0072377604 6.1537069e-39 307 246
-0.014475521 0.68800002 -0.0072377604 8.9091445e-39 308 246
-0.013249939 0.68699998 -0.0072272392 1.241258e-38 309 246
-0.012045399 0.68699998 -0.0072272392 1.2066099e-38 310 246
-0.010840859 0.68699998 -0.0072272392 8.839252e-39 311 246
-0.0096222926 0.68599999 -0.0072167199 9.3737198e-39 312 246
-0.0084195063 0.68599999 -0.0072167199 1.084885e-38 313 246
-0.0072167199 0.68599999 -0.0072167199 1.0120274e-38 314 246
-0.0059964 0.68400002 -0.0071956799 9.1057621e-39 315 246
-0.0047971201 0.68400002 -0.0071956799 9.0974875e-39 316 246
-0.0035925799 0.68300003 -0.0071851597 8.0833341e-39 317 246
-0.0023950534 0.68300003 -0.0071851597 8.8162104e-39 318 246
-0.0011975267 0.68300003 -0.0071851597 9.183558e-39 319 246
0 0.68300003 -0.0071851597 8.9080487e-39 320 246
0.0011975267 0.68300003 -0.0071851597 9.0917225e-39 321 246
0.0023950534 0.68300003 -0.0071851597 8.8162146e-39 322 246
0.0035925799 0.68300003 -0.0071851597 8.6325408e-39 323 246
0.0047901068 0.68300003 -0.0071851597 8.8162076e-39 324 246
0.0059876335 0.68300003 -0.0071851597 8.8162076e-39 325 246
0.0071851597 0.68300003 -0.0071851597 8.6325366e-39 326 246
0.0083826864 0.68300003 -0.0071851597 8.6325366e-39 327 246
0.0095802136 0.68300003 -0.0071851597 8.9080431e-39 328 246
0.01077774 0.68300003 -0.0071851597 8.9998786e-39 329 246
0.0119928 0.68400002 -0.0071956799 8.9087634e-39 330 246
0.01319208 0.68400002 -0.0071956799 8.816209e-39 331 246
0.01439136 0.68400002 -0.0071956799 8.7243791e-39 332 246
0.015636226 0.68599999 -0.0072167199 8.7243791e-39 333 246
0.016839013 0.68599999 -0.0072167199 8.6325436e-39 334 246
0.018041799 0.68599999 -0.0072167199 8.4488684e-39 335 246
0.019244585 0.68599999 -0.0072167199 8.5407011e-39 336 246
0.020477179 0.68699998 -0.0072272392 8.5407011e-39 337 246
0.021681719 0.68699998 -0.0072272392 8.6325366e-39 338 246
0.022919573 0.68800002 -0.0072377604 8.7243721e-39 339 246
0.024125867 0.68800002 -0.0072377604 8.7243721e-39 340 246
0.025405798 0.69 -0.0072587994 8.8165664e-39 341 246
0.026615599 0.69 -0.0072587994 8.7261672e-39 342 246
0.027865725 0.69099998 -0.0072693196 8.7261672e-39 343 246
0.029161438 0.69300002 -0.0072903596 9.0938749e-39 344 246
0.0303765 0.69300002 -0.0072903596 9.1860706e-39 345 246
0.031591557 0.69300002 -0.0072903596 9.1867922e-39 346 246
0.032853961 0.69400001 -0.0073008798 9.3711835e-39 347 246
0.034168959 0.69599998 -0.0073219193 9.0045618e-39 348 246
0.035440128 0.69700003 -0.00733244 9.0967574e-39 349 246
0.0367148 0.69800001 -0.0073429602 8.9141682e-39 350 246
0.038047329 0.69999999 -0.0073639993 9.0063638e-39 351 246
0.039330769 0.70099998 -0.0073745195 9.0985623e-39 352 246
0.040733438 0.704 -0.0074060797 9.0060079e-39 353 246
0.042087011 0.70599997 -0.0074271196 1.0493013e-38 354 246
0.043324865 0.70599997 -0.0074271196 1.6301337e-38 355 246
-0.038590867 0.70999998 -0.0087140659 1.6310695e-38 289 247
-0.0372408 0.708 -0.008689519 1.5667126e-38 290 247
-0.03599944 0.708 -0.008689519 1.4929203e-38 291 247
-0.034708988 0.70700002 -0.008677247 1.2803298e-38 292 247
-0.033469379 0.70700002 -0.008677247 1.0590603e-38 293 247
-0.032093015 0.704 -0.0086404262 1.0849551e-38 294 247
-0.030858666 0.704 -0.0086404262 8.9134423e-39 295 247
-0.029624319 0.704 -0.0086404262 9.6427383e-39 296 247
-0.028268991 0.70099998 -0.0086036054 1.0102282e-38 297 247
-0.027001332 0.69999999 -0.0085913334 9.6485271e-39 298 247
-0.025700359 0.69800001 -0.0085667865 1.1769028e-38 299 247
-0.024441468 0.69700003 -0.0085545136 1.1412473e-38 300 247
-0.023219392 0.69700003 -0.0085545136 1.1504669e-38 301 247
-0.021965759 0.69599998 -0.0085422397 1.0856759e-38 302 247
-0.020685827 0.69400001 -0.0085176928 7.9986957e-39 303 247
-0.01944096 0.69300002 -0.0085054198 1.0857483e-38 304 247
-0.0181733 0.69099998 -0.008480873 1.3254568e-38 305 247
-0.0169372 0.69 -0.0084686 9.6560619e-39 306 247
-0.015681813 0.68800002 -0.0084440531 6.5217692e-39 307 247
-0.014475521 0.68800002 -0.0084440531 8.8162258e-39 308 247
-0.013249939 0.68699998 -0.0084317802 1.2687725e-38 309 247
-0.012045399 0.68699998 -0.0084317802 1.2157929e-38 310 247
-0.010840859 0.68699998 -0.0084317802 8.5622994e-39 311 247
-0.0096363192 0.68699998 -0.0084317802 8.7279973e-39 312 247
-0.0084317802 0.68699998 -0.0084317802 9.7425094e-39 313 247
-0.0072167199 0.68599999 -0.0084195063 9.4677273e-39 314 247
-0.0060139326 0.68599999 -0.0084195063 8.8223579e-39 315 247
-0.0047971201 0.68400002 -0.0083949603 9.0928183e-39 316 247
-0.00359784 0.68400002 -0.0083949603 8.5407208e-39 317 247
-0.0023985601 0.68400002 -0.0083949603 8.9080501e-39 318 247
-0.0011975267 0.68300003 -0.0083826864 8.9080501e-39 319 247
0 0.68300003 -0.0083826864 8.8162146e-39 320 247
0.0011975267 0.68300003 -0.0083826864 8.8162146e-39 321 247
0.0023950534 0.68300003 -0.0083826864 8.9080459e-39 322 247
0.0035925799 0.68300003 -0.0083826864 8.7243735e-39 323 247
0.0047901068 0.68300003 -0.0083826864 8.8162076e-39 324 247
0.0059876335 0.68300003 -0.0083826864 8.9080431e-39 325 247
0.0071851597 0.68300003 -0.0083826864 8.7243721e-39 326 247
0.0083826864 0.68300003 -0.0083826864 8.9080431e-39 327 247
0.0095942402 0.68400002 -0.0083949603 8.7247323e-39 328 247
0.01079352 0.68400002 -0.0083949603 8.8169279e-39 329 247
0.0119928 0.68400002 -0.0083949603 8.9080459e-39 330 247
0.01319208 0.68400002 -0.0083949603 8.7243735e-39 331 247
0.01439136 0.68400002 -0.0083949603 8.7243819e-39 332 247
0.015636226 0.68599999 -0.0084195063 8.7243819e-39 333 247
0.016839013 0.68599999 -0.0084195063 8.8162118e-39 334 247
0.018041799 0.68599999 -0.0084195063 8.7243749e-39 335 247
0.019244585 0.68599999 -0.0084195063 8.6325366e-39 336 247
0.020477179 0.68699998 -0.0084317802 8.7243721e-39 337 247
0.021681719 0.68699998 -0.0084317802 8.6325366e-39 338 247
0.022919573 0.68800002 -0.0084440531 8.5407011e-39 339 247
0.024125867 0.68800002 -0.0084440531 8.632538e-39 340 247
0.025405798 0.69 -0.0084686 8.8162118e-39 341 247
0.026615599 0.69 -0.0084686 8.6336184e-39 342 247
0.027865725 0.69099998 -0.008480873 8.7258141e-39 343 247
0.029161438 0.69300002 -0.0085054198 8.909848e-39 344 247
0.0303765 0.69300002 -0.0085054198 9.0942407e-39 345 247
0.031637147 0.69400001 -0.0085176928 9.1871552e-39 346 247
0.032853961 0.69400001 -0.0085176928 9.1871552e-39 347 247
0.034168959 0.69599998 -0.0085422397 9.0967574e-39 348 247
0.035440128 0.69700003 -0.0085545136 9.0967574e-39 349 247
0.0367148 0.69800001 -0.0085667865 9.005289e-39 350 247
0.038047329 0.69999999 -0.0085913334 9.0978434e-39 351 247
0.039330769 0.70099998 -0.0086036054 8.8234145e-39 352 247
0.040675577 0.70300001 -0.0086281532 8.8234145e-39 353 247
0.042146627 0.70700002 -0.008677247 1.0584842e-38 354 247
-0.038590867 0.70999998 -0.0099589331 1.649544e-38 289 248
-0.037345998 0.70999998 -0.0099589331 1.6128102e-38 290 248
-0.03599944 0.708 -0.0099308798 1.5298701e-38 291 248
-0.034708988 0.70700002 -0.0099168532 1.3262474e-38 292 248
-0.033469379 0.70700002 -0.0099168532 1.1050139e-38 293 248
-0.032184184 0.70599997 -0.0099028256 1.1590706e-38 294 248
-0.030946331 0.70599997 -0.0099028256 1.002374e-38 295 248
-0.029624319 0.704 -0.0098747732 9.7370891e-39 296 248
-0.028268991 0.70099998 -0.0098326923 9.5526979e-39 297 248
-0.027001332 0.69999999 -0.0098186666 9.1850168e-39 298 248
-0.025773998 0.69999999 -0.0098186666 9.3690479e-39 299 248
-0.024476532 0.69800001 -0.0097906133 9.2808151e-39 300 248
-0.023219392 0.69700003 -0.0097765867 1.0295327e-38 301 248
-0.021965759 0.69599998 -0.0097625591 1.002198e-38 302 248
-0.020685827 0.69400001 -0.0097345067 9.9297845e-39 303 248
-0.01944096 0.69300002 -0.0097204801 1.131811e-38 304 248
-0.018225901 0.69300002 -0.0097204801 1.2885437e-38 305 248
-0.0169372 0.69 -0.0096783992 9.9312068e-39 306 248
-0.015727401 0.69 -0.0096783992 7.7188718e-39 307 248
-0.014475521 0.68800002 -0.0096503468 8.9080698e-39 308 248
-0.013269227 0.68800002 -0.0096503468 1.1950526e-38 309 248
-0.012045399 0.68699998 -0.0096363192 1.2065736e-38 310 248
-0.010840859 0.68699998 -0.0096363192 8.7466934e-39 311 248
-0.0096363192 0.68699998 -0.0096363192 8.5410823e-39 312 248
-0.0084317802 0.68699998 -0.0096363192 8.6332779e-39 313 248
-0.0072272392 0.68699998 -0.0096363192 9.3672542e-39 314 248
-0.0060139326 0.68599999 -0.0096222926 9.3672542e-39 315 248
-0.0048111463 0.68599999 -0.0096222926 8.8162343e-39 316 248
-0.00359784 0.68400002 -0.0095942402 8.5407236e-39 317 248
-0.0023985601 0.68400002 -0.0095942402 8.8162174e-39 318 248
-0.00119928 0.68400002 -0.0095942402 8.7243805e-39 319 248
0 0.68400002 -0.0095942402 8.9080473e-39 320 248
0.0011975267 0.68300003 -0.0095802136 9.2753935e-39 321 248
0.0023950534 0.68300003 -0.0095802136 8.7243749e-39 322 248
0.0035925799 0.68300003 -0.0095802136 8.632538e-39 323 248
0.0047901068 0.68300003 -0.0095802136 8.816209e-39 324 248
0.0059876335 0.68300003 -0.0095802136 8.816209e-39 325 248
0.0071851597 0.68300003 -0.0095802136 8.6325408e-39 326 248
0.0083826864 0.68300003 -0.0095802136 8.7243777e-39 327 248
0.0095942402 0.68400002 -0.0095942402 8.8162118e-39 328 248
0.01079352 0.68400002 -0.0095942402 8.8162118e-39 329 248
0.0119928 0.68400002 -0.0095942402 8.9998856e-39 330 248
0.013230653 0.68599999 -0.0096222926 8.7243763e-39 331 248
0.01443344 0.68599999 -0.0096222926 8.7243791e-39 332 248
0.015636226 0.68599999 -0.0096222926 8.7243791e-39 333 248
0.016839013 0.68599999 -0.0096222926 8.816209e-39 334 248
0.018068098 0.68699998 -0.0096363192 8.6325366e-39 335 248
0.019272638 0.68699998 -0.0096363192 8.6325366e-39 336 248
0.020477179 0.68699998 -0.0096363192 8.7243721e-39 337 248
0.021681719 0.68699998 -0.0096363192 8.5407011e-39 338 248
0.022919573 0.68800002 -0.0096503468 8.5407011e-39 339 248
0.024125867 0.68800002 -0.0096503468 8.6325408e-39 340 248
0.025405798 0.69 -0.0096783992 8.7243777e-39 341 248
0.026654173 0.69099998 -0.0096924258 8.7243791e-39 342 248
0.027946379 0.69300002 -0.0097204801 8.8169335e-39 343 248
0.029161438 0.69300002 -0.0097204801 8.909848e-39 344 248
0.030420333 0.69400001 -0.0097345067 9.0942407e-39 345 248
0.031637147 0.69400001 -0.0097345067 9.0038429e-39 346 248
0.032948639 0.69599998 -0.0097625591 9.1882342e-39 347 248
0.034218054 0.69700003 -0.0097765867 9.2793508e-39 348 248
0.035490975 0.69800001 -0.0097906133 9.3719051e-39 349 248
0.0367148 0.69800001 -0.0097906133 9.005645e-39 350 248
0.038047329 0.69999999 -0.0098186666 9.005645e-39 351 248
0.039330769 0.70099998 -0.0098326923 9.0978406e-39 352 248
0.040675577 0.70300001 -0.0098607466 9.0978406e-39 353 248
0.041908171 0.70300001 -0.0098607466 1.1135495e-38 354 248
-0.039891839 0.71100003 -0.01121958 1.6403241e-38 288 249
-0.038590867 0.70999998 -0.011203799 1.6403241e-38 289 249
-0.037345998 0.70999998 -0.011203799 1.6220295e-38 290 249
-0.03599944 0.708 -0.01117224 1.5574925e-38 291 249
-0.034758076 0.708 -0.01117224 1.3354673e-38 292 249
-0.033469379 0.70700002 -0.011156459 1.1326369e-38 293 249
-0.032229774 0.70700002 -0.011156459 1.2421192e-38 294 249
-0.030946331 0.70599997 -0.011140679 1.1314845e-38 295 249
-0.029624319 0.704 -0.011109119 1.0479326e-38 296 249
-0.028349647 0.70300001 -0.01109334 8.8198048e-39 297 249
-0.027001332 0.69999999 -0.011045999 9.0917239e-39 298 249
-0.025773998 0.69999999 -0.011045999 9.0917239e-39 299 249
-0.024476532 0.69800001 -0.01101444 8.8162272e-39 300 249
-0.023219392 0.69700003 -0.01099866 1.0104095e-38 301 249
-0.02199732 0.69700003 -0.01099866 9.4623393e-39 302 249
-0.020745439 0.69599998 -0.010982879 9.4623393e-39 303 249
-0.019469013 0.69400001 -0.01095132 9.9286915e-39 304 249
-0.018225901 0.69300002 -0.010935539 1.1403823e-38 305 249
-0.016961746 0.69099998 -0.01090398 9.6517332e-39 306 249
-0.015727401 0.69 -0.010888199 8.5453857e-39 307 249
-0.014475521 0.68800002 -0.010856641 8.9080641e-39 308 249
-0.013269227 0.68800002 -0.010856641 1.0841661e-38 309 249
-0.012062933 0.68800002 -0.010856641 1.1045117e-38 310 249
-0.010840859 0.68699998 -0.010840859 1.0491943e-38 311 249
-0.0096363192 0.68699998 -0.010840859 9.9286915e-39 312 249
-0.0084317802 0.68699998 -0.010840859 8.7301497e-39 313 249
-0.0072272392 0.68699998 -0.010840859 9.4637519e-39 314 249
-0.0060139326 0.68599999 -0.010825079 9.2790005e-39 315 249
-0.0048111463 0.68599999 -0.010825079 9.0013248e-39 316 249
-0.00360836 0.68599999 -0.010825079 8.4488699e-39 317 249
-0.0023985601 0.68400002 -0.01079352 8.9998828e-39 318 249
-0.00119928 0.68400002 -0.01079352 9.0917211e-39 319 249
0 0.68400002 -0.01079352 8.7243777e-39 320 249
0.0011975267 0.68300003 -0.01077774 8.9084103e-39 321 249
0.0023950534 0.68300003 -0.01077774 8.7247351e-39 322 249
0.0035925799 0.68300003 -0.01077774 8.448867e-39 323 249
0.0047901068 0.68300003 -0.01077774 8.8162118e-39 324 249
0.0059876335 0.68300003 -0.01077774 8.8162118e-39 325 249
0.0071956799 0.68400002 -0.01079352 8.6325408e-39 326 249
0.0083949603 0.68400002 -0.01079352 8.7243791e-39 327 249
0.0095942402 0.68400002 -0.01079352 8.7243777e-39 328 249
0.01079352 0.68400002 -0.01079352 8.8162146e-39 329 249
0.012027865 0.68599999 -0.010825079 8.9080487e-39 330 249
0.013230653 0.68599999 -0.010825079 8.9080487e-39 331 249
0.01443344 0.68599999 -0.010825079 8.7243763e-39 332 249
0.015636226 0.68599999 -0.010825079 8.7243763e-39 333 249
0.01686356 0.68699998 -0.010840859 8.632538e-39 334 249
0.018068098 0.68699998 -0.010840859 8.4488656e-39 335 249
0.019272638 0.68699998 -0.010840859 8.7243735e-39 336 249
0.020506985 0.68800002 -0.010856641 8.7243735e-39 337 249
0.021713281 0.68800002 -0.010856641 8.7243777e-39 338 249
0.022986198 0.69 -0.010888199 8.8162146e-39 339 249
0.024195999 0.69 -0.010888199 8.6325436e-39 340 249
0.025405798 0.69 -0.010888199 8.7243805e-39 341 249
0.026654173 0.69099998 -0.01090398 8.8162146e-39 342 249
0.027946379 0.69300002 -0.010935539 9.0924414e-39 343 249
0.029161438 0.69300002 -0.010935539 8.8183768e-39 344 249
0.030420333 0.69400001 -0.01095132 9.187158e-39 345 249
0.031637147 0.69400001 -0.01095132 9.1889544e-39 346 249
0.032948639 0.69599998 -0.010982879 9.4659e-39 347 249
0.034218054 0.69700003 -0.01099866 9.281506e-39 348 249
0.035490975 0.69800001 -0.01101444 9.0971133e-39 349 249
0.0367148 0.69800001 -0.01101444 9.0964043e-39 350 249
0.038047329 0.69999999 -0.011045999 9.0964043e-39 351 249
0.039330769 0.70099998 -0.011061779 8.4549879e-39 352 249
0.040733438 0.704 -0.011109119 8.8237704e-39 353 249
0.041967787 0.704 -0.011109119 1.1687227e-38 354 249
-0.039891839 0.71100003 -0.0124662 1.6494721e-38 288 250
-0.038590867 0.70999998 -0.012448666 1.6402525e-38 289 250
-0.037345998 0.70999998 -0.012448666 1.6220297e-38 290 250
-0.03599944 0.708 -0.0124136 1.5943712e-38 291 250
-0.034758076 0.708 -0.0124136 1.3448668e-38 292 250
-0.033469379 0.70700002 -0.012396066 1.1235973e-38 293 250
-0.032229774 0.70700002 -0.012396066 1.2700297e-38 294 250
-0.030946331 0.70599997 -0.012378532 1.1686504e-38 295 250
-0.029708479 0.70599997 -0.012378532 1.1037166e-38 296 250
-0.028389972 0.704 -0.012343466 9.5620361e-39 297 250
-0.027039904 0.70099998 -0.012290866 9.8328777e-39 298 250
-0.025773998 0.69999999 -0.012273333 9.6488466e-39 299 250
-0.024546666 0.69999999 -0.012273333 9.4590785e-39 300 250
-0.023252707 0.69800001 -0.012238266 9.2754047e-39 301 250
-0.02199732 0.69700003 -0.012220734 9.4590771e-39 302 250
-0.020745439 0.69599998 -0.0122032 8.9080557e-39 303 250
-0.019469013 0.69400001 -0.012168133 8.7243861e-39 304 250
-0.018225901 0.69300002 -0.012150601 9.0917351e-39 305 250
-0.01701084 0.69300002 -0.012150601 9.2786473e-39 306 250
-0.015727401 0.69 -0.012097999 8.8180293e-39 307 250
-0.014517599 0.69 -0.012097999 9.0917407e-39 308 250
-0.013269227 0.68800002 -0.012062933 9.4605247e-39 309 250
-0.012062933 0.68800002 -0.012062933 9.8383077e-39 310 250
-0.010856641 0.68800002 -0.012062933 1.1405633e-38 311 250
-0.0096503468 0.68800002 -0.012062933 1.1685452e-38 312 250
-0.0084317802 0.68699998 -0.012045399 1.021032e-38 313 250
-0.0072272392 0.68699998 -0.012045399 9.5634879e-39 314 250
-0.0060226996 0.68699998 -0.012045399 8.5489758e-39 315 250
-0.0048181596 0.68699998 -0.012045399 9.0020422e-39 316 250
-0.00360836 0.68599999 -0.012027865 8.4492272e-39 317 250
-0.0024055731 0.68599999 -0.012027865 8.816209e-39 318 250
-0.00119928 0.68400002 -0.0119928 8.9080473e-39 319 250
0 0.68400002 -0.0119928 8.7243777e-39 320 250
0.00119928 0.68400002 -0.0119928 8.8162146e-39 321 250
0.0023985601 0.68400002 -0.0119928 8.5407067e-39 322 250
0.00359784 0.68400002 -0.0119928 8.4488699e-39 323 250
0.0047971201 0.68400002 -0.0119928 8.8162118e-39 324 250
0.0059964 0.68400002 -0.0119928 8.9080501e-39 325 250
0.0071956799 0.68400002 -0.0119928 8.9080501e-39 326 250
0.0083949603 0.68400002 -0.0119928 8.9080501e-39 327 250
0.0096222926 0.68599999 -0.012027865 8.7243777e-39 328 250
0.010825079 0.68599999 -0.012027865 8.8162146e-39 329 250
0.012027865 0.68599999 -0.012027865 8.7243777e-39 330 250
0.013249939 0.68699998 -0.012045399 8.7243777e-39 331 250
0.014454478 0.68699998 -0.012045399 9.0917183e-39 332 250
0.015659019 0.68699998 -0.012045399 8.9998814e-39 333 250
0.01686356 0.68699998 -0.012045399 8.4488656e-39 334 250
0.018068098 0.68699998 -0.012045399 8.2651947e-39 335 250
0.019300694 0.68800002 -0.012062933 8.9998786e-39 336 250
0.020506985 0.68800002 -0.012062933 9.0917155e-39 337 250
0.021713281 0.68800002 -0.012062933 8.816209e-39 338 250
0.022986198 0.69 -0.012097999 8.9080473e-39 339 250
0.024195999 0.69 -0.012097999 8.7243777e-39 340 250
0.025405798 0.69 -0.012097999 8.7243777e-39 341 250
0.026654173 0.69099998 -0.012115533 8.7247351e-39 342 250
0.027946379 0.69300002 -0.012150601 8.9091263e-39 343 250
0.029161438 0.69300002 -0.012150601 8.9105753e-39 344 250
0.030420333 0.69400001 -0.012168133 9.2793564e-39 345 250
0.031728316 0.69599998 -0.0122032 1.0114153e-38 346 250
0.03299598 0.69700003 -0.012220734 9.8379266e-39 347 250
0.034218054 0.69700003 -0.012220734 9.3744233e-39 348 250
0.035490975 0.69800001 -0.012238266 8.9134451e-39 349 250
0.036819998 0.69999999 -0.012273333 9.1882398e-39 350 250
0.038047329 0.69999999 -0.012273333 9.1882398e-39 351 250
0.039330769 0.70099998 -0.012290866 8.3635084e-39 352 250
0.040733438 0.704 -0.012343466 9.1010748e-39 353 250
0.041967787 0.704 -0.012343466 1.1962732e-38 354 250
-0.039891839 0.71100003 -0.01371282 1.6494718e-38 288 251
-0.038645219 0.71100003 -0.01371282 1.6402522e-38 289 251
-0.037398599 0.71100003 -0.01371282 1.6220295e-38 290 251
-0.036101133 0.70999998 -0.013693533 1.6128099e-38 291 251
-0.034758076 0.708 -0.013654959 1.345047e-38 292 251
-0.033516716 0.708 -0.013654959 1.1329969e-38 293 251
-0.032229774 0.70700002 -0.013635674 1.2610624e-38 294 251
-0.030990168 0.70700002 -0.013635674 1.1780865e-38 295 251
-0.029708479 0.70599997 -0.013616386 1.1409912e-38 296 251
-0.028389972 0.704 -0.013577812 1.1041488e-38 297 251
-0.027039904 0.70099998 -0.013519952 1.0948583e-38 298 251
-0.025810819 0.70099998 -0.013519952 1.0948583e-38 299 251
-0.024546666 0.69999999 -0.013500666 1.0572613e-38 300 251
-0.023252707 0.69800001 -0.013462093 8.913092e-39 301 251
-0.02199732 0.69700003 -0.013442807 9.463026e-39 302 251
-0.020745439 0.69599998 -0.013423519 9.0942435e-39 303 251
-0.019469013 0.69400001 -0.013384946 8.9087788e-39 304 251
-0.0182522 0.69400001 -0.013384946 8.35704e-39 305 251
-0.01701084 0.69300002 -0.01336566 9.0920883e-39 306 251
-0.015750192 0.69099998 -0.013327086 9.1842839e-39 307 251
-0.014538639 0.69099998 -0.013327086 9.183565e-39 308 251
-0.0133078 0.69 -0.0133078 9.3683164e-39 309 251
-0.012062933 0.68800002 -0.013269227 9.2786501e-39 310 251
-0.010856641 0.68800002 -0.013269227 1.0016215e-38 311 251
-0.0096503468 0.68800002 -0.013269227 1.0019812e-38 312 251
-0.0084317802 0.68699998 -0.013249939 9.6510298e-39 313 251
-0.0072272392 0.68699998 -0.013249939 9.190402e-39 314 251
-0.0060226996 0.68699998 -0.013249939 8.3606413e-39 315 251
-0.0048181596 0.68699998 -0.013249939 8.7243875e-39 316 251
-0.0036136196 0.68699998 -0.013249939 8.4488783e-39 317 251
-0.0024090798 0.68699998 -0.013249939 8.6325408e-39 318 251
-0.0012027866 0.68599999 -0.013230653 8.7243791e-39 319 251
0 0.68599999 -0.013230653 8.7243805e-39 320 251
0.0012027866 0.68599999 -0.013230653 8.7243805e-39 321 251
0.0023985601 0.68400002 -0.01319208 8.7243763e-39 322 251
0.00359784 0.68400002 -0.01319208 8.7243763e-39 323 251
0.0048111463 0.68599999 -0.013230653 8.7243763e-39 324 251
0.0060139326 0.68599999 -0.013230653 8.9080487e-39 325 251
0.0072167199 0.68599999 -0.013230653 8.7243777e-39 326 251
0.0084195063 0.68599999 -0.013230653 8.7243777e-39 327 251
0.0096222926 0.68599999 -0.013230653 8.7243791e-39 328 251
0.010825079 0.68599999 -0.013230653 8.7243791e-39 329 251
0.012045399 0.68699998 -0.013249939 8.8162174e-39 330 251
0.013249939 0.68699998 -0.013249939 8.9080543e-39 331 251
0.014454478 0.68699998 -0.013249939 8.9998898e-39 332 251
0.015659019 0.68699998 -0.013249939 1.0657975e-38 333 251
0.01686356 0.68699998 -0.013249939 9.5681696e-39 334 251
0.0180944 0.68800002 -0.013269227 8.3696264e-39 335 251
0.019300694 0.68800002 -0.013269227 9.461584e-39 336 251
0.020506985 0.68800002 -0.013269227 9.184637e-39 337 251
0.021776399 0.69 -0.0133078 8.8162118e-39 338 251
0.022986198 0.69 -0.0133078 8.7243749e-39 339 251
0.024231065 0.69099998 -0.013327086 8.7243749e-39 340 251
0.025442619 0.69099998 -0.013327086 8.8162118e-39 341 251
0.02673132 0.69300002 -0.01336566 8.6336184e-39 342 251
0.027946379 0.69300002 -0.01336566 8.9098452e-39 343 251
0.029203519 0.69400001 -0.013384946 9.0935246e-39 344 251
0.030420333 0.69400001 -0.013384946 1.0107316e-38 345 251
0.031728316 0.69599998 -0.013423519 1.2332606e-38 346 251
0.03299598 0.69700003 -0.013442807 1.1134422e-38 347 251
0.034267146 0.69800001 -0.013462093 9.649578e-39 348 251
0.035592664 0.69999999 -0.013500666 9.18896e-39 349 251
0.036819998 0.69999999 -0.013500666 9.1889572e-39 350 251
0.038047329 0.69999999 -0.013500666 9.1889572e-39 351 251
0.039330769 0.70099998 -0.013519952 8.7301329e-39 352 251
0.040559858 0.70099998 -0.013519952 1.0204904e-38 353 251
-0.038808275 0.71399999 -0.015022559 1.6402525e-38 289 252
-0.037556399 0.71399999 -0.015022559 1.6311774e-38 290 252
-0.036151983 0.71100003 -0.014959441 1.6495805e-38 291 252
-0.034856264 0.70999998 -0.014938398 1.3818895e-38 292 252
-0.033516716 0.708 -0.01489632 1.1882787e-38 293 252
-0.03227536 0.708 -0.01489632 1.242624e-38 294 252
-0.031034 0.708 -0.01489632 1.2057098e-38 295 252
-0.029750559 0.70700002 -0.01487528 1.177977e-38 296 252
-0.028470624 0.70599997 -0.014854239 1.1871966e-38 297 252
-0.027155625 0.704 -0.014812159 1.1875209e-38 298 252
-0.025884461 0.70300001 -0.014791119 1.1229839e-38 299 252
-0.024546666 0.69999999 -0.014727999 1.1131532e-38 300 252
-0.023252707 0.69800001 -0.01468592 9.748598e-39 301 252
-0.02199732 0.69700003 -0.01466488 1.0297086e-38 302 252
-0.020745439 0.69599998 -0.014643839 9.9279446e-39 303 252
-0.019469013 0.69400001 -0.01460176 9.9207545e-39 304 252
-0.0182522 0.69400001 -0.01460176 9.0917141e-39 305 252
-0.01701084 0.69300002 -0.014580719 9.4626434e-39 306 252
-0.015795778 0.69300002 -0.014580719 9.3704492e-39 307 252
-0.014538639 0.69099998 -0.014538639 9.5526853e-39 308 252
-0.0133078 0.69 -0.014517599 9.4601323e-39 309 252
-0.012097999 0.69 -0.014517599 9.0917211e-39 310 252
-0.010856641 0.68800002 -0.014475521 9.0917211e-39 311 252
-0.0096503468 0.68800002 -0.014475521 8.9080613e-39 312 252
-0.0084440531 0.68800002 -0.014475521 8.9998982e-39 313 252
-0.0072272392 0.68699998 -0.014454478 9.0917421e-39 314 252
-0.0060226996 0.68699998 -0.014454478 8.9080684e-39 315 252
-0.0048181596 0.68699998 -0.014454478 8.8162174e-39 316 252
-0.0036136196 0.68699998 -0.014454478 8.8162174e-39 317 252
-0.0024090798 0.68699998 -0.014454478 8.7243763e-39 318 252
-0.0012027866 0.68599999 -0.01443344 8.7243763e-39 319 252
0 0.68599999 -0.01443344 8.7243777e-39 320 252
0.0012027866 0.68599999 -0.01443344 8.7243777e-39 321 252
0.0024055731 0.68599999 -0.01443344 8.7243749e-39 322 252
0.00360836 0.68599999 -0.01443344 8.7243749e-39 323 252
0.0048111463 0.68599999 -0.01443344 8.7243749e-39 324 252
0.0060226996 0.68699998 -0.014454478 8.7243749e-39 325 252
0.0072272392 0.68699998 -0.014454478 8.7243777e-39 326 252
0.0084317802 0.68699998 -0.014454478 8.7243777e-39 327 252
0.0096363192 0.68699998 -0.014454478 8.5410697e-39 328 252
0.010840859 0.68699998 -0.014454478 8.6332653e-39 329 252
0.012045399 0.68699998 -0.014454478 8.9087788e-39 330 252
0.013249939 0.68699998 -0.014454478 8.9087788e-39 331 252
0.014454478 0.68699998 -0.014454478 9.4659155e-39 332 252
0.015659019 0.68699998 -0.014454478 1.1402024e-38 333 252
0.01686356 0.68699998 -0.014454478 1.1878468e-38 334 252
0.0180944 0.68800002 -0.014475521 1.0679925e-38 335 252
0.019300694 0.68800002 -0.014475521 9.3762352e-39 336 252
0.020566599 0.69 -0.014517599 8.177692e-39 337 252
0.021776399 0.69 -0.014517599 8.9091291e-39 338 252
0.022986198 0.69 -0.014517599 8.5407067e-39 339 252
0.024231065 0.69099998 -0.014538639 8.7247323e-39 340 252
0.025442619 0.69099998 -0.014538639 8.7247323e-39 341 252
0.02673132 0.69300002 -0.014580719 8.8169335e-39 342 252
0.027946379 0.69300002 -0.014580719 9.0013248e-39 343 252
0.029203519 0.69400001 -0.01460176 8.9112941e-39 344 252
0.030507999 0.69599998 -0.014643839 1.0478979e-38 345 252
0.03177391 0.69700003 -0.01466488 1.2799701e-38 346 252
0.03299598 0.69700003 -0.01466488 1.1785551e-38 347 252
0.034267146 0.69800001 -0.01468592 9.190402e-39 348 252
0.035592664 0.69999999 -0.014727999 8.6372282e-39 349 252
0.036819998 0.69999999 -0.014727999 9.2800809e-39 350 252
0.038101684 0.70099998 -0.014749039 9.2800809e-39 351 252
0.039330769 0.70099998 -0.014749039 8.5479066e-39 352 252
0.040733438 0.704 -0.014812159 9.8386454e-39 353 252
-0.038808275 0.71399999 -0.016274439 1.649364e-38 289 253
-0.037556399 0.71399999 -0.016274439 1.6128102e-38 290 253
-0.036253672 0.713 -0.016251646 1.6220297e-38 291 253
-0.034905359 0.71100003 -0.01620606 1.4094759e-38 292 253
-0.033611398 0.70999998 -0.016183265 1.1697674e-38 293 253
-0.032366529 0.70999998 -0.016183265 1.1779791e-38 294 253
-0.031034 0.708 -0.01613768 1.1871987e-38 295 253
-0.02979264 0.708 -0.01613768 1.1871981e-38 296 253
-0.028510952 0.70700002 -0.016114887 1.2056731e-38 297 253
-0.027232772 0.70599997 -0.016092092 1.1413164e-38 298 253
-0.025884461 0.70300001 -0.016023712 1.067524e-38 299 253
-0.024581732 0.70099998 -0.015978126 1.103468e-38 300 253
-0.023319334 0.69999999 -0.015955333 1.0666258e-38 301 253
-0.02202888 0.69800001 -0.015909746 1.0210671e-38 302 253
-0.020775247 0.69700003 -0.015886955 1.0395063e-38 303 253
-0.019525118 0.69599998 -0.015864158 1.0570092e-38 304 253
-0.0182522 0.69400001 -0.015818574 9.8325274e-39 305 253
-0.017035386 0.69400001 -0.015818574 9.3783707e-39 306 253
-0.015795778 0.69300002 -0.015795778 9.8393489e-39 307 253
-0.014580719 0.69300002 -0.015795778 9.5620361e-39 308 253
-0.013327086 0.69099998 -0.015750192 8.9166667e-39 309 253
-0.012115533 0.69099998 -0.015750192 9.27719e-39 310 253
-0.010888199 0.69 -0.015727401 8.7243749e-39 311 253
-0.0096503468 0.68800002 -0.015681813 9.0009744e-39 312 253
-0.0084440531 0.68800002 -0.015681813 8.9087788e-39 313 253
-0.0072377604 0.68800002 -0.015681813 9.0917309e-39 314 253
-0.0060226996 0.68699998 -0.015659019 8.9080571e-39 315 253
-0.0048181596 0.68699998 -0.015659019 8.8162132e-39 316 253
-0.0036136196 0.68699998 -0.015659019 8.9998856e-39 317 253
-0.0024090798 0.68699998 -0.015659019 8.4488684e-39 318 253
-0.0012045399 0.68699998 -0.015659019 8.6325408e-39 319 253
0 0.68699998 -0.015659019 8.4488755e-39 320 253
0.0012045399 0.68699998 -0.015659019 8.8165804e-39 321 253
0.0024090798 0.68699998 -0.015659019 8.7243791e-39 322 253
0.0036136196 0.68699998 -0.015659019 8.5407067e-39 323 253
0.0048181596 0.68699998 -0.015659019 8.7243749e-39 324 253
0.0060226996 0.68699998 -0.015659019 8.7243749e-39 325 253
0.0072272392 0.68699998 -0.015659019 8.7243749e-39 326 253
0.0084317802 0.68699998 -0.015659019 8.7243749e-39 327 253
0.0096363192 0.68699998 -0.015659019 8.7243777e-39 328 253
0.010840859 0.68699998 -0.015659019 8.8162146e-39 329 253
0.012045399 0.68699998 -0.015659019 8.7243819e-39 330 253
0.013269227 0.68800002 -0.015681813 8.6325436e-39 331 253
0.014475521 0.68800002 -0.015681813 1.0393983e-38 332 253
0.015681813 0.68800002 -0.015681813 1.3159852e-38 333 253
0.016888106 0.68800002 -0.015681813 1.3174247e-38 334 253
0.0180944 0.68800002 -0.015681813 1.0684967e-38 335 253
0.019356798 0.69 -0.015727401 9.5631502e-39 336 253
0.020566599 0.69 -0.015727401 8.364607e-39 337 253
0.021776399 0.69 -0.015727401 8.7254609e-39 338 253
0.023019511 0.69099998 -0.015750192 8.4488741e-39 339 253
0.024231065 0.69099998 -0.015750192 8.7243735e-39 340 253
0.025442619 0.69099998 -0.015750192 8.9080459e-39 341 253
0.02673132 0.69300002 -0.015795778 8.8169335e-39 342 253
0.027986705 0.69400001 -0.015818574 9.0013248e-39 343 253
0.029203519 0.69400001 -0.015818574 9.002045e-39 344 253
0.030551834 0.69700003 -0.015886955 1.0754121e-38 345 253
0.03177391 0.69700003 -0.015886955 1.1973166e-38 346 253
0.033043321 0.69800001 -0.015909746 1.0866817e-38 347 253
0.034365334 0.69999999 -0.015955333 8.0854809e-39 348 253
0.035643511 0.70099998 -0.015978126 8.454262e-39 349 253
0.036872596 0.70099998 -0.015978126 9.0981937e-39 350 253
0.038210396 0.70300001 -0.016023712 8.8212467e-39 351 253
0.039499093 0.704 -0.016046507 8.4517439e-39 352 253
0.040733438 0.704 -0.016046507 1.0111267e-38 353 253
0.043324865 0.70599997 -0.016092092 1.7590259e-38 355 253
0.044562716 0.70599997 -0.016092092 1.6033003e-38 356 253
-0.038808275 0.71399999 -0.017526319 1.6217776e-38 289 254
-0.037556399 0.71399999 -0.017526319 1.6310695e-38 290 254
-0.036253672 0.713 -0.017501773 1.6310695e-38 291 254
-0.034905359 0.71100003 -0.01745268 1.4095112e-38 292 254
-0.033611398 0.70999998 -0.017428132 1.142108e-38 293 254
-0.032366529 0.70999998 -0.017428132 1.1499242e-38 294 254
-0.031034 0.708 -0.017379038 1.1959861e-38 295 254
-0.02979264 0.708 -0.017379038 1.1686874e-38 296 254
-0.02855128 0.708 -0.017379038 1.1686874e-38 297 254
-0.027271347 0.70700002 -0.017354494 1.186947e-38 298 254
-0.02592128 0.704 -0.017280852 1.0670927e-38 299 254
-0.024581732 0.70099998 -0.017207211 1.0940694e-38 300 254
-0.023319334 0.69999999 -0.017182667 1.0756301e-38 301 254
-0.02202888 0.69800001 -0.017133573 1.0946791e-38 302 254
-0.020775247 0.69700003 -0.017109027 1.223753e-38 303 254
-0.019525118 0.69599998 -0.017084479 1.1130453e-38 304 254
-0.0182522 0.69400001 -0.017035386 9.8397146e-39 305 254
-0.017035386 0.69400001 -0.017035386 1.0396472e-38 306 254
-0.015818574 0.69400001 -0.017035386 1.0211722e-38 307 254
-0.014580719 0.69300002 -0.01701084 1.057798e-38 308 254
-0.01336566 0.69300002 -0.01701084 9.4719915e-39 309 254
-0.012150601 0.69300002 -0.01701084 9.83144e-39 310 254
-0.01090398 0.69099998 -0.016961746 1.0200221e-38 311 254
-0.0096924258 0.69099998 -0.016961746 9.834307e-39 312 254
-0.0084686 0.69 -0.0169372 9.4655245e-39 313 254
-0.0072377604 0.68800002 -0.016888106 9.7399464e-39 314 254
-0.0060314666 0.68800002 -0.016888106 9.3708079e-39 315 254
-0.0048251734 0.68800002 -0.016888106 9.1846258e-39 316 254
-0.0036136196 0.68699998 -0.01686356 9.1846258e-39 317 254
-0.0024090798 0.68699998 -0.01686356 9.0992755e-39 318 254
-0.0012045399 0.68699998 -0.01686356 8.9152444e-39 319 254
0 0.68699998 -0.01686356 8.8201775e-39 320 254
0.0012045399 0.68699998 -0.01686356 8.6357862e-39 321 254
0.0024090798 0.68699998 -0.01686356 8.9998856e-39 322 254
0.0036136196 0.68699998 -0.01686356 8.9080487e-39 323 254
0.0048181596 0.68699998 -0.01686356 8.9080459e-39 324 254
0.0060226996 0.68699998 -0.01686356 8.9080459e-39 325 254
0.0072272392 0.68699998 -0.01686356 8.5407039e-39 326 254
0.0084317802 0.68699998 -0.01686356 8.7247351e-39 327 254
0.0096363192 0.68699998 -0.01686356 8.8162146e-39 328 254
0.010840859 0.68699998 -0.01686356 8.7243777e-39 329 254
0.012062933 0.68800002 -0.016888106 8.8162118e-39 330 254
0.013269227 0.68800002 -0.016888106 8.7243749e-39 331 254
0.014475521 0.68800002 -0.016888106 1.0302866e-38 332 254
0.015681813 0.68800002 -0.016888106 1.3805941e-38 333 254
0.016888106 0.68800002 -0.016888106 1.2897309e-38 334 254
0.018146999 0.69 -0.0169372 1.013144e-38 335 254
0.019356798 0.69 -0.0169372 8.549001e-39 336 254
0.020566599 0.69 -0.0169372 7.6270447e-39 337 254
0.021807959 0.69099998 -0.016961746 8.9094921e-39 338 254
0.023019511 0.69099998 -0.016961746 8.5410697e-39 339 254
0.024301201 0.69300002 -0.01701084 8.5407011e-39 340 254
0.02551626 0.69300002 -0.01701084 8.7247323e-39 341 254
0.026769891 0.69400001 -0.017035386 8.6332653e-39 342 254
0.027986705 0.69400001 -0.017035386 8.6332653e-39 343 254
0.029287677 0.69599998 -0.017084479 8.9134423e-39 344 254
0.030551834 0.69700003 -0.017109027 1.0757355e-38 345 254
0.031819493 0.69800001 -0.017133573 1.2710357e-38 346 254
0.033043321 0.69800001 -0.017133573 1.1696565e-38 347 254
0.034365334 0.69999999 -0.017182667 1.0209924e-38 348 254
0.035643511 0.70099998 -0.017207211 8.1816184e-39 349 254
0.036977798 0.70300001 -0.017256306 9.6470473e-39 350 254
0.038264744 0.704 -0.017280852 9.6470473e-39 351 254
0.039499093 0.704 -0.017280852 8.7304972e-39 352 254
0.040849157 0.70599997 -0.017329946 1.0205986e-38 353 254
0.042087011 0.70599997 -0.017329946 1.2703171e-38 354 254
0.043324865 0.70599997 -0.017329946 1.7866125e-38 355 254
-0.038916986 0.71600002 -0.0188308 1.6034464e-38 289 255
-0.037556399 0.71399999 -0.018778199 1.612666e-38 290 255
-0.036304519 0.71399999 -0.018778199 1.6310692e-38 291 255
-0.035003547 0.713 -0.018751899 1.4095836e-38 292 255
-0.033658739 0.71100003 -0.0186993 1.1422162e-38 293 255
-0.032366529 0.70999998 -0.018672999 1.1127585e-38 294 255
-0.031034 0.708 -0.0186204 1.1588565e-38 295 255
-0.02979264 0.708 -0.0186204 1.1590008e-38 296 255
-0.02855128 0.708 -0.0186204 1.1682205e-38 297 255
-0.027271347 0.70700002 -0.018594101 1.1500335e-38 298 255
-0.025994917 0.70599997 -0.018567799 1.076277e-38 299 255
-0.024651866 0.70300001 -0.018488899 1.066374e-38 300 255
-0.023319334 0.69999999 -0.018409999 1.1216914e-38 301 255
-0.02202888 0.69800001 -0.0183574 1.1041502e-38 302 255
-0.020775247 0.69700003 -0.018331099 1.1686871e-38 303 255
-0.019525118 0.69599998 -0.018304799 1.0856387e-38 304 255
-0.018304799 0.69599998 -0.018304799 1.0303214e-38 305 255
-0.017035386 0.69400001 -0.0182522 1.0396498e-38 306 255
-0.015818574 0.69400001 -0.0182522 1.0489053e-38 307 255
-0.014580719 0.69300002 -0.018225901 1.0581245e-38 308 255
-0.01336566 0.69300002 -0.018225901 9.8436803e-39 309 255
-0.012150601 0.69300002 -0.018225901 9.9322858e-39 310 255
-0.010935539 0.69300002 -0.018225901 1.1130829e-38 311 255
-0.0096924258 0.69099998 -0.0181733 1.0763839e-38 312 255
-0.008480873 0.69099998 -0.0181733 9.4730999e-39 313 255
-0.0072587994 0.69 -0.018146999 9.7471491e-39 314 255
-0.0060314666 0.68800002 -0.0180944 9.1939767e-39 315 255
-0.0048251734 0.68800002 -0.0180944 9.0056422e-39 316 255
-0.0036188802 0.68800002 -0.0180944 1.0111988e-38 317 255
-0.0024090798 0.68699998 -0.018068098 1.1053026e-38 318 255
-0.0012045399 0.68699998 -0.018068098 1.1974982e-38 319 255
0 0.68699998 -0.018068098 1.0766007e-38 320 255
0.0012045399 0.68699998 -0.018068098 8.3692789e-39 321 255
0.0024090798 0.68699998 -0.018068098 8.9091291e-39 322 255
0.0036136196 0.68699998 -0.018068098 8.8169335e-39 323 255
0.0048251734 0.68800002 -0.0180944 8.7247351e-39 324 255
0.0060314666 0.68800002 -0.0180944 8.5407039e-39 325 255
0.0072377604 0.68800002 -0.0180944 8.7243791e-39 326 255
0.0084440531 0.68800002 -0.0180944 8.7243791e-39 327 255
0.0096503468 0.68800002 -0.0180944 8.8169307e-39 328 255
0.010856641 0.68800002 -0.0180944 8.9091263e-39 329 255
0.012062933 0.68800002 -0.0180944 8.7243721e-39 330 255
0.013269227 0.68800002 -0.0180944 8.1733592e-39 331 255
0.014475521 0.68800002 -0.0180944 1.0211018e-38 332 255
0.015727401 0.69 -0.018146999 1.2977246e-38 333 255
0.0169372 0.69 -0.018146999 1.2530662e-38 334 255
0.018146999 0.69 -0.018146999 9.1190633e-39 335 255
0.019384852 0.69099998 -0.0181733 7.3479173e-39 336 255
0.020596405 0.69099998 -0.0181733 7.2557217e-39 337 255
0.021807959 0.69099998 -0.0181733 8.9084103e-39 338 255
0.02308614 0.69300002 -0.018225901 8.7243777e-39 339 255
0.024301201 0.69300002 -0.018225901 8.5407039e-39 340 255
0.02551626 0.69300002 -0.018225901 8.7247351e-39 341 255
0.026769891 0.69400001 -0.0182522 8.5407011e-39 342 255
0.028067358 0.69599998 -0.018304799 8.0815237e-39 343 255
0.02932976 0.69700003 -0.018331099 9.5609641e-39 344 255
0.030595668 0.69800001 -0.0183574 1.2695616e-38 345 255
0.031819493 0.69800001 -0.0183574 1.3081668e-38 346 255
0.033137999 0.69999999 -0.018409999 1.2896916e-38 347 255
0.034414422 0.70099998 -0.018436298 1.1874487e-38 348 255
0.035745207 0.70300001 -0.018488899 8.5554428e-39 349 255
0.037030395 0.704 -0.018515198 9.0016751e-39 350 255
0.038264744 0.704 -0.018515198 9.6470445e-39 351 255
0.039499093 0.704 -0.018515198 9.1911082e-39 352 255
0.040733438 0.704 -0.018515198 1.1035021e-38 353 255
0.042087011 0.70599997 -0.018567799 1.2797887e-38 354 255
0.043324865 0.70599997 -0.018567799 1.7499865e-38 355 255
-0.042683143 0.71600002 -0.020086186 1.6218132e-38 286 256
-0.041312039 0.71399999 -0.020030079 1.6125578e-38 287 256
-0.040060159 0.71399999 -0.020030079 1.6125578e-38 288 256
-0.038916986 0.71600002 -0.020086186 1.6125578e-38 289 256
-0.037819397 0.71899998 -0.020170346 1.6035183e-38 290 256
-0.036406212 0.71600002 -0.020086186 1.612738e-38 291 256
-0.035052639 0.71399999 -0.020030079 1.4095839e-38 292 256
-0.033658739 0.71100003 -0.01994592 1.1606197e-38 293 256
-0.032412119 0.71100003 -0.01994592 1.1036115e-38 294 256
-0.031121666 0.70999998 -0.019917866 1.1036115e-38 295 256
-0.029876797 0.70999998 -0.019917866 1.1402021e-38 296 256
-0.02855128 0.708 -0.01986176 1.1586772e-38 297 256
-0.027271347 0.70700002 -0.019833706 1.1220874e-38 298 256
-0.025994917 0.70599997 -0.019805651 1.0391113e-38 299 256
-0.024651866 0.70300001 -0.019721493 1.0941766e-38 300 256
-0.023319334 0.69999999 -0.019637333 1.1956276e-38 301 256
-0.02202888 0.69800001 -0.019581227 1.1322038e-38 302 256
-0.020805053 0.69800001 -0.019581227 1.1414233e-38 303 256
-0.019553173 0.69700003 -0.019553173 1.085639e-38 304 256
-0.018304799 0.69599998 -0.019525118 1.0211021e-38 305 256
-0.017084479 0.69599998 -0.019525118 1.0578378e-38 306 256
-0.015818574 0.69400001 -0.019469013 1.0946801e-38 307 256
-0.01460176 0.69400001 -0.019469013 1.0856753e-38 308 256
-0.01336566 0.69300002 -0.01944096 1.0396135e-38 309 256
-0.012150601 0.69300002 -0.01944096 1.0393261e-38 310 256
-0.010935539 0.69300002 -0.01944096 1.1223381e-38 311 256
-0.0097204801 0.69300002 -0.01944096 1.0580526e-38 312 256
-0.008480873 0.69099998 -0.019384852 1.0027353e-38 313 256
-0.0072587994 0.69 -0.019356798 1.0301406e-38 314 256
-0.0060314666 0.68800002 -0.019300694 9.4712852e-39 315 256
-0.0048251734 0.68800002 -0.019300694 8.9156003e-39 316 256
-0.0036188802 0.68800002 -0.019300694 1.0113785e-38 317 256
-0.0024125867 0.68800002 -0.019300694 1.2617832e-38 318 256
-0.0012062934 0.68800002 -0.019300694 1.4369548e-38 319 256
0 0.68800002 -0.019300694 1.1138388e-38 320 256
0.0012062934 0.68800002 -0.019300694 8.4643556e-39 321 256
0.0024125867 0.68800002 -0.019300694 8.9084103e-39 322 256
0.0036188802 0.68800002 -0.019300694 9.184637e-39 323 256
0.0048251734 0.68800002 -0.019300694 8.6336156e-39 324 256
0.0060314666 0.68800002 -0.019300694 8.6336156e-39 325 256
0.0072377604 0.68800002 -0.019300694 8.7258141e-39 326 256
0.0084440531 0.68800002 -0.019300694 8.7258141e-39 327 256
0.0096503468 0.68800002 -0.019300694 8.7258113e-39 328 256
0.010856641 0.68800002 -0.019300694 8.7258113e-39 329 256
0.012062933 0.68800002 -0.019300694 8.4488656e-39 330 256
0.013269227 0.68800002 -0.019300694 8.2651947e-39 331 256
0.014475521 0.68800002 -0.019300694 1.0490835e-38 332 256
0.015727401 0.69 -0.019356798 1.2795367e-38 333 256
0.0169372 0.69 -0.019356798 1.2438815e-38 334 256
0.0181733 0.69099998 -0.019384852 1.0225761e-38 335 256
0.019384852 0.69099998 -0.019384852 9.4716356e-39 336 256
0.020656019 0.69300002 -0.01944096 7.9043099e-39 337 256
0.021871079 0.69300002 -0.01944096 9.5530482e-39 338 256
0.02308614 0.69300002 -0.01944096 9.5530482e-39 339 256
0.024336265 0.69400001 -0.019469013 8.7243777e-39 340 256
0.025553079 0.69400001 -0.019469013 8.8162146e-39 341 256
0.026769891 0.69400001 -0.019469013 8.8169307e-39 342 256
0.028067358 0.69599998 -0.019525118 9.1860734e-39 343 256
0.02932976 0.69700003 -0.019553173 1.1225167e-38 344 256
0.030595668 0.69800001 -0.019581227 1.389884e-38 345 256
0.031910665 0.69999999 -0.019637333 1.2806886e-38 346 256
0.03318534 0.70099998 -0.019665385 1.2806886e-38 347 256
0.034512613 0.70300001 -0.019721493 1.2063919e-38 348 256
0.035796054 0.704 -0.019749546 8.6526803e-39 349 256
0.037030395 0.704 -0.019749546 8.3606259e-39 350 256
0.038373452 0.70599997 -0.019805651 9.3744177e-39 351 256
0.039499093 0.704 -0.019749546 9.5634837e-39 352 256
0.040733438 0.704 -0.019749546 1.1407396e-38 353 256
0.042087011 0.70599997 -0.019805651 1.2524897e-38 354 256
0.043324865 0.70599997 -0.019805651 1.6765896e-38 355 256
-0.042683143 0.71600002 -0.021341572 1.6125578e-38 286 257
-0.041312039 0.71399999 -0.021281958 1.6033382e-38 287 257
-0.040060159 0.71399999 -0.021281958 1.5849351e-38 288 257
-0.038916986 0.71600002 -0.021341572 1.5849351e-38 289 257
-0.037819397 0.71899998 -0.021430992 1.5850792e-38 290 257
-0.036406212 0.71600002 -0.021341572 1.5942987e-38 291 257
-0.035150826 0.71600002 -0.021341572 1.4095836e-38 292 257
-0.033753417 0.713 -0.021252153 1.169839e-38 293 257
-0.032412119 0.71100003 -0.021192541 1.1035387e-38 294 257
-0.031165501 0.71100003 -0.021192541 1.1127582e-38 295 257
-0.029876797 0.70999998 -0.021162732 1.1400576e-38 296 257
-0.028631933 0.70999998 -0.021162732 1.1216545e-38 297 257
-0.027309919 0.708 -0.021103119 1.1031093e-38 298 257
-0.025994917 0.70599997 -0.021043506 1.0477919e-38 299 257
-0.024686933 0.704 -0.020983893 1.057551e-38 300 257
-0.023352645 0.70099998 -0.020894472 1.205064e-38 301 257
-0.022091998 0.69999999 -0.020864666 1.1230934e-38 302 257
-0.020805053 0.69800001 -0.020805053 1.1230934e-38 303 257
-0.019553173 0.69700003 -0.020775247 1.0856037e-38 304 257
-0.018304799 0.69599998 -0.020745439 9.5652983e-39 305 257
-0.017084479 0.69599998 -0.020745439 1.076097e-38 306 257
-0.015818574 0.69400001 -0.020685827 1.1221948e-38 307 257
-0.01460176 0.69400001 -0.020685827 1.0671646e-38 308 257
-0.013384946 0.69400001 -0.020685827 1.0302863e-38 309 257
-0.012150601 0.69300002 -0.020656019 1.0395768e-38 310 257
-0.010935539 0.69300002 -0.020656019 1.1593953e-38 311 257
-0.0097204801 0.69300002 -0.020656019 1.0307888e-38 312 257
-0.0085054198 0.69300002 -0.020656019 9.5703234e-39 313 257
-0.0072693196 0.69099998 -0.020596405 1.002663e-38 314 257
-0.0060489997 0.69 -0.020566599 9.0124777e-39 315 257
-0.0048391996 0.69 -0.020566599 8.6386505e-39 316 257
-0.0036293997 0.69 -0.020566599 9.8371937e-39 317 257
-0.0024125867 0.68800002 -0.020506985 1.234375e-38 318 257
-0.0012062934 0.68800002 -0.020506985 1.4095106e-38 319 257
0 0.68800002 -0.020506985 1.0587013e-38 320 257
0.0012062934 0.68800002 -0.020506985 7.8211442e-39 321 257
0.0024125867 0.68800002 -0.020506985 8.7243791e-39 322 257
0.0036188802 0.68800002 -0.020506985 9.0013248e-39 323 257
0.0048251734 0.68800002 -0.020506985 8.9098368e-39 324 257
0.0060314666 0.68800002 -0.020506985 9.002031e-39 325 257
0.0072377604 0.68800002 -0.020506985 8.7268833e-39 326 257
0.0084440531 0.68800002 -0.020506985 8.634689e-39 327 257
0.0096503468 0.68800002 -0.020506985 8.7258113e-39 328 257
0.010856641 0.68800002 -0.020506985 8.54142e-39 329 257
0.012062933 0.68800002 -0.020506985 8.3581063e-39 330 257
0.0133078 0.69 -0.020566599 9.6488438e-39 331 257
0.014517599 0.69 -0.020566599 1.0773183e-38 332 257
0.015750192 0.69099998 -0.020596405 1.2985519e-38 333 257
0.016961746 0.69099998 -0.020596405 1.225587e-38 334 257
0.0181733 0.69099998 -0.020596405 1.1333553e-38 335 257
0.01944096 0.69300002 -0.020656019 1.187736e-38 336 257
0.020656019 0.69300002 -0.020656019 9.9412513e-39 337 257
0.021871079 0.69300002 -0.020656019 9.6513605e-39 338 257
0.02308614 0.69300002 -0.020656019 8.4531774e-39 339 257
0.024336265 0.69400001 -0.020685827 9.0917337e-39 340 257
0.025553079 0.69400001 -0.020685827 8.6325493e-39 341 257
0.026847038 0.69599998 -0.020745439 9.0964043e-39 342 257
0.028107686 0.69700003 -0.020775247 1.1677882e-38 343 257
0.029371841 0.69800001 -0.020805053 1.2248677e-38 344 257
0.030683333 0.69999999 -0.020864666 1.363197e-38 345 257
0.031910665 0.69999999 -0.020864666 1.2440977e-38 346 257
0.03318534 0.70099998 -0.020894472 1.216439e-38 347 257
0.034512613 0.70300001 -0.020954086 1.1976039e-38 348 257
0.035796054 0.704 -0.020983893 8.7491919e-39 349 257
0.037135597 0.70599997 -0.021043506 8.3631552e-39 350 257
0.038373452 0.70599997 -0.021043506 9.3776673e-39 351 257
0.039667413 0.70700002 -0.021073313 9.2001074e-39 352 257
0.040964879 0.708 -0.021103119 1.1044019e-38 353 257
0.042325463 0.70999998 -0.021162732 1.225155e-38 354 257
0.043570329 0.70999998 -0.021162732 1.6215962e-38 355 257
-0.042742759 0.71700001 -0.02262852 1.6033382e-38 286 258
-0.041427758 0.71600002 -0.022596961 1.6033382e-38 287 258
-0.040172372 0.71600002 -0.022596961 1.5757156e-38 288 258
-0.039134402 0.72000003 -0.022723202 1.5757156e-38 289 258
-0.037819397 0.71899998 -0.022691639 1.5757519e-38 290 258
-0.036558751 0.71899998 -0.022691639 1.5942269e-38 291 258
-0.035150826 0.71600002 -0.022596961 1.4279149e-38 292 258
-0.033753417 0.713 -0.022502279 1.2066452e-38 293 258
-0.032412119 0.71100003 -0.022439159 1.1126866e-38 294 258
-0.031165501 0.71100003 -0.022439159 1.1219062e-38 295 258
-0.029918881 0.71100003 -0.022439159 1.1124345e-38 296 258
-0.028631933 0.70999998 -0.022407599 1.08474e-38 297 258
-0.027309919 0.708 -0.022344479 1.0937083e-38 298 258
-0.02603174 0.70700002 -0.022312919 1.0752333e-38 299 258
-0.024686933 0.704 -0.022218239 1.0203483e-38 300 258
-0.023419274 0.70300001 -0.02218668 1.1033245e-38 301 258
-0.022091998 0.69999999 -0.022091998 1.076097e-38 302 258
-0.020805053 0.69800001 -0.02202888 1.1129753e-38 303 258
-0.019581227 0.69800001 -0.02202888 1.103468e-38 304 258
-0.018304799 0.69599998 -0.021965759 1.0758454e-38 305 258
-0.017084479 0.69599998 -0.021965759 1.0946085e-38 306 258
-0.015818574 0.69400001 -0.021902639 1.1591454e-38 307 258
-0.01460176 0.69400001 -0.021902639 1.0672722e-38 308 258
-0.013384946 0.69400001 -0.021902639 1.030394e-38 309 258
-0.012168133 0.69400001 -0.021902639 1.0212823e-38 310 258
-0.010935539 0.69300002 -0.021871079 1.1226615e-38 311 258
-0.0097204801 0.69300002 -0.021871079 1.03079e-38 312 258
-0.0085054198 0.69300002 -0.021871079 9.385942e-39 313 258
-0.0072903596 0.69300002 -0.021871079 9.5599104e-39 314 258
-0.0060577663 0.69099998 -0.021807959 9.4677147e-39 315 258
-0.0048462129 0.69099998 -0.021807959 9.7529322e-39 316 258
-0.0036293997 0.69 -0.021776399 1.168904e-38 317 258
-0.0024195998 0.69 -0.021776399 1.2162248e-38 318 258
-0.0012097999 0.69 -0.021776399 1.3083845e-38 319 258
0 0.69 -0.021776399 9.4799369e-39 320 258
0.0012097999 0.69 -0.021776399 6.9910136e-39 321 258
0.0024195998 0.69 -0.021776399 8.1733592e-39 322 258
0.0036293997 0.69 -0.021776399 8.9091291e-39 323 258
0.0048391996 0.69 -0.021776399 8.728335e-39 324 258
