# .PCD v.7 - Point Cloud Data file format
FIELDS x y z rgb imX imY
SIZE 4 4 4 4 4 4
TYPE F F F F F F
COUNT 1 1 1 1 1 1
WIDTH 879
HEIGHT 1
VIEWPOINT 0 0 0 1 0 0 0
POINTS 879
DATA ascii
0.088648535 0.63200003 0.16399978 1.1775845e-38 400 92
0.090040676 0.634 0.16451877 1.6754409e-38 401 92
-0.11226593 0.67400002 0.17371675 1.6599915e-38 225 93
-0.11075456 0.67199999 0.17320126 1.2710345e-38 226 93
-0.10957631 0.67199999 0.17320126 1.1419606e-38 227 93
-0.10839807 0.67199999 0.17320126 1.3904509e-38 228 93
-0.10706028 0.671 0.17294353 1.5010855e-38 229 93
-0.10588379 0.671 0.17294353 1.327174e-38 230 93
-0.10470732 0.671 0.17294353 1.327174e-38 231 93
-0.10337654 0.67000002 0.1726858 1.3273176e-38 232 93
-0.1022018 0.67000002 0.1726858 1.3089144e-38 233 93
-0.10102707 0.67000002 0.1726858 1.3273532e-38 234 93
-0.099554263 0.66799998 0.17217031 1.290475e-38 235 93
-0.098235756 0.667 0.17191257 1.3179541e-38 236 93
-0.096920758 0.66600001 0.17165484 1.3179541e-38 237 93
-0.095753036 0.66600001 0.17165484 1.3452538e-38 238 93
-0.094301268 0.66399997 0.17113934 1.3544734e-38 239 93
-0.093137063 0.66399997 0.17113934 1.3729861e-38 240 93
-0.091972843 0.66399997 0.17113934 1.3822056e-38 241 93
-0.090671875 0.66299999 0.17088161 1.3546551e-38 242 93
-0.089239404 0.66100001 0.17036614 1.3453995e-38 243 93
-0.088080451 0.66100001 0.17036614 1.3912437e-38 244 93
-0.086921498 0.66100001 0.17036614 1.3820242e-38 245 93
-0.085762545 0.66100001 0.17036614 1.4643143e-38 246 93
-0.084347598 0.65899998 0.16985065 1.3997774e-38 247 93
-0.083192155 0.65899998 0.16985065 1.381553e-38 248 93
-0.08191222 0.65799999 0.16959292 1.3631499e-38 249 93
-0.080758527 0.65799999 0.16959292 1.4279402e-38 250 93
-0.079604842 0.65799999 0.16959292 1.5477945e-38 251 93
-0.078331918 0.65700001 0.16933517 1.4376288e-38 252 93
-0.076945029 0.65499997 0.16881968 1.3454333e-38 253 93
-0.075796597 0.65499997 0.16881968 1.400356e-38 254 93
-0.074534193 0.65399998 0.16856195 1.3265636e-38 255 93
-0.073275305 0.653 0.1683042 1.3904174e-38 256 93
-0.07201992 0.65200001 0.16804647 1.3627588e-38 257 93
-0.070876747 0.65200001 0.16804647 1.3813057e-38 258 93
-0.069733568 0.65200001 0.16804647 1.4181481e-38 259 93
-0.068379998 0.64999998 0.16753098 1.4185803e-38 260 93
-0.067240328 0.64999998 0.16753098 1.381702e-38 261 93
-0.065998971 0.64899999 0.16727325 1.3999263e-38 262 93
-0.064861059 0.64899999 0.16727325 1.4091459e-38 263 93
-0.063624963 0.648 0.16701551 1.3449326e-38 264 93
-0.062488798 0.648 0.16701551 1.5385435e-38 265 93
-0.061163284 0.64600003 0.16650005 1.5489492e-38 266 93
-0.060030628 0.64600003 0.16650005 1.4106558e-38 267 93
-0.058897976 0.64600003 0.16650005 1.4273667e-38 268 93
-0.057586476 0.64399999 0.16598456 1.4826482e-38 269 93
-0.056457333 0.64399999 0.16598456 1.4095389e-38 270 93
-0.055328183 0.64399999 0.16598456 1.4002835e-38 271 93
-0.054114878 0.64300001 0.16572683 1.3361102e-38 272 93
-0.052905083 0.64200002 0.16546908 1.3268548e-38 273 93
-0.051698782 0.64099997 0.16521133 1.2904104e-38 274 93
-0.050574899 0.64099997 0.16521133 1.4010451e-38 275 93
-0.049373865 0.63999999 0.16495359 1.492411e-38 276 93
-0.048251729 0.63999999 0.16495359 1.4831915e-38 277 93
-0.047129598 0.63999999 0.16495359 1.4928405e-38 278 93
-0.045863692 0.63800001 0.16443811 1.5112798e-38 279 93
-0.044604797 0.63599998 0.16392262 1.4651116e-38 280 93
-0.043489676 0.63599998 0.16392262 1.5941855e-38 281 93
-0.042307932 0.63499999 0.16366489 1.5856862e-38 282 93
-0.041194562 0.63499999 0.16366489 1.5211493e-38 283 93
-0.040081199 0.63499999 0.16366489 1.4382808e-38 284 93
-0.038906466 0.634 0.16340715 1.4382808e-38 285 93
-0.037794851 0.634 0.16340715 1.5302619e-38 286 93
-0.03656752 0.63200003 0.16289169 1.5302619e-38 287 93
-0.035459414 0.63200003 0.16289169 1.4655082e-38 288 93
-0.034296948 0.63099998 0.16263393 1.4470691e-38 289 93
-0.033137999 0.63 0.1623762 1.511965e-38 290 93
-0.032033399 0.63 0.1623762 1.5396237e-38 291 93
-0.030928798 0.63 0.1623762 1.5212942e-38 292 93
-0.029776858 0.62900001 0.16211845 1.5305137e-38 293 93
-0.028674012 0.62900001 0.16211845 1.530549e-38 294 93
-0.027527334 0.62800002 0.16186072 1.5213293e-38 295 93
-0.026426241 0.62800002 0.16186072 1.5213647e-38 296 93
-0.025284817 0.62699997 0.16160297 1.5121451e-38 297 93
-0.024185479 0.62699997 0.16160297 1.5212925e-38 298 93
-0.023086138 0.62699997 0.16160297 1.5212925e-38 299 93
-0.021986797 0.62699997 0.16160297 1.5213278e-38 300 93
-0.020887459 0.62699997 0.16160297 1.5121082e-38 301 93
-0.019724999 0.625 0.1610875 1.4937404e-38 302 93
-0.018599359 0.62400001 0.16082977 1.50296e-38 303 93
-0.017477227 0.62300003 0.16057202 1.5121436e-38 304 93
-0.016358599 0.62199998 0.16031428 1.5213631e-38 305 93
-0.015268027 0.62199998 0.16031428 1.5398392e-38 306 93
-0.01415466 0.62099999 0.16005655 1.4937054e-38 307 93
-0.013065839 0.62099999 0.16005655 1.4010772e-38 308 93
-0.011957733 0.62 0.1597988 1.3088457e-38 309 93
-0.010870666 0.62 0.1597988 1.3912458e-38 310 93
-0.0097678201 0.61900002 0.15954106 1.4650025e-38 311 93
-0.0086825071 0.61900002 0.15954106 1.4283057e-38 312 93
-0.0075849192 0.61799997 0.1592833 1.4006469e-38 313 93
-0.0065013594 0.61799997 0.1592833 1.354586e-38 314 93
-0.0054177996 0.61799997 0.1592833 1.2900491e-38 315 93
-0.0043131998 0.61500001 0.15851009 1.2529195e-38 316 93
-0.00322964 0.61400002 0.15825236 1.0500891e-38 317 93
-0.0021530932 0.61400002 0.15825236 1.1326335e-38 318 93
-0.0010765466 0.61400002 0.15825236 1.1879509e-38 319 93
0 0.61400002 0.15825236 1.2247218e-38 320 93
0.0010765466 0.61400002 0.15825236 1.2339414e-38 321 93
0.0021495866 0.61299998 0.15799461 1.1881676e-38 322 93
0.0032243798 0.61299998 0.15799461 1.2895469e-38 323 93
0.0042991731 0.61299998 0.15799461 1.3082734e-38 324 93
0.0053651999 0.61199999 0.15773687 1.317493e-38 325 93
0.0064382395 0.61199999 0.15773687 1.3727385e-38 326 93
0.0074867331 0.61000001 0.15722141 1.3542992e-38 327 93
0.0085562663 0.61000001 0.15722141 1.3358973e-38 328 93
0.0096100206 0.60900003 0.15696366 1.3727756e-38 329 93
0.0106778 0.60900003 0.15696366 1.400434e-38 330 93
0.01174558 0.60900003 0.15696366 1.4280927e-38 331 93
0.01281336 0.60900003 0.15696366 1.4645744e-38 332 93
0.01388114 0.60900003 0.15696366 1.3355005e-38 333 93
0.014899827 0.60699999 0.15644817 1.1781571e-38 334 93
0.0159378 0.60600001 0.15619044 1.0398637e-38 335 93
0.017000319 0.60600001 0.15619044 9.2022612e-39 336 93
0.018062839 0.60600001 0.15619044 9.0178699e-39 337 93
0.01906224 0.60399997 0.15567495 8.7430725e-39 338 93
0.020121252 0.60399997 0.15567495 8.3746487e-39 339 93
0.021180267 0.60399997 0.15567495 8.6512286e-39 340 93
0.02220246 0.60299999 0.15541722 1.2062468e-38 341 93
0.023221144 0.602 0.15515947 1.2535328e-38 342 93
0.024276651 0.602 0.15515947 1.4194848e-38 343 93
0.025290079 0.60100001 0.15490173 1.4555716e-38 344 93
0.026343834 0.60100001 0.15490173 1.1789846e-38 345 93
0.027397586 0.60100001 0.15490173 9.0124553e-39 346 93
0.028404001 0.60000002 0.154644 8.8284242e-39 347 93
0.029456001 0.60000002 0.154644 8.3793304e-39 348 93
0.030508002 0.60000002 0.154644 9.5778736e-39 349 93
0.03156 0.60000002 0.154644 9.1266247e-39 350 93
0.032557648 0.59899998 0.15438624 1.1431517e-38 351 93
0.033551786 0.59799999 0.15412851 1.1623835e-38 352 93
0.034600276 0.59799999 0.15412851 1.2637989e-38 353 93
0.035589159 0.597 0.15387078 1.3831149e-38 354 93
0.036574531 0.59600002 0.15361303 1.4199572e-38 355 93
0.037556402 0.59500003 0.1533553 1.3925876e-38 356 93
0.038534757 0.59399998 0.15309756 1.4110626e-38 357 93
0.039576236 0.59399998 0.15309756 1.3743648e-38 358 93
0.040617716 0.59399998 0.15309756 1.3559617e-38 359 93
0.041659195 0.59399998 0.15309756 1.4018077e-38 360 93
0.042628791 0.59299999 0.15283981 1.4018077e-38 361 93
0.04366852 0.59299999 0.15283981 1.4018077e-38 362 93
0.044708245 0.59299999 0.15283981 1.4018077e-38 363 93
0.045747969 0.59299999 0.15283981 1.3926232e-38 364 93
0.046708796 0.59200001 0.15258208 1.2727688e-38 365 93
0.047746774 0.59200001 0.15258208 1.1988656e-38 366 93
0.048702341 0.59100002 0.15232435 8.1164398e-39 367 93
0.049654398 0.58999997 0.15206659 7.1047738e-39 368 93
0.05060295 0.58899999 0.15180886 8.5795437e-39 369 93
0.051635664 0.58899999 0.15180886 1.3274681e-38 370 93
0.052668378 0.58899999 0.15180886 1.4842367e-38 371 93
0.053609919 0.588 0.15155111 1.4657969e-38 372 93
0.054640878 0.588 0.15155111 1.4750164e-38 373 93
0.055671841 0.588 0.15155111 1.4740065e-38 374 93
0.0567028 0.588 0.15155111 1.2988708e-38 375 93
0.057733759 0.588 0.15155111 1.4539822e-38 376 93
0.058764715 0.588 0.15155111 1.2972138e-38 377 93
0.059795678 0.588 0.15155111 1.214422e-38 378 93
0.060930084 0.58899999 0.15180886 1.7306817e-38 379 93
0.062067993 0.58999997 0.15206659 1.4472899e-38 380 93
0.063102461 0.58999997 0.15206659 1.4196312e-38 381 93
0.064354345 0.59200001 0.15258208 1.4103748e-38 382 93
0.065502778 0.59299999 0.15283981 1.3550574e-38 383 93
0.066654719 0.59399998 0.15309756 1.3904216e-38 384 93
0.067924134 0.59600002 0.15361303 1.2613477e-38 385 93
0.069200553 0.59799999 0.15412851 1.3622574e-38 386 93
0.070483997 0.60000002 0.154644 1.2884651e-38 387 93
0.071655221 0.60100001 0.15490173 1.1966306e-38 388 93
0.072829954 0.602 0.15515947 1.1782274e-38 389 93
0.073639996 0.60000002 0.154644 1.1141594e-38 390 93
0.074692003 0.60000002 0.154644 1.1049038e-38 391 93
0.079739846 0.62300003 0.16057202 1.1049041e-38 393 93
0.080832176 0.62300003 0.16057202 1.0866093e-38 394 93
0.081924498 0.62300003 0.16057202 1.0958647e-38 395 93
0.083016828 0.62300003 0.16057202 1.1234158e-38 396 93
0.085189201 0.63099998 0.16263393 1.1234158e-38 397 93
0.086295553 0.63099998 0.16263393 1.1508944e-38 398 93
0.087401912 0.63099998 0.16263393 1.1416749e-38 399 93
0.088648535 0.63200003 0.16289169 1.2330091e-38 400 93
0.090040676 0.634 0.16340715 1.7216461e-38 401 93
-0.11243249 0.67500001 0.172791 1.6967977e-38 225 94
-0.11108419 0.67400002 0.17253502 1.2988373e-38 226 94
-0.10990244 0.67400002 0.17253502 1.1052265e-38 227 94
-0.1087207 0.67400002 0.17253502 1.427077e-38 228 94
-0.10721984 0.67199999 0.17202303 1.5284922e-38 229 94
-0.10588379 0.671 0.17176706 1.3270658e-38 230 94
-0.10470732 0.671 0.17176706 1.3362854e-38 231 94
-0.10353082 0.671 0.17176706 1.2996951e-38 232 94
-0.1022018 0.67000002 0.17151105 1.3273179e-38 233 94
-0.10102707 0.67000002 0.17151105 1.3272809e-38 234 94
-0.099852331 0.67000002 0.17151105 1.3180613e-38 235 94
-0.098383039 0.66799998 0.17099909 1.336391e-38 236 94
-0.096920758 0.66600001 0.17048712 1.336391e-38 237 94
-0.095753036 0.66600001 0.17048712 1.3456446e-38 238 94
-0.094301268 0.66399997 0.16997513 1.3271696e-38 239 94
-0.093137063 0.66399997 0.16997513 1.3549358e-38 240 94
-0.091972843 0.66399997 0.16997513 1.3549358e-38 241 94
-0.090671875 0.66299999 0.16971914 1.3549005e-38 242 94
-0.089509413 0.66299999 0.16971914 1.3641559e-38 243 94
-0.088213705 0.662 0.16946317 1.3824886e-38 244 94
-0.086921498 0.66100001 0.16920719 1.4286222e-38 245 94
-0.085762545 0.66100001 0.16920719 1.4836524e-38 246 94
-0.084347598 0.65899998 0.1686952 1.382237e-38 247 94
-0.083192155 0.65899998 0.1686952 1.3726579e-38 248 94
-0.082036704 0.65899998 0.1686952 1.2989014e-38 249 94
-0.08088126 0.65899998 0.1686952 1.4188288e-38 250 94
-0.079604842 0.65799999 0.16843922 1.5663058e-38 251 94
-0.078331918 0.65700001 0.16818322 1.4379157e-38 252 94
-0.077179976 0.65700001 0.16818322 1.4102571e-38 253 94
-0.075796597 0.65499997 0.16767126 1.419297e-38 254 94
-0.074648157 0.65499997 0.16767126 1.3547601e-38 255 94
-0.073387519 0.65399998 0.16741528 1.3728396e-38 256 94
-0.072240837 0.65399998 0.16741528 1.3544004e-38 257 94
-0.070876747 0.65200001 0.1669033 1.3728046e-38 258 94
-0.069733568 0.65200001 0.1669033 1.4004992e-38 259 94
-0.068590395 0.65200001 0.1669033 1.3546551e-38 260 94
-0.067240328 0.64999998 0.16639131 1.3914974e-38 261 94
-0.066100657 0.64999998 0.16639131 1.4371996e-38 262 94
-0.064861059 0.64899999 0.16613534 1.4187245e-38 263 94
-0.063624963 0.648 0.16587935 1.3632273e-38 264 94
-0.062488798 0.648 0.16587935 1.5199959e-38 265 94
-0.061257958 0.64700001 0.16562338 1.6131989e-38 266 94
-0.060030628 0.64600003 0.16536738 1.4749054e-38 267 94
-0.058897976 0.64600003 0.16536738 1.3727327e-38 268 94
-0.057586476 0.64399999 0.16485541 1.2805369e-38 269 94
-0.056457333 0.64399999 0.16485541 1.3448607e-38 270 94
-0.055328183 0.64399999 0.16485541 1.3541162e-38 271 94
-0.054114878 0.64300001 0.16459942 1.2346629e-38 272 94
-0.052987486 0.64300001 0.16459942 1.2715772e-38 273 94
-0.051779442 0.64200002 0.16434343 1.262213e-38 274 94
-0.050574899 0.64099997 0.16408744 1.3451892e-38 275 94
-0.049451008 0.64099997 0.16408744 1.4555326e-38 276 94
-0.048251729 0.63999999 0.16383146 1.4186545e-38 277 94
-0.047129598 0.63999999 0.16383146 1.4555321e-38 278 94
-0.045863692 0.63800001 0.1633195 1.520069e-38 279 94
-0.044745065 0.63800001 0.1633195 1.4005021e-38 280 94
-0.043489676 0.63599998 0.16280751 1.4281608e-38 281 94
-0.042374559 0.63599998 0.16280751 1.5486269e-38 282 94
-0.041194562 0.63499999 0.16255152 1.5024931e-38 283 94
-0.040081199 0.63499999 0.16255152 1.4283776e-38 284 94
-0.038967833 0.63499999 0.16255152 1.437633e-38 285 94
-0.037794851 0.634 0.16229555 1.4745132e-38 286 94
-0.036683239 0.634 0.16229555 1.4468187e-38 287 94
-0.035459414 0.63200003 0.16178358 1.3914665e-38 288 94
-0.034296948 0.63099998 0.16152757 1.4375642e-38 289 94
-0.033190601 0.63099998 0.16152757 1.4564701e-38 290 94
-0.032033399 0.63 0.16127159 1.539482e-38 291 94
-0.030928798 0.63 0.16127159 1.5305859e-38 292 94
-0.029824199 0.63 0.16127159 1.5213663e-38 293 94
-0.028674012 0.62900001 0.1610156 1.5214014e-38 294 94
-0.027527334 0.62800002 0.16075963 1.5029981e-38 295 94
-0.026426241 0.62800002 0.16075963 1.5213644e-38 296 94
-0.025284817 0.62699997 0.16050364 1.5121448e-38 297 94
-0.024185479 0.62699997 0.16050364 1.5121801e-38 298 94
-0.023086138 0.62699997 0.16050364 1.5121801e-38 299 94
-0.021986797 0.62699997 0.16050364 1.5213628e-38 300 94
-0.020887459 0.62699997 0.16050364 1.5121433e-38 301 94
-0.019724999 0.625 0.15999167 1.5304745e-38 302 94
-0.018599359 0.62400001 0.15973568 1.5304745e-38 303 94
-0.017477227 0.62300003 0.15947969 1.5213281e-38 304 94
-0.0163849 0.62300003 0.15947969 1.5397312e-38 305 94
-0.015268027 0.62199998 0.15922369 1.5026381e-38 306 94
-0.014177452 0.62199998 0.15922369 1.4012231e-38 307 94
-0.013065839 0.62099999 0.15896772 1.3176355e-38 308 94
-0.01197702 0.62099999 0.15896772 1.2715377e-38 309 94
-0.010870666 0.62 0.15871173 1.3452223e-38 310 94
-0.0097678201 0.61900002 0.15845574 1.3821005e-38 311 94
-0.0086825071 0.61900002 0.15845574 1.4005043e-38 312 94
-0.0075971936 0.61900002 0.15845574 1.3728457e-38 313 94
-0.0065118801 0.61900002 0.15845574 1.3267481e-38 314 94
-0.0054177996 0.61799997 0.15819974 1.2990536e-38 315 94
-0.0043202131 0.616 0.15768778 1.3170614e-38 316 94
-0.0032348998 0.61500001 0.1574318 1.1695484e-38 317 94
-0.0021565999 0.61500001 0.1574318 1.1786958e-38 318 94
-0.0010765466 0.61400002 0.15717582 1.1879512e-38 319 94
0 0.61400002 0.15717582 1.1602212e-38 320 94
0.0010765466 0.61400002 0.15717582 1.1602212e-38 321 94
0.0021530932 0.61400002 0.15717582 1.1326e-38 322 94
0.0032243798 0.61299998 0.15691981 1.2432348e-38 323 94
0.0042991731 0.61299998 0.15691981 1.2804352e-38 324 94
0.0053651999 0.61199999 0.15666384 1.2435568e-38 325 94
0.0064382395 0.61199999 0.15666384 1.2711061e-38 326 94
0.0075112795 0.61199999 0.15666384 1.2434834e-38 327 94
0.0085562663 0.61000001 0.15615188 1.1610848e-38 328 94
0.0096258 0.61000001 0.15615188 1.2348413e-38 329 94
0.010695334 0.61000001 0.15615188 1.3637005e-38 330 94
0.01174558 0.60900003 0.15589587 1.3913593e-38 331 94
0.01281336 0.60900003 0.15589587 1.4464971e-38 332 94
0.01388114 0.60900003 0.15589587 1.4741559e-38 333 94
0.014924373 0.60799998 0.15563989 1.169443e-38 334 94
0.0159378 0.60600001 0.15512791 9.7583216e-39 335 94
0.017000319 0.60600001 0.15512791 9.6614344e-39 336 94
0.018062839 0.60600001 0.15512791 9.6614344e-39 337 94
0.019125359 0.60600001 0.15512791 9.1111347e-39 338 94
0.020121252 0.60399997 0.15461594 9.1111347e-39 339 94
0.021180267 0.60399997 0.15461594 9.4763075e-39 340 94
0.02220246 0.60299999 0.15435995 1.2518763e-38 341 94
0.023259718 0.60299999 0.15435995 1.1517557e-38 342 94
0.024276651 0.602 0.15410396 1.3177437e-38 343 94
0.025332158 0.602 0.15410396 1.400471e-38 344 94
0.026343834 0.60100001 0.15384799 1.2898721e-38 345 94
0.027397586 0.60100001 0.15384799 8.9235191e-39 346 94
0.028404001 0.60000002 0.15359201 7.8171715e-39 347 94
0.029456001 0.60000002 0.15359201 9.1118634e-39 348 94
0.030508002 0.60000002 0.15359201 9.5728415e-39 349 94
0.03156 0.60000002 0.15359201 8.843205e-39 350 94
0.032557648 0.59899998 0.153336 1.1424683e-38 351 94
0.033551786 0.59799999 0.15308002 1.1618813e-38 352 94
0.034600276 0.59799999 0.15308002 1.3278694e-38 353 94
0.035589159 0.597 0.15282404 1.3556373e-38 354 94
0.036635898 0.597 0.15282404 1.383296e-38 355 94
0.03761952 0.59600002 0.15256804 1.3926595e-38 356 94
0.038599633 0.59500003 0.15231207 1.401879e-38 357 94
0.039642867 0.59500003 0.15231207 1.3926597e-38 358 94
0.040617716 0.59399998 0.15205607 1.3926597e-38 359 94
0.041659195 0.59399998 0.15205607 1.3926241e-38 360 94
0.042700678 0.59399998 0.15205607 1.3926241e-38 361 94
0.04366852 0.59299999 0.1518001 1.3743285e-38 362 94
0.044708245 0.59299999 0.1518001 1.3282307e-38 363 94
0.045747969 0.59299999 0.1518001 1.3187941e-38 364 94
0.046708796 0.59200001 0.15154409 1.1528419e-38 365 94
0.047746774 0.59200001 0.15154409 9.5033147e-39 366 94
0.048784748 0.59200001 0.15154409 6.9218371e-39 367 94
0.04973856 0.59100002 0.15128812 8.2993597e-39 368 94
0.050774779 0.59100002 0.15128812 1.1895349e-38 369 94
0.051723327 0.58999997 0.15103212 1.3461593e-38 370 94
0.052757796 0.58999997 0.15103212 1.4106963e-38 371 94
0.053701088 0.58899999 0.15077613 1.4750149e-38 372 94
0.054733802 0.58899999 0.15077613 1.4657953e-38 373 94
0.055671841 0.588 0.15052016 1.4830803e-38 374 94
0.0567028 0.588 0.15052016 1.2617748e-38 375 94
0.057831947 0.58899999 0.15077613 1.4538375e-38 376 94
0.058864653 0.58899999 0.15077613 1.3432027e-38 377 94
0.059897371 0.58899999 0.15077613 1.2054182e-38 378 94
0.061033528 0.58999997 0.15103212 1.675652e-38 379 94
0.062067993 0.58999997 0.15103212 1.4289227e-38 380 94
0.063102461 0.58999997 0.15103212 1.4104837e-38 381 94
0.064354345 0.59200001 0.15154409 1.4195944e-38 382 94
0.065502778 0.59299999 0.1518001 1.364277e-38 383 94
0.066766933 0.59500003 0.15231207 1.3720548e-38 384 94
0.068152063 0.59799999 0.15308002 1.2429809e-38 385 94
0.069316275 0.59899998 0.153336 1.3620772e-38 386 94
0.070601478 0.60100001 0.15384799 1.3159796e-38 387 94
0.071655221 0.60100001 0.15384799 1.1966659e-38 388 94
0.072829954 0.602 0.15410396 1.1782628e-38 389 94
0.07376273 0.60100001 0.15384799 1.0866082e-38 390 94
0.074816488 0.60100001 0.15384799 1.0773527e-38 391 94
0.079739846 0.62300003 0.15947969 1.1049041e-38 393 94
0.080832176 0.62300003 0.15947969 1.0865373e-38 394 94
0.081924498 0.62300003 0.15947969 1.1049764e-38 395 94
0.083016828 0.62300003 0.15947969 1.0866812e-38 396 94
0.084649175 0.62699997 0.16050364 1.0959366e-38 397 94
0.085748516 0.62699997 0.16050364 1.1601143e-38 398 94
0.087540425 0.63200003 0.16178358 1.1877369e-38 399 94
0.088929065 0.634 0.16229555 1.1873433e-38 400 94
0.090040676 0.634 0.16229555 1.6944191e-38 401 94
-0.11243249 0.67500001 0.17160749 1.7153091e-38 225 95
-0.111249 0.67500001 0.17160749 1.3358598e-38 226 95
-0.1100655 0.67500001 0.17160749 1.0593089e-38 227 95
-0.1087207 0.67400002 0.17135327 1.4177498e-38 228 95
-0.10721984 0.67199999 0.17084479 1.565263e-38 229 95
-0.1060416 0.67199999 0.17084479 1.363872e-38 230 95
-0.10470732 0.671 0.17059056 1.363872e-38 231 95
-0.10353082 0.671 0.17059056 1.2996951e-38 232 95
-0.10235433 0.671 0.17059056 1.2996951e-38 233 95
-0.10102707 0.67000002 0.17033634 1.3272456e-38 234 95
-0.099852331 0.67000002 0.17033634 1.3272456e-38 235 95
-0.098677598 0.67000002 0.17033634 1.3272093e-38 236 95
-0.096920758 0.66600001 0.16931939 1.3456124e-38 237 95
-0.095753036 0.66600001 0.16931939 1.3272809e-38 238 95
-0.094585314 0.66600001 0.16931939 1.3365006e-38 239 95
-0.093417592 0.66600001 0.16931939 1.3273885e-38 240 95
-0.091972843 0.66399997 0.16881092 1.3366081e-38 241 95
-0.090808637 0.66399997 0.16881092 1.3457558e-38 242 95
-0.089509413 0.66299999 0.16855669 1.3641589e-38 243 95
-0.088346958 0.66299999 0.16855669 1.3550475e-38 244 95
-0.087053001 0.662 0.16830246 1.3642671e-38 245 95
-0.085762545 0.66100001 0.16804823 1.3642315e-38 246 95
-0.084347598 0.65899998 0.16753976 1.3642315e-38 247 95
-0.083192155 0.65899998 0.16753976 1.3637609e-38 248 95
-0.082036704 0.65899998 0.16753976 1.2346872e-38 249 95
-0.08088126 0.65899998 0.16753976 1.4006393e-38 250 95
-0.079725809 0.65899998 0.16753976 1.5204936e-38 251 95
-0.078451142 0.65799999 0.16728552 1.4381309e-38 252 95
-0.076945029 0.65499997 0.16652283 1.4473505e-38 253 95
-0.075796597 0.65499997 0.16652283 1.475081e-38 254 95
-0.074648157 0.65499997 0.16652283 1.4382028e-38 255 95
-0.073387519 0.65399998 0.16626859 1.465575e-38 256 95
-0.072240837 0.65399998 0.16626859 1.4747946e-38 257 95
-0.070985451 0.653 0.16601436 1.4840157e-38 258 95
-0.069840528 0.653 0.16601436 1.502455e-38 259 95
-0.068590395 0.65200001 0.16576013 1.493417e-38 260 95
-0.067240328 0.64999998 0.16525166 1.5302594e-38 261 95
-0.066100657 0.64999998 0.16525166 1.5390109e-38 262 95
-0.064861059 0.64899999 0.16499741 1.4283763e-38 263 95
-0.063723139 0.64899999 0.16499741 1.3725881e-38 264 95
-0.062488798 0.648 0.1647432 1.4555642e-38 265 95
-0.061257958 0.64700001 0.16448897 1.6499676e-38 266 95
-0.060123552 0.64700001 0.16448897 1.6223089e-38 267 95
-0.058897976 0.64600003 0.16423474 1.5207159e-38 268 95
-0.057765324 0.64600003 0.16423474 1.4469592e-38 269 95
-0.056457333 0.64399999 0.16372626 1.5111726e-38 270 95
-0.055328183 0.64399999 0.16372626 1.5388311e-38 271 95
-0.054199036 0.64399999 0.16372626 1.4196995e-38 272 95
-0.052987486 0.64300001 0.16347203 1.5487734e-38 273 95
-0.051779442 0.64200002 0.1632178 1.4562533e-38 274 95
-0.050574899 0.64099997 0.16296355 1.2995208e-38 275 95
-0.049451008 0.64099997 0.16296355 1.4373081e-38 276 95
-0.048327126 0.64099997 0.16296355 1.4649669e-38 277 95
-0.047129598 0.63999999 0.16270933 1.4649674e-38 278 95
-0.046007466 0.63999999 0.16270933 1.4372727e-38 279 95
-0.044745065 0.63800001 0.16220087 1.4647519e-38 280 95
-0.043558061 0.63700002 0.16194664 1.5200693e-38 281 95
-0.042374559 0.63599998 0.16169238 1.5025287e-38 282 95
-0.041259438 0.63599998 0.16169238 1.3918939e-38 283 95
-0.040081199 0.63499999 0.16143815 1.4003585e-38 284 95
-0.038967833 0.63499999 0.16143815 1.4003585e-38 285 95
-0.037854467 0.63499999 0.16143815 1.3728457e-38 286 95
-0.036683239 0.634 0.16118392 1.3912848e-38 287 95
-0.035459414 0.63200003 0.16067548 1.3821005e-38 288 95
-0.034296948 0.63099998 0.16042122 1.4097592e-38 289 95
-0.033190601 0.63099998 0.16042122 1.438029e-38 290 95
-0.032033399 0.63 0.16016699 1.5486638e-38 291 95
-0.030928798 0.63 0.16016699 1.5397689e-38 292 95
-0.029824199 0.63 0.16016699 1.5305493e-38 293 95
-0.028674012 0.62900001 0.15991277 1.5214011e-38 294 95
-0.027571166 0.62900001 0.15991277 1.5214011e-38 295 95
-0.026426241 0.62800002 0.15965854 1.5213644e-38 296 95
-0.025325146 0.62800002 0.15965854 1.5121448e-38 297 95
-0.024185479 0.62699997 0.15940428 1.5212925e-38 298 95
-0.023086138 0.62699997 0.15940428 1.5212925e-38 299 95
-0.022021867 0.62800002 0.15965854 1.5396593e-38 300 95
-0.020887459 0.62699997 0.15940428 1.5488789e-38 301 95
-0.019788118 0.62699997 0.15940428 1.539659e-38 302 95
-0.018599359 0.62400001 0.15864161 1.5304395e-38 303 95
-0.017505281 0.62400001 0.15864161 1.5489159e-38 304 95
-0.0163849 0.62300003 0.15838738 1.567355e-38 305 95
-0.015268027 0.62199998 0.15813312 1.3642372e-38 306 95
-0.014177452 0.62199998 0.15813312 1.1521873e-38 307 95
-0.013065839 0.62099999 0.15787889 1.1971702e-38 308 95
-0.01197702 0.62099999 0.15787889 1.3446831e-38 309 95
-0.010870666 0.62 0.15762466 1.3450077e-38 310 95
-0.0097678201 0.61900002 0.15737043 1.38185e-38 311 95
-0.0086825071 0.61900002 0.15737043 1.3727385e-38 312 95
-0.0075971936 0.61900002 0.15737043 1.3450796e-38 313 95
-0.0065118801 0.61900002 0.15737043 1.2988371e-38 314 95
-0.0054177996 0.61799997 0.15711619 1.2435197e-38 315 95
-0.0043202131 0.616 0.15660773 1.2710339e-38 316 95
-0.0032401599 0.616 0.15660773 1.2525948e-38 317 95
-0.0021565999 0.61500001 0.1563535 1.1882026e-38 318 95
-0.0010782999 0.61500001 0.1563535 1.1052265e-38 319 95
0 0.61400002 0.15609927 1.1416736e-38 320 95
0.0010765466 0.61400002 0.15609927 1.1139789e-38 321 95
0.0021530932 0.61400002 0.15609927 1.0679181e-38 322 95
0.0032243798 0.61299998 0.15584502 1.1048322e-38 323 95
0.0042991731 0.61299998 0.15584502 1.1604364e-38 324 95
0.0053739659 0.61299998 0.15584502 1.0498375e-38 325 95
0.0064382395 0.61199999 0.15559079 1.0311811e-38 326 95
0.0075112795 0.61199999 0.15559079 1.0311811e-38 327 95
0.0085562663 0.61000001 0.15508233 9.8587611e-39 328 95
0.0096258 0.61000001 0.15508233 1.1426087e-38 329 95
0.010695334 0.61000001 0.15508233 1.2808321e-38 330 95
0.011764866 0.61000001 0.15508233 1.3822114e-38 331 95
0.01281336 0.60900003 0.1548281 1.4098709e-38 332 95
0.01388114 0.60900003 0.1548281 1.428274e-38 333 95
0.014924373 0.60799998 0.15457386 1.123597e-38 334 95
0.015964098 0.60699999 0.15431963 9.0236334e-39 335 95
0.017028373 0.60699999 0.15431963 9.293375e-39 336 95
0.018062839 0.60600001 0.1540654 9.478125e-39 337 95
0.019125359 0.60600001 0.1540654 9.3873517e-39 338 95
0.020187879 0.60600001 0.1540654 9.2029618e-39 339 95
0.021180267 0.60399997 0.15355691 1.0215662e-38 340 95
0.022239277 0.60399997 0.15355691 1.298189e-38 341 95
0.023259718 0.60299999 0.15330268 1.1144092e-38 342 95
0.024316978 0.60299999 0.15330268 1.0682754e-38 343 95
0.025332158 0.602 0.15304847 1.188564e-38 344 95
0.026343834 0.60100001 0.15279424 1.2991986e-38 345 95
0.027397586 0.60100001 0.15279424 9.2955428e-39 346 95
0.02845134 0.60100001 0.15279424 7.5441846e-39 347 95
0.029505095 0.60100001 0.15279424 9.1107816e-39 348 95
0.030508002 0.60000002 0.15254 9.6639554e-39 349 95
0.03156 0.60000002 0.15254 9.6675525e-39 350 95
0.032557648 0.59899998 0.15228575 1.1788411e-38 351 95
0.033607893 0.59899998 0.15228575 1.1799589e-38 352 95
0.034658138 0.59899998 0.15228575 1.3735697e-38 353 95
0.035648771 0.59799999 0.15203153 1.3371256e-38 354 95
0.036635898 0.597 0.1517773 1.3832234e-38 355 95
0.03761952 0.59600002 0.15152307 1.3557815e-38 356 95
0.038664505 0.59600002 0.15152307 1.3742566e-38 357 95
0.039642867 0.59500003 0.15126882 1.3742566e-38 358 95
0.040686101 0.59500003 0.15126882 1.3742566e-38 359 95
0.041659195 0.59399998 0.1510146 1.3742563e-38 360 95
0.042700678 0.59399998 0.1510146 1.3742563e-38 361 95
0.043742158 0.59399998 0.1510146 1.3742561e-38 362 95
0.044708245 0.59299999 0.15076037 1.2820603e-38 363 95
0.045747969 0.59299999 0.15076037 1.1896824e-38 364 95
0.046787698 0.59299999 0.15076037 8.7625309e-39 365 95
0.047746774 0.59200001 0.15050614 6.0013283e-39 366 95
0.048784748 0.59200001 0.15050614 9.1359797e-39 367 95
0.04973856 0.59100002 0.1502519 1.346054e-38 368 95
0.050774779 0.59100002 0.1502519 1.4843474e-38 369 95
0.051723327 0.58999997 0.14999765 1.4936707e-38 370 95
0.052757796 0.58999997 0.14999765 1.4475728e-38 371 95
0.053701088 0.58899999 0.14974342 1.475194e-38 372 95
0.054733802 0.58899999 0.14974342 1.475194e-38 373 95
0.055766519 0.58899999 0.14974342 1.5014842e-38 374 95
0.056799233 0.58899999 0.14974342 1.2894342e-38 375 95
0.057831947 0.58899999 0.14974342 1.45373e-38 376 95
0.058864653 0.58899999 0.14974342 1.3523147e-38 377 95
0.059897371 0.58899999 0.14974342 1.1775435e-38 378 95
0.061033528 0.58999997 0.14999765 1.6293021e-38 379 95
0.062067993 0.58999997 0.14999765 1.392152e-38 380 95
0.063102461 0.58999997 0.14999765 1.4198107e-38 381 95
0.064463049 0.59299999 0.15076037 1.4012994e-38 382 95
0.065613233 0.59399998 0.1510146 1.3643852e-38 383 95
0.066766933 0.59500003 0.15126882 1.372055e-38 384 95
0.068152063 0.59799999 0.15203153 1.2429812e-38 385 95
0.069316275 0.59899998 0.15228575 1.3529303e-38 386 95
0.070601478 0.60100001 0.15279424 1.297613e-38 387 95
0.071774453 0.602 0.15304847 1.2058854e-38 388 95
0.072950937 0.60299999 0.15330268 1.1782628e-38 389 95
0.073885463 0.602 0.15304847 1.1049028e-38 390 95
0.074940972 0.602 0.15304847 1.1049028e-38 391 95
0.079739846 0.62300003 0.15838738 1.1141588e-38 393 95
0.080832176 0.62300003 0.15838738 1.0866802e-38 394 95
0.081924498 0.62300003 0.15838738 1.0958998e-38 395 95
0.083016828 0.62300003 0.15838738 1.0959361e-38 396 95
0.084649175 0.62699997 0.15940428 1.1051915e-38 397 95
0.085748516 0.62699997 0.15940428 1.15093e-38 398 95
0.087540425 0.63200003 0.16067548 1.1693691e-38 399 95
0.088929065 0.634 0.16118392 1.1691912e-38 400 95
0.090040676 0.634 0.16118392 1.6854508e-38 401 95
-0.11259907 0.676 0.17067648 1.6970498e-38 225 96
-0.111249 0.67500001 0.170424 1.3269649e-38 226 96
-0.1100655 0.67500001 0.170424 1.0042802e-38 227 96
-0.108882 0.67500001 0.170424 1.3808723e-38 228 96
-0.10753895 0.67400002 0.17017151 1.5652636e-38 229 96
-0.1060416 0.67199999 0.16966654 1.3362856e-38 230 96
-0.10486335 0.67199999 0.16966654 1.3362856e-38 231 96
-0.10353082 0.671 0.16941407 1.3088067e-38 232 96
-0.10235433 0.671 0.16941407 1.3088067e-38 233 96
-0.10102707 0.67000002 0.1691616 1.3363207e-38 234 96
-0.099852331 0.67000002 0.1691616 1.3363207e-38 235 96
-0.098383039 0.66799998 0.16865663 1.3179892e-38 236 96
-0.097211808 0.66799998 0.16865663 1.3548674e-38 237 96
-0.095753036 0.66600001 0.16815168 1.3458274e-38 238 96
-0.094585314 0.66600001 0.16815168 1.3458274e-38 239 96
-0.093417592 0.66600001 0.16815168 1.3274961e-38 240 96
-0.091972843 0.66399997 0.16764671 1.3551188e-38 241 96
-0.090808637 0.66399997 0.16764671 1.3550469e-38 242 96
-0.089644417 0.66399997 0.16764671 1.3643024e-38 243 96
-0.088346958 0.66299999 0.16739424 1.3642668e-38 244 96
-0.087184496 0.66299999 0.16739424 1.3550472e-38 245 96
-0.08589229 0.662 0.16714177 1.3733787e-38 246 96
-0.084603593 0.66100001 0.16688928 1.4102571e-38 247 96
-0.08344464 0.66100001 0.16688928 1.4194027e-38 248 96
-0.082036704 0.65899998 0.16638431 1.3548657e-38 249 96
-0.08088126 0.65899998 0.16638431 1.4194027e-38 250 96
-0.079725809 0.65899998 0.16638431 1.4747201e-38 251 96
-0.078451142 0.65799999 0.16613184 1.4380956e-38 252 96
-0.076945029 0.65499997 0.16537438 1.4473151e-38 253 96
-0.075796597 0.65499997 0.16537438 1.465717e-38 254 96
-0.074648157 0.65499997 0.16537438 1.4564974e-38 255 96
-0.073387519 0.65399998 0.16512191 1.4657896e-38 256 96
-0.072240837 0.65399998 0.16512191 1.5026678e-38 257 96
-0.070985451 0.653 0.16486943 1.4935221e-38 258 96
-0.069840528 0.653 0.16486943 1.4843026e-38 259 96
-0.068590395 0.65200001 0.16461696 1.4751927e-38 260 96
-0.06744723 0.65200001 0.16461696 1.5212547e-38 261 96
-0.066100657 0.64999998 0.16411199 1.511748e-38 262 96
-0.064960994 0.64999998 0.16411199 1.3919295e-38 263 96
-0.063723139 0.64899999 0.16385952 1.4283737e-38 264 96
-0.062488798 0.648 0.16360703 1.4375932e-38 265 96
-0.061257958 0.64700001 0.16335456 1.6224894e-38 266 96
-0.060123552 0.64700001 0.16335456 1.6132698e-38 267 96
-0.058897976 0.64600003 0.16310208 1.5211846e-38 268 96
-0.057765324 0.64600003 0.16310208 1.4843422e-38 269 96
-0.056457333 0.64399999 0.16259712 1.5211124e-38 270 96
-0.055328183 0.64399999 0.16259712 1.5118929e-38 271 96
-0.054199036 0.64399999 0.16259712 1.475052e-38 272 96
-0.052987486 0.64300001 0.16234463 1.5856509e-38 273 96
-0.051779442 0.64200002 0.16209216 1.4753038e-38 274 96
-0.050574899 0.64099997 0.16183966 1.3738888e-38 275 96
-0.049451008 0.64099997 0.16183966 1.4473559e-38 276 96
-0.048327126 0.64099997 0.16183966 1.4934536e-38 277 96
-0.047203235 0.64099997 0.16183966 1.5482304e-38 278 96
-0.046007466 0.63999999 0.16158719 1.4099368e-38 279 96
-0.04488533 0.63999999 0.16158719 1.4189049e-38 280 96
-0.043626439 0.63800001 0.16108224 1.5479788e-38 281 96
-0.042374559 0.63599998 0.16057727 1.6222038e-38 282 96
-0.041259438 0.63599998 0.16057727 1.5299723e-38 283 96
-0.040081199 0.63499999 0.1603248 1.4193384e-38 284 96
-0.038967833 0.63499999 0.1603248 1.4285581e-38 285 96
-0.037854467 0.63499999 0.1603248 1.4009729e-38 286 96
-0.036683239 0.634 0.16007231 1.4102284e-38 287 96
-0.035459414 0.63200003 0.15956736 1.4102631e-38 288 96
-0.034296948 0.63099998 0.15931487 1.4194827e-38 289 96
-0.033190601 0.63099998 0.15931487 1.456576e-38 290 96
-0.032084245 0.63099998 0.15931487 1.5395521e-38 291 96
-0.030928798 0.63 0.1590624 1.530549e-38 292 96
-0.029824199 0.63 0.1590624 1.530549e-38 293 96
-0.028719598 0.63 0.1590624 1.5214014e-38 294 96
-0.027571166 0.62900001 0.15880992 1.5029981e-38 295 96
-0.02646832 0.62900001 0.15880992 1.5213647e-38 296 96
-0.025325146 0.62800002 0.15855744 1.5121451e-38 297 96
-0.024185479 0.62699997 0.15830494 1.5212572e-38 298 96
-0.023086138 0.62699997 0.15830494 1.5212572e-38 299 96
-0.022021867 0.62800002 0.15855744 1.5212572e-38 300 96
-0.020887459 0.62699997 0.15830494 1.5212572e-38 301 96
-0.019788118 0.62699997 0.15830494 1.5304042e-38 302 96
-0.018629165 0.625 0.15779999 1.5396237e-38 303 96
-0.017505281 0.62400001 0.15754752 1.5488803e-38 304 96
-0.0163849 0.62300003 0.15729505 1.5396606e-38 305 96
-0.015292573 0.62300003 0.15729505 1.2625702e-38 306 96
-0.014177452 0.62199998 0.15704255 1.1150932e-38 307 96
-0.013086879 0.62199998 0.15704255 1.2616347e-38 308 96
-0.01197702 0.62099999 0.15679006 1.3353913e-38 309 96
-0.010888199 0.62099999 0.15679006 1.3355729e-38 310 96
-0.0097835995 0.62 0.15653759 1.4277687e-38 311 96
-0.0086825071 0.61900002 0.15628512 1.3452226e-38 312 96
-0.0075971936 0.61900002 0.15628512 1.1239531e-38 313 96
-0.0065118801 0.61900002 0.15628512 1.1788366e-38 314 96
-0.0054265666 0.61900002 0.15628512 1.215679e-38 315 96
-0.0043342398 0.61799997 0.15603262 1.2435184e-38 316 96
-0.0032401599 0.616 0.15552768 1.2803607e-38 317 96
-0.0021601066 0.616 0.15552768 1.1602196e-38 318 96
-0.0010782999 0.61500001 0.1552752 1.0403653e-38 319 96
0 0.61500001 0.1552752 1.113907e-38 320 96
0.0010765466 0.61400002 0.15502271 1.0862482e-38 321 96
0.0021530932 0.61400002 0.15502271 9.9412513e-39 322 96
0.00322964 0.61400002 0.15502271 9.8490557e-39 323 96
0.0042991731 0.61299998 0.15477023 1.0218914e-38 324 96
0.0053739659 0.61299998 0.15477023 9.9419674e-39 325 96
0.0064487597 0.61299998 0.15477023 9.7586397e-39 326 96
0.007523553 0.61299998 0.15477023 8.928879e-39 327 96
0.0085843196 0.61199999 0.15451775 8.6587717e-39 328 96
0.0096258 0.61000001 0.1540128 1.0687076e-38 329 96
0.010695334 0.61000001 0.1540128 1.2068952e-38 330 96
0.011764866 0.61000001 0.1540128 1.3636637e-38 331 96
0.01281336 0.60900003 0.15376033 1.4283821e-38 332 96
0.01388114 0.60900003 0.15376033 1.4283821e-38 333 96
0.014924373 0.60799998 0.15350783 1.0591326e-38 334 96
0.015964098 0.60699999 0.15325534 8.4708268e-39 335 96
0.017028373 0.60699999 0.15325534 8.9256701e-39 336 96
0.018092647 0.60699999 0.15325534 9.2022584e-39 337 96
0.019125359 0.60600001 0.15300287 9.2033149e-39 338 96
0.020187879 0.60600001 0.15300287 9.3873461e-39 339 96
0.021250399 0.60600001 0.15300287 1.1228372e-38 340 96
0.022239277 0.60399997 0.15249792 1.4732165e-38 341 96
0.023298291 0.60399997 0.15249792 1.2431581e-38 342 96
0.024316978 0.60299999 0.15224543 1.0680223e-38 343 96
0.025332158 0.602 0.15199296 1.1238456e-38 344 96
0.026387665 0.602 0.15199296 1.2990171e-38 345 96
0.027397586 0.60100001 0.15174048 9.2966246e-39 346 96
0.02845134 0.60100001 0.15174048 7.3605164e-39 347 96
0.029505095 0.60100001 0.15174048 8.6505265e-39 348 96
0.030508002 0.60000002 0.15148799 9.1118634e-39 349 96
0.03156 0.60000002 0.15148799 9.9412513e-39 350 96
0.032612 0.60000002 0.15148799 1.2430175e-38 351 96
0.033607893 0.59899998 0.15123551 1.198217e-38 352 96
0.034658138 0.59899998 0.15123551 1.3733887e-38 353 96
0.035648771 0.59799999 0.15098304 1.3002833e-38 354 96
0.036697265 0.59799999 0.15098304 1.3555648e-38 355 96
0.037682641 0.597 0.15073057 1.3465616e-38 356 96
0.038664505 0.59600002 0.15047808 1.3926595e-38 357 96
0.039709494 0.59600002 0.15047808 1.3926595e-38 358 96
0.040686101 0.59500003 0.15022561 1.3742563e-38 359 96
0.041729335 0.59500003 0.15022561 1.3650365e-38 360 96
0.042700678 0.59399998 0.14997311 1.3465972e-38 361 96
0.043742158 0.59399998 0.14997311 1.3371973e-38 362 96
0.044708245 0.59299999 0.14972064 1.1528419e-38 363 96
0.045747969 0.59299999 0.14972064 8.7661252e-39 364 96
0.046787698 0.59299999 0.14972064 7.1987995e-39 365 96
0.047746774 0.59200001 0.14946815 9.0340605e-39 366 96
0.048784748 0.59200001 0.14946815 1.4104461e-38 367 96
0.04973856 0.59100002 0.14921568 1.4475022e-38 368 96
0.050774779 0.59100002 0.14921568 1.4567219e-38 369 96
0.051723327 0.58999997 0.1489632 1.4660471e-38 370 96
0.052757796 0.58999997 0.1489632 1.4476079e-38 371 96
0.053701088 0.58899999 0.1487107 1.4751221e-38 372 96
0.054733802 0.58899999 0.1487107 1.4843417e-38 373 96
0.055766519 0.58899999 0.1487107 1.4831172e-38 374 96
0.056799233 0.58899999 0.1487107 1.2895064e-38 375 96
0.057930127 0.58999997 0.1489632 1.4630217e-38 376 96
0.058964591 0.58999997 0.1489632 1.3431674e-38 377 96
0.05999906 0.58999997 0.1489632 1.1774712e-38 378 96
0.061033528 0.58999997 0.1489632 1.6107908e-38 379 96
0.062067993 0.58999997 0.1489632 1.3645291e-38 380 96
0.063209422 0.59100002 0.14921568 1.4198105e-38 381 96
0.064463049 0.59299999 0.14972064 1.4012997e-38 382 96
0.066386454 0.60100001 0.15174048 1.3643855e-38 383 96
0.067440212 0.60100001 0.15174048 1.3630872e-38 384 96
0.06849397 0.60100001 0.15174048 1.2247937e-38 385 96
0.06954772 0.60100001 0.15174048 1.3805884e-38 386 96
0.070718944 0.602 0.15199296 1.3160515e-38 387 96
0.071774453 0.602 0.15199296 1.2333996e-38 388 96
0.072950937 0.60299999 0.15224543 1.2241801e-38 389 96
0.074990064 0.611 0.15426527 1.1416006e-38 390 96
0.076061353 0.611 0.15426527 1.1508201e-38 391 96
0.078203924 0.611 0.15426527 1.114194e-38 393 96
0.079275213 0.611 0.15426527 1.0958995e-38 394 96
0.082713492 0.62900001 0.15880992 1.0958995e-38 395 96
0.084919192 0.62900001 0.15880992 1.1051912e-38 397 96
0.086022034 0.62900001 0.15880992 1.1418902e-38 398 96
0.087540425 0.63200003 0.15956736 1.1234152e-38 399 96
0.088929065 0.634 0.16007231 1.1785551e-38 400 96
0.090040676 0.634 0.16007231 1.6764113e-38 401 96
-0.11259907 0.676 0.16949122 1.7154889e-38 225 97
-0.111249 0.67500001 0.1692405 1.3639871e-38 226 97
-0.1100655 0.67500001 0.1692405 1.0228632e-38 227 97
-0.108882 0.67500001 0.1692405 1.3714372e-38 228 97
-0.10753895 0.67400002 0.16898978 1.5558285e-38 229 97
-0.1063572 0.67400002 0.16898978 1.3362138e-38 230 97
-0.10486335 0.67199999 0.16848831 1.3454333e-38 231 97
-0.10368511 0.67199999 0.16848831 1.3179541e-38 232 97
-0.10235433 0.671 0.1682376 1.3179541e-38 233 97
-0.10102707 0.67000002 0.16798687 1.3455393e-38 234 97
-0.099852331 0.67000002 0.16798687 1.3455393e-38 235 97
-0.098383039 0.66799998 0.1674854 1.3363557e-38 236 97
-0.097211808 0.66799998 0.1674854 1.3363557e-38 237 97
-0.09589681 0.667 0.16723467 1.3640873e-38 238 97
-0.094585314 0.66600001 0.16698395 1.3733068e-38 239 97
-0.093417592 0.66600001 0.16698395 1.4008576e-38 240 97
-0.092249878 0.66600001 0.16698395 1.4193326e-38 241 97
-0.090808637 0.66399997 0.16648249 1.4101478e-38 242 97
-0.089644417 0.66399997 0.16648249 1.4009282e-38 243 97
-0.088480204 0.66399997 0.16648249 1.3457558e-38 244 97
-0.087184496 0.66299999 0.16623177 1.3457558e-38 245 97
-0.086022034 0.66299999 0.16623177 1.3178841e-38 246 97
-0.084731586 0.662 0.16598105 1.4561775e-38 247 97
-0.08344464 0.66100001 0.16573033 1.5023467e-38 248 97
-0.08228568 0.66100001 0.16573033 1.4562849e-38 249 97
-0.08088126 0.65899998 0.16522887 1.5115652e-38 250 97
-0.079725809 0.65899998 0.16522887 1.4930902e-38 251 97
-0.078451142 0.65799999 0.16497815 1.4470652e-38 252 97
-0.077179976 0.65700001 0.16472742 1.4378097e-38 253 97
-0.075796597 0.65499997 0.16422595 1.4469933e-38 254 97
-0.074648157 0.65499997 0.16422595 1.4838356e-38 255 97
-0.073499724 0.65499997 0.16422595 1.4841954e-38 256 97
-0.072240837 0.65399998 0.16397522 1.5118539e-38 257 97
-0.071094155 0.65399998 0.16397522 1.4384571e-38 258 97
-0.069840528 0.653 0.1637245 1.4476767e-38 259 97
-0.068695597 0.653 0.1637245 1.4477133e-38 260 97
-0.06744723 0.65200001 0.16347378 1.475408e-38 261 97
-0.066100657 0.64999998 0.16297232 1.4934533e-38 262 97
-0.064960994 0.64999998 0.16297232 1.3643794e-38 263 97
-0.063723139 0.64899999 0.1627216 1.4285581e-38 264 97
-0.062488798 0.648 0.16247088 1.5207177e-38 265 97
-0.06135264 0.648 0.16247088 1.5856509e-38 266 97
-0.060123552 0.64700001 0.16222015 1.5764313e-38 267 97
-0.058989145 0.64700001 0.16222015 1.493743e-38 268 97
-0.057765324 0.64600003 0.16196944 1.5029627e-38 269 97
-0.056632672 0.64600003 0.16196944 1.5674269e-38 270 97
-0.055328183 0.64399999 0.16146797 1.5398042e-38 271 97
-0.054199036 0.64399999 0.16146797 1.5488806e-38 272 97
-0.05306989 0.64399999 0.16146797 1.5581001e-38 273 97
-0.051860094 0.64300001 0.16121724 1.4755559e-38 274 97
-0.050574899 0.64099997 0.16071577 1.4939951e-38 275 97
-0.049451008 0.64099997 0.16071577 1.5490957e-38 276 97
-0.048327126 0.64099997 0.16071577 1.5490957e-38 277 97
-0.047203235 0.64099997 0.16071577 1.5762834e-38 278 97
-0.046007466 0.63999999 0.16046506 1.4287704e-38 279 97
-0.04488533 0.63999999 0.16046506 1.4375216e-38 280 97
-0.043626439 0.63800001 0.15996361 1.5942183e-38 281 97
-0.042374559 0.63599998 0.15946215 1.6869206e-38 282 97
-0.041259438 0.63599998 0.15946215 1.6223837e-38 283 97
-0.040081199 0.63499999 0.15921143 1.5211142e-38 284 97
-0.038967833 0.63499999 0.15921143 1.5395534e-38 285 97
-0.037854467 0.63499999 0.15921143 1.5211518e-38 286 97
-0.036683239 0.634 0.1589607 1.5488105e-38 287 97
-0.035459414 0.63200003 0.15845926 1.5211874e-38 288 97
-0.034296948 0.63099998 0.1582085 1.4842733e-38 289 97
-0.033190601 0.63099998 0.1582085 1.4934913e-38 290 97
-0.032084245 0.63099998 0.1582085 1.5303694e-38 291 97
-0.030977892 0.63099998 0.1582085 1.530549e-38 292 97
-0.029824199 0.63 0.15795779 1.530549e-38 293 97
-0.028719598 0.63 0.15795779 1.5305493e-38 294 97
-0.027571166 0.62900001 0.15770707 1.5213298e-38 295 97
-0.02646832 0.62900001 0.15770707 1.5213291e-38 296 97
-0.025325146 0.62800002 0.15745634 1.5121095e-38 297 97
-0.024185479 0.62699997 0.15720561 1.5212928e-38 298 97
-0.023086138 0.62699997 0.15720561 1.5120732e-38 299 97
-0.022021867 0.62800002 0.15745634 1.5212925e-38 300 97
-0.020887459 0.62699997 0.15720561 1.5120729e-38 301 97
-0.019788118 0.62699997 0.15720561 1.5304397e-38 302 97
-0.018629165 0.625 0.15670416 1.5211843e-38 303 97
-0.017533332 0.625 0.15670416 1.5303323e-38 304 97
-0.0164112 0.62400001 0.15645345 1.4934539e-38 305 97
-0.015292573 0.62300003 0.15620272 1.2623531e-38 306 97
-0.014177452 0.62199998 0.15595198 1.1701935e-38 307 97
-0.013086879 0.62199998 0.15595198 1.3169502e-38 308 97
-0.01197702 0.62099999 0.15570126 1.3261698e-38 309 97
-0.010888199 0.62099999 0.15570126 1.3263162e-38 310 97
-0.0097835995 0.62 0.15545054 1.4461706e-38 311 97
-0.0086965328 0.62 0.15545054 1.3451494e-38 312 97
-0.0076094666 0.62 0.15545054 1.0317201e-38 313 97
-0.0065118801 0.61900002 0.15519981 1.0956084e-38 314 97
-0.0054265666 0.61900002 0.15519981 1.1601454e-38 315 97
-0.0043342398 0.61799997 0.15494907 1.1974942e-38 316 97
-0.0032506797 0.61799997 0.15494907 1.2620311e-38 317 97
-0.0021601066 0.616 0.15444762 1.1694748e-38 318 97
-0.0010782999 0.61500001 0.15419689 9.9426708e-39 319 97
0 0.61500001 0.15419689 1.1045779e-38 320 97
0.0010765466 0.61400002 0.15394618 1.05848e-38 321 97
0.0021530932 0.61400002 0.15394618 1.0031649e-38 322 97
0.00322964 0.61400002 0.15394618 9.6628666e-39 323 97
0.0043061865 0.61400002 0.15394618 9.1118662e-39 324 97
0.0053739659 0.61299998 0.15369543 8.9271162e-39 325 97
0.0064487597 0.61299998 0.15369543 8.928191e-39 326 97
0.007523553 0.61299998 0.15369543 7.9140405e-39 327 97
0.0085983463 0.61299998 0.15369543 8.1020219e-39 328 97
0.0096258 0.61000001 0.15294327 1.0315076e-38 329 97
0.010695334 0.61000001 0.15294327 1.1974238e-38 330 97
0.011764866 0.61000001 0.15294327 1.3449727e-38 331 97
0.0128344 0.61000001 0.15294327 1.4282743e-38 332 97
0.01388114 0.60900003 0.15269254 1.4467136e-38 333 97
0.014924373 0.60799998 0.15244181 9.4839025e-39 334 97
0.015990399 0.60799998 0.15244181 7.4555987e-39 335 97
0.017028373 0.60699999 0.15219109 8.5572575e-39 336 97
0.018092647 0.60699999 0.15219109 8.8342045e-39 337 97
0.019125359 0.60600001 0.15194035 9.111485e-39 338 97
0.020187879 0.60600001 0.15194035 9.6646588e-39 339 97
0.021250399 0.60600001 0.15194035 1.205634e-38 340 97
0.022239277 0.60399997 0.15143889 1.6020752e-38 341 97
0.023298291 0.60399997 0.15143889 1.3723418e-38 342 97
0.024357304 0.60399997 0.15143889 1.1971702e-38 343 97
0.025374239 0.60299999 0.15118816 1.151289e-38 344 97
0.026387665 0.602 0.15093745 1.1605086e-38 345 97
0.027443172 0.602 0.15093745 9.0193174e-39 346 97
0.02845134 0.60100001 0.15068673 7.451633e-39 347 97
0.029505095 0.60100001 0.15068673 8.3742955e-39 348 97
0.030558847 0.60100001 0.15068673 9.019665e-39 349 97
0.03156 0.60000002 0.150436 1.0399709e-38 350 97
0.032612 0.60000002 0.150436 1.3257774e-38 351 97
0.033663999 0.60000002 0.150436 1.2350949e-38 352 97
0.034716003 0.60000002 0.150436 1.336546e-38 353 97
0.035708383 0.59899998 0.15018526 1.3002105e-38 354 97
0.036758631 0.59899998 0.15018526 1.3647474e-38 355 97
0.037745759 0.59799999 0.14993455 1.3465616e-38 356 97
0.038729381 0.597 0.14968382 1.3742563e-38 357 97
0.039709494 0.59600002 0.14943309 1.3651087e-38 358 97
0.040754482 0.59600002 0.14943309 1.3558891e-38 359 97
0.041799467 0.59600002 0.14943309 1.3740761e-38 360 97
0.042772565 0.59500003 0.14918238 1.3187588e-38 361 97
0.043815803 0.59500003 0.14918238 1.1805707e-38 362 97
0.044783637 0.59399998 0.14893162 9.3167837e-39 363 97
0.045825116 0.59399998 0.14893162 5.9084082e-39 364 97
0.046787698 0.59299999 0.1486809 8.0292664e-39 365 97
0.047827426 0.59299999 0.1486809 1.2904106e-38 366 97
0.048784748 0.59200001 0.14843018 1.557778e-38 367 97
0.049822718 0.59200001 0.14843018 1.4751589e-38 368 97
0.050774779 0.59100002 0.14817946 1.4290613e-38 369 97
0.051810998 0.59100002 0.14817946 1.4474278e-38 370 97
0.052847218 0.59100002 0.14817946 1.4566474e-38 371 97
0.053792261 0.58999997 0.14792871 1.4383517e-38 372 97
0.054826729 0.58999997 0.14792871 1.4475713e-38 373 97
0.055766519 0.58899999 0.147678 1.455494e-38 374 97
0.056799233 0.58899999 0.147678 1.2802863e-38 375 97
0.057930127 0.58999997 0.14792871 1.463022e-38 376 97
0.058964591 0.58999997 0.14792871 1.3523873e-38 377 97
0.05999906 0.58999997 0.14792871 1.1775435e-38 378 97
0.061033528 0.58999997 0.14792871 1.5740206e-38 379 97
0.062067993 0.58999997 0.14792871 1.3460895e-38 380 97
0.063102461 0.58999997 0.14792871 1.4198461e-38 381 97
0.064571753 0.59399998 0.14893162 1.4288508e-38 382 97
0.066386454 0.60100001 0.15068673 1.3919727e-38 383 97
0.067440212 0.60100001 0.15068673 1.3815261e-38 384 97
0.06849397 0.60100001 0.15068673 1.234013e-38 385 97
0.06954772 0.60100001 0.15068673 1.3806234e-38 386 97
0.070718944 0.602 0.15093745 1.325306e-38 387 97
0.071893677 0.60299999 0.15118816 1.2334352e-38 388 97
0.072950937 0.60299999 0.15118816 1.2149602e-38 389 97
0.07486733 0.61000001 0.15294327 1.1508201e-38 390 97
0.076061353 0.611 0.153194 1.1508201e-38 391 97
0.085054196 0.63 0.15795779 1.1051912e-38 397 97
0.086158797 0.63 0.15795779 1.132707e-38 398 97
0.087817445 0.634 0.1589607 1.1050843e-38 399 97
0.089069329 0.63499999 0.15921143 1.1787354e-38 400 97
-0.11259907 0.676 0.16830596 1.7247808e-38 225 98
-0.11141381 0.676 0.16830596 1.4009379e-38 226 98
-0.1100655 0.67500001 0.16805699 1.0505944e-38 227 98
