# .PCD v.7 - Point Cloud Data file format
FIELDS x y z rgb imX imY
SIZE 4 4 4 4 4 4
TYPE F F F F F F
COUNT 1 1 1 1 1 1
WIDTH 839
HEIGHT 1
VIEWPOINT 0 0 0 1 0 0 0
POINTS 839
DATA ascii
-0.053981625 0.71600002 -0.03389544 1.0507393e-38 277 267
-0.052726239 0.71600002 -0.03389544 1.0966576e-38 278 267
-0.05132708 0.71399999 -0.033800758 1.1150607e-38 279 267
-0.050075196 0.71399999 -0.033800758 1.1149535e-38 280 267
-0.048754938 0.713 -0.033753417 1.1057339e-38 281 267
-0.047371563 0.71100003 -0.033658739 1.1240291e-38 282 267
-0.046124939 0.71100003 -0.033658739 1.0779313e-38 283 267
-0.044815198 0.70999998 -0.033611398 1.0502356e-38 284 267
-0.043570329 0.70999998 -0.033611398 1.0317606e-38 285 267
-0.042206239 0.708 -0.033516716 9.8577045e-39 286 267
-0.040964879 0.708 -0.033516716 9.488922e-39 287 267
-0.039667413 0.70700002 -0.033469379 9.8544647e-39 288 267
-0.038427804 0.70700002 -0.033469379 1.0038496e-38 289 267
-0.037135597 0.70599997 -0.033422034 9.6689776e-39 290 267
-0.035796054 0.704 -0.03332736 9.576782e-39 291 267
-0.034561705 0.704 -0.03332736 9.7604516e-39 292 267
-0.033280019 0.70300001 -0.033280019 1.0682406e-38 293 267
-0.031956252 0.70099998 -0.03318534 1.1049394e-38 294 267
-0.030683333 0.69999999 -0.033137999 1.1694763e-38 295 267
-0.02932976 0.69700003 -0.03299598 1.1696916e-38 296 267
-0.027986705 0.69400001 -0.032853961 1.1419969e-38 297 267
-0.02673132 0.69300002 -0.03280662 1.0774599e-38 298 267
-0.02551626 0.69300002 -0.03280662 1.1419969e-38 299 267
-0.024301201 0.69300002 -0.03280662 1.1423569e-38 300 267
-0.02308614 0.69300002 -0.03280662 8.842091e-39 301 267
-0.021902639 0.69400001 -0.032853961 9.0261235e-39 302 267
-0.020656019 0.69300002 -0.03280662 1.1146982e-38 303 267
-0.01944096 0.69300002 -0.03280662 1.1970975e-38 304 267
-0.0181733 0.69099998 -0.032711938 1.1602552e-38 305 267
-0.0169372 0.69 -0.032664597 1.1239509e-38 306 267
-0.015681813 0.68800002 -0.032569919 1.0409747e-38 307 267
-0.014454478 0.68699998 -0.032522578 1.0219612e-38 308 267
-0.013230653 0.68599999 -0.032475237 1.003522e-38 309 267
-0.012027865 0.68599999 -0.032475237 8.1967384e-39 310 267
-0.01079352 0.68400002 -0.032380559 7.6435646e-39 311 267
-0.0095942402 0.68400002 -0.032380559 6.356088e-39 312 267
-0.0083826864 0.68300003 -0.032333218 6.0795012e-39 313 267
-0.0071851597 0.68300003 -0.032333218 5.7121634e-39 314 267
-0.005978866 0.68199998 -0.032285877 5.7121634e-39 315 267
-0.004783093 0.68199998 -0.032285877 5.5277721e-39 316 267
-0.0035767998 0.68000001 -0.032191198 5.4355765e-39 317 267
-0.0023810267 0.67900002 -0.032143861 5.2511852e-39 318 267
-0.0011905134 0.67900002 -0.032143861 5.1589896e-39 319 267
0 0.67799997 -0.03209652 5.1579148e-39 320 267
0.0011887599 0.67799997 -0.03209652 4.9735221e-39 321 267
0.0023705065 0.676 -0.032001842 5.0639199e-39 322 267
0.0035557596 0.676 -0.032001842 4.9717243e-39 323 267
0.0047410131 0.676 -0.032001842 4.9713585e-39 324 267
0.0059087332 0.67400002 -0.03190716 4.9713585e-39 325 267
0.0070904801 0.67400002 -0.03190716 4.9713557e-39 326 267
0.00824768 0.67199999 -0.031812478 4.8791587e-39 327 267
0.0094259195 0.67199999 -0.031812478 4.7869659e-39 328 267
0.010604159 0.67199999 -0.031812478 4.602576e-39 329 267
0.011764866 0.671 -0.031765141 4.3285087e-39 330 267
0.012941353 0.671 -0.031765141 4.3285087e-39 331 267
0.01411784 0.671 -0.031765141 4.1451908e-39 332 267
0.015225946 0.66799998 -0.031623118 4.2373864e-39 333 267
0.016372627 0.667 -0.03157578 4.328859e-39 334 267
0.0175421 0.667 -0.03157578 4.4210546e-39 335 267
0.018711573 0.667 -0.03157578 4.1451908e-39 336 267
0.019851239 0.66600001 -0.031528439 4.1451908e-39 337 267
0.020955838 0.66399997 -0.031433757 3.869327e-39 338 267
0.02208674 0.66299999 -0.031386416 3.7771313e-39 339 267
0.0232492 0.66299999 -0.031386416 3.7771313e-39 340 267
0.024374841 0.662 -0.031339079 3.7771313e-39 341 267
0.025496973 0.66100001 -0.031291738 3.7760523e-39 342 267
0.026655925 0.66100001 -0.031291738 3.868248e-39 343 267
0.027730718 0.65899998 -0.031197058 3.868248e-39 344 267
0.028886165 0.65899998 -0.031197058 3.868248e-39 345 267
0.029996024 0.65799999 -0.031149717 4.1433957e-39 346 267
0.03110238 0.65700001 -0.03110238 4.1433957e-39 347 267
0.03225432 0.65700001 -0.03110238 3.868248e-39 348 267
0.033406258 0.65700001 -0.03110238 3.7760523e-39 349 267
0.034558199 0.65700001 -0.03110238 3.2228786e-39 350 267
0.03560143 0.65499997 -0.031007698 2.7622592e-39 351 267
0.036749862 0.65499997 -0.031007698 6.8174375e-39 352 267
0.037898298 0.65499997 -0.031007698 1.5668219e-38 353 267
0.039046731 0.65499997 -0.031007698 1.4940021e-38 354 267
0.040133797 0.65399998 -0.030960357 1.4294651e-38 355 267
0.041217357 0.653 -0.03091302 1.4293935e-38 356 267
0.042362284 0.653 -0.03091302 1.4293935e-38 357 267
0.043440588 0.65200001 -0.030865679 1.4477247e-38 358 267
0.044583756 0.65200001 -0.030865679 1.4477247e-38 359 267
0.045586664 0.64999998 -0.030770998 1.4477247e-38 360 267
0.046654444 0.64899999 -0.030723657 1.4477247e-38 361 267
0.047718719 0.648 -0.03067632 1.4568724e-38 362 267
0.04885488 0.648 -0.03067632 1.4476529e-38 363 267
0.049991041 0.648 -0.03067632 1.4384686e-38 364 267
0.051127199 0.648 -0.03067632 1.3554924e-38 365 267
0.05226336 0.648 -0.03067632 1.3642788e-38 366 267
0.053399518 0.648 -0.03067632 1.3458038e-38 367 267
0.05453568 0.648 -0.03067632 1.4009044e-38 368 267
0.05575775 0.64899999 -0.030723657 1.3825013e-38 369 267
0.056983333 0.64999998 -0.030770998 1.3364028e-38 370 267
0.058301836 0.65200001 -0.030865679 1.290305e-38 371 267
0.059536185 0.653 -0.03091302 1.2259836e-38 372 267
0.061145745 0.65799999 -0.031149717 1.2075084e-38 373 267
0.062678158 0.662 -0.031339079 1.2258752e-38 374 267
0.063935295 0.66299999 -0.031386416 1.2258752e-38 375 267
0.065097757 0.66299999 -0.031386416 1.2350229e-38 376 267
0.066560037 0.66600001 -0.031528439 1.2258033e-38 377 267
0.067829452 0.667 -0.03157578 1.2350232e-38 378 267
0.069412716 0.671 -0.031765141 1.2534625e-38 379 267
0.070904799 0.67400002 -0.03190716 1.2719735e-38 380 267
0.07208655 0.67400002 -0.03190716 1.2996322e-38 381 267
0.073703118 0.67799997 -0.03209652 1.271794e-38 382 267
0.074891873 0.67799997 -0.03209652 1.1611592e-38 383 267
0.076305062 0.68000001 -0.032191198 1.1702709e-38 384 267
0.077497333 0.68000001 -0.032191198 1.1149535e-38 385 267
0.081698313 0.70599997 -0.033422034 1.0595272e-38 386 267
0.082936168 0.70599997 -0.033422034 9.7651515e-39 387 267
0.084174022 0.70599997 -0.033422034 1.2247937e-38 388 267
0.085411869 0.70599997 -0.033422034 1.2340133e-38 389 267
0.086649731 0.70599997 -0.033422034 1.5747403e-38 390 267
0.087887585 0.70599997 -0.033422034 2.044974e-38 391 267
0.089125432 0.70599997 -0.033422034 2.0642055e-38 392 267
0.090491287 0.70700002 -0.033469379 1.9996686e-38 393 267
0.091730893 0.70700002 -0.033469379 1.9996333e-38 394 267
-0.11341436 0.76099998 -0.037360024 2.0921556e-38 235 268
-0.11208007 0.76099998 -0.037360024 2.0553868e-38 236 268
-0.11074579 0.76099998 -0.037360024 2.0369118e-38 237 268
-0.1094115 0.76099998 -0.037360024 1.8716454e-38 238 268
-0.10807721 0.76099998 -0.037360024 1.8347673e-38 239 268
-0.10674293 0.76099998 -0.037360024 1.7430034e-38 240 268
-0.10513161 0.759 -0.03726184 1.6599915e-38 241 268
-0.10380083 0.759 -0.03726184 1.5218412e-38 242 268
-0.10220005 0.75700003 -0.037163652 1.5218412e-38 243 268
-0.10060626 0.755 -0.037065465 1.567904e-38 244 268
-0.099282496 0.755 -0.037065465 1.5955627e-38 245 268
-0.097828984 0.75400001 -0.037016369 1.6321892e-38 246 268
-0.096506968 0.75400001 -0.037016369 1.5768718e-38 247 268
-0.094932474 0.75199997 -0.036918186 1.5769438e-38 248 268
-0.093613967 0.75199997 -0.036918186 1.5677241e-38 249 268
-0.092049994 0.75 -0.036819998 1.5956713e-38 250 268
-0.090372056 0.74699998 -0.036672719 1.6786833e-38 251 268
-0.089062311 0.74699998 -0.036672719 1.7336767e-38 252 268
-0.0876351 0.74599999 -0.036623627 1.7336767e-38 253 268
-0.086095676 0.74400002 -0.036525439 1.7061975e-38 254 268
-0.084563263 0.74199998 -0.036427252 1.7061975e-38 255 268
-0.083150074 0.741 -0.036378156 1.7061975e-38 256 268
-0.081850857 0.741 -0.036378156 1.6969779e-38 257 268
-0.080334224 0.73900002 -0.036279973 1.7153089e-38 258 268
-0.079038516 0.73900002 -0.036279973 1.7153089e-38 259 268
-0.077637598 0.73799998 -0.036230877 1.7153091e-38 260 268
-0.076136746 0.736 -0.036132693 1.696906e-38 261 268
-0.074642912 0.73400003 -0.036034506 1.6877227e-38 262 268
-0.073355958 0.73400003 -0.036034506 1.6785032e-38 263 268
-0.071970828 0.73299998 -0.035985414 1.7152375e-38 264 268
-0.070492767 0.73100001 -0.035887226 1.7059821e-38 265 268
-0.069116399 0.73000002 -0.035838135 1.7151654e-38 266 268
-0.067650609 0.72799999 -0.035739943 1.7335685e-38 267 268
-0.06628301 0.727 -0.035690852 1.7427512e-38 268 268
-0.065008335 0.727 -0.035690852 1.7427512e-38 269 268
-0.063558333 0.72500002 -0.035592668 1.7426419e-38 270 268
-0.062115334 0.72299999 -0.035494477 1.6965441e-38 271 268
-0.060847677 0.72299999 -0.035494477 1.6411541e-38 272 268
-0.059497613 0.722 -0.035445385 1.5489945e-38 273 268
-0.058231708 0.722 -0.035445385 1.4107361e-38 274 268
-0.056808002 0.72000003 -0.035347197 1.2908818e-38 275 268
-0.055468451 0.71899998 -0.035298105 1.2536062e-38 276 268
-0.054057021 0.71700001 -0.035199918 1.1614466e-38 277 268
-0.052726239 0.71600002 -0.035150826 1.1335356e-38 278 268
-0.051470853 0.71600002 -0.035150826 1.0874377e-38 279 268
-0.050075196 0.71399999 -0.035052639 1.1332481e-38 280 268
-0.048823316 0.71399999 -0.035052639 1.1332481e-38 281 268
-0.047504812 0.713 -0.035003547 1.1422512e-38 282 268
-0.046124939 0.71100003 -0.034905359 1.1145925e-38 283 268
-0.044878319 0.71100003 -0.034905359 1.105408e-38 284 268
-0.043570329 0.70999998 -0.034856264 1.0961884e-38 285 268
-0.042325463 0.70999998 -0.034856264 1.0410511e-38 286 268
-0.040964879 0.708 -0.034758076 1.0133566e-38 287 268
-0.039723519 0.708 -0.034758076 9.8577017e-39 288 268
-0.038427804 0.70700002 -0.034708988 9.5814735e-39 289 268
-0.037135597 0.70599997 -0.034659892 9.4871241e-39 290 268
-0.035897743 0.70599997 -0.034659892 9.4871241e-39 291 268
-0.034659892 0.70599997 -0.034659892 9.6697189e-39 292 268
-0.03332736 0.704 -0.034561705 9.8544703e-39 293 268
-0.032047424 0.70300001 -0.034512613 9.7626348e-39 294 268
-0.030727165 0.70099998 -0.034414422 9.9473848e-39 295 268
-0.029371841 0.69800001 -0.034267146 1.0590236e-38 296 268
-0.028067358 0.69599998 -0.034168959 1.0405486e-38 297 268
-0.02673132 0.69300002 -0.034021679 9.7626194e-39 298 268
-0.02551626 0.69300002 -0.034021679 1.0500184e-38 299 268
-0.024301201 0.69300002 -0.034021679 1.0869666e-38 300 268
-0.02308614 0.69300002 -0.034021679 9.3945361e-39 301 268
-0.021902639 0.69400001 -0.034070771 1.0497644e-38 302 268
-0.020685827 0.69400001 -0.034070771 1.2157524e-38 303 268
-0.01944096 0.69300002 -0.034021679 1.1698332e-38 304 268
-0.018225901 0.69300002 -0.034021679 1.1237713e-38 305 268
-0.016961746 0.69099998 -0.033923492 1.1055823e-38 306 268
-0.015727401 0.69 -0.0338744 1.0871073e-38 307 268
-0.014475521 0.68800002 -0.033776212 1.1238061e-38 308 268
-0.013249939 0.68699998 -0.033727121 1.0592691e-38 309 268
-0.012045399 0.68699998 -0.033727121 9.2090743e-39 310 268
-0.010825079 0.68599999 -0.033678025 8.2871194e-39 311 268
-0.0095942402 0.68400002 -0.033579841 7.1826075e-39 312 268
-0.0083949603 0.68400002 -0.033579841 6.7216308e-39 313 268
-0.0071851597 0.68300003 -0.033530746 6.0795012e-39 314 268
-0.0059876335 0.68300003 -0.033530746 6.0795012e-39 315 268
-0.004783093 0.68199998 -0.03348165 6.0795012e-39 316 268
-0.00358732 0.68199998 -0.03348165 5.9873041e-39 317 268
-0.0023845332 0.68000001 -0.033383466 5.6192419e-39 318 268
-0.0011905134 0.67900002 -0.033334374 5.3430151e-39 319 268
0 0.67900002 -0.033334374 5.6167279e-39 320 268
0.0011887599 0.67799997 -0.033285279 5.6167279e-39 321 268
0.0023775198 0.67799997 -0.033285279 5.2490202e-39 322 268
0.0035662798 0.67799997 -0.033285279 5.1568246e-39 323 268
0.0047410131 0.676 -0.033187091 5.2482986e-39 324 268
0.0059262668 0.676 -0.033187091 5.1561029e-39 325 268
0.0071010003 0.67500001 -0.033137999 4.9724277e-39 326 268
0.0082722269 0.67400002 -0.033088908 4.9724277e-39 327 268
0.0094259195 0.67199999 -0.03299072 5.0639073e-39 328 268
0.010604159 0.67199999 -0.03299072 4.9717103e-39 329 268
0.011782399 0.67199999 -0.03299072 4.6958464e-39 330 268
0.012941353 0.671 -0.032941625 4.7880435e-39 331 268
0.01411784 0.671 -0.032941625 4.8816642e-39 332 268
0.015225946 0.66799998 -0.032794341 5.0660555e-39 333 268
0.016397171 0.66799998 -0.032794341 4.8816614e-39 334 268
0.0175421 0.667 -0.032745253 4.8816614e-39 335 268
0.018711573 0.667 -0.032745253 4.6979988e-39 336 268
0.019851239 0.66600001 -0.032696161 4.5132474e-39 337 268
0.02101896 0.66600001 -0.032696161 4.2373864e-39 338 268
0.022120051 0.66399997 -0.03259797 4.0529952e-39 339 268
0.0232492 0.66299999 -0.032548878 3.8696829e-39 340 268
0.024374841 0.662 -0.032499783 3.8696829e-39 341 268
0.025535546 0.662 -0.032499783 4.144109e-39 342 268
0.026655925 0.66100001 -0.032450691 4.144109e-39 343 268
0.02781488 0.66100001 -0.032450691 3.9600807e-39 344 268
0.028973831 0.66100001 -0.032450691 3.9600807e-39 345 268
0.030041611 0.65899998 -0.032352503 3.6849329e-39 346 268
0.031149717 0.65799999 -0.032303412 3.6849329e-39 347 268
0.032303412 0.65799999 -0.032303412 3.8682508e-39 348 268
0.033406258 0.65700001 -0.03225432 3.7760551e-39 349 268
0.034558199 0.65700001 -0.03225432 2.5818308e-39 350 268
0.03560143 0.65499997 -0.032156132 3.2272002e-39 351 268
0.036749862 0.65499997 -0.032156132 7.9263032e-39 352 268
0.037898298 0.65499997 -0.032156132 1.5578541e-38 353 268
0.039046731 0.65499997 -0.032156132 1.4939658e-38 354 268
0.040133797 0.65399998 -0.03210704 1.4294288e-38 355 268
0.041280478 0.65399998 -0.03210704 1.4386487e-38 356 268
0.042362284 0.653 -0.032057945 1.4293932e-38 357 268
0.043507211 0.653 -0.032057945 1.4568724e-38 358 268
0.044583756 0.65200001 -0.032008853 1.4568724e-38 359 268
0.045726933 0.65200001 -0.032008853 1.4477603e-38 360 268
0.046726331 0.64999998 -0.031910665 1.4477603e-38 361 268
0.047792356 0.64899999 -0.03186157 1.4568724e-38 362 268
0.048930272 0.64899999 -0.03186157 1.4476529e-38 363 268
0.050068185 0.64899999 -0.03186157 1.4292488e-38 364 268
0.051127199 0.648 -0.031812482 1.3554921e-38 365 268
0.05226336 0.648 -0.031812482 1.3734984e-38 366 268
0.053399518 0.648 -0.031812482 1.3642788e-38 367 268
0.05453568 0.648 -0.031812482 1.4009044e-38 368 268
0.05575775 0.64899999 -0.03186157 1.3732817e-38 369 268
0.056983333 0.64999998 -0.031910665 1.3456221e-38 370 268
0.058391262 0.653 -0.032057945 1.3087798e-38 371 268
0.059718527 0.65499997 -0.032156132 1.2535697e-38 372 268
0.061238669 0.65899998 -0.032352503 1.2351305e-38 373 268
0.062678158 0.662 -0.032499783 1.2258752e-38 374 268
0.063935295 0.66299999 -0.032548878 1.2258752e-38 375 268
0.06519594 0.66399997 -0.03259797 1.2350229e-38 376 268
0.066560037 0.66600001 -0.032696161 1.2534981e-38 377 268
0.067829452 0.667 -0.032745253 1.2627895e-38 378 268
0.069412716 0.671 -0.032941625 1.2627895e-38 379 268
0.070694394 0.67199999 -0.03299072 1.2811204e-38 380 268
0.07208655 0.67400002 -0.033088908 1.2995954e-38 381 268
0.073703118 0.67799997 -0.033285279 1.2441349e-38 382 268
0.075112797 0.68000001 -0.033383466 1.0966579e-38 383 268
0.076305062 0.68000001 -0.033383466 1.059672e-38 384 268
0.081698313 0.70599997 -0.034659892 1.0778582e-38 386 268
0.082936168 0.70599997 -0.034659892 1.1147723e-38 387 268
0.084174022 0.70599997 -0.034659892 1.2525597e-38 388 268
0.085411869 0.70599997 -0.034659892 1.2341205e-38 389 268
0.086649731 0.70599997 -0.034659892 1.5748479e-38 390 268
0.088012077 0.70700002 -0.034708988 2.0542652e-38 391 268
0.089251675 0.70700002 -0.034708988 2.0734251e-38 392 268
0.090491287 0.70700002 -0.034708988 2.0088882e-38 393 268
0.091730893 0.70700002 -0.034708988 1.999633e-38 394 268
-0.11341436 0.76099998 -0.038694311 2.0737162e-38 235 269
-0.11208007 0.76099998 -0.038694311 2.0093961e-38 236 269
-0.11089132 0.76200002 -0.038745161 2.0001766e-38 237 269
-0.10955528 0.76200002 -0.038745161 1.8624612e-38 238 269
-0.10821924 0.76200002 -0.038745161 1.8532057e-38 239 269
-0.1068832 0.76200002 -0.038745161 1.7982489e-38 240 269
-0.10540864 0.76099998 -0.038694311 1.7429315e-38 241 269
-0.10380083 0.759 -0.038592618 1.6416958e-38 242 269
-0.10247006 0.759 -0.038592618 1.6324763e-38 243 269
-0.10087277 0.75700003 -0.038490929 1.6141097e-38 244 269
-0.099282496 0.755 -0.038389232 1.6417324e-38 245 269
-0.097828984 0.75400001 -0.038338386 1.6967255e-38 246 269
-0.096506968 0.75400001 -0.038338386 1.5492125e-38 247 269
-0.094932474 0.75199997 -0.038236689 1.5216615e-38 248 269
-0.093613967 0.75199997 -0.038236689 1.5216615e-38 249 269
-0.092049994 0.75 -0.038135 1.5589005e-38 250 269
-0.090614013 0.74900001 -0.038084153 1.6050344e-38 251 269
-0.089300767 0.74900001 -0.038084153 1.6599199e-38 252 269
-0.0876351 0.74599999 -0.03793161 1.6599199e-38 253 269
-0.086095676 0.74400002 -0.037829921 1.6967258e-38 254 269
-0.084563263 0.74199998 -0.037728224 1.7336041e-38 255 269
-0.083150074 0.741 -0.037677377 1.7244568e-38 256 269
-0.081850857 0.741 -0.037677377 1.7244568e-38 257 269
-0.080334224 0.73900002 -0.037575684 1.6969779e-38 258 269
-0.079038516 0.73900002 -0.037575684 1.6969779e-38 259 269
-0.077637598 0.73799998 -0.037524838 1.6969423e-38 260 269
-0.076136746 0.736 -0.037423145 1.6969423e-38 261 269
-0.07484629 0.736 -0.037423145 1.6786111e-38 262 269
-0.073355958 0.73400003 -0.037321456 1.6693915e-38 263 269
-0.071970828 0.73299998 -0.037270606 1.6784309e-38 264 269
-0.070685625 0.73299998 -0.037270606 1.6784309e-38 265 269
-0.069211073 0.73100001 -0.037168913 1.6784665e-38 266 269
-0.067836471 0.73000002 -0.037118066 1.6784665e-38 267 269
-0.066374183 0.72799999 -0.037016369 1.6783943e-38 268 269
-0.065008335 0.727 -0.036965527 1.6967974e-38 269 269
-0.06373366 0.727 -0.036965527 1.7059807e-38 270 269
-0.062287167 0.72500002 -0.036863834 1.7152003e-38 271 269
-0.060847677 0.72299999 -0.036762137 1.7335671e-38 272 269
-0.059580017 0.72299999 -0.036762137 1.7427868e-38 273 269
-0.058231708 0.722 -0.03671129 1.7242751e-38 274 269
-0.056965802 0.722 -0.03671129 1.6597381e-38 275 269
-0.055545598 0.72000003 -0.036609601 1.6134235e-38 276 269
-0.054207806 0.71899998 -0.036558751 1.5120083e-38 277 269
-0.052799881 0.71700001 -0.036457058 1.410484e-38 278 269
-0.051470853 0.71600002 -0.036406212 1.2814101e-38 279 269
-0.050075196 0.71399999 -0.036304519 1.2165485e-38 280 269
-0.048823316 0.71399999 -0.036304519 1.1059137e-38 281 269
-0.047504812 0.713 -0.036253672 1.0962976e-38 282 269
-0.046254687 0.713 -0.036253672 1.0502356e-38 283 269
-0.044878319 0.71100003 -0.036151983 1.0410511e-38 284 269
-0.043631699 0.71100003 -0.036151983 1.0594904e-38 285 269
-0.042325463 0.70999998 -0.036101133 1.0228635e-38 286 269
-0.041080594 0.70999998 -0.036101133 1.0228635e-38 287 269
-0.039723519 0.708 -0.03599944 1.0043168e-38 288 269
-0.038482159 0.708 -0.03599944 9.9509721e-39 289 269
-0.037188202 0.70700002 -0.035948593 9.7658578e-39 290 269
-0.035897743 0.70599997 -0.035897743 9.489631e-39 291 269
-0.034659892 0.70599997 -0.035897743 9.5796729e-39 292 269
-0.03332736 0.704 -0.035796054 9.3952802e-39 293 269
-0.032093015 0.704 -0.035796054 9.5775205e-39 294 269
-0.030814834 0.70300001 -0.035745207 9.5775205e-39 295 269
-0.029498078 0.70099998 -0.035643511 9.9455841e-39 296 269
-0.028107686 0.69700003 -0.035440128 9.8533871e-39 297 269
-0.026847038 0.69599998 -0.035389278 9.5775079e-39 298 269
-0.025553079 0.69400001 -0.035287585 9.9459317e-39 299 269
-0.024336265 0.69400001 -0.035287585 1.0682401e-38 300 269
-0.023119451 0.69400001 -0.035287585 1.0221783e-38 301 269
-0.021902639 0.69400001 -0.035287585 1.1052613e-38 302 269
-0.020745439 0.69599998 -0.035389278 1.2067125e-38 303 269
-0.019469013 0.69400001 -0.035287585 1.1332076e-38 304 269
-0.018225901 0.69300002 -0.035236739 1.0962934e-38 305 269
-0.01701084 0.69300002 -0.035236739 1.0872169e-38 306 269
-0.015750192 0.69099998 -0.035135046 1.0872169e-38 307 269
-0.014475521 0.68800002 -0.03498251 1.114767e-38 308 269
-0.013269227 0.68800002 -0.03498251 1.05023e-38 309 269
-0.012045399 0.68699998 -0.034931656 9.5760575e-39 310 269
-0.010825079 0.68599999 -0.034880809 8.4700687e-39 311 269
-0.0096222926 0.68599999 -0.034880809 6.9070968e-39 312 269
-0.0083949603 0.68400002 -0.03477912 6.7227056e-39 313 269
-0.0071956799 0.68400002 -0.03477912 6.2638952e-39 314 269
-0.0059876335 0.68300003 -0.034728274 6.1716996e-39 315 269
-0.0047901068 0.68300003 -0.034728274 6.0795012e-39 316 269
-0.00358732 0.68199998 -0.034677424 5.9873041e-39 317 269
-0.0023915465 0.68199998 -0.034677424 5.7114375e-39 318 269
-0.0011922666 0.68000001 -0.034575731 5.5270462e-39 319 269
0 0.67900002 -0.034524884 5.4341346e-39 320 269
0.0011905134 0.67900002 -0.034524884 5.4341346e-39 321 269
0.0023775198 0.67799997 -0.034474038 5.3419347e-39 322 269
0.0035662798 0.67799997 -0.034474038 5.2497391e-39 323 269
0.0047410131 0.676 -0.034372345 5.066424e-39 324 269
0.0059262668 0.676 -0.034372345 4.9742284e-39 325 269
0.0071010003 0.67500001 -0.034321502 4.9742284e-39 326 269
0.0082722269 0.67400002 -0.034270655 4.8820328e-39 327 269
0.0094539737 0.67400002 -0.034270655 4.8813139e-39 328 269
0.010604159 0.67199999 -0.034168959 4.8813139e-39 329 269
0.011782399 0.67199999 -0.034168959 5.0646234e-39 330 269
0.012960639 0.67199999 -0.034168959 5.341569e-39 331 269
0.01411784 0.671 -0.034118112 5.1607692e-39 332 269
0.015294326 0.671 -0.034118112 5.4373547e-39 333 269
0.016446266 0.67000002 -0.034067266 5.1611252e-39 334 269
0.017568398 0.66799998 -0.033965573 4.8841782e-39 335 269
0.018711573 0.667 -0.033914726 4.9742256e-39 336 269
0.019881045 0.667 -0.033914726 4.6058032e-39 337 269
0.02101896 0.66600001 -0.03386388 4.6054473e-39 338 269
0.02218668 0.66600001 -0.03386388 4.5132502e-39 339 269
0.023284266 0.66399997 -0.033762183 4.2377396e-39 340 269
0.024411658 0.66299999 -0.033711337 4.2377396e-39 341 269
0.025535546 0.662 -0.033660494 4.6036452e-39 342 269
0.026655925 0.66100001 -0.033609647 4.5114496e-39 343 269
0.02781488 0.66100001 -0.033609647 4.4189008e-39 344 269
0.028973831 0.66100001 -0.033609647 4.5114552e-39 345 269
0.030041611 0.65899998 -0.033507951 3.9604436e-39 346 269
0.031197058 0.65899998 -0.033507951 3.9604436e-39 347 269
0.032303412 0.65799999 -0.033457108 3.9607995e-39 348 269
0.033406258 0.65700001 -0.033406258 3.592017e-39 349 269
0.034558199 0.65700001 -0.033406258 2.6707796e-39 350 269
0.035710141 0.65700001 -0.033406258 4.8834747e-39 351 269
0.036749862 0.65499997 -0.033304565 9.1270016e-39 352 269
0.037898298 0.65499997 -0.033304565 1.548814e-38 353 269
0.039046731 0.65499997 -0.033304565 1.5122248e-38 354 269
0.040195163 0.65499997 -0.033304565 1.4569433e-38 355 269
0.041343596 0.65499997 -0.033304565 1.4477601e-38 356 269
0.04242716 0.65399998 -0.033253718 1.4477601e-38 357 269
0.043507211 0.653 -0.033202872 1.456908e-38 358 269
0.044652138 0.653 -0.033202872 1.456908e-38 359 269
0.045726933 0.65200001 -0.033152029 1.4477603e-38 360 269
0.046726331 0.64999998 -0.033050328 1.4293214e-38 361 269
0.047865998 0.64999998 -0.033050328 1.4476884e-38 362 269
0.049005665 0.64999998 -0.033050328 1.4476884e-38 363 269
0.050068185 0.64899999 -0.032999486 1.4385039e-38 364 269
0.051206097 0.64899999 -0.032999486 1.3554918e-38 365 269
0.052344013 0.64899999 -0.032999486 1.3918293e-38 366 269
0.053399518 0.648 -0.032948639 1.3826098e-38 367 269
0.05453568 0.648 -0.032948639 1.3825013e-38 368 269
0.05575775 0.64899999 -0.032999486 1.3732817e-38 369 269
0.057158668 0.65200001 -0.033152029 1.3180713e-38 370 269
0.05848068 0.65399998 -0.033253718 1.2904125e-38 371 269
0.05990088 0.65700001 -0.033406258 1.2352031e-38 372 269
0.061238669 0.65899998 -0.033507951 1.2075084e-38 373 269
0.062678158 0.662 -0.033660494 1.2075084e-38 374 269
0.063935295 0.66299999 -0.033711337 1.216764e-38 375 269
0.065097757 0.66299999 -0.033711337 1.2443148e-38 376 269
0.066360161 0.66399997 -0.033762183 1.2535343e-38 377 269
0.067829452 0.667 -0.033914726 1.2810851e-38 378 269
0.069102369 0.66799998 -0.033965573 1.2718656e-38 379 269
0.0705892 0.671 -0.034118112 1.2810132e-38 380 269
0.072193496 0.67500001 -0.034321502 1.2902687e-38 381 269
0.073703118 0.67799997 -0.034474038 1.2073642e-38 382 269
0.075112797 0.68000001 -0.034575731 1.0045338e-38 383 269
0.076305062 0.68000001 -0.034575731 9.3992473e-39 384 269
0.079548739 0.69800001 -0.035490975 9.9524197e-39 385 269
0.081698313 0.70599997 -0.035897743 1.1240639e-38 386 269
0.082936168 0.70599997 -0.035897743 1.2162954e-38 387 269
0.083935574 0.704 -0.035796054 1.2985834e-38 388 269
0.085169919 0.704 -0.035796054 1.2063878e-38 389 269
0.086649731 0.70599997 -0.035897743 1.5748093e-38 390 269
0.087887585 0.70599997 -0.035897743 2.0726299e-38 391 269
0.089251675 0.70700002 -0.035948593 2.0642053e-38 392 269
0.090491287 0.70700002 -0.035948593 1.9996683e-38 393 269
0.091860637 0.708 -0.03599944 1.999633e-38 394 269
-0.1135634 0.76200002 -0.040081199 2.0737162e-38 235 270
-0.11222737 0.76200002 -0.040081199 2.0369466e-38 236 270
-0.11089132 0.76200002 -0.040081199 2.0277271e-38 237 270
-0.10984282 0.764 -0.040186398 1.9084867e-38 238 270
-0.10821924 0.76200002 -0.040081199 1.8992312e-38 239 270
-0.1068832 0.76200002 -0.040081199 1.8167599e-38 240 270
-0.10540864 0.76099998 -0.040028598 1.7983208e-38 241 270
-0.10407435 0.76099998 -0.040028598 1.7890654e-38 242 270
-0.10247006 0.759 -0.0399234 1.7614427e-38 243 270
-0.10087277 0.75700003 -0.039818201 1.7522234e-38 244 270
-0.099282496 0.755 -0.039712999 1.761443e-38 245 270
-0.097958729 0.755 -0.039712999 1.7888844e-38 246 270
-0.096506968 0.75400001 -0.039660402 1.6598106e-38 247 270
-0.095184959 0.75400001 -0.039660402 1.5310961e-38 248 270
-0.093613967 0.75199997 -0.039555199 1.5494992e-38 249 270
-0.09229546 0.75199997 -0.039555199 1.6692469e-38 250 270
-0.090734996 0.75 -0.039449997 1.7153089e-38 251 270
-0.089419998 0.75 -0.039449997 1.6323688e-38 252 270
-0.087752573 0.74699998 -0.039292198 1.6323688e-38 253 270
-0.086327121 0.74599999 -0.039239597 1.6782867e-38 254 270
-0.084791198 0.74400002 -0.039134398 1.6875062e-38 255 270
-0.083262287 0.74199998 -0.0390292 1.6691394e-38 256 270
-0.081850857 0.741 -0.038976599 1.678359e-38 257 270
-0.080551639 0.741 -0.038976599 1.6784309e-38 258 270
-0.079038516 0.73900002 -0.0388714 1.6784309e-38 259 270
-0.0777428 0.73900002 -0.0388714 1.7060177e-38 260 270
-0.076343641 0.73799998 -0.038818799 1.7152372e-38 261 270
-0.07484629 0.736 -0.038713597 1.6877583e-38 262 270
-0.073355958 0.73400003 -0.038608398 1.6877583e-38 263 270
-0.072069012 0.73400003 -0.038608398 1.6877583e-38 264 270
-0.070685625 0.73299998 -0.038555797 1.6785029e-38 265 270
-0.069211073 0.73100001 -0.038450599 1.6876862e-38 266 270
-0.067836471 0.73000002 -0.038398001 1.6876862e-38 267 270
-0.066374183 0.72799999 -0.038292799 1.6876862e-38 268 270
-0.065097757 0.72799999 -0.038292799 1.6784665e-38 269 270
-0.06373366 0.727 -0.038240198 1.7060177e-38 270 270
-0.062458992 0.727 -0.038240198 1.7060177e-38 271 270
-0.061016005 0.72500002 -0.038135 1.6967258e-38 272 270
-0.059580017 0.72299999 -0.038029801 1.6967258e-38 273 270
-0.058231708 0.722 -0.0379772 1.7334599e-38 274 270
-0.056965802 0.722 -0.0379772 1.7334599e-38 275 270
-0.055545598 0.72000003 -0.037871998 1.6874691e-38 276 270
-0.054283202 0.72000003 -0.037871998 1.6505907e-38 277 270
-0.052799881 0.71700001 -0.037714198 1.6321147e-38 278 270
-0.051470853 0.71600002 -0.037661601 1.5675778e-38 279 270
-0.050215468 0.71600002 -0.037661601 1.4935326e-38 280 270
-0.048823316 0.71399999 -0.037556399 1.3920814e-38 281 270
-0.047571439 0.71399999 -0.037556399 1.3272555e-38 282 270
-0.046254687 0.713 -0.037503798 1.2442795e-38 283 270
-0.045004558 0.713 -0.037503798 1.2162948e-38 284 270
-0.043631699 0.71100003 -0.037398599 1.1056599e-38 285 270
-0.042325463 0.70999998 -0.037345998 1.0778566e-38 286 270
-0.041080594 0.70999998 -0.037345998 1.0317947e-38 287 270
-0.039723519 0.708 -0.0372408 1.049946e-38 288 270
-0.038482159 0.708 -0.0372408 1.0222874e-38 289 270
-0.037188202 0.70700002 -0.037188202 9.765855e-39 290 270
-0.035897743 0.70599997 -0.037135597 9.5818239e-39 291 270
-0.034659892 0.70599997 -0.037135597 9.2141302e-39 292 270
-0.03332736 0.704 -0.037030395 9.1219345e-39 293 270
-0.032093015 0.704 -0.037030395 9.0297417e-39 294 270
-0.030814834 0.70300001 -0.036977798 8.9375461e-39 295 270
-0.029498078 0.70099998 -0.036872596 9.1190633e-39 296 270
-0.028148014 0.69800001 -0.0367148 9.0268676e-39 297 270
-0.026885614 0.69700003 -0.036662199 8.5669657e-39 298 270
-0.025626717 0.69599998 -0.036609598 8.2907375e-39 299 270
-0.0244064 0.69599998 -0.036609598 8.749908e-39 300 270
-0.023119451 0.69400001 -0.036504399 8.8424638e-39 301 270
-0.021902639 0.69400001 -0.036504399 9.4906974e-39 302 270
-0.020745439 0.69599998 -0.036609598 1.0136067e-38 303 270
-0.019525118 0.69599998 -0.036609598 1.0776399e-38 304 270
-0.0182522 0.69400001 -0.036504399 1.0776399e-38 305 270
-0.01701084 0.69300002 -0.036451802 1.0962218e-38 306 270
-0.015750192 0.69099998 -0.036346599 1.0870022e-38 307 270
-0.014517599 0.69 -0.036293998 1.1143717e-38 308 270
-0.013269227 0.68800002 -0.0361888 1.1143717e-38 309 270
-0.012045399 0.68699998 -0.036136195 1.0681682e-38 310 270
-0.010840859 0.68699998 -0.036136195 8.9303238e-39 311 270
-0.0096222926 0.68599999 -0.036083598 6.6323022e-39 312 270
-0.0083949603 0.68400002 -0.035978399 6.6323022e-39 313 270
-0.0071956799 0.68400002 -0.035978399 6.5404751e-39 314 270
-0.0059876335 0.68300003 -0.035925802 6.2642483e-39 315 270
-0.0047901068 0.68300003 -0.035925802 6.355365e-39 316 270
-0.00358732 0.68199998 -0.035873197 6.355365e-39 317 270
-0.0023915465 0.68199998 -0.035873197 5.8961861e-39 318 270
-0.0011922666 0.68000001 -0.035767999 5.8039891e-39 319 270
0 0.68000001 -0.035767999 5.6192419e-39 320 270
0.0011905134 0.67900002 -0.035715401 5.3430151e-39 321 270
0.0023810267 0.67900002 -0.035715401 5.3430151e-39 322 270
0.0035662798 0.67799997 -0.0356628 5.2508195e-39 323 270
0.0047550397 0.67799997 -0.0356628 5.1593399e-39 324 270
0.0059262668 0.676 -0.035557602 5.0671429e-39 325 270
0.0071115191 0.676 -0.035557602 5.2497391e-39 326 270
0.0082844999 0.67500001 -0.035505001 5.065708e-39 327 270
0.0094539737 0.67400002 -0.035452399 5.065708e-39 328 270
0.010604159 0.67199999 -0.035347197 5.065708e-39 329 270
0.011782399 0.67199999 -0.035347197 5.2500866e-39 330 270
0.012960639 0.67199999 -0.035347197 5.5270336e-39 331 270
0.01411784 0.671 -0.0352946 7.001435e-39 332 270
0.015294326 0.671 -0.0352946 7.0936307e-39 333 270
0.016446266 0.67000002 -0.035241999 6.5426079e-39 334 270
0.017620999 0.67000002 -0.035241999 6.3582166e-39 335 270
0.018739626 0.66799998 -0.035136797 6.7226901e-39 336 270
0.019881045 0.667 -0.035084199 6.7226901e-39 337 270
0.021050518 0.667 -0.035084199 6.7209007e-39 338 270
0.02218668 0.66600001 -0.035031598 6.3524783e-39 339 270
0.023354398 0.66600001 -0.035031598 5.3415634e-39 340 270
0.024448479 0.66399997 -0.0349264 5.2493677e-39 341 270
0.025535546 0.662 -0.034821201 4.9724249e-39 342 270
0.026696252 0.662 -0.034821201 4.9724249e-39 343 270
0.027856959 0.662 -0.034821201 4.6043669e-39 344 270
0.028973831 0.66100001 -0.0347686 4.4203357e-39 345 270
0.030132787 0.66100001 -0.0347686 4.0529952e-39 346 270
0.031197058 0.65899998 -0.034663398 3.9607995e-39 347 270
0.032303412 0.65799999 -0.034610797 3.9607967e-39 348 270
0.033406258 0.65700001 -0.034558199 3.407623e-39 349 270
0.034558199 0.65700001 -0.034558199 2.117603e-39 350 270
0.035710141 0.65700001 -0.034558199 5.8057883e-39 351 270
0.036749862 0.65499997 -0.034452997 1.0601053e-38 352 270
0.037898298 0.65499997 -0.034452997 1.5764008e-38 353 270
0.039046731 0.65499997 -0.034452997 1.5122604e-38 354 270
0.040195163 0.65499997 -0.034452997 1.456943e-38 355 270
0.041343596 0.65499997 -0.034452997 1.4477601e-38 356 270
0.04242716 0.65399998 -0.034400396 1.4477601e-38 357 270
0.043573838 0.65399998 -0.034400396 1.4569077e-38 358 270
0.044652138 0.653 -0.034347799 1.4661273e-38 359 270
0.045726933 0.65200001 -0.034295198 1.4569796e-38 360 270
0.046870105 0.65200001 -0.034295198 1.4293569e-38 361 270
0.047865998 0.64999998 -0.034189999 1.4476882e-38 362 270
0.049005665 0.64999998 -0.034189999 1.4476882e-38 363 270
0.050068185 0.64899999 -0.034137398 1.4476513e-38 364 270
0.051206097 0.64899999 -0.034137398 1.3554555e-38 365 270
0.052344013 0.64899999 -0.034137398 1.3734981e-38 366 270
0.053481925 0.64899999 -0.034137398 1.3642785e-38 367 270
0.054619838 0.64899999 -0.034137398 1.3733536e-38 368 270
0.05575775 0.64899999 -0.034137398 1.3641341e-38 369 270
0.057158668 0.65200001 -0.034295198 1.2996322e-38 370 270
0.058570094 0.65499997 -0.034452997 1.2535343e-38 371 270
0.05990088 0.65700001 -0.034558199 1.2534981e-38 372 270
0.061238669 0.65899998 -0.034663398 1.2350229e-38 373 270
0.062678158 0.662 -0.034821201 1.2258755e-38 374 270
0.063935295 0.66299999 -0.034873798 1.2443148e-38 375 270
0.065097757 0.66299999 -0.034873798 1.2810851e-38 376 270
0.066360161 0.66399997 -0.0349264 1.2718656e-38 377 270
0.067829452 0.667 -0.035084199 1.2900533e-38 378 270
0.069102369 0.66799998 -0.035136797 1.2900533e-38 379 270
0.0705892 0.671 -0.0352946 1.2533541e-38 380 270
0.07208655 0.67400002 -0.035452399 1.2533541e-38 381 270
0.073703118 0.67799997 -0.0356628 1.078433e-38 382 270
0.074891873 0.67799997 -0.0356628 9.2170042e-39 383 270
0.078324907 0.69800001 -0.0367148 1.0231882e-38 384 270
0.079548739 0.69800001 -0.0367148 1.1245674e-38 385 270
0.081004001 0.69999999 -0.036819998 1.2531012e-38 386 270
0.082348801 0.70099998 -0.036872596 1.2623208e-38 387 270
0.083577886 0.70099998 -0.036872596 1.3351e-38 388 270
0.085169919 0.704 -0.037030395 1.2890023e-38 389 270
0.086404264 0.704 -0.037030395 1.6394529e-38 390 270
0.087887585 0.70599997 -0.037135597 2.0727724e-38 391 270
0.089251675 0.70700002 -0.037188202 2.064205e-38 392 270
0.090491287 0.70700002 -0.037188202 1.999668e-38 393 270
0.091860637 0.708 -0.0372408 1.999633e-38 394 270
-0.11252192 0.764 -0.041525945 2.0461299e-38 236 271
-0.11147342 0.76599997 -0.041634649 2.0369104e-38 237 271
-0.10984282 0.764 -0.041525945 1.9176708e-38 238 271
-0.10850327 0.764 -0.041525945 1.9269262e-38 239 271
-0.10716373 0.764 -0.041525945 1.8536026e-38 240 271
-0.10554716 0.76200002 -0.041417241 1.8628221e-38 241 271
-0.10407435 0.76099998 -0.041362885 1.8535304e-38 242 271
-0.10274007 0.76099998 -0.041362885 1.8535304e-38 243 271
-0.10113928 0.759 -0.041254178 1.8443474e-38 244 271
-0.099545501 0.75700003 -0.041145474 1.8259443e-38 245 271
-0.097958729 0.755 -0.041036766 1.8349839e-38 246 271
-0.096634962 0.755 -0.041036766 1.7520079e-38 247 271
-0.095184959 0.75400001 -0.040982414 1.6508072e-38 248 271
-0.093862943 0.75400001 -0.040982414 1.6508072e-38 249 271
-0.09229546 0.75199997 -0.040873703 1.733747e-38 250 271
-0.090976954 0.75199997 -0.040873703 1.7705892e-38 251 271
-0.089419998 0.75 -0.040764999 1.696833e-38 252 271
-0.087987527 0.74900001 -0.040710647 1.6599549e-38 253 271
-0.086442836 0.74699998 -0.040601939 1.6782864e-38 254 271
-0.085019127 0.74599999 -0.040547583 1.6690668e-38 255 271
-0.083262287 0.74199998 -0.040330172 1.6414087e-38 256 271
-0.081850857 0.741 -0.04027582 1.6506284e-38 257 271
-0.080551639 0.741 -0.04027582 1.6507006e-38 258 271
-0.079252414 0.741 -0.04027582 1.6599201e-38 259 271
-0.0777428 0.73900002 -0.040167112 1.6691394e-38 260 271
-0.076343641 0.73799998 -0.040112756 1.696798e-38 261 271
-0.075049676 0.73799998 -0.040112756 1.6969779e-38 262 271
-0.073555835 0.736 -0.040004052 1.6877583e-38 263 271
-0.072069012 0.73400003 -0.039895348 1.6785032e-38 264 271
-0.070782073 0.73400003 -0.039895348 1.6785032e-38 265 271
-0.069400437 0.73299998 -0.039840993 1.6876865e-38 266 271
-0.067929395 0.73100001 -0.039732285 1.6876865e-38 267 271
-0.066556528 0.73000002 -0.039677933 1.6876862e-38 268 271
-0.065097757 0.72799999 -0.039569225 1.6876862e-38 269 271
-0.06373366 0.727 -0.039514873 1.6967977e-38 270 271
-0.062458992 0.727 -0.039514873 1.6967977e-38 271 271
-0.061016005 0.72500002 -0.039406165 1.6967258e-38 272 271
-0.059744831 0.72500002 -0.039406165 1.6967258e-38 273 271
-0.058312356 0.72299999 -0.039297458 1.7058372e-38 274 271
-0.056965802 0.722 -0.039243106 1.7150926e-38 275 271
-0.055699892 0.722 -0.039243106 1.7059807e-38 276 271
-0.054283202 0.72000003 -0.039134402 1.7152003e-38 277 271
-0.05294716 0.71899998 -0.039080046 1.7336035e-38 278 271
-0.051542737 0.71700001 -0.038971342 1.7428231e-38 279 271
-0.050215468 0.71600002 -0.038916986 1.7518264e-38 280 271
-0.048960082 0.71600002 -0.038916986 1.6872895e-38 281 271
-0.047571439 0.71399999 -0.038808275 1.6318626e-38 282 271
-0.046254687 0.713 -0.038753927 1.5304475e-38 283 271
-0.045004558 0.713 -0.038753927 1.4748764e-38 284 271
-0.043631699 0.71100003 -0.038645219 1.3181079e-38 285 271
-0.042385083 0.71100003 -0.038645219 1.1980007e-38 286 271
-0.041080594 0.70999998 -0.038590867 1.0689269e-38 287 271
-0.039835732 0.70999998 -0.038590867 1.0592383e-38 288 271
-0.038482159 0.708 -0.038482159 9.7626222e-39 289 271
-0.037188202 0.70700002 -0.038427804 9.304881e-39 290 271
-0.035948593 0.70700002 -0.038427804 9.304881e-39 291 271
-0.034659892 0.70599997 -0.038373452 9.3052524e-39 292 271
-0.033422034 0.70599997 -0.038373452 9.3052524e-39 293 271
-0.032093015 0.704 -0.038264744 9.5814735e-39 294 271
-0.030814834 0.70300001 -0.038210396 9.3048866e-39 295 271
-0.029498078 0.70099998 -0.038101684 9.4874772e-39 296 271
-0.028228667 0.69999999 -0.038047329 9.3030846e-39 297 271
-0.026924185 0.69800001 -0.037938625 8.9350279e-39 298 271
-0.025663542 0.69700003 -0.037884273 8.4740498e-39 299 271
-0.024441468 0.69700003 -0.037884273 8.1989048e-39 300 271
-0.023186078 0.69599998 -0.037829921 8.1989048e-39 301 271
-0.021965759 0.69599998 -0.037829921 8.660962e-39 302 271
-0.020775247 0.69700003 -0.037884273 8.7531576e-39 303 271
-0.019553173 0.69700003 -0.037884273 9.4842557e-39 304 271
-0.018304799 0.69599998 -0.037829921 9.6686469e-39 305 271
-0.01701084 0.69300002 -0.037666857 9.7629851e-39 306 271
-0.015750192 0.69099998 -0.03755815 1.0316159e-38 307 271
-0.014517599 0.69 -0.037503798 9.9487861e-39 308 271
-0.013269227 0.68800002 -0.037395094 1.050196e-38 309 271
-0.012062933 0.68800002 -0.037395094 1.0869669e-38 310 271
-0.010840859 0.68699998 -0.037340738 8.8413651e-39 311 271
-0.0096363192 0.68699998 -0.037340738 6.8159676e-39 312 271
-0.0084195063 0.68599999 -0.037286382 7.000719e-39 313 271
-0.0072167199 0.68599999 -0.037286382 6.633377e-39 314 271
-0.0059964 0.68400002 -0.037177678 6.5411814e-39 315 271
-0.0047901068 0.68300003 -0.037123326 6.7234188e-39 316 271
-0.0035925799 0.68300003 -0.037123326 6.5393877e-39 317 271
-0.0023915465 0.68199998 -0.037068974 6.1720527e-39 318 271
-0.0011957732 0.68199998 -0.037068974 6.0794984e-39 319 271
0 0.68000001 -0.036960267 5.8039891e-39 320 271
0.0011922666 0.68000001 -0.036960267 5.7117934e-39 321 271
0.0023845332 0.68000001 -0.036960267 5.8943868e-39 322 271
0.0035715401 0.67900002 -0.036905911 5.8021912e-39 323 271
0.0047550397 0.67799997 -0.036851559 5.7099956e-39 324 271
0.0059437994 0.67799997 -0.036851559 5.6177999e-39 325 271
0.0071115191 0.676 -0.036742851 5.6167279e-39 326 271
0.0082967728 0.676 -0.036742851 5.6167279e-39 327 271
0.0094679995 0.67500001 -0.036688499 5.4341317e-39 328 271
0.01063572 0.67400002 -0.036634147 5.5263274e-39 329 271
0.011782399 0.67199999 -0.036525436 5.8943686e-39 330 271
0.012960639 0.67199999 -0.036525436 6.4475424e-39 331 271
0.01413888 0.67199999 -0.036525436 7.5538731e-39 332 271
0.015294326 0.671 -0.036471087 7.5538731e-39 333 271
0.016470812 0.671 -0.036471087 7.4638285e-39 334 271
0.017620999 0.67000002 -0.036416732 7.2790785e-39 335 271
0.018739626 0.66799998 -0.036308024 7.6456932e-39 336 271
0.019910853 0.66799998 -0.036308024 7.8300845e-39 337 271
0.021050518 0.667 -0.036253672 7.9212039e-39 338 271
0.022219993 0.667 -0.036253672 7.3680301e-39 339 271
0.023354398 0.66600001 -0.03619932 6.7237565e-39 340 271
0.024448479 0.66399997 -0.036090612 6.4471682e-39 341 271
0.025574118 0.66299999 -0.036036257 6.0783871e-39 342 271
0.026696252 0.662 -0.035981905 5.9861915e-39 343 271
0.027856959 0.662 -0.035981905 5.6174146e-39 344 271
0.028973831 0.66100001 -0.035927553 5.340469e-39 345 271
0.030132787 0.66100001 -0.035927553 4.9731312e-39 346 271
0.031291738 0.66100001 -0.035927553 4.9731312e-39 347 271
0.032352503 0.65899998 -0.035818845 4.9720424e-39 348 271
0.033457108 0.65799999 -0.035764489 4.0500889e-39 349 271
0.034558199 0.65700001 -0.035710141 1.6548326e-39 350 271
0.035710141 0.65700001 -0.035710141 7.2783905e-39 351 271
0.036862079 0.65700001 -0.035710141 1.1524451e-38 352 271
0.037898298 0.65499997 -0.03560143 1.5488863e-38 353 271
0.039046731 0.65499997 -0.03560143 1.4937856e-38 354 271
0.040195163 0.65499997 -0.03560143 1.4569433e-38 355 271
0.041343596 0.65499997 -0.03560143 1.4661273e-38 356 271
0.04242716 0.65399998 -0.035547078 1.4661273e-38 357 271
0.043573838 0.65399998 -0.035547078 1.4570152e-38 358 271
0.044652138 0.653 -0.035492726 1.4570152e-38 359 271
0.045797065 0.653 -0.035492726 1.4477598e-38 360 271
0.046870105 0.65200001 -0.035438374 1.4477598e-38 361 271
0.047865998 0.64999998 -0.035329666 1.4569077e-38 362 271
0.049005665 0.64999998 -0.035329666 1.4476882e-38 363 271
0.050145328 0.64999998 -0.035329666 1.4385039e-38 364 271
0.051206097 0.64899999 -0.03527531 1.3278692e-38 365 271
0.052344013 0.64899999 -0.03527531 1.3642785e-38 366 271
0.053481925 0.64899999 -0.03527531 1.3642785e-38 367 271
0.054619838 0.64899999 -0.03527531 1.3825013e-38 368 271
0.05575775 0.64899999 -0.03527531 1.3732817e-38 369 271
0.057158668 0.65200001 -0.035438374 1.2996319e-38 370 271
0.058570094 0.65499997 -0.03560143 1.2535699e-38 371 271
0.05990088 0.65700001 -0.035710141 1.271829e-38 372 271
0.061424527 0.66100001 -0.035927553 1.2533897e-38 373 271
0.062772833 0.66299999 -0.036036257 1.2626097e-38 374 271
0.063935295 0.66299999 -0.036036257 1.2810488e-38 375 271
0.06519594 0.66399997 -0.036090612 1.2810132e-38 376 271
0.066360161 0.66399997 -0.036090612 1.2717937e-38 377 271
0.067829452 0.667 -0.036253672 1.2625374e-38 378 271
0.069102369 0.66799998 -0.036308024 1.2809407e-38 379 271
0.0705892 0.671 -0.036471087 1.2809757e-38 380 271
0.07208655 0.67400002 -0.036634147 1.1980355e-38 381 271
0.073485702 0.676 -0.036742851 1.068854e-38 382 271
0.077432454 0.70099998 -0.038101684 1.0227562e-38 383 271
0.078324907 0.69800001 -0.037938625 1.1060566e-38 384 271
0.079548739 0.69800001 -0.037938625 1.161338e-38 385 271
0.081004001 0.69999999 -0.038047329 1.3083831e-38 386 271
0.082348801 0.70099998 -0.038101684 1.3268224e-38 387 271
0.083577886 0.70099998 -0.038101684 1.3072272e-38 388 271
0.085169919 0.704 -0.038264744 1.3717641e-38 389 271
0.086404264 0.704 -0.038264744 1.7227179e-38 390 271
0.087887585 0.70599997 -0.038373452 2.01778e-38 391 271
0.089251675 0.70700002 -0.038427804 2.0549857e-38 392 271
0.090619281 0.708 -0.038482159 1.9904488e-38 393 271
0.091860637 0.708 -0.038482159 1.9904137e-38 394 271
-0.11147342 0.76599997 -0.042977702 2.0369822e-38 237 272
-0.11013036 0.76599997 -0.042977702 1.9177061e-38 238 272
-0.10878731 0.76599997 -0.042977702 1.9361811e-38 239 272
-0.10716373 0.764 -0.042865492 1.8444906e-38 240 272
-0.10554716 0.76200002 -0.042753279 1.8444906e-38 241 272
-0.10421111 0.76200002 -0.042753279 1.8352714e-38 242 272
-0.10274007 0.76099998 -0.042697169 1.8260518e-38 243 272
-0.10140578 0.76099998 -0.042697169 1.8260162e-38 244 272
-0.099808492 0.759 -0.042584959 1.8075771e-38 245 272
-0.098218225 0.75700003 -0.042472746 1.8258365e-38 246 272
-0.096634962 0.755 -0.042360533 1.8258365e-38 247 272
-0.095311195 0.755 -0.042360533 1.8165445e-38 248 272
-0.093862943 0.75400001 -0.042304426 1.7981054e-38 249 272
-0.092540927 0.75400001 -0.042304426 1.7798814e-38 250 272
-0.090976954 0.75199997 -0.04219221 1.7891009e-38 251 272
-0.089658447 0.75199997 -0.04219221 1.7337114e-38 252 272
-0.087987527 0.74900001 -0.042023893 1.6784299e-38 253 272
-0.086442836 0.74699998 -0.041911677 1.6599552e-38 254 272
-0.085019127 0.74599999 -0.04185557 1.6507356e-38 255 272
-0.083486721 0.74400002 -0.04174336 1.6321892e-38 256 272
-0.081961311 0.74199998 -0.041631144 1.6321892e-38 257 272
-0.080660343 0.74199998 -0.041631144 1.6322254e-38 258 272
-0.079252414 0.741 -0.041575037 1.6322254e-38 259 272
-0.077953197 0.741 -0.041575037 1.5035113e-38 260 272
-0.076447085 0.73900002 -0.041462827 1.5127669e-38 261 272
-0.075049676 0.73799998 -0.041406717 1.6323335e-38 262 272
-0.073555835 0.736 -0.041294504 1.6507725e-38 263 272
-0.072265387 0.736 -0.041294504 1.6874709e-38 264 272
-0.070782073 0.73400003 -0.041182294 1.6966905e-38 265 272
-0.069495119 0.73400003 -0.041182294 1.7059454e-38 266 272
-0.068115242 0.73299998 -0.041126184 1.7336041e-38 267 272
-0.066647708 0.73100001 -0.041013971 1.715237e-38 268 272
-0.065097757 0.72799999 -0.040845651 1.7060174e-38 269 272
-0.063821331 0.72799999 -0.040845651 1.7059457e-38 270 272
-0.062458992 0.727 -0.040789545 1.7059457e-38 271 272
-0.061184317 0.727 -0.040789545 1.7059457e-38 272 272
-0.059744831 0.72500002 -0.040677335 1.6967261e-38 273 272
-0.058312356 0.72299999 -0.040565118 1.7058375e-38 274 272
-0.057044696 0.72299999 -0.040565118 1.7058375e-38 275 272
-0.055699892 0.722 -0.040509012 1.6783946e-38 276 272
-0.054433983 0.722 -0.040509012 1.6783946e-38 277 272
-0.053020801 0.72000003 -0.040396802 1.6599915e-38 278 272
-0.05168651 0.71899998 -0.040340692 1.6692469e-38 279 272
-0.0502856 0.71700001 -0.040228479 1.6967255e-38 280 272
-0.048960082 0.71600002 -0.040172372 1.6782864e-38 281 272
-0.047704693 0.71600002 -0.040172372 1.7059081e-38 282 272
-0.046319555 0.71399999 -0.040060159 1.6782496e-38 283 272
-0.045067675 0.71399999 -0.040060159 1.6781047e-38 284 272
-0.043754432 0.713 -0.040004052 1.6688851e-38 285 272
-0.042385083 0.71100003 -0.039891839 1.6225712e-38 286 272
-0.041138459 0.71100003 -0.039891839 1.5303396e-38 287 272
-0.039835732 0.70999998 -0.039835732 1.4655495e-38 288 272
-0.038482159 0.708 -0.039723519 1.3272561e-38 289 272
-0.0372408 0.708 -0.039723519 1.225768e-38 290 272
-0.035948593 0.70700002 -0.039667413 1.078255e-38 291 272
-0.034708988 0.70700002 -0.039667413 9.8573514e-39 292 272
-0.033422034 0.70599997 -0.039611302 8.7513625e-39 293 272
-0.032093015 0.704 -0.039499093 9.0243509e-39 294 272
-0.030814834 0.70300001 -0.039442986 9.2091009e-39 295 272
-0.029582238 0.70300001 -0.039442986 8.7513625e-39 296 272
-0.028268991 0.70099998 -0.039330769 8.7513625e-39 297 272
-0.027001332 0.69999999 -0.039274666 8.6606089e-39 298 272
-0.025700359 0.69800001 -0.039162453 8.5684132e-39 299 272
-0.024441468 0.69700003 -0.039106347 8.659527e-39 300 272
-0.023219392 0.69700003 -0.039106347 8.659527e-39 301 272
-0.02199732 0.69700003 -0.039106347 8.6588082e-39 302 272
-0.020775247 0.69700003 -0.039106347 8.6588082e-39 303 272
-0.019553173 0.69700003 -0.039106347 9.0232803e-39 304 272
-0.018304799 0.69599998 -0.039050236 8.9310847e-39 305 272
-0.01701084 0.69300002 -0.03888192 8.0134416e-39 306 272
-0.015750192 0.69099998 -0.038769703 8.2903872e-39 307 272
-0.014517599 0.69 -0.038713597 9.6686273e-39 308 272
-0.0133078 0.69 -0.038713597 9.8530186e-39 309 272
-0.012062933 0.68800002 -0.038601387 9.5775079e-39 310 272
-0.010856641 0.68800002 -0.038601387 8.5629958e-39 311 272
-0.0096363192 0.68699998 -0.038545277 7.3677036e-39 312 272
-0.0084317802 0.68699998 -0.038545277 7.3677036e-39 313 272
-0.0072272392 0.68699998 -0.038545277 6.8177725e-39 314 272
-0.0059964 0.68400002 -0.038376961 6.6330211e-39 315 272
-0.0047971201 0.68400002 -0.038376961 6.8156173e-39 316 272
-0.0035925799 0.68300003 -0.038320854 6.7234216e-39 317 272
-0.0023950534 0.68300003 -0.038320854 6.2638924e-39 318 272
-0.0011957732 0.68199998 -0.038264744 6.356088e-39 319 272
