# .PCD v.7 - Point Cloud Data file format
FIELDS x y z rgb imX imY
SIZE 4 4 4 4 4 4
TYPE F F F F F F
COUNT 1 1 1 1 1 1
WIDTH 883
HEIGHT 1
VIEWPOINT 0 0 0 1 0 0 0
POINTS 883
DATA ascii
0.033383466 0.56 0.17182666 1.7662908e-38 354 65
0.034303967 0.55900002 0.17151983 1.7570713e-38 355 65
0.035220962 0.55800003 0.171213 1.7662549e-38 356 65
0.036134444 0.55699998 0.17090616 1.7754743e-38 357 65
0.037111048 0.55699998 0.17090616 1.693253e-38 358 65
0.038019277 0.55599999 0.17059933 1.6563751e-38 359 65
0.038994133 0.55599999 0.17059933 1.6104591e-38 360 65
0.039968986 0.55599999 0.17059933 1.5643252e-38 361 65
0.040943839 0.55599999 0.17059933 1.6285753e-38 362 65
0.041994084 0.55699998 0.17090616 1.5916972e-38 363 65
0.042970691 0.55699998 0.17090616 1.6008075e-38 364 65
0.0440262 0.55800003 0.171213 1.5915881e-38 365 65
0.045165867 0.56 0.17182666 1.5822969e-38 366 65
0.04614773 0.56 0.17182666 1.5269804e-38 367 65
0.047297914 0.56199998 0.17244032 1.5453116e-38 368 65
0.048541032 0.565 0.17336082 1.5360563e-38 369 65
0.049531665 0.565 0.17336082 1.5176892e-38 370 65
0.050701134 0.56699997 0.17397448 1.536128e-38 371 65
0.051877629 0.56900001 0.17458817 1.5544242e-38 372 65
0.052875269 0.56900001 0.17458817 1.5636797e-38 373 65
0.054062277 0.57099998 0.17520182 1.4717728e-38 374 65
0.05506343 0.57099998 0.17520182 1.5270902e-38 375 65
0.056260962 0.57300001 0.17581549 1.4450515e-38 376 65
0.057365555 0.574 0.17612232 1.4911493e-38 377 65
0.058371972 0.574 0.17612232 1.3808022e-38 378 65
0.059481829 0.57499999 0.17642917 1.2148141e-38 379 65
0.0608056 0.57800001 0.17734966 1.3617507e-38 380 65
0.062246844 0.58200002 0.17857701 1.4724215e-38 381 65
0.063375987 0.583 0.17888384 1.380802e-38 382 65
0.064508639 0.58399999 0.17919065 1.2978259e-38 383 65
0.06553258 0.58399999 0.17919065 1.389123e-38 384 65
0.066670492 0.58499998 0.1794975 1.4167457e-38 385 65
0.067696191 0.58499998 0.1794975 1.4351855e-38 386 65
0.068956852 0.58700001 0.18011115 1.4351855e-38 387 65
0.070582189 0.59200001 0.18164532 1.4351135e-38 388 65
0.071741134 0.59299999 0.18195216 1.4351135e-38 389 65
0.072780862 0.59299999 0.18195216 1.4444051e-38 390 65
0.073945075 0.59399998 0.18225899 1.4351855e-38 391 65
0.074986555 0.59399998 0.18225899 1.4352207e-38 392 65
0.076156035 0.59500003 0.18256584 1.4444404e-38 393 65
0.077458762 0.597 0.1831795 1.4167088e-38 394 65
0.078636996 0.59799999 0.18348633 1.2691958e-38 395 65
0.079685487 0.59799999 0.18348633 1.5097367e-38 396 65
0.080733977 0.59799999 0.18348633 2.0260322e-38 397 65
-0.1147802 0.66799998 0.20379342 1.6416958e-38 222 66
-0.1134389 0.667 0.20348835 1.6416958e-38 223 66
-0.11210112 0.66600001 0.20318328 1.5217687e-38 224 66
-0.1109334 0.66600001 0.20318328 1.429609e-38 225 66
-0.10943604 0.66399997 0.20257311 1.4206762e-38 226 66
-0.10794572 0.662 0.20196296 1.4298957e-38 227 66
-0.1066237 0.66100001 0.20165788 1.420856e-38 228 66
-0.10546475 0.66100001 0.20165788 1.402381e-38 229 66
-0.10399019 0.65899998 0.2010477 1.4389718e-38 230 66
-0.1026787 0.65799999 0.20074263 1.4205687e-38 231 66
-0.10152501 0.65799999 0.20074263 1.4113857e-38 232 66
-0.10021878 0.65700001 0.20043756 1.4298607e-38 233 66
-0.098765261 0.65499997 0.19982739 1.4389368e-38 234 66
-0.097616829 0.65499997 0.19982739 1.4574118e-38 235 66
-0.096321113 0.65399998 0.19952232 1.4298973e-38 236 66
-0.095028915 0.653 0.19921723 1.4483366e-38 237 66
-0.09374021 0.65200001 0.19891214 1.448444e-38 238 66
-0.092312992 0.64999998 0.19830199 1.448444e-38 239 66
-0.091033064 0.64899999 0.1979969 1.4484084e-38 240 66
-0.089756638 0.648 0.19769183 1.4300053e-38 241 66
-0.088620476 0.648 0.19769183 1.4483721e-38 242 66
-0.087214306 0.64600003 0.19708169 1.4391167e-38 243 66
-0.086081654 0.64600003 0.19708169 1.4482272e-38 244 66
-0.084685996 0.64399999 0.19647151 1.4113491e-38 245 66
-0.083556846 0.64399999 0.19647151 1.4663402e-38 246 66
-0.082299709 0.64300001 0.19616644 1.447901e-38 247 66
-0.081046082 0.64200002 0.19586135 1.4661951e-38 248 66
-0.079795949 0.64099997 0.19555627 1.4477919e-38 249 66
-0.078672059 0.64099997 0.19555627 1.4478286e-38 250 66
-0.077427194 0.63999999 0.1952512 1.4478286e-38 251 66
-0.076066613 0.63800001 0.19464104 1.4661604e-38 252 66
-0.07483051 0.63700002 0.19433597 1.4753799e-38 253 66
-0.073482201 0.63499999 0.19372579 1.5120784e-38 254 66
-0.072254866 0.634 0.19342072 1.5028588e-38 255 66
-0.071143255 0.634 0.19342072 1.5029307e-38 256 66
-0.069810718 0.63200003 0.19281055 1.5121503e-38 257 66
-0.068593897 0.63099998 0.19250546 1.502931e-38 258 66
-0.0673806 0.63 0.19220039 1.502931e-38 259 66
-0.066275999 0.63 0.19220039 1.4845998e-38 260 66
-0.064964511 0.62800002 0.19159023 1.4845998e-38 261 66
-0.063761711 0.62699997 0.19128513 1.502931e-38 262 66
-0.062662378 0.62699997 0.19128513 1.502931e-38 263 66
-0.061563037 0.62699997 0.19128513 1.502931e-38 264 66
-0.060270831 0.625 0.19067499 1.502931e-38 265 66
-0.059080318 0.62400001 0.19036992 1.4661604e-38 266 66
-0.057893313 0.62300003 0.19006485 1.4016234e-38 267 66
-0.056709807 0.62199998 0.18975975 1.2634745e-38 268 66
-0.055619236 0.62199998 0.18975975 1.189718e-38 269 66
-0.054440998 0.62099999 0.18945467 1.2174865e-38 270 66
-0.053352177 0.62099999 0.18945467 1.5677939e-38 271 66
-0.052179199 0.62 0.18914959 1.5958501e-38 272 66
-0.051092129 0.62 0.18914959 1.5681556e-38 273 66
-0.049924415 0.61900002 0.18884452 1.5406416e-38 274 66
-0.048760198 0.61799997 0.18853943 1.5590807e-38 275 66
-0.047522344 0.616 0.18792927 1.5590091e-38 276 66
-0.046366896 0.61500001 0.1876242 1.5590091e-38 277 66
-0.045214958 0.61400002 0.18731913 1.5589735e-38 278 66
-0.043994635 0.61199999 0.18670896 1.5589735e-38 279 66
-0.042921599 0.61199999 0.18670896 1.5774123e-38 280 66
-0.041780181 0.611 0.18640389 1.5774123e-38 281 66
-0.040642265 0.61000001 0.1860988 1.5866671e-38 282 66
-0.039572731 0.61000001 0.1860988 1.5866671e-38 283 66
-0.038440082 0.60900003 0.18579371 1.5775555e-38 284 66
-0.037310928 0.60799998 0.18548863 1.6328728e-38 285 66
-0.036244903 0.60799998 0.18548863 1.6420195e-38 286 66
-0.03512102 0.60699999 0.18518354 1.4023109e-38 287 66
-0.034000639 0.60600001 0.18487847 1.6217411e-38 288 66
-0.032829411 0.60399997 0.1842683 1.5110703e-38 289 66
-0.031770397 0.60399997 0.1842683 1.6204753e-38 290 66
-0.030660538 0.60299999 0.18396322 1.4637067e-38 291 66
-0.029554185 0.602 0.18365815 1.6471596e-38 292 66
-0.02845134 0.60100001 0.18335308 1.6563792e-38 293 66
-0.027352 0.60000002 0.18304799 1.6747107e-38 294 66
-0.0263 0.60000002 0.18304799 1.6747107e-38 295 66
-0.025205918 0.59899998 0.18274291 1.6654553e-38 296 66
-0.024155671 0.59899998 0.18274291 1.6654553e-38 297 66
-0.023066852 0.59799999 0.18243784 1.6654553e-38 298 66
-0.022018358 0.59799999 0.18243784 1.6470162e-38 299 66
-0.0209348 0.597 0.18213275 1.6471596e-38 300 66
-0.019854747 0.59600002 0.18182768 1.6471596e-38 301 66
-0.01880976 0.59600002 0.18182768 1.6654909e-38 302 66
-0.017764773 0.59600002 0.18182768 1.6747104e-38 303 66
-0.01666368 0.59399998 0.18121751 1.6746388e-38 304 66
-0.015595899 0.59299999 0.18091244 1.6930419e-38 305 66
-0.014556173 0.59299999 0.18091244 1.6746751e-38 306 66
-0.013493653 0.59200001 0.18060736 1.6746751e-38 307 66
-0.01243464 0.59100002 0.18030229 1.6654909e-38 308 66
-0.011359846 0.58899999 0.17969212 1.6654909e-38 309 66
-0.010327132 0.58899999 0.17969212 1.6747102e-38 310 66
-0.0092786392 0.588 0.17938703 1.6747102e-38 311 66
-0.00824768 0.588 0.17938703 1.674782e-38 312 66
-0.0072044469 0.58700001 0.17908196 1.6563789e-38 313 66
-0.0061647203 0.58600003 0.17877688 1.6747104e-38 314 66
-0.0051284996 0.58499998 0.17847179 1.6654909e-38 315 66
-0.0041027996 0.58499998 0.17847179 1.6654909e-38 316 66
-0.0030718399 0.58399999 0.1781667 1.6654909e-38 317 66
-0.0020478931 0.58399999 0.1781667 1.6563063e-38 318 66
-0.0010221933 0.583 0.17786163 1.6655259e-38 319 66
0 0.58200002 0.17755656 1.6747455e-38 320 66
0.0010186866 0.58099997 0.17725146 1.6747455e-38 321 66
0.0020373731 0.58099997 0.17725146 1.6746739e-38 322 66
0.0030507999 0.57999998 0.17694639 1.6746739e-38 323 66
0.0040607196 0.579 0.17664132 1.6654906e-38 324 66
0.0050758999 0.579 0.17664132 1.656271e-38 325 66
0.0060805595 0.57800001 0.17633623 1.6563063e-38 326 66
0.0070817131 0.57700002 0.17603116 1.6655259e-38 327 66
0.0080933869 0.57700002 0.17603116 1.6471944e-38 328 66
0.0090892799 0.57599998 0.17572607 1.6471944e-38 329 66
0.010081667 0.57499999 0.17542098 1.6564145e-38 330 66
0.011070547 0.574 0.17511591 1.6564145e-38 331 66
0.01207696 0.574 0.17511591 1.6837505e-38 332 66
0.013037787 0.57200003 0.17450577 1.6745309e-38 333 66
0.014040694 0.57200003 0.17450577 1.7112291e-38 334 66
0.015017299 0.57099998 0.17420067 1.7112291e-38 335 66
0.016018452 0.57099998 0.17420067 1.6654543e-38 336 66
0.016989799 0.56999999 0.1738956 1.6561989e-38 337 66
0.017957641 0.56900001 0.17359053 1.6561989e-38 338 66
0.018921973 0.56800002 0.17328544 1.6654543e-38 339 66
0.019917866 0.56800002 0.17328544 1.638047e-38 340 66
0.020803299 0.565 0.1723702 1.6472666e-38 341 66
0.021793934 0.565 0.1723702 1.6380464e-38 342 66
0.022784567 0.565 0.1723702 1.6288269e-38 343 66
0.023775198 0.565 0.1723702 1.6287906e-38 344 66
0.024722001 0.56400001 0.17206512 1.6195709e-38 345 66
0.025665293 0.56300002 0.17176004 1.6377949e-38 346 66
0.02665242 0.56300002 0.17176004 1.6562342e-38 347 66
0.027590452 0.56199998 0.17145495 1.6102085e-38 348 66
0.028575823 0.56199998 0.17145495 1.600989e-38 349 66
0.029508598 0.56099999 0.17114986 1.6101722e-38 350 66
0.030492216 0.56099999 0.17114986 1.6009168e-38 351 66
0.031475838 0.56099999 0.17114986 1.628394e-38 352 66
0.032401599 0.56 0.17084479 1.628394e-38 353 66
0.033323854 0.55900002 0.17053972 1.6469405e-38 354 66
0.0342426 0.55800003 0.17023464 1.6284658e-38 355 66
0.035157841 0.55699998 0.16992955 1.6376493e-38 356 66
0.036134444 0.55699998 0.16992955 1.6653435e-38 357 66
0.037044425 0.55599999 0.16962446 1.5919842e-38 358 66
0.038019277 0.55599999 0.16962446 1.5827647e-38 359 66
0.038994133 0.55599999 0.16962446 1.5551435e-38 360 66
0.039968986 0.55599999 0.16962446 1.545924e-38 361 66
0.040943839 0.55599999 0.16962446 1.5731523e-38 362 66
0.041994084 0.55699998 0.16992955 1.5363101e-38 363 66
0.042970691 0.55699998 0.16992955 1.4993589e-38 364 66
0.043947294 0.55699998 0.16992955 1.5178339e-38 365 66
0.045085214 0.55900002 0.17053972 1.47188e-38 366 66
0.04614773 0.56 0.17084479 1.4534409e-38 367 66
0.047297914 0.56199998 0.17145495 1.47181e-38 368 66
0.048541032 0.565 0.1723702 1.4625545e-38 369 66
0.049531665 0.565 0.1723702 1.47181e-38 370 66
0.050611716 0.56599998 0.17267527 1.4810295e-38 371 66
0.051786453 0.56800002 0.17328544 1.4901409e-38 372 66
0.052782346 0.56800002 0.17328544 1.4901409e-38 373 66
0.054062277 0.57099998 0.17420067 1.4441533e-38 374 66
0.05506343 0.57099998 0.17420067 1.5732271e-38 375 66
0.056260962 0.57300001 0.17481084 1.4824743e-38 376 66
0.057365555 0.574 0.17511591 1.4916938e-38 377 66
0.058371972 0.574 0.17511591 1.4090762e-38 378 66
0.059481829 0.57499999 0.17542098 1.1693316e-38 379 66
0.060910795 0.579 0.17664132 1.2887861e-38 380 66
0.06213988 0.58099997 0.17725146 1.4086046e-38 381 66
0.063375987 0.583 0.17786163 1.3535026e-38 382 66
0.064508639 0.58399999 0.1781667 1.2428319e-38 383 66
0.06553258 0.58399999 0.1781667 1.2239634e-38 384 66
0.066670492 0.58499998 0.17847179 1.2424026e-38 385 66
0.067696191 0.58499998 0.17847179 1.3160161e-38 386 66
0.068956852 0.58700001 0.17908196 1.3344911e-38 387 66
0.070582189 0.59200001 0.18060736 1.3615738e-38 388 66
0.071862116 0.59399998 0.18121751 1.398416e-38 389 66
0.072903596 0.59399998 0.18121751 1.3617886e-38 390 66
0.073945075 0.59399998 0.18121751 1.3710083e-38 391 66
0.074986555 0.59399998 0.18121751 1.4261092e-38 392 66
0.076284021 0.59600002 0.18182768 1.4261092e-38 393 66
0.077588499 0.59799999 0.18243784 1.3983776e-38 394 66
0.078636996 0.59799999 0.18243784 1.2416449e-38 395 66
0.079685487 0.59799999 0.18243784 1.5187762e-38 396 66
0.080733977 0.59799999 0.18243784 2.0627663e-38 397 66
-0.11512387 0.67000002 0.20322886 1.6508798e-38 222 67
-0.11360898 0.66799998 0.20262221 1.6508798e-38 223 67
-0.11226943 0.667 0.20231888 1.5309885e-38 224 67
-0.11109996 0.667 0.20231888 1.438793e-38 225 67
-0.10943604 0.66399997 0.20140889 1.4023094e-38 226 67
-0.10810877 0.66299999 0.20110556 1.4207125e-38 227 67
-0.10678501 0.662 0.20080225 1.429932e-38 228 67
-0.10546475 0.66100001 0.20049892 1.429932e-38 229 67
-0.1043058 0.66100001 0.20049892 1.4206411e-38 230 67
-0.10283475 0.65899998 0.19989225 1.4206411e-38 231 67
-0.1016793 0.65899998 0.19989225 1.4206421e-38 232 67
-0.10037132 0.65799999 0.19958894 1.4298617e-38 233 67
-0.098765261 0.65499997 0.19867896 1.4207507e-38 234 67
-0.097616829 0.65499997 0.19867896 1.4207507e-38 235 67
-0.096321113 0.65399998 0.19837563 1.4207507e-38 236 67
-0.095028915 0.653 0.19807231 1.4483734e-38 237 67
-0.09374021 0.65200001 0.19776899 1.4299347e-38 238 67
-0.092597038 0.65200001 0.19776899 1.4483737e-38 239 67
-0.091173328 0.64999998 0.19716232 1.4300422e-38 240 67
-0.089895152 0.64899999 0.196859 1.4300422e-38 241 67
-0.088620476 0.648 0.19655567 1.4300419e-38 242 67
-0.087349311 0.64700001 0.19625235 1.4392615e-38 243 67
-0.086081654 0.64600003 0.19594903 1.4391167e-38 244 67
-0.084949002 0.64600003 0.19594903 1.3838352e-38 245 67
-0.083556846 0.64399999 0.19534238 1.4388259e-38 246 67
-0.082299709 0.64300001 0.19503903 1.3835086e-38 247 67
-0.081172317 0.64300001 0.19503903 1.4661235e-38 248 67
-0.079920441 0.64200002 0.19473572 1.4661235e-38 249 67
-0.078672059 0.64099997 0.19443238 1.4477923e-38 250 67
-0.077427194 0.63999999 0.19412906 1.4661954e-38 251 67
-0.076066613 0.63800001 0.19352241 1.4753434e-38 252 67
-0.07483051 0.63700002 0.19321908 1.4845629e-38 253 67
-0.073482201 0.63499999 0.19261242 1.5028941e-38 254 67
-0.072254866 0.634 0.1923091 1.5028941e-38 255 67
-0.071143255 0.634 0.1923091 1.5121137e-38 256 67
-0.069810718 0.63200003 0.19170246 1.5028941e-38 257 67
-0.068593897 0.63099998 0.19139911 1.4845632e-38 258 67
-0.0673806 0.63 0.19109578 1.4845632e-38 259 67
-0.066275999 0.63 0.19109578 1.512114e-38 260 67
-0.065067954 0.62900001 0.19079247 1.5028944e-38 261 67
-0.063863412 0.62800002 0.19048914 1.512114e-38 262 67
-0.062662378 0.62699997 0.1901858 1.5028944e-38 263 67
-0.061563037 0.62699997 0.1901858 1.502966e-38 264 67
-0.060270831 0.625 0.18957916 1.4753434e-38 265 67
-0.059080318 0.62400001 0.18927585 1.4661957e-38 266 67
-0.057893313 0.62300003 0.18897252 1.4016587e-38 267 67
-0.056709807 0.62199998 0.18866917 1.2358162e-38 268 67
-0.055619236 0.62199998 0.18866917 1.1712792e-38 269 67
-0.054440998 0.62099999 0.18836585 1.235818e-38 270 67
-0.053352177 0.62099999 0.18836585 1.5861614e-38 271 67
-0.052179199 0.62 0.18806253 1.5866306e-38 272 67
-0.051092129 0.62 0.18806253 1.5589359e-38 273 67
-0.049924415 0.61900002 0.18775921 1.5681202e-38 274 67
-0.048760198 0.61799997 0.18745586 1.5681202e-38 275 67
-0.047522344 0.616 0.18684922 1.5681208e-38 276 67
-0.046366896 0.61500001 0.18654591 1.5681208e-38 277 67
-0.045214958 0.61400002 0.18624257 1.5681208e-38 278 67
-0.044066526 0.61299998 0.18593924 1.5773404e-38 279 67
-0.042991728 0.61299998 0.18593924 1.5865952e-38 280 67
-0.041848559 0.61199999 0.18563591 1.5865952e-38 281 67
-0.040775519 0.61199999 0.18563591 1.5866668e-38 282 67
-0.039572731 0.61000001 0.18502925 1.5866668e-38 283 67
-0.0385032 0.61000001 0.18502925 1.5866671e-38 284 67
-0.037310928 0.60799998 0.1844226 1.6235455e-38 285 67
-0.036244903 0.60799998 0.1844226 1.6143962e-38 286 67
-0.03512102 0.60699999 0.18411928 1.3470288e-38 287 67
-0.034000639 0.60600001 0.18381596 1.6583672e-38 288 67
-0.032829411 0.60399997 0.1832093 1.5385129e-38 289 67
-0.031770397 0.60399997 0.1832093 1.6110039e-38 290 67
-0.030660538 0.60299999 0.18290597 1.4726746e-38 291 67
-0.029554185 0.602 0.18260264 1.6470515e-38 292 67
-0.02845134 0.60100001 0.18229932 1.6286482e-38 293 67
-0.027397586 0.60100001 0.18229932 1.6836056e-38 294 67
-0.0263 0.60000002 0.181996 1.6836056e-38 295 67
-0.025205918 0.59899998 0.18169266 1.6652022e-38 296 67
-0.024155671 0.59899998 0.18169266 1.6652022e-38 297 67
-0.023066852 0.59799999 0.18138933 1.6652738e-38 298 67
-0.022018358 0.59799999 0.18138933 1.6560542e-38 299 67
-0.0209348 0.597 0.181086 1.6652019e-38 300 67
-0.019854747 0.59600002 0.18078269 1.6836409e-38 301 67
-0.01880976 0.59600002 0.18078269 1.665346e-38 302 67
-0.017764773 0.59600002 0.18078269 1.6745657e-38 303 67
-0.01666368 0.59399998 0.18017602 1.6928254e-38 304 67
-0.015595899 0.59299999 0.17987271 1.7112647e-38 305 67
-0.014556173 0.59299999 0.17987271 1.6653834e-38 306 67
-0.013493653 0.59200001 0.17956938 1.6561638e-38 307 67
-0.012455679 0.59200001 0.17956938 1.6745306e-38 308 67
-0.011379133 0.58999997 0.17896271 1.6745306e-38 309 67
-0.010327132 0.58899999 0.17865939 1.6745657e-38 310 67
-0.0092944186 0.58899999 0.17865939 1.6745657e-38 311 67
-0.00824768 0.588 0.17835607 1.6654537e-38 312 67
-0.0072167199 0.588 0.17835607 1.6562342e-38 313 67
-0.00617524 0.58700001 0.17805275 1.6744937e-38 314 67
-0.0051372666 0.58600003 0.17774943 1.6652741e-38 315 67
-0.0041027996 0.58499998 0.17744608 1.6836406e-38 316 67
-0.0030718399 0.58399999 0.17714277 1.6836406e-38 317 67
-0.0020478931 0.58399999 0.17714277 1.6469776e-38 318 67
-0.0010221933 0.583 0.17683944 1.6653807e-38 319 67
0 0.58200002 0.17653613 1.665381e-38 320 67
0.00102044 0.58200002 0.17653613 1.665381e-38 321 67
0.0020373731 0.58099997 0.17623277 1.6653094e-38 322 67
0.0030507999 0.57999998 0.17592946 1.674529e-38 323 67
0.004067733 0.57999998 0.17592946 1.6652741e-38 324 67
0.0050758999 0.579 0.17562613 1.6652741e-38 325 67
0.0060805595 0.57800001 0.17532282 1.6470147e-38 326 67
0.0070817131 0.57700002 0.17501949 1.6470147e-38 327 67
0.0080933869 0.57700002 0.17501949 1.6470865e-38 328 67
0.0090892799 0.57599998 0.17471614 1.6470865e-38 329 67
0.010081667 0.57499999 0.17441283 1.6654537e-38 330 67
0.011070547 0.574 0.1741095 1.6562342e-38 331 67
0.01205592 0.57300001 0.17380619 1.6744937e-38 332 67
0.013037787 0.57200003 0.17350285 1.6652741e-38 333 67
0.014040694 0.57200003 0.17350285 1.6836053e-38 334 67
0.015017299 0.57099998 0.17319952 1.6928249e-38 335 67
0.016018452 0.57099998 0.17319952 1.6836406e-38 336 67
0.016989799 0.56999999 0.17289619 1.6652375e-38 337 67
0.017957641 0.56900001 0.17259288 1.6377583e-38 338 67
0.018955287 0.56900001 0.17259288 1.6377583e-38 339 67
0.019917866 0.56800002 0.17228954 1.619499e-38 340 67
0.02084012 0.56599998 0.17168288 1.6102436e-38 341 67
0.021793934 0.565 0.17137957 1.6378655e-38 342 67
0.022784567 0.565 0.17137957 1.6378655e-38 343 67
0.023775198 0.565 0.17137957 1.6286093e-38 344 67
0.024765832 0.565 0.17137957 1.619354e-38 345 67
0.025710881 0.56400001 0.17107624 1.6376134e-38 346 67
0.02665242 0.56300002 0.17077291 1.6191746e-38 347 67
0.027639547 0.56300002 0.17077291 1.5731134e-38 348 67
0.028575823 0.56199998 0.17046958 1.5731134e-38 349 67
0.029508598 0.56099999 0.17016625 1.5822612e-38 350 67
0.030492216 0.56099999 0.17016625 1.5361639e-38 351 67
0.031419732 0.56 0.16986293 1.5269804e-38 352 67
0.032401599 0.56 0.16986293 1.5269804e-38 353 67
0.033323854 0.55900002 0.1695596 1.5086133e-38 354 67
0.0342426 0.55800003 0.16925628 1.5086133e-38 355 67
0.035157841 0.55699998 0.16895294 1.4994656e-38 356 67
0.036134444 0.55699998 0.16895294 1.4902462e-38 357 67
0.037044425 0.55599999 0.16864961 1.4348938e-38 358 67
0.038019277 0.55599999 0.16864961 1.4717356e-38 359 67
0.038994133 0.55599999 0.16864961 1.4810643e-38 360 67
0.039897099 0.55500001 0.1683463 1.4902839e-38 361 67
0.040870197 0.55500001 0.1683463 1.4808498e-38 362 67
0.041918691 0.55599999 0.16864961 1.4808498e-38 363 67
0.042970691 0.55699998 0.16895294 1.4168187e-38 364 67
0.043947294 0.55699998 0.16895294 1.5551121e-38 365 67
0.045085214 0.55900002 0.1695596 1.362507e-38 366 67
0.046312544 0.56199998 0.17046958 1.1688962e-38 367 67
0.047466241 0.56400001 0.17107624 1.4350741e-38 368 67
0.048541032 0.565 0.17137957 1.4350741e-38 369 67
0.049531665 0.565 0.17137957 1.4534409e-38 370 67
0.050611716 0.56599998 0.17168288 1.4534409e-38 371 67
0.051786453 0.56800002 0.17228954 1.4626238e-38 372 67
0.052782346 0.56800002 0.17228954 1.4718432e-38 373 67
0.053967595 0.56999999 0.17289619 1.4349684e-38 374 67
0.05506343 0.57099998 0.17319952 1.5732619e-38 375 67
0.056260962 0.57300001 0.17380619 1.4273719e-38 376 67
0.057365555 0.574 0.1741095 1.3628349e-38 377 67
0.058473662 0.57499999 0.17441283 1.3075544e-38 378 67
0.059481829 0.57499999 0.17441283 1.2614925e-38 379 67
0.0608056 0.57800001 0.17532282 1.2705673e-38 380 67
0.06213988 0.58099997 0.17623277 1.3904216e-38 381 67
0.063484691 0.58399999 0.17714277 1.2990536e-38 382 67
0.064508639 0.58399999 0.17714277 1.308309e-38 383 67
0.065644793 0.58499998 0.17744608 1.2991989e-38 384 67
0.066670492 0.58499998 0.17744608 1.3452608e-38 385 67
0.067811921 0.58600003 0.17774943 1.4738661e-38 386 67
0.068956852 0.58700001 0.17805275 1.2987304e-38 387 67
0.070582189 0.59200001 0.17956938 1.2787769e-38 388 67
0.071741134 0.59299999 0.17987271 1.2972519e-38 389 67
0.072903596 0.59399998 0.18017602 1.3801899e-38 390 67
0.073945075 0.59399998 0.18017602 1.3801899e-38 391 67
0.075112805 0.59500003 0.18047936 1.4260359e-38 392 67
0.076284021 0.59600002 0.18078269 1.4260359e-38 393 67
0.077458762 0.597 0.181086 1.4074527e-38 394 67
0.078505501 0.597 0.181086 1.2691594e-38 395 67
0.079685487 0.59799999 0.18138933 1.5004805e-38 396 67
0.080733977 0.59799999 0.18138933 2.0352152e-38 397 67
-0.11512387 0.67000002 0.20205414 1.6416602e-38 222 68
-0.11360898 0.66799998 0.20145097 1.6508798e-38 223 68
-0.11226943 0.667 0.2011494 1.5310964e-38 224 68
-0.11109996 0.667 0.2011494 1.4388649e-38 225 68
-0.10976568 0.66600001 0.20084783 1.4389721e-38 226 68
-0.10827184 0.66399997 0.20024468 1.4389721e-38 227 68
-0.10694631 0.66299999 0.19994311 1.43908e-38 228 68
-0.1056243 0.662 0.19964154 1.43908e-38 229 68
-0.1043058 0.66100001 0.19933997 1.4298607e-38 230 68
-0.10314685 0.66100001 0.19933997 1.4298607e-38 231 68
-0.1016793 0.65899998 0.19873682 1.4206421e-38 232 68
-0.10037132 0.65799999 0.19843523 1.4298617e-38 233 68
-0.098765261 0.65499997 0.19753052 1.4207151e-38 234 68
-0.097616829 0.65499997 0.19753052 1.4207151e-38 235 68
-0.096321113 0.65399998 0.19722895 1.4207873e-38 236 68
-0.095174432 0.65399998 0.19722895 1.4207873e-38 237 68
-0.093883984 0.653 0.19692738 1.4300069e-38 238 68
-0.092597038 0.65200001 0.19662581 1.4300069e-38 239 68
-0.091173328 0.64999998 0.19602266 1.4483737e-38 240 68
-0.089895152 0.64899999 0.19572109 1.4483737e-38 241 68
-0.088757232 0.64899999 0.19572109 1.4392617e-38 242 68
-0.087484315 0.648 0.19541952 1.4577009e-38 243 68
-0.086214907 0.64700001 0.19511795 1.4575561e-38 244 68
-0.084949002 0.64600003 0.19481638 1.4022746e-38 245 68
-0.083556846 0.64399999 0.19421321 1.4112396e-38 246 68
-0.082299709 0.64300001 0.19391164 1.3743973e-38 247 68
-0.081172317 0.64300001 0.19391164 1.4753431e-38 248 68
-0.079920441 0.64200002 0.19361009 1.4661235e-38 249 68
-0.078672059 0.64099997 0.1933085 1.4568682e-38 250 68
-0.077427194 0.63999999 0.19300692 1.4661238e-38 251 68
-0.076305062 0.63999999 0.19300692 1.4844194e-38 252 68
-0.07494799 0.63800001 0.19240378 1.4936749e-38 253 68
-0.073482201 0.63499999 0.19149907 1.5028944e-38 254 68
-0.07236883 0.63499999 0.19149907 1.5028944e-38 255 68
-0.071143255 0.634 0.1911975 1.4936749e-38 256 68
-0.069810718 0.63200003 0.19059435 1.4936749e-38 257 68
-0.068593897 0.63099998 0.19029276 1.4845632e-38 258 68
-0.067487545 0.63099998 0.19029276 1.4845632e-38 259 68
-0.066381201 0.63099998 0.19029276 1.4845632e-38 260 68
-0.065171398 0.63 0.18999119 1.4845632e-38 261 68
-0.063863412 0.62800002 0.18938805 1.4753796e-38 262 68
-0.06276232 0.62800002 0.18938805 1.4753796e-38 263 68
-0.061563037 0.62699997 0.18908647 1.4845629e-38 264 68
-0.060270831 0.625 0.18848333 1.4753434e-38 265 68
-0.059080318 0.62400001 0.18818176 1.4477567e-38 266 68
-0.057893313 0.62300003 0.18788019 1.4108783e-38 267 68
-0.056709807 0.62199998 0.18757859 1.2541474e-38 268 68
-0.055619236 0.62199998 0.18757859 1.1803909e-38 269 68
-0.054528661 0.62199998 0.18757859 1.2083035e-38 270 68
-0.053352177 0.62099999 0.18727703 1.5494273e-38 271 68
-0.052263357 0.62099999 0.18727703 1.6141816e-38 272 68
-0.051092129 0.62 0.18697546 1.5588642e-38 273 68
-0.049924415 0.61900002 0.18667389 1.5496813e-38 274 68
-0.048760198 0.61799997 0.18637231 1.5589008e-38 275 68
-0.047676638 0.61799997 0.18637231 1.5589011e-38 276 68
-0.046442289 0.616 0.18576916 1.5681208e-38 277 68
-0.045214958 0.61400002 0.18516602 1.5590089e-38 278 68
-0.044066526 0.61299998 0.18486445 1.5590089e-38 279 68
-0.042991728 0.61299998 0.18486445 1.5590807e-38 280 68
-0.041916937 0.61299998 0.18486445 1.5590807e-38 281 68
-0.040775519 0.61199999 0.18456288 1.577412e-38 282 68
-0.039637607 0.611 0.18426131 1.5866315e-38 283 68
-0.0385032 0.61000001 0.18395974 1.5866315e-38 284 68
-0.037310928 0.60799998 0.18335657 1.6143262e-38 285 68
-0.036244903 0.60799998 0.18335657 1.6326555e-38 286 68
-0.03512102 0.60699999 0.18305501 1.3284099e-38 287 68
-0.034000639 0.60600001 0.18275344 1.6581151e-38 288 68
-0.032829411 0.60399997 0.18215027 1.5659195e-38 289 68
-0.031770397 0.60399997 0.18215027 1.601712e-38 290 68
-0.030660538 0.60299999 0.1818487 1.4541631e-38 291 68
-0.029554185 0.602 0.18154714 1.6560195e-38 292 68
-0.02845134 0.60100001 0.18124557 1.6467641e-38 293 68
-0.027397586 0.60100001 0.18124557 1.6650593e-38 294 68
-0.0263 0.60000002 0.180944 1.6742788e-38 295 68
-0.025205918 0.59899998 0.18064243 1.6650587e-38 296 68
-0.024155671 0.59899998 0.18064243 1.6743141e-38 297 68
-0.023066852 0.59799999 0.18034084 1.646835e-38 298 68
-0.022018358 0.59799999 0.18034084 1.6375795e-38 299 68
-0.0209348 0.597 0.18003927 1.6559826e-38 300 68
-0.01988806 0.597 0.18003927 1.6559826e-38 301 68
-0.01880976 0.59600002 0.1797377 1.6652025e-38 302 68
-0.017764773 0.59600002 0.1797377 1.6652025e-38 303 68
-0.016691733 0.59500003 0.17943613 1.6652391e-38 304 68
-0.0156222 0.59399998 0.17913455 1.6744586e-38 305 68
-0.014556173 0.59299999 0.17883298 1.6286129e-38 306 68
-0.013516447 0.59299999 0.17883298 1.6286129e-38 307 68
-0.012455679 0.59200001 0.17853142 1.6377246e-38 308 68
-0.011398421 0.59100002 0.17822984 1.6377246e-38 309 68
-0.010327132 0.58899999 0.17762668 1.6469073e-38 310 68
-0.0092944186 0.58899999 0.17762668 1.6653463e-38 311 68
-0.00824768 0.588 0.17732511 1.6469426e-38 312 68
-0.0072167199 0.588 0.17732511 1.637723e-38 313 68
-0.00617524 0.58700001 0.17702354 1.6743136e-38 314 68
-0.0051372666 0.58600003 0.17672198 1.6743136e-38 315 68
-0.0041027996 0.58499998 0.17642039 1.656018e-38 316 68
-0.0030770996 0.58499998 0.17642039 1.656018e-38 317 68
-0.0020478931 0.58399999 0.17611882 1.656018e-38 318 68
-0.0010239466 0.58399999 0.17611882 1.6652375e-38 319 68
0 0.58200002 0.17551568 1.646835e-38 320 68
0.00102044 0.58200002 0.17551568 1.646835e-38 321 68
0.0020373731 0.58099997 0.17521408 1.6560542e-38 322 68
0.0030507999 0.57999998 0.17491251 1.6560542e-38 323 68
0.004067733 0.57999998 0.17491251 1.6560542e-38 324 68
0.0050758999 0.579 0.17461094 1.6468347e-38 325 68
0.0060805595 0.57800001 0.17430939 1.6377233e-38 326 68
0.0070817131 0.57700002 0.17400782 1.6469429e-38 327 68
0.0080933869 0.57700002 0.17400782 1.6377952e-38 328 68
0.0090892799 0.57599998 0.17370623 1.6377952e-38 329 68
0.0100992 0.57599998 0.17370623 1.6469073e-38 330 68
0.011070547 0.574 0.17310308 1.6376877e-38 331 68
0.01205592 0.57300001 0.17280151 1.655947e-38 332 68
0.01306058 0.57300001 0.17280151 1.6652025e-38 333 68
0.014040694 0.57200003 0.17249994 1.646835e-38 334 68
0.0150436 0.57200003 0.17249994 1.6560545e-38 335 68
0.016018452 0.57099998 0.17219837 1.6377227e-38 336 68
0.017019605 0.57099998 0.17219837 1.6192836e-38 337 68
0.0179892 0.56999999 0.1718968 1.6192836e-38 338 68
0.018955287 0.56900001 0.17159523 1.610064e-38 339 68
0.019917866 0.56800002 0.17129366 1.6192833e-38 340 68
0.02084012 0.56599998 0.17069049 1.6192833e-38 341 68
0.021793934 0.565 0.17038892 1.6100994e-38 342 68
0.022784567 0.565 0.17038892 1.6100994e-38 343 68
0.023775198 0.565 0.17038892 1.6100273e-38 344 68
0.024765832 0.565 0.17038892 1.5915523e-38 345 68
0.025710881 0.56400001 0.17008737 1.5732211e-38 346 68
0.02665242 0.56300002 0.1697858 1.5732211e-38 347 68
0.027639547 0.56300002 0.1697858 1.5640018e-38 348 68
0.028575823 0.56199998 0.1694842 1.5547464e-38 349 68
0.029508598 0.56099999 0.16918263 1.5637863e-38 350 68
0.030437866 0.56 0.16888106 1.5637863e-38 351 68
0.031419732 0.56 0.16888106 1.5637863e-38 352 68
0.032343742 0.55900002 0.16857949 1.5545669e-38 353 68
0.033264238 0.55800003 0.16827792 1.5362357e-38 354 68
0.0342426 0.55800003 0.16827792 1.5270162e-38 355 68
0.035157841 0.55699998 0.16797633 1.5269806e-38 356 68
0.036134444 0.55699998 0.16797633 1.5269806e-38 357 68
0.037044425 0.55599999 0.16767476 1.4901046e-38 358 68
0.038019277 0.55599999 0.16767476 1.4993242e-38 359 68
0.038994133 0.55599999 0.16767476 1.4625198e-38 360 68
0.039897099 0.55500001 0.1673732 1.4625198e-38 361 68
0.040870197 0.55500001 0.1673732 1.471704e-38 362 68
0.041918691 0.55599999 0.16767476 1.4809236e-38 363 68
0.042970691 0.55699998 0.16797633 1.4538432e-38 364 68
0.043947294 0.55699998 0.16797633 1.6751127e-38 365 68
0.045246519 0.56099999 0.16918263 1.455244e-38 366 68
0.046312544 0.56199998 0.1694842 1.1048647e-38 367 68
0.047466241 0.56400001 0.17008737 1.3250877e-38 368 68
0.048541032 0.565 0.17038892 1.3527463e-38 369 68
0.049531665 0.565 0.17038892 1.3526388e-38 370 68
0.050611716 0.56599998 0.17069049 1.3526388e-38 371 68
0.051786453 0.56800002 0.17129366 1.3805473e-38 372 68
0.052782346 0.56800002 0.17129366 1.3805473e-38 373 68
0.053872917 0.56900001 0.17159523 1.33402e-38 374 68
0.05506343 0.57099998 0.17219837 1.4723135e-38 375 68
0.056260962 0.57300001 0.17280151 1.3908166e-38 376 68
0.057365555 0.574 0.17310308 1.298585e-38 377 68
0.058473662 0.57499999 0.17340466 1.3075897e-38 378 68
0.059585273 0.57599998 0.17370623 1.3075897e-38 379 68
0.0608056 0.57800001 0.17430939 1.2618515e-38 380 68
0.06213988 0.58099997 0.17521408 1.3909254e-38 381 68
0.063484691 0.58399999 0.17611882 1.3176381e-38 382 68
0.064619094 0.58499998 0.17642039 1.3176381e-38 383 68
0.065644793 0.58499998 0.17642039 1.3178192e-38 384 68
0.066784464 0.58600003 0.17672198 1.3731366e-38 385 68
0.067811921 0.58600003 0.17672198 1.4280207e-38 386 68
0.068956852 0.58700001 0.17702354 1.3450087e-38 387 68
0.070701413 0.59299999 0.17883298 1.2333984e-38 388 68
0.071741134 0.59299999 0.17883298 1.2057038e-38 389 68
0.072903596 0.59399998 0.17913455 1.3343797e-38 390 68
0.074069567 0.59500003 0.17943613 1.3251602e-38 391 68
0.075112805 0.59500003 0.17943613 1.4167807e-38 392 68
0.076284021 0.59600002 0.1797377 1.4260361e-38 393 68
0.077458762 0.597 0.18003927 1.4075249e-38 394 68
0.078505501 0.597 0.18003927 1.2415729e-38 395 68
0.079685487 0.59799999 0.18034084 1.5005168e-38 396 68
0.080733977 0.59799999 0.18034084 2.0445069e-38 397 68
-0.11512387 0.67000002 0.2008794 1.6417324e-38 222 69
-0.11360898 0.66799998 0.20027974 1.650952e-38 223 69
-0.11243775 0.66799998 0.20027974 1.5494999e-38 224 69
-0.11126653 0.66799998 0.20027974 1.4296456e-38 225 69
-0.10993049 0.667 0.19997993 1.4113494e-38 226 69
-0.10827184 0.66399997 0.19908047 1.4021299e-38 227 69
-0.10710762 0.66399997 0.19908047 1.4206411e-38 228 69
-0.10578386 0.66299999 0.19878066 1.4298607e-38 229 69
-0.1044636 0.662 0.19848084 1.4206774e-38 230 69
-0.10314685 0.66100001 0.19818102 1.4206774e-38 231 69
-0.1016793 0.65899998 0.19758137 1.4206424e-38 232 69
-0.10037132 0.65799999 0.19728155 1.4206424e-38 233 69
-0.098765261 0.65499997 0.19638209 1.4022762e-38 234 69
-0.097616829 0.65499997 0.19638209 1.4114957e-38 235 69
-0.096321113 0.65399998 0.19608228 1.3839809e-38 236 69
-0.095174432 0.65399998 0.19608228 1.3839809e-38 237 69
-0.093883984 0.653 0.19578245 1.4207157e-38 238 69
-0.092597038 0.65200001 0.19548264 1.4299353e-38 239 69
-0.091173328 0.64999998 0.19488299 1.4300071e-38 240 69
-0.090033658 0.64999998 0.19488299 1.4392267e-38 241 69
-0.088757232 0.64899999 0.19458316 1.4392983e-38 242 69
-0.087484315 0.648 0.19428335 1.4485179e-38 243 69
-0.086214907 0.64700001 0.19398354 1.4576283e-38 244 69
-0.084949002 0.64600003 0.19368371 1.4023109e-38 245 69
-0.083556846 0.64399999 0.19308408 1.4204594e-38 246 69
-0.082427703 0.64399999 0.19308408 1.3927648e-38 247 69
-0.081172317 0.64300001 0.19278426 1.4844547e-38 248 69
-0.079920441 0.64200002 0.19248444 1.4844547e-38 249 69
-0.078672059 0.64099997 0.1921846 1.4660512e-38 250 69
-0.077427194 0.63999999 0.19188479 1.4660512e-38 251 69
-0.076305062 0.63999999 0.19188479 1.4843827e-38 252 69
-0.07494799 0.63800001 0.19128515 1.4936024e-38 253 69
-0.073713638 0.63700002 0.19098534 1.5028223e-38 254 69
-0.07236883 0.63499999 0.1903857 1.4936027e-38 255 69
-0.07125546 0.63499999 0.1903857 1.4844547e-38 256 69
-0.070031643 0.634 0.19008587 1.4936743e-38 257 69
-0.068702616 0.63200003 0.18948625 1.4753434e-38 258 69
-0.067487545 0.63099998 0.18918641 1.4753434e-38 259 69
-0.066381201 0.63099998 0.18918641 1.4661957e-38 260 69
-0.065171398 0.63 0.18888658 1.4661957e-38 261 69
-0.064066797 0.63 0.18888658 1.4661601e-38 262 69
-0.06276232 0.62800002 0.18828696 1.4753796e-38 263 69
-0.061563037 0.62699997 0.18798712 1.5028941e-38 264 69
-0.060270831 0.625 0.1873875 1.4936746e-38 265 69
-0.059175 0.625 0.1873875 1.4569038e-38 266 69
-0.057986241 0.62400001 0.18708768 1.4108061e-38 267 69
-0.056800984 0.62300003 0.18678786 1.2634026e-38 268 69
-0.055619236 0.62199998 0.18648803 1.1896461e-38 269 69
-0.054528661 0.62199998 0.18648803 1.1900439e-38 270 69
-0.053352177 0.62099999 0.18618822 1.5219482e-38 271 69
-0.052263357 0.62099999 0.18618822 1.5957422e-38 272 69
-0.051092129 0.62 0.18588839 1.558864e-38 273 69
-0.049924415 0.61900002 0.18558858 1.5589005e-38 274 69
-0.0488391 0.61900002 0.18558858 1.5681202e-38 275 69
-0.047676638 0.61799997 0.18528874 1.5681205e-38 276 69
-0.046442289 0.616 0.1846891 1.5773401e-38 277 69
-0.0452886 0.61500001 0.18438929 1.5498612e-38 278 69
-0.044138417 0.61400002 0.18408948 1.5498612e-38 279 69
-0.042991728 0.61299998 0.18378966 1.5773401e-38 280 69
-0.041916937 0.61299998 0.18378966 1.5773401e-38 281 69
-0.040775519 0.61199999 0.18348983 1.5773404e-38 282 69
-0.039637607 0.611 0.18319002 1.5865599e-38 283 69
-0.038566317 0.611 0.18319002 1.5865597e-38 284 69
-0.037372299 0.60900003 0.18259038 1.641877e-38 285 69
-0.036244903 0.60799998 0.18229054 1.6325829e-38 286 69
-0.03512102 0.60699999 0.18199073 1.2914951e-38 287 69
-0.034000639 0.60600001 0.18169092 1.6303839e-38 288 69
-0.032829411 0.60399997 0.18109126 1.5566274e-38 289 69
-0.031770397 0.60399997 0.18109126 1.5924203e-38 290 69
-0.030660538 0.60299999 0.18079145 1.4541269e-38 291 69
-0.029603276 0.60299999 0.18079145 1.665094e-38 292 69
-0.028498679 0.602 0.18049164 1.665094e-38 293 69
-0.027397586 0.60100001 0.18019181 1.6650577e-38 294 69
-0.0263 0.60000002 0.179892 1.6650577e-38 295 69
-0.025205918 0.59899998 0.17959216 1.6651293e-38 296 69
-0.024155671 0.59899998 0.17959216 1.6651293e-38 297 69
-0.023105426 0.59899998 0.17959216 1.6467981e-38 298 69
-0.022018358 0.59799999 0.17929235 1.6467981e-38 299 69
-0.0209348 0.597 0.17899252 1.6560177e-38 300 69
-0.01988806 0.597 0.17899252 1.6560177e-38 301 69
-0.01880976 0.59600002 0.17869271 1.6743492e-38 302 69
-0.017764773 0.59600002 0.17869271 1.6651296e-38 303 69
-0.016691733 0.59500003 0.1783929 1.6558745e-38 304 69
-0.0156222 0.59399998 0.17809308 1.665094e-38 305 69
-0.014556173 0.59299999 0.17779325 1.6284681e-38 306 69
-0.013516447 0.59299999 0.17779325 1.6376877e-38 307 69
-0.012455679 0.59200001 0.17749344 1.646835e-38 308 69
-0.011417706 0.59200001 0.17749344 1.646835e-38 309 69
-0.0103622 0.59100002 0.17719363 1.6468697e-38 310 69
-0.0092944186 0.58899999 0.17659396 1.6376502e-38 311 69
-0.00824768 0.588 0.17629415 1.6469047e-38 312 69
-0.0072167199 0.588 0.17629415 1.6376852e-38 313 69
-0.00617524 0.58700001 0.17599434 1.6652e-38 314 69
-0.0051372666 0.58600003 0.17569451 1.6652e-38 315 69
-0.0041027996 0.58499998 0.17539468 1.6651644e-38 316 69
-0.0030770996 0.58499998 0.17539468 1.6651644e-38 317 69
-0.0020478931 0.58399999 0.17509487 1.6651644e-38 318 69
-0.0010239466 0.58399999 0.17509487 1.6743839e-38 319 69
0 0.58200002 0.17449524 1.6468334e-38 320 69
0.00102044 0.58200002 0.17449524 1.6468334e-38 321 69
0.0020373731 0.58099997 0.17419541 1.6560527e-38 322 69
0.0030507999 0.57999998 0.1738956 1.6560527e-38 323 69
0.004067733 0.57999998 0.1738956 1.6468331e-38 324 69
0.0050846664 0.57999998 0.1738956 1.6468331e-38 325 69
0.0060910797 0.579 0.17359579 1.6376502e-38 326 69
0.0070939865 0.57800001 0.17329596 1.6376502e-38 327 69
0.0080933869 0.57700002 0.17299615 1.6192114e-38 328 69
0.0090892799 0.57599998 0.17269631 1.6192114e-38 329 69
0.0100992 0.57599998 0.17269631 1.6467981e-38 330 69
0.011070547 0.574 0.17209667 1.6467981e-38 331 69
0.01207696 0.574 0.17209667 1.6559098e-38 332 69
0.01306058 0.57300001 0.17179686 1.6559098e-38 333 69
0.014040694 0.57200003 0.17149705 1.6467981e-38 334 69
0.0150436 0.57200003 0.17149705 1.6467981e-38 335 69
0.016018452 0.57099998 0.17119721 1.637578e-38 336 69
0.017019605 0.57099998 0.17119721 1.6283583e-38 337 69
0.0179892 0.56999999 0.17089739 1.6375417e-38 338 69
0.018955287 0.56900001 0.17059758 1.6191028e-38 339 69
0.019917866 0.56800002 0.17029777 1.6191387e-38 340 69
0.02084012 0.56599998 0.1696981 1.6283581e-38 341 69
0.021832505 0.56599998 0.1696981 1.6008075e-38 342 69
0.022784567 0.565 0.16939829 1.6008075e-38 343 69
0.023775198 0.565 0.16939829 1.5915522e-38 344 69
0.024765832 0.565 0.16939829 1.5915522e-38 345 69
0.025710881 0.56400001 0.16909848 1.5731492e-38 346 69
0.02665242 0.56300002 0.16879866 1.5731492e-38 347 69
0.027639547 0.56300002 0.16879866 1.5638939e-38 348 69
0.028575823 0.56199998 0.16849883 1.5546745e-38 349 69
0.029508598 0.56099999 0.16819902 1.5638222e-38 350 69
0.030437866 0.56 0.16789919 1.5638222e-38 351 69
0.031419732 0.56 0.16789919 1.5546745e-38 352 69
0.032343742 0.55900002 0.16759938 1.5546745e-38 353 69
0.033264238 0.55800003 0.16729957 1.5362715e-38 354 69
0.0342426 0.55800003 0.16729957 1.5362715e-38 355 69
0.035157841 0.55699998 0.16699973 1.5270162e-38 356 69
0.036134444 0.55699998 0.16699973 1.5270162e-38 357 69
0.037111048 0.55699998 0.16699973 1.4902103e-38 358 69
0.038019277 0.55599999 0.1666999 1.4902103e-38 359 69
0.038994133 0.55599999 0.1666999 1.462553e-38 360 69
0.039897099 0.55500001 0.16640009 1.4533334e-38 361 69
0.040870197 0.55500001 0.16640009 1.4625548e-38 362 69
0.041994084 0.55699998 0.16699973 1.480994e-38 363 69
0.042970691 0.55699998 0.16699973 1.4172874e-38 364 69
0.043947294 0.55699998 0.16699973 1.7676308e-38 365 69
0.045327172 0.56199998 0.16849883 1.5017378e-38 366 69
0.046394952 0.56300002 0.16879866 1.1052966e-38 367 69
0.047550395 0.565 0.16939829 1.2241783e-38 368 69
0.048541032 0.565 0.16939829 1.2979706e-38 369 69
0.049531665 0.565 0.16939829 1.3162678e-38 370 69
0.050611716 0.56599998 0.1696981 1.334743e-38 371 69
0.051695276 0.56699997 0.16999792 1.381489e-38 372 69
0.052782346 0.56800002 0.17029777 1.3999283e-38 373 69
0.053872917 0.56900001 0.17059758 1.2792101e-38 374 69
0.05506343 0.57099998 0.17119721 1.3069048e-38 375 69
0.056359146 0.574 0.17209667 1.3541898e-38 376 69
0.057365555 0.574 0.17209667 1.2619941e-38 377 69
0.058473662 0.57499999 0.1723965 1.2709636e-38 378 69
0.059585273 0.57599998 0.17269631 1.3078418e-38 379 69
0.060910795 0.579 0.17359579 1.2713601e-38 380 69
0.062246844 0.58200002 0.17449524 1.4280927e-38 381 69
0.063484691 0.58399999 0.17509487 1.3822467e-38 382 69
0.064619094 0.58499998 0.17539468 1.3454043e-38 383 69
0.065644793 0.58499998 0.17539468 1.3456561e-38 384 69
0.066784464 0.58600003 0.17569451 1.3179614e-38 385 69
0.067811921 0.58600003 0.17569451 1.3172779e-38 386 69
0.069074318 0.588 0.17629415 1.3080582e-38 387 69
0.070701413 0.59299999 0.17779325 1.2521629e-38 388 69
0.071741134 0.59299999 0.17779325 1.187626e-38 389 69
0.072903596 0.59399998 0.17809308 1.3617883e-38 390 69
0.074069567 0.59500003 0.1783929 1.3525687e-38 391 69
0.075112805 0.59500003 0.1783929 1.4167807e-38 392 69
0.076284021 0.59600002 0.17869271 1.4260361e-38 393 69
0.077588499 0.59799999 0.17929235 1.39827e-38 394 69
0.078636996 0.59799999 0.17929235 1.2691961e-38 395 69
0.07981874 0.59899998 0.17959216 1.5007336e-38 396 69
0.080868989 0.59899998 0.17959216 2.0354683e-38 397 69
-0.11512387 0.67000002 0.19970466 1.6601352e-38 222 70
-0.11360898 0.66799998 0.19910853 1.6877581e-38 223 70
-0.11243775 0.66799998 0.19910853 1.5311328e-38 224 70
-0.11126653 0.66799998 0.19910853 1.3836197e-38 225 70
-0.10993049 0.667 0.19881046 1.3284094e-38 226 70
-0.10876101 0.667 0.19881046 1.3561039e-38 227 70
-0.10710762 0.66399997 0.19791625 1.3562485e-38 228 70
-0.10578386 0.66299999 0.19761819 1.3654681e-38 229 70
-0.1044636 0.662 0.19732013 1.3838718e-38 230 70
-0.10314685 0.66100001 0.19702207 1.3838718e-38 231 70
-0.10198789 0.66100001 0.19702207 1.4113154e-38 232 70
-0.10052385 0.65899998 0.19642593 1.4113154e-38 233 70
-0.099066831 0.65700001 0.19582979 1.3654699e-38 234 70
-0.097616829 0.65499997 0.19523366 1.3746895e-38 235 70
-0.096321113 0.65399998 0.19493559 1.3839093e-38 236 70
-0.095174432 0.65399998 0.19493559 1.4023124e-38 237 70
-0.093883984 0.653 0.19463754 1.4114604e-38 238 70
-0.092739061 0.653 0.19463754 1.4206801e-38 239 70
-0.091173328 0.64999998 0.19374332 1.3932731e-38 240 70
-0.090033658 0.64999998 0.19374332 1.4117122e-38 241 70
-0.088757232 0.64899999 0.19344527 1.439263e-38 242 70
-0.087484315 0.648 0.1931472 1.4577381e-38 243 70
-0.086214907 0.64700001 0.19284913 1.4484813e-38 244 70
-0.084949002 0.64600003 0.19255108 1.4115672e-38 245 70
-0.083816342 0.64600003 0.19255108 1.4572299e-38 246 70
-0.082427703 0.64399999 0.19195493 1.4019125e-38 247 70
-0.08129856 0.64399999 0.19195493 1.4844183e-38 248 70
-0.080044925 0.64300001 0.19165686 1.4844183e-38 249 70
-0.0787948 0.64200002 0.1913588 1.4751985e-38 250 70
-0.077548169 0.64099997 0.19106072 1.484418e-38 251 70
-0.076305062 0.63999999 0.19076265 1.484418e-38 252 70
-0.07494799 0.63800001 0.19016652 1.484418e-38 253 70
-0.073713638 0.63700002 0.18986847 1.4844183e-38 254 70
-0.07236883 0.63499999 0.18927231 1.4936379e-38 255 70
-0.07125546 0.63499999 0.18927231 1.4844547e-38 256 70
-0.070031643 0.634 0.18897426 1.4844547e-38 257 70
-0.068920024 0.634 0.18897426 1.4661238e-38 258 70
-0.067594506 0.63200003 0.18837813 1.4753434e-38 259 70
-0.066381201 0.63099998 0.18808006 1.4753078e-38 260 70
-0.065274842 0.63099998 0.18808006 1.4660882e-38 261 70
-0.064066797 0.63 0.18778199 1.4753078e-38 262 70
-0.062862262 0.62900001 0.18748392 1.4753078e-38 263 70
-0.061563037 0.62699997 0.18688779 1.4936746e-38 264 70
-0.060270831 0.625 0.18629166 1.4660518e-38 265 70
-0.059175 0.625 0.18629166 1.465908e-38 266 70
-0.057986241 0.62400001 0.1859936 1.4198461e-38 267 70
-0.056800984 0.62300003 0.18569553 1.208229e-38 268 70
-0.055619236 0.62199998 0.18539746 1.1621313e-38 269 70
-0.054528661 0.62199998 0.18539746 1.2176306e-38 270 70
-0.053352177 0.62099999 0.18509939 1.5311317e-38 271 70
-0.052263357 0.62099999 0.18509939 1.5773751e-38 272 70
-0.051092129 0.62 0.18480133 1.5497163e-38 273 70
-0.050005067 0.62 0.18480133 1.5405693e-38 274 70
-0.0488391 0.61900002 0.18450327 1.549789e-38 275 70
-0.047676638 0.61799997 0.18420519 1.5681202e-38 276 70
-0.046442289 0.616 0.18360907 1.5681202e-38 277 70
-0.0452886 0.61500001 0.183311 1.5681205e-38 278 70
-0.044138417 0.61400002 0.18301293 1.5681205e-38 279 70
-0.043061867 0.61400002 0.18301293 1.5773404e-38 280 70
-0.041916937 0.61299998 0.18271486 1.5681208e-38 281 70
-0.040775519 0.61199999 0.1824168 1.5772685e-38 282 70
-0.039702479 0.61199999 0.1824168 1.5956716e-38 283 70
-0.038566317 0.611 0.18211873 1.5865597e-38 284 70
-0.037433665 0.61000001 0.18182068 1.6326575e-38 285 70
-0.036304522 0.60900003 0.18152261 1.5956684e-38 286 70
-0.035178877 0.60799998 0.18122451 1.2545445e-38 287 70
-0.034056745 0.60699999 0.18092647 1.6394592e-38 288 70
-0.032829411 0.60399997 0.18003225 1.5564473e-38 289 70
-0.031770397 0.60399997 0.18003225 1.5830928e-38 290 70
-0.030660538 0.60299999 0.17973419 1.454019e-38 291 70
-0.029603276 0.60299999 0.17973419 1.6558022e-38 292 70
-0.028498679 0.602 0.17943612 1.6558022e-38 293 70
-0.027397586 0.60100001 0.17913806 1.6557659e-38 294 70
-0.0263 0.60000002 0.17884001 1.674169e-38 295 70
-0.025205918 0.59899998 0.17854191 1.6558731e-38 296 70
-0.024155671 0.59899998 0.17854191 1.6558731e-38 297 70
-0.023105426 0.59899998 0.17854191 1.6559447e-38 298 70
-0.022055179 0.59899998 0.17854191 1.6375417e-38 299 70
-0.020969866 0.59799999 0.17824386 1.6559447e-38 300 70
-0.01988806 0.597 0.17794579 1.6559447e-38 301 70
-0.018841321 0.597 0.17794579 1.6558731e-38 302 70
-0.017764773 0.59600002 0.17764772 1.6466176e-38 303 70
-0.016719786 0.59600002 0.17764772 1.6466182e-38 304 70
-0.015648499 0.59500003 0.17734966 1.6558377e-38 305 70
-0.014580719 0.59399998 0.17705159 1.6375785e-38 306 70
-0.013516447 0.59299999 0.17675352 1.6375785e-38 307 70
-0.01247672 0.59299999 0.17675352 1.6559095e-38 308 70
-0.011417706 0.59200001 0.17645545 1.6559095e-38 309 70
-0.0103622 0.59100002 0.1761574 1.6192822e-38 310 70
-0.0092944186 0.58899999 0.17556125 1.6192822e-38 311 70
-0.0082617057 0.58899999 0.17556125 1.6376493e-38 312 70
-0.0072167199 0.588 0.1752632 1.6284299e-38 313 70
-0.00617524 0.58700001 0.17496513 1.6560164e-38 314 70
-0.0051372666 0.58600003 0.17466706 1.6560164e-38 315 70
-0.0041098134 0.58600003 0.17466706 1.6559805e-38 316 70
-0.0030770996 0.58499998 0.17436899 1.6559805e-38 317 70
-0.0020513998 0.58499998 0.17436899 1.6559447e-38 318 70
-0.0010239466 0.58399999 0.17407092 1.6652e-38 319 70
0 0.58200002 0.1734748 1.6559447e-38 320 70
0.00102044 0.58200002 0.1734748 1.6559447e-38 321 70
0.0020373731 0.58099997 0.17317672 1.6559447e-38 322 70
0.0030507999 0.57999998 0.17287865 1.6652e-38 323 70
0.004067733 0.57999998 0.17287865 1.6559447e-38 324 70
0.0050846664 0.57999998 0.17287865 1.6375417e-38 325 70
0.0060910797 0.579 0.1725806 1.6375417e-38 326 70
0.0070939865 0.57800001 0.17228253 1.6375417e-38 327 70
0.0080933869 0.57700002 0.17198446 1.6283223e-38 328 70
0.0090892799 0.57599998 0.1716864 1.6375417e-38 329 70
0.010081667 0.57499999 0.17138833 1.628394e-38 330 70
0.011070547 0.574 0.17109026 1.628394e-38 331 70
0.01207696 0.574 0.17109026 1.6466535e-38 332 70
0.01306058 0.57300001 0.17079221 1.6466535e-38 333 70
0.014040694 0.57200003 0.17049414 1.6191387e-38 334 70
0.0150436 0.57200003 0.17049414 1.6191387e-38 335 70
0.016018452 0.57099998 0.17019606 1.6191387e-38 336 70
0.017019605 0.57099998 0.17019606 1.6007357e-38 337 70
0.0179892 0.56999999 0.169898 1.6098834e-38 338 70
0.018955287 0.56900001 0.16959994 1.600664e-38 339 70
0.019917866 0.56800002 0.16930187 1.6099193e-38 340 70
0.02084012 0.56599998 0.16870573 1.6099193e-38 341 70
0.021832505 0.56599998 0.16870573 1.5915881e-38 342 70
0.022784567 0.565 0.16840766 1.5915881e-38 343 70
0.023775198 0.565 0.16840766 1.5822969e-38 344 70
0.024765832 0.565 0.16840766 1.5822969e-38 345 70
0.025710881 0.56400001 0.1681096 1.5914446e-38 346 70
0.02665242 0.56300002 0.16781154 1.5914446e-38 347 70
0.027639547 0.56300002 0.16781154 1.5730416e-38 348 70
0.028575823 0.56199998 0.16751345 1.5638222e-38 349 70
0.029508598 0.56099999 0.16721539 1.5546745e-38 350 70
0.030437866 0.56 0.16691732 1.5546745e-38 351 70
0.031419732 0.56 0.16691732 1.5362715e-38 352 70
0.032343742 0.55900002 0.16661926 1.5638939e-38 353 70
0.033264238 0.55800003 0.1663212 1.5546745e-38 354 70
0.0342426 0.55800003 0.1663212 1.5362715e-38 355 70
0.035220962 0.55800003 0.1663212 1.5362357e-38 356 70
